# .PCD v0.7 - Point Cloud Data file format
VERSION 0.7
FIELDS x y z
SIZE 4 4 4
TYPE F F F
COUNT 1 1 1
WIDTH 729
HEIGHT 1
VIEWPOINT 0 0 0 1 0 0 0
POINTS 729
DATA ascii
-0.40981716 -0.26690665 0.058075435
-0.41000584 -0.26686966 0.058174789
-0.41020504 -0.26683232 0.05826718
-0.41040239 -0.26679963 0.058327291
-0.41062623 -0.26675403 0.058457598
-0.4108277 -0.26671371 0.058569573
-0.41102165 -0.26667559 0.058672361
-0.41123238 -0.26663825 0.05875431
-0.41143084 -0.26659894 0.058861695
-0.41163433 -0.26656359 0.058935605
-0.41184798 -0.26652211 0.059045218
-0.41205308 -0.26648468 0.059132963
-0.41225916 -0.26644585 0.059229925
-0.41246316 -0.26640522 0.059341889
-0.41266972 -0.26636666 0.059436537
-0.41287139 -0.26633123 0.059512772
-0.34323692 -0.27451649 0.062739268
-0.34344551 -0.27448493 0.062780857
-0.34359923 -0.27445227 0.062880367
-0.34394148 -0.27443981 0.062661886
-0.34416699 -0.27441266 0.062656127
-0.34442583 -0.27439389 0.06255912
-0.34464049 -0.27436268 0.062592611
-0.3448661 -0.27433586 0.062584542
-0.34509811 -0.27430916 0.062569514
-0.34531319 -0.2742798 0.062589169
-0.34554178 -0.27426335 0.062502697
-0.34572193 -0.27423927 0.062515609
-0.34600553 -0.27420273 0.062525682
-0.34619108 -0.27416599 0.062626168
-0.34647217 -0.27415425 0.062457588
-0.34667468 -0.27412206 0.062509581
-0.34692022 -0.27409971 0.062450681
-0.34720457 -0.27408949 0.06226825
-0.3473936 -0.27405229 0.062368724
-0.34762469 -0.27402964 0.062324889
-0.34783089 -0.27399713 0.062375709
-0.34808189 -0.27397856 0.062284507
-0.34829569 -0.27394825 0.062312234
-0.34851438 -0.27392098 0.062313423
-0.34874597 -0.27389577 0.062288024
-0.34893662 -0.27386409 0.062346987
-0.34914288 -0.2738401 0.062335566
-0.34935725 -0.27381352 0.062335618
-0.34964296 -0.27379254 0.062230412
-0.34988025 -0.27377281 0.062160034
-0.35010761 -0.273747 0.06214273
-0.35032269 -0.2737194 0.062149696
-0.35057124 -0.2737 0.062066577
-0.35078213 -0.27367133 0.062085096
-0.35103562 -0.27365369 0.061984666
-0.35124943 -0.27362609 0.061992794
-0.35146981 -0.27360052 0.061980136
-0.35167253 -0.2735697 0.062021747
-0.35189396 -0.27354288 0.062017161
-0.35212484 -0.27352077 0.061969869
-0.35234657 -0.27349424 0.061962977
-0.35256484 -0.27346846 0.061953787
-0.35276803 -0.27343804 0.061991937
-0.35299936 -0.27341649 0.061940037
-0.35321027 -0.2733869 0.061965473
-0.35343391 -0.27336311 0.061936669
-0.35365623 -0.27333906 0.061911315
-0.35387936 -0.27331537 0.061882511
-0.35409811 -0.27328858 0.061880242
-0.35433099 -0.27326825 0.061817952
-0.35450336 -0.27323359 0.061915051
-0.35474995 -0.27322516 0.061753549
-0.35498932 -0.273193 0.061771929
-0.35518861 -0.27316198 0.061818175
-0.35544986 -0.27315 0.061669286
-0.355683 -0.2731306 0.061600078
-0.35588181 -0.27309963 0.061646327
-0.35608664 -0.27307075 0.061671793
-0.35628894 -0.27303919 0.061719172
-0.35650608 -0.27301466 0.061701924
-0.35670662 -0.27298445 0.06174124
-0.35695031 -0.27296942 0.061630484
-0.35712641 -0.27294189 0.06167224
-0.3573873 -0.27292016 0.061594822
-0.35758471 -0.27288905 0.061643373
-0.35781759 -0.27287078 0.0615661
-0.35802868 -0.27284858 0.061537355
-0.35826048 -0.27283788 0.061405912
-0.35849395 -0.27280501 0.061434694
-0.3586494 -0.27278176 0.061463866
-0.35888943 -0.27274364 0.061524883
-0.3591181 -0.27272463 0.061456859
-0.35931104 -0.27269027 0.061533101
-0.35953233 -0.27267849 0.061418995
-0.35974213 -0.27266452 0.061331473
-0.3599447 -0.27263796 0.061341956
-0.36019483 -0.2726002 0.061391398
-0.36041945 -0.27258044 0.061332621
-0.3606416 -0.27255985 0.061281912
-0.36084381 -0.27253148 0.061306238
-0.36104831 -0.27250201 0.061336309
-0.36126387 -0.27247909 0.061308697
-0.3614828 -0.2724556 0.061282221
-0.36169586 -0.27243188 0.061262682
-0.3619099 -0.27240866 0.061238538
-0.36213052 -0.27238828 0.061187841
-0.36235178 -0.27236623 0.061148662
-0.36254603 -0.27233502 0.061200701
-0.36276233 -0.27231109 0.061179996
-0.36300302 -0.27229977 0.061045039
-0.36320505 -0.27226996 0.061079741
-0.36340693 -0.27224225 0.061099462
-0.36362892 -0.27222124 0.061052214
-0.36378828 -0.27219433 0.061104428
-0.36406219 -0.27217701 0.06098314
-0.36425632 -0.27214614 0.061032869
-0.36446813 -0.27212322 0.061008729
-0.36467236 -0.27209693 0.061015755
-0.36488 -0.27207011 0.061023917
-0.36510894 -0.27205533 0.060924754
-0.36532623 -0.27203315 0.060890213
-0.36552528 -0.27200481 0.060916863
-0.36573899 -0.27198118 0.060896173
-0.36594981 -0.27195853 0.060870886
-0.36616424 -0.27193543 0.060845584
-0.36638433 -0.27191749 0.060777601
-0.36658585 -0.27188838 0.060807686
-0.36679903 -0.27186733 0.06076856
-0.36699682 -0.27183887 0.060797513
-0.3672038 -0.27181494 0.060784929
-0.36741871 -0.27179274 0.060752708
-0.36762035 -0.2717663 0.060763206
-0.36782035 -0.27173916 0.06078063
-0.36803803 -0.27171865 0.060733404
-0.36825472 -0.27169779 0.060689643
-0.36845833 -0.27168 0.060635574
-0.36867094 -0.27164999 0.06066215
-0.3688789 -0.2716274 0.060639188
-0.36909166 -0.27160496 0.060610428
-0.36929926 -0.27158239 0.060587466
-0.3694922 -0.271552 0.060634896
-0.3697069 -0.27153343 0.060576163
-0.36992037 -0.27151188 0.060540486
-0.37012967 -0.2714932 0.060487539
-0.37030706 -0.27146709 0.060517751
-0.37053859 -0.27144063 0.06050159
-0.37074134 -0.27141342 0.060516685
-0.37094957 -0.27139205 0.060484499
-0.37116089 -0.27136996 0.060454596
-0.37136519 -0.27134651 0.060440876
-0.37157488 -0.27132636 0.060398296
-0.37177071 -0.27129814 0.060427271
-0.37197724 -0.27127364 0.060419299
-0.37217778 -0.27124831 0.060422886
-0.37238991 -0.27122739 0.060383752
-0.37259191 -0.27120313 0.060378104
-0.37281522 -0.27118936 0.06027668
-0.37301266 -0.27116251 0.060294114
-0.3732132 -0.27113765 0.060294241
-0.37340823 -0.27110937 0.06032436
-0.37358677 -0.2710847 0.060343049
-0.37381184 -0.27106437 0.060287721
-0.37402287 -0.27104092 0.060268201
-0.37421629 -0.27101171 0.0603064
-0.37443528 -0.27099657 0.060218826
-0.37460351 -0.27096826 0.06027329
-0.37480992 -0.27095091 0.060213447
-0.37503999 -0.27092904 0.06016501
-0.37524554 -0.27090245 0.060173184
-0.37544787 -0.27087975 0.060156003
-0.37565082 -0.27085757 0.060134217
-0.3758527 -0.27083474 0.060118198
-0.37606719 -0.27081797 0.060046785
-0.37626389 -0.27079168 0.060060762
-0.37646332 -0.27076426 0.060080484
-0.37667021 -0.27074558 0.060029864
-0.376876 -0.27072623 0.059985008
-0.37707564 -0.27070242 0.059978224
-0.37725052 -0.27068263 0.059964649
-0.37745181 -0.27066353 0.059922114
-0.37767211 -0.27063623 0.059922144
-0.37786958 -0.27060777 0.059951104
-0.37807715 -0.27058396 0.059937358
-0.37828425 -0.27056664 0.05987636
-0.37847883 -0.27054283 0.059874214
-0.37867931 -0.27051702 0.059881259
-0.37886506 -0.27049303 0.059888378
-0.37908089 -0.27046961 0.059864216
-0.37925497 -0.27045006 0.059849497
-0.37947395 -0.27042955 0.059801102
-0.37967691 -0.27040631 0.059787393
-0.37986881 -0.27037713 0.05982675
-0.38009503 -0.27036348 0.05972185
-0.38027617 -0.27034336 0.059704781
-0.38046461 -0.27030751 0.059796035
-0.38067678 -0.27028927 0.059737317
-0.38088065 -0.27027127 0.0596844
-0.38107482 -0.27024829 0.059676487
-0.38127482 -0.27021924 0.059707738
-0.38148186 -0.27019688 0.059683632
-0.38168862 -0.27017838 0.059631854
-0.38187781 -0.27015489 0.059632033
-0.38207242 -0.27013284 0.059617206
-0.38228443 -0.27011192 0.059578083
-0.38248956 -0.27009249 0.059534378
-0.38268471 -0.27006719 0.0595426
-0.38287595 -0.27004632 0.059522029
-0.38306358 -0.27002606 0.059500314
-0.38326281 -0.27000529 0.05947163
-0.3834863 -0.26998472 0.059419766
-0.38368118 -0.2699596 0.059426844
-0.38387233 -0.26993036 0.059467364
-0.38405555 -0.26991475 0.059415698
-0.38424683 -0.26989022 0.059421644
-0.38446102 -0.26986447 0.05941594
-0.38466698 -0.26984322 0.059384912
-0.38484228 -0.26981893 0.059403613
-0.38503197 -0.26980236 0.059353068
-0.38522598 -0.2697767 0.059364766
-0.38544014 -0.26975143 0.059355594
-0.3856326 -0.26973388 0.05930965
-0.38583869 -0.2697137 0.059270557
-0.38602501 -0.2696887 0.05928459
-0.38621476 -0.26966816 0.059262864
-0.38640922 -0.26964879 0.059228443
-0.38661394 -0.26962754 0.059198584
-0.38681555 -0.26960221 0.05920101
-0.38701814 -0.26957282 0.05923225
-0.38720194 -0.26955003 0.059232458
-0.38740635 -0.2695345 0.059161093
-0.38759935 -0.26951972 0.059094399
-0.38778913 -0.2694889 0.059147611
-0.38799304 -0.26946759 0.059118904
-0.38817567 -0.2694495 0.059085689
-0.38838577 -0.26943216 0.059022363
-0.38857836 -0.26940575 0.059040982
-0.38877094 -0.26937935 0.05905959
-0.38897821 -0.26935807 0.059027404
-0.38916251 -0.26933727 0.059012625
-0.38935789 -0.26931572 0.058993183
-0.38955078 -0.26929006 0.059006032
-0.38975427 -0.26926956 0.058971558
-0.38995144 -0.26924479 0.058974013
-0.39013636 -0.26922581 0.058945395
-0.39034602 -0.26920316 0.05892127
-0.39054325 -0.26917884 0.058920257
-0.39072695 -0.26915795 0.058906645
-0.39092359 -0.26914021 0.058858372
-0.39111346 -0.26911682 0.058857396
-0.39131087 -0.26909328 0.058850627
-0.39150926 -0.269072 0.058826551
-0.39169818 -0.26903847 0.058900513
-0.39189476 -0.26903021 0.058783084
-0.39210042 -0.26900029 0.058815461
-0.39228442 -0.26898125 0.058788009
-0.3924745 -0.26896811 0.058712106
-0.39267892 -0.2689445 0.058699533
-0.39286762 -0.2689192 0.058713555
-0.39305991 -0.26889345 0.058727555
-0.39325774 -0.26887256 0.058701176
-0.39345109 -0.26884985 0.058692127
-0.39366618 -0.26883614 0.058597654
-0.3938477 -0.26881203 0.0586094
-0.39404392 -0.26878738 0.058611859
-0.3942394 -0.26876047 0.058631603
-0.39444017 -0.2687386 0.058609825
-0.39463779 -0.26871881 0.058575392
-0.39482728 -0.2686969 0.058564045
-0.39501852 -0.26868141 0.058504276
-0.3952094 -0.2686514 0.058550563
-0.39539945 -0.26863208 0.058519617
-0.39559183 -0.26860777 0.058523241
-0.39578825 -0.268585 0.058511861
-0.39598501 -0.2685639 0.058487803
-0.39617491 -0.26854524 0.058452249
-0.39638209 -0.26852226 0.058432743
-0.39657483 -0.26850057 0.058416773
-0.39676327 -0.26847544 0.058429644
-0.39695302 -0.26845777 0.058387175
-0.39715958 -0.26843265 0.058383808
-0.39735508 -0.26840633 0.058398943
-0.39754397 -0.26838434 0.058388758
-0.39773658 -0.26836345 0.058367018
-0.39794073 -0.26834825 0.058293357
-0.39812946 -0.26832658 0.058280863
-0.39832208 -0.26830789 0.058242995
-0.3985109 -0.26828814 0.058216669
-0.39870986 -0.26826203 0.05822717
-0.39890125 -0.26823038 0.058284979
-0.39909318 -0.26820439 0.058301292
-0.3992891 -0.26818451 0.058269165
-0.39948848 -0.26816469 0.058233563
-0.39968434 -0.26814798 0.05817838
-0.39987624 -0.26812291 0.058187775
-0.40006471 -0.26810381 0.058156844
-0.40025303 -0.26807776 0.058176622
-0.40045208 -0.26805624 0.058153704
-0.40065104 -0.26803616 0.058120411
-0.40083927 -0.26801834 0.058080256
-0.4010455 -0.26798549 0.058133375
-0.40122998 -0.26797116 0.058071345
-0.4014287 -0.26795077 0.058040351
-0.4016203 -0.26793081 0.058012851
-0.40181911 -0.26790679 0.058008384
-0.40201771 -0.26788566 0.05798316
-0.40221345 -0.26785615 0.058021348
-0.40239713 -0.26784411 0.05794318
-0.40259176 -0.26782581 0.057900682
-0.40278333 -0.26780301 0.057893932
-0.40300325 -0.26777688 0.057885893
-0.4031989 -0.26774946 0.057909101
-0.40339378 -0.26772797 0.057889663
-0.40357062 -0.2677103 0.057858787
-0.40377033 -0.26767999 0.057899259
-0.40395442 -0.26766032 0.057876423
-0.4041419 -0.26764086 0.057848945
-0.40433916 -0.26762447 0.057790294
-0.40452725 -0.26760113 0.057790488
-0.40472987 -0.26757458 0.057800978
-0.40492913 -0.26754782 0.057816096
-0.40511978 -0.26752892 0.057781696
-0.40530333 -0.26751056 0.057749629
-0.40549052 -0.26747692 0.057825908
-0.40569887 -0.26745585 0.057791412
-0.40588841 -0.26742744 0.057827335
-0.40607294 -0.26741815 0.057728402
-0.4062764 -0.26740161 0.057665117
-0.40647328 -0.26738352 0.057619143
-0.40665469 -0.26735973 0.057628594
-0.40684849 -0.26732907 0.057677176
-0.40703323 -0.267306 0.057678536
-0.40723339 -0.26728797 0.057629094
-0.40742615 -0.26727149 0.057575077
-0.40761599 -0.26725331 0.057536062
-0.40783101 -0.26722115 0.057576466
-0.40802443 -0.2672022 0.057539746
-0.40820858 -0.2671808 0.057529584
-0.4084028 -0.26715055 0.057574697
-0.40864319 -0.26710624 0.057680674
-0.40885094 -0.26708552 0.057643872
-0.40904915 -0.26704642 0.057750069
-0.40923426 -0.26701525 0.057810217
-0.4094469 -0.26697528 0.057909418
-0.40964812 -0.26693898 0.057992533
-0.40984699 -0.26690087 0.058090653
-0.41004243 -0.26686352 0.05818649
-0.41023389 -0.26682809 0.058271963
-0.41043526 -0.26679364 0.058341257
-0.41065887 -0.26674825 0.058470376
-0.41086033 -0.26670763 0.058584608
-0.41105714 -0.26667026 0.05867929
-0.4112646 -0.26663238 0.058768146
-0.41145888 -0.26659438 0.058869742
-0.41167289 -0.2665579 0.058942422
-0.41188297 -0.26651654 0.059054315
-0.4120878 -0.26647928 0.059140883
-0.41229004 -0.26644111 0.059236676
-0.41249746 -0.26640007 0.059348583
-0.41270319 -0.2663627 0.059435144
-0.41290963 -0.26632446 0.059527464
-0.34317037 -0.27452752 0.06271898
-0.34338346 -0.27449557 0.062759422
-0.34353638 -0.27446425 0.062849723
-0.34384993 -0.27444473 0.062708706
-0.34409982 -0.27442357 0.062637158
-0.34434748 -0.27440047 0.062581763
-0.3445597 -0.27437022 0.062610686
-0.34477717 -0.2743398 0.062636115
-0.34501565 -0.27431625 0.062592298
-0.34524488 -0.27428895 0.062584244
-0.345489 -0.27426711 0.062523097
-0.34566933 -0.27425086 0.062478404
-0.34593672 -0.27421176 0.062522039
-0.34612301 -0.27417523 0.062620245
-0.34637913 -0.27415693 0.062522158
-0.34660578 -0.27412948 0.062517576
-0.34681141 -0.27409813 0.062560365
-0.34713492 -0.27409667 0.062278677
-0.34731737 -0.27405933 0.062386122
-0.3475711 -0.2740396 0.062300719
-0.34775591 -0.27400294 0.062401235
-0.34800941 -0.27398339 0.062314697
-0.34823263 -0.27395731 0.062303223
-0.34845614 -0.27392977 0.062302109
-0.34867656 -0.27390307 0.062297564
-0.34888935 -0.27387434 0.06231495
-0.34906155 -0.27384567 0.062368281
-0.34929767 -0.27382529 0.062303722
-0.34952313 -0.27379704 0.062306069
-0.34983367 -0.273785 0.062113192
-0.35003257 -0.27375099 0.062181368
-0.35026622 -0.27372712 0.062144477
-0.35050768 -0.2737073 0.062070668
-0.35071608 -0.27367625 0.062108826
-0.35096222 -0.2736581 0.062018856
-0.35118005 -0.27362999 0.062027007
-0.35141236 -0.273608 0.061977446
-0.35161725 -0.27357787 0.062012166
-0.35182944 -0.27354997 0.062023789
-0.35206357 -0.27352712 0.061978839
-0.35228971 -0.27350369 0.061945446
-0.3525039 -0.27347493 0.061961677
-0.35270885 -0.27344507 0.061994098
-0.35294813 -0.2734243 0.061929513
-0.35315099 -0.27339393 0.061967701
-0.35337642 -0.27336898 0.061945837
-0.35360014 -0.27334538 0.061915912
-0.35382611 -0.27332258 0.061877921
-0.35403553 -0.27329457 0.061893016
-0.35427168 -0.27327353 0.061833065
-0.3544547 -0.27323881 0.061920919
-0.35469884 -0.27322957 0.061767556
-0.35492104 -0.27320251 0.061764158
-0.35512447 -0.27316386 0.061862275
-0.3553808 -0.27315202 0.061716929
-0.35563573 -0.27313817 0.061587729
-0.35581911 -0.27310196 0.061685953
-0.35604247 -0.27307761 0.061661795
-0.35624513 -0.27304804 0.061694212
-0.35645041 -0.27301943 0.061717406
-0.35665128 -0.27298933 0.061755612
-0.35690388 -0.27297556 0.061627574
-0.35709417 -0.27295497 0.061605886
-0.35733777 -0.27292526 0.061602376
-0.35754463 -0.27289757 0.061617486
-0.35776994 -0.27287471 0.061580643
-0.35797551 -0.27285048 0.061571553
-0.35822996 -0.27284235 0.061400861
-0.35844266 -0.27280951 0.061448224
-0.3586252 -0.27278671 0.061449617
-0.35883462 -0.27275267 0.061508529
-0.35907289 -0.27272758 0.061476231
-0.3592751 -0.27269873 0.061504047
-0.35950008 -0.27267858 0.061447609
-0.35970262 -0.27267164 0.061315201
-0.35989982 -0.27264306 0.061345346
-0.36014447 -0.27260518 0.061400615
-0.36037046 -0.27258396 0.061351091
-0.3605926 -0.2725634 0.061300434
-0.36080137 -0.27253562 0.061314385
-0.36100405 -0.27250749 0.061336443
-0.36122048 -0.27248493 0.0613054
-0.36143547 -0.27246189 0.061278977
-0.36164463 -0.27243456 0.061289478
-0.36186603 -0.27241439 0.061236508
-0.36207694 -0.27238792 0.061238922
-0.36230984 -0.27237281 0.061138645
-0.36250758 -0.27234101 0.061191842
-0.36270666 -0.2723119 0.061224282
-0.36296386 -0.27230549 0.061038595
-0.36315513 -0.27227324 0.061101042
-0.3633655 -0.27224922 0.06108617
-0.36357313 -0.2722241 0.061081689
-0.36376515 -0.27219647 0.061109558
-0.36402148 -0.27218655 0.060950376
-0.36421043 -0.27215126 0.061037041
-0.36441776 -0.27212635 0.061031409
-0.36463317 -0.27210295 0.061007291
-0.3648271 -0.27207211 0.061057054
-0.36505499 -0.27205682 0.060962554
-0.36526871 -0.27203524 0.060926918
-0.36547557 -0.27200833 0.060936272
-0.36568654 -0.27198565 0.06091103
-0.36589819 -0.27196115 0.060898446
-0.36610773 -0.271938 0.06087783
-0.36633688 -0.27192211 0.06078678
-0.36653352 -0.27189296 0.060821548
-0.36674976 -0.27187344 0.060768604
-0.36694622 -0.27184433 0.060803369
-0.36715743 -0.27182019 0.060788497
-0.36736217 -0.2717953 0.060785178
-0.36757109 -0.27177018 0.060779527
-0.36777934 -0.2717472 0.060758904
-0.36797133 -0.27172559 0.060742974
-0.36819732 -0.27170235 0.060708433
-0.36841622 -0.2716828 0.060653172
-0.36861375 -0.27165467 0.06067986
-0.36883005 -0.27163401 0.060634993
-0.36903924 -0.2716122 0.060605146
-0.36925268 -0.27159029 0.060571812
-0.36944744 -0.27156094 0.060610048
-0.36964577 -0.27153856 0.060594078
-0.36986676 -0.27151859 0.060539968
-0.37007579 -0.27149725 0.060506657
-0.37026992 -0.2714754 0.060490716
-0.37048876 -0.271447 0.060500003
-0.37068564 -0.27141911 0.060525544
-0.37088916 -0.27139246 0.060536064
-0.37110242 -0.27137408 0.060477376
-0.37131879 -0.27135769 0.060401395
-0.37152082 -0.2713331 0.060398087
-0.37171698 -0.27130246 0.06044437
-0.37190047 -0.271283 0.06042042
-0.37212875 -0.27125549 0.060414672
-0.37233347 -0.27123281 0.060395226
-0.37253413 -0.27120778 0.060396533
-0.37275264 -0.2711938 0.060300943
-0.37295914 -0.27117261 0.060268797
-0.37316331 -0.27114731 0.060268946
-0.37335944 -0.27111697 0.06031293
-0.37355298 -0.27109629 0.060288917
-0.37371734 -0.271074 0.060303088
-0.37397015 -0.27104899 0.060256887
-0.37416393 -0.27101722 0.060313568
-0.37437236 -0.270998 0.060265273
-0.37455642 -0.27098322 0.060206734
-0.37476367 -0.2709547 0.060227606
-0.37495929 -0.27093911 0.060164399
-0.37519044 -0.27090922 0.060173631
-0.37538925 -0.2708841 0.060177259
-0.37559715 -0.27086541 0.060125515
-0.37579095 -0.27083695 0.060157984
-0.37600234 -0.27082103 0.060083166
-0.37621281 -0.27080157 0.060034867
-0.37639898 -0.27076772 0.060113482
-0.37660533 -0.27074862 0.060066361
-0.3768113 -0.27072939 0.06002038
-0.37701634 -0.27070966 0.059979033
-0.37720677 -0.27068874 0.059959643
-0.37739596 -0.27067348 0.059899926
-0.37761229 -0.27064317 0.059925374
-0.37780461 -0.27061743 0.059939407
-0.37801701 -0.27059078 0.059941813
-0.37822169 -0.27057156 0.059897002
-0.37842381 -0.27055046 0.059868339
-0.37861937 -0.27052414 0.059883505
-0.37880656 -0.27050141 0.059880286
-0.37901002 -0.27047476 0.059890799
-0.37921005 -0.27045232 0.059873674
-0.37939769 -0.27043724 0.059813969
-0.37961021 -0.27041501 0.059784092
-0.37979183 -0.27038789 0.059817776
-0.38001302 -0.27036253 0.059802853
-0.38022563 -0.27035183 0.059688844
-0.38039297 -0.27031952 0.059773315
-0.38059935 -0.27029234 0.059784967
-0.38080612 -0.27027696 0.059710182
-0.38100603 -0.27025551 0.059686139
-0.38120615 -0.27023053 0.059687462
-0.38138145 -0.27020544 0.059711948
-0.38161123 -0.27018535 0.059650872
-0.38180733 -0.27016467 0.059624553
-0.38200074 -0.27014145 0.05961898
-0.38220584 -0.27011776 0.059606444
-0.38240469 -0.27009612 0.059584714
-0.38260072 -0.27007592 0.059554927
-0.38280228 -0.27005312 0.059538949
-0.38299191 -0.27003497 0.059499979
-0.38318345 -0.27001041 0.059505947
-0.38338208 -0.26999354 0.059449628
-0.38359809 -0.26996943 0.059430126
-0.38379288 -0.26994434 0.05943723
-0.38397872 -0.26991826 0.059459366
-0.38416681 -0.26990378 0.059395038
-0.38435608 -0.26987258 0.05945174
-0.38458243 -0.26985636 0.059365325
-0.38476989 -0.26982301 0.059439313
-0.38494274 -0.26980534 0.059411958
-0.38514084 -0.26978946 0.059348725
-0.385333 -0.26976657 0.059342023
-0.38552967 -0.26973951 0.059361801
-0.38575295 -0.269721 0.059294984
-0.38593405 -0.26969945 0.059288338
-0.38611552 -0.26967853 0.059277058
-0.38631248 -0.26965725 0.059254188
-0.38651454 -0.26963773 0.059214003
-0.38671646 -0.26961285 0.059212998
-0.38692021 -0.26958522 0.059230439
-0.38711771 -0.26955977 0.059237532
-0.38729182 -0.26954007 0.059223991
-0.387508 -0.26953048 0.059098437
-0.38768816 -0.26950291 0.059136733
-0.38787442 -0.26947853 0.059146188
-0.38808191 -0.26945692 0.059116345
-0.38827047 -0.26943621 0.059096977
-0.38847485 -0.26942226 0.059014127
-0.3886722 -0.2693913 0.059061565
-0.38886258 -0.26936769 0.059061773
-0.38906837 -0.26935053 0.059000824
-0.38925326 -0.26932445 0.059024118
-0.38944578 -0.26930481 0.058993194
-0.38964084 -0.26928315 0.05897494
-0.38983786 -0.26925826 0.058978576
-0.39002952 -0.26923764 0.058955722
-0.39022017 -0.26921526 0.058946718
-0.39042673 -0.26919422 0.058913417
-0.39061829 -0.2691665 0.058942445
-0.39081186 -0.26915026 0.058886163
-0.39100423 -0.2691319 0.058846019
-0.39119616 -0.26910511 0.058868125
-0.39139429 -0.26908338 0.05884755
-0.39158443 -0.26905268 0.058899641
-0.39176962 -0.26903585 0.058854923
-0.39198765 -0.26901689 0.058796212
-0.39216861 -0.26899096 0.05882182
-0.3923552 -0.26897839 0.058744825
-0.39255351 -0.26895824 0.058712728
-0.39275387 -0.26893416 0.058707118
-0.39293563 -0.2689105 0.058715448
-0.39312869 -0.26888704 0.058712188
-0.39332575 -0.26886433 0.05869969
-0.39353046 -0.26884243 0.058674477
-0.3937223 -0.26882654 0.058617044
-0.39391592 -0.26880553 0.058595341
-0.39410371 -0.26877812 0.058625534
-0.39431068 -0.2687526 0.058624513
-0.39450768 -0.26873088 0.058605094
-0.39469799 -0.26871184 0.058571883
-0.39488757 -0.26869053 0.058555957
-0.39508179 -0.26867291 0.058508895
-0.39526227 -0.26864564 0.058544882
-0.39545575 -0.26862574 0.058515117
-0.39564407 -0.26860017 0.058531478
-0.39584449 -0.26857924 0.058502823
-0.39603761 -0.26855877 0.058477663
-0.39623132 -0.2685414 0.058429446
-0.39643139 -0.26852006 0.058404256
-0.39662656 -0.2684927 0.058427498
-0.39680803 -0.26846984 0.05843005
-0.39700174 -0.26845452 0.05836685
-0.39719698 -0.26842746 0.058387786
-0.39739612 -0.26840198 0.058393717
-0.39758846 -0.26837954 0.058383554
-0.39778131 -0.26836082 0.058345716
-0.39798164 -0.2683453 0.058277868
-0.39816982 -0.26831976 0.058294229
-0.3983663 -0.26830438 0.058228709
-0.39855129 -0.26828316 0.05821627
-0.39874655 -0.2682569 0.058231436
-0.39894149 -0.26822561 0.0582835
-0.39912644 -0.26820377 0.058275677
-0.39932919 -0.26818085 0.058259681
-0.39952126 -0.26815987 0.058239136
-0.39972061 -0.26814336 0.058179371
-0.39990529 -0.26811901 0.058189981
-0.40009728 -0.26810074 0.058149848
-0.40028554 -0.26808006 0.058130469
-0.40048444 -0.26805428 0.058138713
-0.40067974 -0.26803496 0.058103167
-0.400875 -0.2680136 0.058082607
-0.40107408 -0.26798132 0.058138102
-0.40126184 -0.2679705 0.058047269
-0.40145719 -0.2679444 0.058061283
-0.4016557 -0.26792544 0.058019958
-0.40184352 -0.2679069 0.057985611
-0.4020493 -0.26788217 0.057979982
-0.40223771 -0.26785517 0.058006715
-0.4024286 -0.2678397 0.057946987
-0.40262312 -0.26782188 0.057901077
-0.40281817 -0.26779816 0.057897802
-0.40302724 -0.26777446 0.05788178
-0.40322313 -0.26774448 0.057923466
-0.40341792 -0.26772317 0.05790291
-0.40360168 -0.26770541 0.057866264
-0.40379024 -0.26767886 0.057889536
-0.40397766 -0.26765957 0.057860948
-0.40416187 -0.26763844 0.057848517
-0.40436247 -0.26762211 0.057786435
-0.40455398 -0.26759866 0.05778433
-0.40475699 -0.26756969 0.057812151
-0.40495214 -0.26754564 0.057811186
-0.40513921 -0.26752687 0.057779133
-0.40531912 -0.26750895 0.057747126
-0.40552017 -0.26747471 0.057815291
-0.40572158 -0.26745337 0.057788942
-0.40591088 -0.26742563 0.057820275
-0.40609437 -0.26741976 0.057697188
-0.40630171 -0.26740101 0.057646602
-0.40649927 -0.2673803 0.057619113
-0.4066768 -0.2673578 0.057622846
-0.40686679 -0.26732805 0.057668019
-0.40705332 -0.26730981 0.05763251
-0.40725043 -0.26729026 0.057596959
-0.40744331 -0.26727298 0.057548746
-0.4076409 -0.26725164 0.057525873
-0.40784615 -0.26721796 0.057585943
-0.40804255 -0.26720008 0.057538871
-0.40822706 -0.26717734 0.057537962
-0.40842098 -0.26714778 0.0575785
-0.40866104 -0.26710412 0.057679903
-0.40886939 -0.26708162 0.057655819
-0.40906292 -0.26704559 0.057743609
-0.40925506 -0.26701355 0.057803754
-0.40946794 -0.26697278 0.057908751
-0.40966895 -0.26693678 0.057989586
-0.40986469 -0.26689798 0.058095817
-0.41005993 -0.26686096 0.058189377
-0.41025475 -0.26682544 0.058272555
-0.41045275 -0.26679075 0.058346491
-0.41067579 -0.26674637 0.058468726
-0.41087711 -0.26670593 0.058581844
-0.4110736 -0.26666906 0.058673084
-0.41128165 -0.26662984 0.058771178
-0.41147861 -0.2665931 0.058861271
-0.41169322 -0.26655528 0.058943205
-0.41189888 -0.2665157 0.059045926
-0.41210291 -0.26647982 0.059123293
-0.41230577 -0.2664403 0.059228335
-0.41251415 -0.26639739 0.059352942
-0.4127177 -0.26636377 0.059414178
-0.41292655 -0.26632112 0.059536483
-0.34318289 -0.27452788 0.062705107
-0.34340641 -0.27449858 0.062716685
-0.34357089 -0.27446869 0.062786192
-0.34385946 -0.27444324 0.062710978
-0.34410131 -0.27442023 0.06266021
-0.34434226 -0.27439559 0.062622115
-0.34454489 -0.27436304 0.062676445
-0.34477139 -0.27433497 0.062676482
-0.34503645 -0.27431828 0.062558725
-0.34525821 -0.27428922 0.062570311
-0.34550527 -0.27426827 0.062499911
-0.34571472 -0.2742565 0.062396269
-0.34595963 -0.27421337 0.062489584
-0.34614182 -0.27417433 0.062609732
-0.3463881 -0.27415362 0.062538192
-0.34661973 -0.27412918 0.062507063
-0.34682095 -0.27409524 0.062572926
-0.34714532 -0.27409413 0.062287726
-0.3473331 -0.27405837 0.062379017
-0.34758887 -0.27403933 0.062286682
-0.34777492 -0.27400312 0.062382594
-0.3480157 -0.27398026 0.062331825
-0.34824732 -0.27395663 0.062294934
-0.34846652 -0.27392802 0.062305376
-0.34869406 -0.27390346 0.062278889
-0.34889865 -0.27387258 0.062319376
-0.34909517 -0.27384597 0.062335696
-0.34931374 -0.27382571 0.062286194
-0.3495906 -0.27379742 0.062242165
-0.34985563 -0.27378246 0.062111728
-0.35005894 -0.27375156 0.062153377
-0.35029447 -0.2737284 0.062109552
