# .PCD v0.7 - Point Cloud Data file format
VERSION 0.7
FIELDS x y z
SIZE 4 4 4
TYPE F F F
COUNT 1 1 1
WIDTH 1218
HEIGHT 1
VIEWPOINT 0 0 0 1 0 0 0
POINTS 1218
DATA ascii
-0.063727796 -0.43692869 0.057556327
-0.063830532 -0.43697378 0.057741545
-0.063971519 -0.43706089 0.057844609
-0.064126849 -0.43716556 0.057906054
-0.064290583 -0.43728396 0.057922449
-0.064471565 -0.43742499 0.057879888
-0.064649522 -0.43756127 0.057852346
-0.064830445 -0.43770263 0.057807483
-0.065013848 -0.43784833 0.057747602
-0.065196134 -0.43799245 0.057692342
-0.065377928 -0.43813601 0.057638235
-0.065558225 -0.43827727 0.057591066
-0.065738067 -0.43841803 0.057545047
-0.065918863 -0.43856066 0.057492107
-0.066107094 -0.43871611 0.057395272
-0.066282496 -0.4388501 0.057370055
-0.066456899 -0.43898261 0.057349455
-0.066634685 -0.43912104 0.05730807
-0.066809677 -0.43925494 0.057281695
-0.066984102 -0.43938494 0.057276107
-0.067154676 -0.43950841 0.057292469
-0.067327023 -0.43962878 0.057335351
-0.067504317 -0.43976417 0.057310123
-0.067689314 -0.43988138 0.057427943
-0.067842782 -0.43997505 0.0575471
-0.067999795 -0.44007808 0.057625845
-0.068160564 -0.44018775 0.057681486
-0.073803149 -0.44404113 0.059608199
-0.073968619 -0.44416064 0.059625737
-0.074134573 -0.44428128 0.059638657
-0.074303702 -0.44440445 0.059650399
-0.074456953 -0.44451106 0.059691083
-0.07458432 -0.44460136 0.0597146
-0.074809693 -0.4447853 0.05961179
-0.074974649 -0.44490442 0.059629332
-0.075139396 -0.44502321 0.059648026
-0.075311653 -0.44515893 0.059598591
-0.075477347 -0.44528013 0.059606895
-0.075647548 -0.445407 0.059601322
-0.075806797 -0.44552806 0.059581958
-0.07597293 -0.44565558 0.059554495
-0.076129578 -0.44577107 0.059557073
-0.076266773 -0.44586578 0.059597846
-0.076459974 -0.44600794 0.059602533
-0.076636255 -0.44616032 0.059471142
-0.076780222 -0.44625637 0.059533812
-0.07699237 -0.44642955 0.059436843
-0.07716836 -0.44657245 0.059360839
-0.077300601 -0.44665578 0.059447803
-0.077455491 -0.44675782 0.059523102
-0.077616833 -0.44688642 0.05946796
-0.077784523 -0.44700968 0.059472784
-0.077984795 -0.44716635 0.059422038
-0.078153931 -0.44729376 0.0594084
-0.078308858 -0.44742396 0.059315208
-0.078462899 -0.44752982 0.059363969
-0.078616515 -0.44764593 0.059349261
-0.078787491 -0.44776759 0.059378307
-0.078949049 -0.44788766 0.059375092
-0.079151206 -0.4480519 0.059287414
-0.079290912 -0.44815519 0.059287786
-0.079465114 -0.44828638 0.059274107
-0.079652578 -0.44843605 0.059208434
-0.079806268 -0.44855416 0.059182182
-0.079964347 -0.44867861 0.059137441
-0.080122367 -0.44879049 0.059167713
-0.080282077 -0.44890726 0.059176054
-0.08045356 -0.4490453 0.059109312
-0.08062426 -0.44916829 0.059129134
-0.080780342 -0.44928837 0.059101716
-0.080946922 -0.44941291 0.059093852
-0.081128046 -0.44956118 0.059008602
-0.081293307 -0.44966125 0.059141528
-0.081447892 -0.44978485 0.059086427
-0.081584521 -0.44988859 0.059070669
-0.081764773 -0.45002848 0.059031568
-0.081966586 -0.4501861 0.058981966
-0.082117811 -0.45031565 0.058876116
-0.082253374 -0.45040184 0.058960747
-0.082428545 -0.45052642 0.058990922
-0.082595333 -0.45067042 0.058867656
-0.082754873 -0.45079035 0.058856383
-0.082923234 -0.45091662 0.058846209
-0.083090588 -0.45103964 0.058851045
-0.083275706 -0.45117545 0.058858074
-0.083437838 -0.45130596 0.058794849
-0.083569758 -0.45139599 0.058840275
-0.083719902 -0.4515003 0.058880977
-0.083903894 -0.45165107 0.058793396
-0.084057659 -0.45176035 0.058820225
-0.084231593 -0.4518919 0.0588031
-0.084399037 -0.45202714 0.058735229
-0.084559381 -0.45214403 0.058745869
-0.08471626 -0.45226699 0.058704603
-0.08487387 -0.45237276 0.058769494
-0.085024476 -0.4525013 0.058667097
-0.085204042 -0.45263857 0.058640696
-0.085378811 -0.45276594 0.05865242
-0.085536353 -0.45288303 0.058649227
-0.085687689 -0.45300654 0.058580294
-0.085839614 -0.4531216 0.058564432
-0.085996687 -0.45323759 0.05856587
-0.086163163 -0.45335034 0.058628395
-0.086312965 -0.45348135 0.058507543
-0.086473972 -0.45359233 0.058556262
-0.086667411 -0.45374048 0.05852633
-0.086818576 -0.45385382 0.058517404
-0.086980559 -0.45397055 0.058536112
-0.087127216 -0.45408845 0.058479898
-0.087282553 -0.45419699 0.058518264
-0.087442406 -0.45433354 0.058408894
-0.087614641 -0.45446751 0.058369845
-0.087777525 -0.45457488 0.058448561
-0.087925792 -0.45468974 0.058417726
-0.088094026 -0.45481592 0.058407553
-0.088261455 -0.45493668 0.058426231
-0.088415116 -0.45507461 0.058281116
-0.088563778 -0.45517492 0.058339141
-0.088730253 -0.45528901 0.058393598
-0.088914745 -0.45544302 0.058288705
-0.089065053 -0.45555824 0.058264785
-0.089225791 -0.45567021 0.058306575
-0.089371316 -0.45579362 0.058212288
-0.089526743 -0.455908 0.058216028
-0.089681864 -0.45601928 0.058237087
-0.089850023 -0.45615581 0.058164597
-0.090011172 -0.45627519 0.058163695
-0.090180688 -0.45639557 0.0581939
-0.090337083 -0.45652956 0.058084548
-0.090487406 -0.45665982 0.05797061
-0.090647191 -0.45676029 0.058077037
-0.090805106 -0.45687804 0.058071535
-0.0909748 -0.45700839 0.058042891
-0.091135524 -0.4571296 0.058029298
-0.091298968 -0.45724779 0.058045689
-0.091450743 -0.4573583 0.058056373
-0.091608435 -0.45748129 0.058018565
-0.091765963 -0.45759857 0.058014218
-0.09190888 -0.45771351 0.057959184
-0.09206336 -0.4578245 0.057979085
-0.092217751 -0.45794311 0.057952836
-0.092383713 -0.45806935 0.057932287
-0.092538022 -0.45818329 0.057933725
-0.092697881 -0.45830944 0.057886675
-0.0928578 -0.45842984 0.05787424
-0.093011841 -0.45854571 0.05786299
-0.093177415 -0.45867088 0.05784706
-0.093337178 -0.45879021 0.057840385
-0.09349069 -0.45891127 0.057795674
-0.093639657 -0.45900851 0.057873316
-0.093789369 -0.45913696 0.057767462
-0.093949184 -0.45925248 0.057783872
-0.094105206 -0.45937541 0.057739146
-0.094261646 -0.45949265 0.05773019
-0.094412059 -0.45960736 0.057709727
-0.094577648 -0.45972601 0.057733037
-0.094745561 -0.45985156 0.057725176
-0.094892211 -0.45996925 0.057670109
-0.095039673 -0.46007985 0.057661206
-0.095204175 -0.4602052 0.057639513
-0.095357344 -0.46031985 0.057631727
-0.095513165 -0.46043777 0.057615854
-0.0956662 -0.46051416 0.05783657
-0.095807292 -0.46066052 0.057585351
-0.095971212 -0.46080449 0.057449423
-0.096136555 -0.46092218 0.057477344
-0.096297674 -0.46102807 0.057557218
-0.09643846 -0.46113622 0.05753335
-0.096599482 -0.461274 0.057421662
-0.096761249 -0.46136284 0.057606548
-0.096917622 -0.46150491 0.05744873
-0.09707731 -0.4616178 0.057480142
-0.097228467 -0.46173751 0.057433143
-0.097393006 -0.46187115 0.057361819
-0.09754242 -0.46197069 0.05742792
-0.097702384 -0.46209496 0.057392396
-0.097846337 -0.46217772 0.057534691
-0.09799131 -0.46231672 0.057344623
-0.098160662 -0.46244395 0.057333283
-0.098327309 -0.46257934 0.057260796
-0.098472804 -0.46268058 0.057299227
-0.09861178 -0.4627907 0.057255745
-0.098761462 -0.46290082 0.057259522
-0.098920137 -0.46301624 0.057271328
-0.099068873 -0.46313876 0.057196636
-0.099238023 -0.46325541 0.057247616
-0.09939386 -0.46337801 0.057204053
-0.099555381 -0.46350461 0.057161603
-0.099695116 -0.46361104 0.057143502
-0.0998464 -0.4637256 0.057127655
-0.10001064 -0.46382764 0.057244439
-0.10015069 -0.46395046 0.057129409
-0.10031795 -0.46408018 0.057093848
-0.10046939 -0.46419391 0.057083771
-0.10061847 -0.46430436 0.057082944
-0.10078052 -0.46442017 0.057107419
-0.10093395 -0.46454543 0.057037313
-0.1010866 -0.46465638 0.057049152
-0.10123413 -0.46476954 0.057025246
-0.10138866 -0.4648844 0.057022072
-0.10156489 -0.46500379 0.057088017
-0.10170383 -0.46511039 0.057065312
-0.10185709 -0.46524167 0.056958288
-0.10200697 -0.46535715 0.0569309
-0.10216428 -0.46547386 0.056928869
-0.1023142 -0.46558225 0.056944177
-0.10247044 -0.46571401 0.056847528
-0.10261796 -0.46582597 0.056830544
-0.1027697 -0.46594438 0.056793913
-0.10292627 -0.46604902 0.056861117
-0.10307165 -0.46617657 0.05674145
-0.10322882 -0.46628049 0.056815576
-0.10338932 -0.46640459 0.056783512
-0.10355355 -0.46652338 0.056799907
-0.10370132 -0.46662861 0.056824468
-0.10385091 -0.46673155 0.056870945
-0.10399161 -0.46685198 0.056773216
-0.10414678 -0.46698233 0.056680031
-0.10431378 -0.46709761 0.056729868
-0.10446318 -0.46720654 0.056739416
-0.10460839 -0.46733707 0.056601275
-0.10476909 -0.46745437 0.056610756
-0.10492186 -0.46756467 0.056627218
-0.10507888 -0.46768621 0.056595176
-0.10523365 -0.46779433 0.056633551
-0.10539738 -0.4679189 0.056613009
-0.10553873 -0.46803114 0.056567207
-0.10569418 -0.46814382 0.056581341
-0.10583904 -0.46825728 0.0565436
-0.10600109 -0.4683733 0.056566928
-0.1061618 -0.46849564 0.056546405
-0.10630481 -0.46861064 0.056491371
-0.10645822 -0.46872047 0.056513589
-0.10661709 -0.46884432 0.056475766
-0.10677636 -0.46895829 0.056499112
-0.10692377 -0.46908289 0.056405962
-0.10707732 -0.46919724 0.056401636
-0.10722405 -0.4692992 0.056441206
-0.10737528 -0.46941105 0.056441512
-0.10752942 -0.46953392 0.056388725
-0.10766698 -0.46964797 0.056315247
-0.10783552 -0.4697634 0.056370843
-0.10797894 -0.46988565 0.056274258
-0.10813737 -0.46999609 0.056314923
-0.10828286 -0.47011641 0.056239091
-0.10844228 -0.47022623 0.056287818
-0.10859037 -0.47034442 0.056236215
-0.10876582 -0.47046787 0.056274466
-0.10890998 -0.47058043 0.056239039
-0.10905112 -0.47069502 0.056178242
-0.10918198 -0.4708043 0.056103647
-0.10935791 -0.47091153 0.05624114
-0.10952204 -0.4710387 0.056206759
-0.10967219 -0.47114727 0.056222074
-0.1098226 -0.47126737 0.056169298
-0.1099712 -0.47138074 0.056148846
-0.11012684 -0.47150895 0.056070656
-0.11027838 -0.47162047 0.056074418
-0.11041914 -0.47173071 0.056037862
-0.11057884 -0.47184131 0.056083128
-0.11072614 -0.47195527 0.056053452
-0.1108839 -0.47207081 0.056060642
-0.11103386 -0.47218692 0.0560298
-0.11118636 -0.47230163 0.056018557
-0.11133948 -0.47241604 0.056011923
-0.11151342 -0.47254124 0.056032881
-0.11165828 -0.47265628 0.055985909
-0.11180337 -0.47277108 0.055941243
-0.11195631 -0.47288555 0.055933461
-0.11211854 -0.47301635 0.05586908
-0.11228164 -0.47313294 0.055893555
-0.11243375 -0.473241 0.0559204
-0.11256399 -0.47334868 0.055852737
-0.11272097 -0.47346807 0.055833388
-0.11287473 -0.47358218 0.05583138
-0.11302868 -0.47369623 0.055830508
-0.11318685 -0.47381186 0.055838861
-0.11333629 -0.4739278 0.05580686
-0.11347163 -0.47404268 0.055718403
-0.11363834 -0.47416466 0.055726692
-0.11379069 -0.47427619 0.055733915
-0.11395139 -0.47439101 0.055758413
-0.11409651 -0.47450835 0.055698745
-0.11424933 -0.474626 0.055671338
-0.11439732 -0.47474527 0.05561281
-0.11456369 -0.47485831 0.05567304
-0.11471137 -0.47496849 0.055667598
-0.11486375 -0.47508931 0.05561943
-0.11502329 -0.4752048 0.055634692
-0.11516373 -0.47532618 0.055530045
-0.11532257 -0.47543597 0.055576466
-0.11548558 -0.47555056 0.055612478
-0.11563765 -0.47567132 0.055563163
-0.11579647 -0.47579303 0.055538032
-0.115945 -0.47590888 0.055502579
-0.11609254 -0.47602493 0.055461369
-0.11625838 -0.47613335 0.055546988
-0.11640835 -0.47624597 0.055536911
-0.11655512 -0.47636223 0.055491082
-0.11670923 -0.47648507 0.055438284
-0.11686094 -0.47659728 0.055438589
-0.11701383 -0.47671479 0.055412352
-0.1171663 -0.47683239 0.055383798
-0.11731613 -0.47695053 0.055340264
-0.11746711 -0.47706565 0.055319801
-0.1176279 -0.47718149 0.055338517
-0.11778282 -0.47729588 0.055339951
-0.11792805 -0.47741485 0.055271052
-0.11808789 -0.47753367 0.055267848
-0.11824685 -0.47764739 0.055291191
-0.11839981 -0.47776225 0.055281099
-0.11855324 -0.47788227 0.055242155
-0.11871154 -0.47799629 0.055260886
-0.11885437 -0.47811541 0.055180456
-0.11901856 -0.47822857 0.055230316
-0.11917499 -0.47834811 0.05520751
-0.11932047 -0.47846419 0.05515708
-0.11946438 -0.47858545 0.055068567
-0.11963172 -0.47869843 0.05513341
-0.11978796 -0.47881305 0.055139452
-0.11993605 -0.47892621 0.055117853
-0.12009207 -0.47904587 0.055092745
-0.12025261 -0.47916499 0.055090688
-0.12040579 -0.47928253 0.055065602
-0.12055816 -0.47939771 0.055050898
-0.12070206 -0.47951376 0.05499354
-0.12086121 -0.47963071 0.05499842
-0.12102038 -0.47975251 0.054974448
-0.12118205 -0.47986457 0.055019703
-0.12132753 -0.47998044 0.054970413
-0.12147415 -0.48009619 0.054926898
-0.12163527 -0.48021787 0.054912146
-0.12179543 -0.480335 0.054920483
-0.12194896 -0.4804526 0.054896541
-0.122109 -0.48057443 0.054876026
-0.12225559 -0.48068786 0.054846354
-0.1223942 -0.48079941 0.054792494
-0.12254857 -0.48091245 0.054799706
-0.12272123 -0.48103151 0.054851815
-0.12287903 -0.48115128 0.054833621
-0.12302743 -0.48127145 0.054771636
-0.12318245 -0.48138687 0.054767299
-0.12332287 -0.48150054 0.054708809
-0.12347505 -0.48161387 0.054704498
-0.12364239 -0.48173571 0.054716256
-0.12379379 -0.48185793 0.054655403
-0.12395643 -0.48196685 0.054723725
-0.12412397 -0.48208675 0.05474817
-0.12426153 -0.48220038 0.054677017
-0.12442428 -0.4823204 0.054679558
-0.12458163 -0.48244044 0.054657903
-0.12472589 -0.48255619 0.054604009
-0.12488168 -0.48267201 0.054600831
-0.12502269 -0.48279187 0.054507721
-0.12517346 -0.48290762 0.054482635
-0.12534691 -0.48302591 0.054542825
-0.12550238 -0.48314187 0.054537348
-0.12564434 -0.48325959 0.054461535
-0.12581764 -0.48337814 0.054519422
-0.12595269 -0.48349148 0.054439038
-0.12610629 -0.48360953 0.05441279
-0.12627952 -0.48372629 0.054481052
-0.12645273 -0.48384729 0.054523937
-0.12658146 -0.48396638 0.05438127
-0.12673022 -0.48408026 0.05435852
-0.12688442 -0.48419642 0.054346107
-0.12706912 -0.48431629 0.054446626
-0.12720782 -0.48443371 0.05435814
-0.12735918 -0.48455182 0.05432152
-0.12750335 -0.48466748 0.05426763
-0.12767012 -0.48478663 0.05429323
-0.12783791 -0.48490593 0.054322299
-0.12798969 -0.48502415 0.054286823
-0.12815076 -0.48514503 0.054276694
-0.12829469 -0.48525879 0.054233186
-0.12845498 -0.48537582 0.054242682
-0.12861478 -0.48549476 0.054238319
-0.12875575 -0.48561212 0.054160211
-0.12892744 -0.48573413 0.054190405
-0.12909035 -0.4858554 0.054186031
-0.12922311 -0.48596627 0.054110274
-0.12937625 -0.48608476 0.054079413
-0.12954721 -0.48620504 0.054116532
-0.12968585 -0.48631835 0.054052293
-0.12984852 -0.48643792 0.054057144
-0.13000502 -0.48655501 0.05404935
-0.13014244 -0.48667186 0.053958561
-0.13031486 -0.48679265 0.053999141
-0.13047832 -0.4869107 0.054016691
-0.13063742 -0.48703009 0.054006562
-0.13079178 -0.48714715 0.053989548
-0.13094474 -0.48726588 0.053956378
-0.13110067 -0.48738679 0.053923193
-0.13124779 -0.48750117 0.053890046
-0.13142365 -0.48762301 0.053939842
-0.13158603 -0.48774311 0.053940084
-0.131745 -0.4878628 0.053927653
-0.13188925 -0.48798048 0.053862222
-0.1320641 -0.4881025 0.053906247
-0.13220152 -0.48821568 0.053837392
-0.13233992 -0.48833248 0.053751219
-0.13253398 -0.48845583 0.053872459
-0.13267341 -0.48857281 0.053789739
-0.13285187 -0.48869577 0.053844132
-0.13299823 -0.48881382 0.053785615
-0.13315217 -0.48893136 0.053763971
-0.13331279 -0.48905343 0.05374461
-0.13345517 -0.48916912 0.053682648
-0.1336287 -0.48929 0.053727835
-0.13378885 -0.4894121 0.053706165
-0.13392852 -0.48952907 0.053624608
-0.13408761 -0.48964596 0.05362948
-0.13426162 -0.48976892 0.053664282
-0.13442795 -0.48989061 0.053672582
-0.13458137 -0.49001005 0.053637099
-0.13473254 -0.49012744 0.05360394
-0.13489535 -0.49024865 0.05359957
-0.13507113 -0.4903723 0.05363781
-0.13522898 -0.49049273 0.053616155
-0.13535784 -0.49060768 0.053498883
-0.13552642 -0.49073178 0.053502548
-0.13569832 -0.49085337 0.053536214
-0.13580918 -0.49096307 0.053370565
-0.13600469 -0.4910894 0.053480253
-0.1361835 -0.49121743 0.053505797
-0.13631284 -0.49133235 0.05339082
-0.13646168 -0.49144953 0.053348444
-0.13665785 -0.49158293 0.053418893
-0.13681927 -0.49170446 0.053406451
-0.13695815 -0.49181968 0.053331815
-0.13711002 -0.49193606 0.053307883
-0.13729621 -0.49206457 0.05336339
-0.13745183 -0.49218661 0.053322122
-0.13761729 -0.49230763 0.053330429
-0.13775928 -0.49242517 0.053255778
-0.13789028 -0.49253398 0.053184647
-0.13810405 -0.4926675 0.05333231
-0.13824061 -0.49278697 0.053221911
-0.13840924 -0.49290901 0.05323828
-0.13858147 -0.49303815 0.053228084
-0.13872924 -0.49314937 0.053216871
-0.13887894 -0.49326876 0.053165257
-0.13903591 -0.49338832 0.05314476
-0.13922039 -0.49351901 0.053179499
-0.139365 -0.49363273 0.053139448
-0.13952926 -0.49375114 0.053158153
-0.13970158 -0.49387765 0.05316411
-0.13984728 -0.49399927 0.053081352
-0.14000395 -0.49412054 0.053049322
-0.14017782 -0.4942461 0.05306796
-0.14033505 -0.49436757 0.053037077
-0.14050895 -0.49449778 0.053028025
-0.14062116 -0.49460056 0.052909687
-0.14078285 -0.49472323 0.05289147
-0.14096911 -0.49485371 0.052935429
-0.14111885 -0.49497199 0.05289074
-0.14129502 -0.4950971 0.052922066
-0.14145102 -0.49522001 0.05287734
-0.14162187 -0.49534389 0.052892536
-0.14177248 -0.49546105 0.052858219
-0.14194143 -0.49558601 0.052858435
-0.14210279 -0.49570906 0.052836761
-0.14227526 -0.4958351 0.052846175
-0.14242865 -0.49595317 0.052818775
-0.14257577 -0.4960739 0.052747555
-0.14270498 -0.49618545 0.052652203
-0.14294603 -0.49632761 0.052868955
-0.14310199 -0.49645665 0.052787304
-0.14324398 -0.49657321 0.05271842
-0.14339505 -0.49669516 0.052657567
-0.14359057 -0.49683383 0.052693397
-0.14374748 -0.49695182 0.052682128
-0.14389946 -0.4970727 0.052631661
-0.14407246 -0.49719819 0.052646846
-0.14424101 -0.49732247 0.052649364
-0.14440203 -0.49744466 0.052631151
-0.14454874 -0.49756414 0.052565701
-0.14471239 -0.49768579 0.052562475
-0.14487371 -0.49780819 0.052544262
-0.14504331 -0.49793306 0.052547924
-0.1451842 -0.49805093 0.052466355
-0.14536583 -0.49818087 0.052493032
-0.14554369 -0.49831671 0.052467801
-0.145717 -0.49844432 0.052471451
-0.14589846 -0.49857721 0.052479666
-0.062722921 -0.43611935 0.057950348
-0.062849671 -0.43618897 0.058095034
-0.062989078 -0.4362759 0.058192313
-0.063153513 -0.43639442 0.058210976
-0.063321412 -0.43651307 0.058244616
-0.063492343 -0.43663663 0.05826208
-0.063660726 -0.43675616 0.058292255
-0.063831836 -0.43687737 0.058324724
-0.064003251 -0.43699628 0.0583722
-0.064179137 -0.43711963 0.058412716
-0.064365059 -0.43724218 0.058502808
-0.064536653 -0.43735272 0.058601063
-0.064696252 -0.43745807 0.058677457
-0.064856149 -0.43756092 0.058770008
-0.069009408 -0.44043478 0.059963323
-0.069182515 -0.44056129 0.059972696
-0.06935218 -0.44068506 0.059983246
-0.069527827 -0.44081655 0.059974141
-0.069701865 -0.44094878 0.059953503
-0.06987635 -0.44107845 0.05995018
-0.070042655 -0.44119647 0.059980363
-0.07021825 -0.4413285 0.059967797
-0.070385695 -0.4414489 0.059988745
-0.070551738 -0.44157037 0.059996996
-0.070718825 -0.44170517 0.059930243
-0.070914969 -0.4418551 0.059901394
-0.071089022 -0.44198889 0.059871517
-0.071252808 -0.44209903 0.059937503
-0.071427211 -0.44223386 0.059903011
-0.071607694 -0.44237703 0.059845399
-0.071778141 -0.44250062 0.059860557
-0.071947269 -0.44262168 0.059884965
-0.072114557 -0.44275102 0.059851661
-0.072276458 -0.44286579 0.059881885
-0.072417319 -0.4429661 0.059905294
-0.072605066 -0.44312137 0.059807245
-0.072785862 -0.44325477 0.059809655
-0.072979897 -0.4433991 0.05980505
-0.073139161 -0.44352558 0.059753336
-0.07331714 -0.4436453 0.059825011
-0.073501624 -0.44380397 0.05969236
-0.073656917 -0.44392288 0.05966837
-0.073818132 -0.44404599 0.059645496
-0.073983148 -0.44417307 0.059615672
-0.074178383 -0.44432598 0.059564903
-0.074362107 -0.44445884 0.059583448
-0.074488349 -0.44454679 0.059616186
-0.07469327 -0.44470826 0.059557274
-0.074841797 -0.44481832 0.059556402
-0.075010188 -0.44494057 0.059570424
-0.075180188 -0.44507113 0.059541732
-0.075349279 -0.44519526 0.059547663
-0.07551159 -0.44532767 0.059474006
-0.075703487 -0.44547099 0.059465956
-0.075865895 -0.44558999 0.05947309
-0.07606329 -0.44574645 0.059410758
-0.07621447 -0.44585922 0.05940526
-0.076368757 -0.4459745 0.059398584
-0.076539412 -0.44608879 0.059470303
-0.076715983 -0.44623214 0.05939424
-0.076875865 -0.44636643 0.059298672
-0.07703615 -0.44647649 0.059349667
-0.077200748 -0.44659191 0.059387945
-0.07738883 -0.44674918 0.059279509
-0.077566035 -0.44689608 0.059184991
-0.07770516 -0.44698605 0.059262659
-0.077870131 -0.44709209 0.059358634
-0.078058168 -0.44724548 0.059273284
-0.078243122 -0.447386 0.059251424
-0.078419268 -0.44753212 0.05915691
-0.078553267 -0.44764274 0.059088036
-0.078729361 -0.44776687 0.059125088
-0.078916498 -0.44789705 0.059174776
-0.079061866 -0.44800955 0.059145071
-0.079239711 -0.44813263 0.059195973
-0.079414703 -0.4482781 0.059100308
-0.079561554 -0.44838941 0.059084445
-0.079728276 -0.44852528 0.059009604
-0.079894967 -0.44863027 0.059119426
-0.080070123 -0.44877797 0.059011057
-0.08021421 -0.44888878 0.058985986
-0.080404468 -0.4490228 0.05902642
-0.080564439 -0.44914749 0.058988556
-0.08072225 -0.44926617 0.058977239
-0.080897406 -0.44938937 0.059015453
-0.081060871 -0.44952554 0.058924478
-0.081221417 -0.44965333 0.058870442
-0.081370667 -0.44976085 0.058888033
-0.081530757 -0.44988793 0.058836319
-0.081693076 -0.45000067 0.058880381
-0.081852369 -0.45011851 0.058880601
-0.082011513 -0.45023602 0.058881983
-0.082185172 -0.45037085 0.058844037
-0.082361594 -0.45049983 0.058853388
-0.082532763 -0.45063496 0.058802754
-0.082704991 -0.45075813 0.058828294
-0.082866639 -0.45088559 0.058781181
-0.083018646 -0.45101288 0.058692582
-0.083181269 -0.45113644 0.058673158
-0.083343558 -0.45125052 0.058709145
-0.083500832 -0.45135492 0.058780931
-0.083657824 -0.45149377 0.05864498
-0.083828717 -0.45162269 0.058630131
-0.08398398 -0.45173812 0.05862692
-0.084144697 -0.45185623 0.058631741
-0.084321171 -0.45197928 0.05867688
-0.084488489 -0.45211461 0.058607802
-0.084648766 -0.45223162 0.058617249
-0.084802866 -0.45234349 0.058630198
-0.084952623 -0.45246851 0.058545072
-0.085134462 -0.45260519 0.058532473
-0.085292637 -0.45272505 0.058515385
-0.085467011 -0.45286256 0.058464728
-0.085615054 -0.45297107 0.058470797
-0.085775562 -0.4531033 0.058390219
-0.085944399 -0.45322821 0.058390383
-0.086108893 -0.45334429 0.058424048
-0.086256057 -0.45344946 0.058446266
-0.086413495 -0.45358172 0.058351859
-0.086569443 -0.4536936 0.05837287
-0.086740151 -0.45383051 0.058309555
-0.086901739 -0.45394579 0.058335148
-0.087060384 -0.45405909 0.058359616
-0.087228261 -0.45418116 0.058372483
-0.087373585 -0.45430848 0.058253914
-0.087551177 -0.45444393 0.058229797
-0.08771237 -0.45455813 0.058260009
-0.087851688 -0.45464864 0.058335368
-0.088028327 -0.45479706 0.058229309
-0.088177919 -0.45492372 0.058133788
-0.088333637 -0.4550381 0.058138654
-0.088488445 -0.45514569 0.058180444
-0.088647515 -0.45526603 0.058164515
-0.088826008 -0.45539251 0.058198091
-0.088986352 -0.45552558 0.05811175
-0.089142784 -0.45564917 0.058064662
-0.089297444 -0.45575646 0.058107615
-0.089447848 -0.45587596 0.058058269
-0.08960335 -0.45599294 0.058046971
-0.089772463 -0.45610899 0.058101371
-0.089946099 -0.45624706 0.058043811
-0.090101987 -0.45637238 0.057984032
-0.090254098 -0.45648471 0.057985451
-0.090411156 -0.45658699 0.058068782
-0.090572141 -0.45670781 0.058058608
-0.090718068 -0.45681015 0.058092386
-0.090876997 -0.45695162 0.057949491
-0.091034599 -0.4570657 0.057964727
-0.091201164 -0.45719334 0.05793836
-0.091353171 -0.45731655 0.05787399
-0.091513574 -0.457436 0.057869595
-0.091671117 -0.4575631 0.057806347
-0.091828428 -0.45767793 0.057815809
-0.091988623 -0.45779276 0.057837956
-0.092160448 -0.45791873 0.057845026
-0.092303008 -0.45803168 0.057800338
-0.092460111 -0.45814961 0.05779019
-0.092622891 -0.45827428 0.057764996
-0.092785642 -0.45839679 0.057752505
-0.092951305 -0.45851973 0.057750378
-0.093105443 -0.45863101 0.057766791
-0.093253084 -0.45875025 0.057707068
-0.093415409 -0.45887494 0.057679567
-0.093564324 -0.45897141 0.057761803
-0.09371905 -0.45911437 0.05759123
-0.093881369 -0.45923483 0.057589132
-0.094038412 -0.45934483 0.057626292
-0.094191507 -0.45946383 0.057591934
-0.094351336 -0.45957705 0.057622157
-0.094515614 -0.45970687 0.057572719
-0.094665729 -0.45982194 0.057548758
-0.094813168 -0.45993254 0.057539817
-0.094972201 -0.46005112 0.05753427
-0.09513557 -0.46016139 0.057597946
-0.095281631 -0.46028057 0.057531312
-0.095444016 -0.46041787 0.057428785
-0.095603973 -0.46052906 0.057471711
-0.095757253 -0.46064144 0.057477739
-0.095928304 -0.46078205 0.057393648
-0.096089989 -0.46090147 0.057395004
-0.096230231 -0.46099535 0.057454195
-0.096389949 -0.4611243 0.057389781
-0.096558854 -0.46125618 0.0573484
-0.096702181 -0.46136662 0.057322167
-0.096861184 -0.46148193 0.057336241
-0.09702526 -0.46159038 0.057413768
-0.097165845 -0.46167046 0.05755721
-0.097305641 -0.46180776 0.05735442
-0.097465351 -0.46193323 0.057310782
-0.097635746 -0.46206969 0.057248618
-0.097788811 -0.46218076 0.057261568
-0.097946107 -0.46228942 0.057307966
-0.098102704 -0.46243513 0.057129312
-0.098280199 -0.46255815 0.057179056
-0.098432131 -0.46267226 0.057168938
-0.098583899 -0.46277604 0.057219982
-0.098721772 -0.46288899 0.057154544
-0.098888919 -0.4630211 0.057103943
-0.099036619 -0.46313611 0.057069603
-0.099200934 -0.46324572 0.057141356
-0.099357992 -0.46332681 0.057351649
-0.09949737 -0.46346304 0.057153467
-0.099653602 -0.46357495 0.05717564
-0.099816658 -0.46368861 0.057217386
-0.09997841 -0.46382311 0.057128727
-0.10013269 -0.46394801 0.057064347
-0.10027478 -0.46404865 0.05709121
-0.10043813 -0.46417835 0.057038322
-0.10058226 -0.46430731 0.056904756
-0.10074705 -0.46441707 0.056977645
-0.10089198 -0.46452773 0.056957185
-0.10104837 -0.46465439 0.056891635
-0.10120727 -0.46476829 0.056913789
-0.10135869 -0.46488875 0.056863278
-0.10151006 -0.46500167 0.056857772
-0.10167736 -0.46512949 0.056833714
-0.10184032 -0.46525756 0.056788895
-0.10199311 -0.46535379 0.056889571
-0.10213049 -0.46546927 0.056806825
-0.10229063 -0.46558791 0.05680589
-0.10244264 -0.46570611 0.056771524
-0.10259717 -0.46582022 0.056772925
-0.10274855 -0.46593913 0.056731645
-0.10291202 -0.46605253 0.056776859
-0.10307456 -0.46618009 0.056733202
-0.10322437 -0.46628222 0.05678542
-0.10335916 -0.4664056 0.056643825
-0.10351869 -0.46652457 0.056638271
-0.10367858 -0.46664304 0.056637339
-0.1038299 -0.46675515 0.056636445
-0.10399225 -0.46688199 0.056596264
-0.10414051 -0.46698645 0.056627713
-0.10429086 -0.46710536 0.056581818
-0.10444781 -0.46721604 0.056614369
-0.10460054 -0.46733192 0.056597315
-0.10475784 -0.46745327 0.056567542
-0.10491077 -0.46758491 0.056457009
-0.10506094 -0.46769789 0.05644574
-0.10521601 -0.46780547 0.056488693
-0.10537613 -0.46792331 0.05649237
-0.10552667 -0.46803081 0.056515723
-0.10567937 -0.46815649 0.05643981
-0.10583375 -0.4682751 0.056413516
-0.10599183 -0.46839494 0.056396432
-0.10614121 -0.46850848 0.056378245
-0.10629775 -0.46863449 0.056317311
-0.10645948 -0.46874583 0.056367155
-0.10661035 -0.46886262 0.056336261
-0.10676356 -0.46898192 0.056300741
-0.10691629 -0.46908757 0.056344856
-0.10706863 -0.46920294 0.056328963
-0.10722687 -0.46932232 0.05631534
-0.10737485 -0.46943676 0.05628562
-0.10753909 -0.46956 0.056275427
-0.10768265 -0.46967348 0.056231886
-0.10784214 -0.46979165 0.056230955
-0.10798905 -0.46989802 0.056245096
-0.10815173 -0.47002238 0.056221057
-0.10831565 -0.47014999 0.056183174
-0.10846461 -0.4702675 0.056139596
-0.10861434 -0.47038019 0.056128331
-0.10876293 -0.4704895 0.056132074
-0.10890053 -0.47060242 0.056065489
-0.10906684 -0.47072393 0.056074899
-0.10921638 -0.47083664 0.056062482
-0.10937719 -0.47095385 0.056073088
-0.10953929 -0.47107819 0.056046747
-0.10969608 -0.47118628 0.0560943
-0.10984571 -0.47128344 0.056175373
-0.10998807 -0.47140455 0.056081053
-0.11013049 -0.471533 0.055942878
-0.11028408 -0.4716545 0.055895813
-0.11045321 -0.47175571 0.056039091
-0.11059876 -0.47185951 0.056062475
-0.11074107 -0.47198364 0.055949688
-0.11089156 -0.4721067 0.055879556
-0.111046 -0.47222748 0.055840567
-0.1112113 -0.47234613 0.055862688
-0.1113646 -0.47246027 0.055858321
-0.11150633 -0.47257319 0.055810176
-0.11166902 -0.4726862 0.055854235
-0.11182477 -0.4728097 0.055804849
-0.1119803 -0.47292629 0.05579586
-0.11214069 -0.47305089 0.055760294
-0.11229782 -0.47316673 0.055762842
-0.11244008 -0.47327232 0.05576086
-0.11259532 -0.47338235 0.055789959
-0.11273658 -0.47350511 0.055680633
-0.11288509 -0.47362459 0.055623218
-0.11303284 -0.47373772 0.05560042
-0.11319403 -0.47384867 0.055650257
-0.11334139 -0.47396845 0.055585917
-0.11350696 -0.4740811 0.055644974
-0.11365629 -0.47419366 0.055632547
-0.11381584 -0.47430879 0.055650081
-0.11397556 -0.47443023 0.055630684
-0.11412071 -0.47454432 0.055590592
-0.11426815 -0.47466686 0.055510096
-0.11442012 -0.4747754 0.055533443
-0.11458357 -0.47489247 0.055556726
-0.11473633 -0.475007 0.055547751
-0.1148788 -0.4751218 0.055491518
-0.11503293 -0.47523889 0.055473305
-0.11518383 -0.47535396 0.055452801
-0.11534285 -0.47547254 0.055447254
-0.11550526 -0.4755902 0.055462457
-0.11564957 -0.47570425 0.055418909
-0.11579914 -0.47581679 0.055407654
-0.11594146 -0.47593421 0.055335261
-0.11609843 -0.4760505 0.055334345
-0.11625563 -0.47616675 0.055334575
-0.11641617 -0.47628224 0.055354413
-0.11657386 -0.4763985 0.055356953
-0.11672087 -0.47651455 0.055313386
-0.11687277 -0.47662941 0.055298649
-0.11703292 -0.47674519 0.055315029
-0.11717826 -0.47686154 0.055262238
-0.11733487 -0.47697815 0.055257857
-0.11748743 -0.47709292 0.055246584
-0.11763981 -0.47720775 0.055234142
-0.11777106 -0.47732136 0.05513528
-0.11793013 -0.47744018 0.055128578
-0.11810042 -0.4775596 0.055167973
-0.11824865 -0.47767523 0.055132482
-0.11839718 -0.47779337 0.055083133
-0.11853348 -0.47790572 0.055014245
-0.11871783 -0.47802824 0.055097416
-0.11887388 -0.47814 0.055119589
-0.11901795 -0.47825369 0.055077191
-0.11915199 -0.47836879 0.054981772
-0.11932088 -0.47848642 0.055025794
-0.11947934 -0.47860053 0.055044495
-0.11963172 -0.47871056 0.055060908
-0.11977859 -0.47883132 0.054988496
-0.11993407 -0.47894844 0.054976039
-0.12006603 -0.47906837 0.054842543
-0.12023346 -0.47918162 0.054906197
-0.12039857 -0.47929528 0.054957163
-0.12054184 -0.47940895 0.054911319
-0.1206931 -0.47953144 0.054848105
-0.12086321 -0.47964725 0.054908283
-0.12100782 -0.47976077 0.054869354
-0.12116677 -0.47987777 0.054873034
-0.12131518 -0.47999331 0.054838695
-0.12148041 -0.48011225 0.054858506
-0.12162976 -0.48022541 0.054842629
-0.12177679 -0.4803434 0.054787524
-0.1219264 -0.48046118 0.0547451
-0.12208296 -0.48057622 0.054749947
-0.12223645 -0.48069149 0.054739822
-0.12238677 -0.48080921 0.054700855
-0.1225406 -0.48092222 0.05470572
-0.12269689 -0.48103747 0.054708268
-0.12285062 -0.48115733 0.054671593
-0.12299767 -0.4812707 0.05464419
-0.12316272 -0.48138797 0.054673232
-0.12330745 -0.4815037 0.0546216
-0.12346195 -0.48162356 0.054588381
-0.12360358 -0.48173928 0.054522924
-0.12377338 -0.48186105 0.054546159
-0.12392613 -0.48197442 0.054544117
-0.1241009 -0.48209196 0.054614648
-0.12422571 -0.48220563 0.054486956
-0.12437944 -0.48232338 0.054462977
-0.12454806 -0.4824433 0.054491997
-0.12471786 -0.48255908 0.05455102
-0.12483862 -0.48267248 0.054407205
-0.1250062 -0.48279047 0.054443154
-0.12515162 -0.4829061 0.054394986
-0.12531509 -0.48302627 0.054399796
-0.12546566 -0.48313993 0.054386225
-0.12564525 -0.48325855 0.054471731
-0.12580463 -0.48338088 0.054445408
-0.12594017 -0.48349422 0.054367281
-0.12608248 -0.48360774 0.054317981
-0.12624167 -0.48372799 0.054303199
-0.12639469 -0.48384196 0.05429884
-0.12655692 -0.48396042 0.054308273
-0.1267174 -0.48408085 0.054298107
-0.12686907 -0.4841969 0.054275289
-0.12702872 -0.48431537 0.054273203
-0.12717415 -0.48442909 0.054236569
-0.12733123 -0.48454353 0.054247193
-0.12748715 -0.4846639 0.054217428
-0.12763441 -0.48477975 0.054176174
-0.12778397 -0.48489577 0.054144137
-0.12794109 -0.48501623 0.054118972
-0.12809879 -0.48513287 0.054119214
-0.12824899 -0.48525089 0.054077938
-0.12841032 -0.48536986 0.054080449
-0.12857613 -0.48549116 0.054088712
-0.12872645 -0.48560736 0.05405898
-0.12888417 -0.48572615 0.054046519
-0.12903433 -0.48584047 0.054027177
-0.129197 -0.48595792 0.054044694
-0.12934554 -0.48607779 0.053984955
-0.12948374 -0.486191 0.053919517
-0.12964289 -0.48631006 0.053911656
-0.12981056 -0.48642638 0.053957999
-0.12995616 -0.48654407 0.053898286
-0.13014141 -0.48666438 0.053998765
-0.13026342 -0.48677945 0.053850323
-0.13041285 -0.48689574 0.053815976
-0.13058031 -0.48701423 0.053848468
-0.1307314 -0.48713082 0.05381988
-0.13088922 -0.48725006 0.053805117
-0.13106805 -0.48737022 0.053877927
-0.13121326 -0.48748976 0.053805526
-0.13137153 -0.48760739 0.053802293
-0.13153984 -0.48772824 0.053824384
-0.13169633 -0.48784399 0.053824622
-0.13184924 -0.48796463 0.05377987
-0.13199139 -0.48807842 0.053728264
-0.13215297 -0.48819852 0.053725012
-0.13231042 -0.48831633 0.053717159
-0.13246764 -0.48843589 0.053697769
-0.13261443 -0.48855218 0.053651903
-0.13278323 -0.4886736 0.053672843
-0.13294262 -0.48879361 0.05366037
-0.13307132 -0.48890707 0.05355113
-0.13324773 -0.48902813 0.053607799
-0.13339964 -0.48914707 0.053568829
-0.13355194 -0.48926434 0.053541385
-0.13371804 -0.48938566 0.05355081
-0.1338698 -0.48950291 0.053521067
-0.13404119 -0.48962528 0.053547762
-0.13418493 -0.48974121 0.053490363
-0.13433059 -0.48985916 0.053429503
-0.13451634 -0.48998424 0.053503431
-0.13467517 -0.49010465 0.053486343
-0.13484529 -0.49022546 0.053516507
-0.1349958 -0.49034277 0.053481001
-0.13513693 -0.49045831 0.053414397
-0.13528189 -0.49057788 0.053340837
-0.13544013 -0.49069664 0.053330671
-0.13562733 -0.49082434 0.053395361
-0.13575386 -0.49093544 0.053290755
-0.13592902 -0.49105769 0.053334743
-0.13608745 -0.49117836 0.053314194
-0.1362686 -0.49130526 0.053356986
-0.13642067 -0.49142796 0.053296078
-0.13654669 -0.49153885 0.053190313
-0.13670641 -0.49165991 0.053173229
-0.13688028 -0.49178237 0.053210292
-0.13703139 -0.49190012 0.053174783
-0.13718732 -0.49201891 0.053154249
-0.13734218 -0.49213749 0.053130262
-0.13751493 -0.49226317 0.053143106
-0.13767631 -0.49238488 0.053129464
-0.13782585 -0.49250087 0.053097423
-0.13798885 -0.49262145 0.053097624
-0.13817944 -0.49275917 0.053117286
-0.13834955 -0.49288774 0.053101283
-0.13848171 -0.49299991 0.053015105
-0.13863492 -0.49311382 0.053011902
-0.13877462 -0.49322617 0.052957997
-0.13896444 -0.49335334 0.053037673
-0.13910998 -0.49346867 0.052991807
-0.13926663 -0.49358666 0.05297935
-0.13941449 -0.49370411 0.052931167
-0.13960251 -0.49382976 0.053012006
-0.13975465 -0.49395287 0.052948795
-0.13991687 -0.49407846 0.052915525
-0.14004172 -0.49418736 0.052816696
-0.14021301 -0.4943077 0.052854937
-0.14037569 -0.49442899 0.052849367
-0.14053142 -0.49454862 0.052823063
-0.14069864 -0.49467117 0.052830171
-0.14083183 -0.49478662 0.052728973
-0.14102298 -0.49491686 0.052795954
-0.14117824 -0.49504095 0.052740797
-0.14134625 -0.49516103 0.05276636
-0.1415135 -0.49528241 0.05278039
-0.14165664 -0.49540198 0.052698761
-0.14180911 -0.49551666 0.052687477
-0.14197841 -0.49564463 0.052671488
-0.14216599 -0.49577898 0.052698091
-0.14233232 -0.49590334 0.052690189
-0.14249876 -0.49602205 0.052716911
-0.14258897 -0.49611723 0.052546721
-0.14274547 -0.49623471 0.052536577
-0.14296778 -0.49637321 0.052692242
-0.14309162 -0.49649331 0.052521858
-0.14328787 -0.49662772 0.052586496
-0.14345168 -0.49675179 0.052569378
-0.14360769 -0.49686661 0.052573077
-0.14374384 -0.49698579 0.052462645
-0.14392447 -0.49711192 0.052507751
-0.14409782 -0.49724594 0.052473262
-0.14425395 -0.49736664 0.052442346
-0.14441849 -0.49749258 0.052417144
-0.14456913 -0.49761036 0.052379325
-0.14474866 -0.49773797 0.052410595
-0.14492024 -0.49786338 0.052419975
-0.14504856 -0.49797195 0.052338433
-0.14522368 -0.49809569 0.052373189
-0.1453878 -0.4982177 0.052369922
-0.14555153 -0.49834651 0.052323949
-0.14571539 -0.49847677 0.052269902
-0.064172268 -0.43681112 0.060229778
-0.064342007 -0.43692839 0.060279541
-0.064513929 -0.43705231 0.060299281
-0.064677283 -0.43715909 0.0603837
-0.064862996 -0.43730614 0.060326051
-0.065029994 -0.43741909 0.060389675
-0.065204829 -0.43754822 0.060390949
-0.065389484 -0.43769103 0.060354069
-0.065568224 -0.43782711 0.060331073
-0.065742373 -0.43795249 0.06035196
-0.065936349 -0.43811491 0.060238861
-0.066110536 -0.43824068 0.060257442
-0.066280603 -0.43836266 0.060280666
-0.066458106 -0.43849435 0.060278449
-0.066637099 -0.43863198 0.06024738
-0.066824108 -0.43878058 0.060186252
-0.066994786 -0.43890414 0.060202539
-0.067171052 -0.43903434 0.060203806
-0.067343205 -0.43916076 0.060209692
-0.067518249 -0.43928909 0.060216732
-0.067706585 -0.43944117 0.060140591
-0.067886919 -0.43958595 0.060072578
-0.06806913 -0.43972772 0.060031109
-0.068233512 -0.4398343 0.060121287
-0.068418175 -0.4399842 0.060041718
-0.068594582 -0.44011608 0.060033739
-0.06877318 -0.44025552 0.059989981
-0.068935424 -0.44036186 0.060072098
-0.069117755 -0.44050506 0.06002254
-0.069298096 -0.44064483 0.059984531
-0.069476232 -0.44078434 0.059938464
-0.069652699 -0.4409174 0.059923567
-0.069826834 -0.4410499 0.059901748
-0.069995686 -0.44116902 0.059936516
-0.07016971 -0.44130164 0.059913553
-0.070355356 -0.44145286 0.059830517
-0.070528947 -0.44158515 0.05980755
-0.070690289 -0.44169044 0.059891984
-0.070868045 -0.44183099 0.05983784
-0.071046598 -0.44196966 0.059798691
-0.071218759 -0.4420999 0.059781507
-0.071394846 -0.44223422 0.059757374
-0.071570449 -0.44236779 0.059735548
-0.071734741 -0.44249088 0.059726499
-0.071893148 -0.44260633 0.059737086
-0.072087556 -0.44275442 0.059711691
-0.072258972 -0.44288835 0.059669122
-0.072425984 -0.44301364 0.0596589
-0.072594933 -0.44313496 0.059680969
-0.072774619 -0.44327429 0.059642963
-0.072952583 -0.44341442 0.059592288
-0.073124506 -0.44354239 0.059587795
-0.073295116 -0.44367611 0.059542924
-0.073445357 -0.44378436 0.059560489
-0.073634863 -0.44394132 0.059460118
-0.073776685 -0.44404063 0.059493884
-0.073974967 -0.44419122 0.05947078
-0.074145719 -0.44431347 0.059495147
-0.074303374 -0.44443396 0.059472285
-0.074463978 -0.44455218 0.059475936
-0.074658133 -0.44469911 0.059456315
-0.07484173 -0.44485018 0.059365209
-0.074993372 -0.4449583 0.059389688
-0.075148769 -0.44507942 0.059352987
-0.075316727 -0.44520116 0.059368141
-0.075479925 -0.44533095 0.059314087
-0.075651884 -0.44545737 0.059318826
-0.075823829 -0.4455792 0.059351269
-0.075999558 -0.44571459 0.05931906
-0.07618358 -0.44585982 0.05926488
-0.07632415 -0.44595781 0.059300967
-0.076507814 -0.44610274 0.059246786
-0.076681085 -0.44623846 0.059201896
-0.07684087 -0.44635743 0.059197485
-0.07701993 -0.446477 0.05927489
-0.077199161 -0.44662791 0.059165344
-0.077338427 -0.44673899 0.059117202
-0.077503182 -0.44686049 0.059119679
-0.077671744 -0.44698095 0.059145212
-0.077860124 -0.44714037 0.059025224
-0.078008078 -0.4472419 0.059072807
-0.07817021 -0.44736299 0.059066072
-0.078335069 -0.44748011 0.059095096
-0.078521177 -0.4476186 0.059090521
-0.078699008 -0.4477756 0.05893828
-0.078858167 -0.44789565 0.058924638
-0.079000503 -0.44798279 0.059033416
-0.07917273 -0.44812045 0.058972381
-0.079333387 -0.44823909 0.058973737
-0.079508215 -0.44837248 0.058949605
-0.079683065 -0.4485001 0.058960102
-0.079869166 -0.44865936 0.058830898
-0.080025896 -0.44878685 0.058761872
-0.080195978 -0.44890827 0.058788557
-0.080345728 -0.44900995 0.05884305
-0.080504686 -0.44911867 0.058896344
-0.080655873 -0.44923109 0.05889314
-0.080838099 -0.4493821 0.058796264
-0.08102902 -0.44951892 0.058822818
-0.08118657 -0.44964454 0.058768798
-0.081328593 -0.44975093 0.058761027
-0.081503637 -0.44988176 0.058753055
-0.08169245 -0.45003459 0.058674611
-0.08185026 -0.45015535 0.05865059
-0.081996031 -0.45027491 0.058580473
-0.082146972 -0.45038155 0.058610737
-0.082304657 -0.45049512 0.058629412
-0.082474448 -0.45061803 0.058645703
-0.082644522 -0.45075002 0.058608919
-0.082801454 -0.45086956 0.058588367
-0.082963347 -0.45099029 0.058582783
-0.083136231 -0.45111665 0.058592137
-0.083290167 -0.45122626 0.058617756
-0.083492145 -0.45138094 0.058586553
-0.083644979 -0.45150459 0.05852332
-0.083797947 -0.45161116 0.058562793
-0.083968267 -0.45174739 0.058501773
-0.084127069 -0.451877 0.058429271
-0.084278196 -0.45199612 0.05838567
-0.084433377 -0.45211244 0.058376677
-0.084593967 -0.45223123 0.058376871
-0.084767841 -0.45235467 0.058408141
-0.084938809 -0.45248672 0.058374807
-0.085081682 -0.45259356 0.058368184
-0.08524783 -0.45272705 0.058304876
-0.085407019 -0.45284116 0.058327008
-0.0855764 -0.45297939 0.058249831
-0.085733071 -0.45309392 0.058258127
-0.085909583 -0.45321968 0.058287084
-0.086078621 -0.45334589 0.058280297
-0.0862303 -0.45346135 0.058260929
-0.086397149 -0.45359018 0.05822878
-0.086556628 -0.45372108 0.058151655
-0.086711839 -0.45382971 0.058188818
-0.086854942 -0.45392784 0.05823528
-0.087037593 -0.45407569 0.058159173
-0.087183595 -0.45419121 0.058114454
-0.087340295 -0.45430961 0.058099668
-0.087507643 -0.45442995 0.058120593
-0.087676838 -0.45456243 0.058076888
-0.08784128 -0.45468158 0.058092065
-0.087998278 -0.45480406 0.058054201
-0.088163681 -0.45493087 0.058027823
-0.08830516 -0.45503801 0.058013134
-0.088463888 -0.45515579 0.058011029
-0.088629067 -0.45528302 0.057981189
-0.0887914 -0.45540982 0.057940986
-0.088952467 -0.45552647 0.057956178
-0.089101441 -0.45563126 0.057988755
-0.089260831 -0.45575842 0.057933565
-0.089422405 -0.4558816 0.057911828
-0.089586675 -0.45600525 0.057899311
-0.089760065 -0.45614064 0.057856731
-0.089909047 -0.45624757 0.057876617
-0.090053052 -0.45636237 0.057827286
-0.090213284 -0.4564724 0.057878263
-0.09037172 -0.45659789 0.057828847
-0.090533413 -0.45673427 0.057728637
-0.090692833 -0.45682964 0.057863861
-0.090851761 -0.456974 0.057703659
-0.091006137 -0.45708182 0.057741974
-0.091163658 -0.45719835 0.057742186
-0.091327094 -0.45732445 0.057711206
-0.091481715 -0.45744634 0.057666425
-0.09164194 -0.45756525 0.05766432
-0.091805004 -0.45768142 0.057691045
-0.09195932 -0.45779598 0.057688963
-0.092116497 -0.45791492 0.057673022
-0.092270643 -0.45803532 0.057635181
-0.092444822 -0.45818016 0.057539508
-0.092593454 -0.45827314 0.057641327
-0.092747174 -0.45839763 0.057576939
-0.092909619 -0.45852378 0.057541355
-0.093075581 -0.45863634 0.057602677
-0.093222432 -0.45876923 0.057457548
-0.093382508 -0.45887801 0.05751545
-0.093547642 -0.45900345 0.057495996
-0.093700856 -0.45912331 0.057457007
-0.09387479 -0.45925143 0.057460584
-0.094025902 -0.45935798 0.057491988
-0.094181761 -0.45948002 0.057451822
-0.094334804 -0.45959786 0.057424374
-0.094484761 -0.45971435 0.057391159
-0.094641663 -0.45982444 0.057427153
-0.094791315 -0.45994225 0.057384711
-0.094953492 -0.46006051 0.057395287
-0.095109969 -0.46019629 0.057275496
-0.095272288 -0.46031231 0.057299912
-0.095428333 -0.46042734 0.057302441
-0.095586956 -0.46054623 0.057293415
-0.095736161 -0.46066275 0.057256747
-0.095900014 -0.46078801 0.057232689
-0.096049473 -0.46090204 0.057212181
-0.096210644 -0.46102318 0.05720083
-0.09638042 -0.46115071 0.057189438
-0.096523397 -0.46124721 0.057245124
-0.096671514 -0.46136618 0.05718885
-0.096837536 -0.46150905 0.057069004
-0.096996032 -0.46162552 0.057073828
-0.097151071 -0.46172845 0.057144444
-0.097300969 -0.46183854 0.057149321
-0.097477421 -0.46197814 0.057095185
-0.097639374 -0.46210682 0.05704229
-0.097791567 -0.46222034 0.057036761
-0.097929172 -0.46232384 0.057026707
-0.098097257 -0.46244279 0.057059169
-0.098247409 -0.46256253 0.057007495
-0.098413177 -0.46267766 0.057052664
-0.098555721 -0.46277672 0.05709105
-0.098699823 -0.46288192 0.057099432
-0.098847814 -0.46303746 0.056823887
-0.099016465 -0.46315432 0.056871355
-0.099173151 -0.46326426 0.056907348
-0.099329606 -0.46337497 0.056937568
-0.099479184 -0.46350312 0.056832816
-0.099649511 -0.46363452 0.056800641
-0.099811882 -0.46374887 0.05683545
-0.099958465 -0.46385613 0.056842644
-0.10010688 -0.46396783 0.056831375
-0.10027581 -0.46411014 0.056727663
-0.1004276 -0.46421412 0.056777526
-0.10058241 -0.46433637 0.056731597
-0.1007319 -0.46443728 0.056789562
-0.10089525 -0.46455002 0.056838207
-0.10104351 -0.46467704 0.056734614
-0.10119467 -0.46479788 0.056680635
-0.10135227 -0.4649139 0.056684304
-0.10150549 -0.46503782 0.056621082
-0.10165985 -0.46515217 0.056620151
-0.10182425 -0.46526322 0.056683801
-0.10196368 -0.46538213 0.056589492
-0.10212606 -0.4655036 0.056581602
-0.10228659 -0.4656077 0.056669503
-0.1024422 -0.46573341 0.056606252
