# .PCD v0.7 - Point Cloud Data file format
VERSION 0.7
FIELDS x y z
SIZE 4 4 4
TYPE F F F
COUNT 1 1 1
WIDTH 1281
HEIGHT 1
VIEWPOINT 0 0 0 1 0 0 0
POINTS 1281
DATA ascii
-0.22088191 -0.27199343 0.050096691
-0.22111899 -0.27202955 0.05000693
-0.22134268 -0.27205878 0.049974047
-0.22156836 -0.27209017 0.049920291
-0.22180238 -0.27212411 0.049850252
-0.22202504 -0.27215439 0.049804632
-0.22224872 -0.27218524 0.049754363
-0.2224738 -0.2722168 0.049698301
-0.22269605 -0.27224594 0.049664263
-0.2229245 -0.2722792 0.049594264
-0.22314948 -0.27230975 0.04954863
-0.22336802 -0.27233881 0.049511153
-0.22359338 -0.27236974 0.049462028
-0.223813 -0.27239946 0.049418747
-0.22404134 -0.27243194 0.049356855
-0.22425906 -0.272461 0.049318232
-0.22448099 -0.27249074 0.049277246
-0.22469912 -0.27252018 0.049235132
-0.22491828 -0.27255017 0.049188379
-0.22513428 -0.27257881 0.049152076
-0.22535415 -0.27260798 0.049114581
-0.22561567 -0.27265006 0.048992202
-0.22577693 -0.27265334 0.049156755
-0.22620124 -0.27271309 0.04904829
-0.22650637 -0.27277911 0.048726276
-0.2269088 -0.27282107 0.048779033
-0.22708702 -0.27283797 0.048820633
-0.22730859 -0.27287018 0.048753005
-0.22752404 -0.27289823 0.048722498
-0.22773609 -0.27292606 0.048689701
-0.22795166 -0.27295431 0.048656873
-0.22818069 -0.27298644 0.048599616
-0.22837979 -0.273011 0.048585448
-0.22859146 -0.27303901 0.048550341
-0.2288104 -0.27306932 0.048500106
-0.22901526 -0.27309412 0.048490539
-0.22922799 -0.27312151 0.048463527
-0.22943874 -0.2731494 0.048428416
-0.22965822 -0.27317744 0.048402525
-0.22985598 -0.27320188 0.048388362
-0.23006466 -0.27322897 0.048359063
-0.23027451 -0.27325678 0.048323967
-0.23047975 -0.27328229 0.048307434
-0.23068495 -0.27330637 0.04830597
-0.23088329 -0.27332845 0.048317306
-0.23108526 -0.27335095 0.048328619
-0.23127398 -0.27336809 0.04838058
-0.23146027 -0.2733824 0.048459206
-0.23162165 -0.27338353 0.048646949
-0.2306923 -0.27252966 0.056546319
-0.23094365 -0.27257609 0.056364909
-0.23109698 -0.27256447 0.056677863
-0.23130716 -0.27259034 0.056663617
-0.23152933 -0.27261949 0.05662958
-0.23183165 -0.27260095 0.057199888
-0.23240617 -0.27263656 0.057533018
-0.23261899 -0.27265859 0.057562783
-0.23400787 -0.27317807 0.053775117
-0.23420104 -0.27319309 0.053854853
-0.23445642 -0.27322832 0.053797416
-0.23468058 -0.27325791 0.05376105
-0.23486339 -0.27327761 0.053778294
-0.23508893 -0.27330637 0.053752352
-0.23530184 -0.27333137 0.053750828
-0.23551048 -0.27336481 0.053654328
-0.23568006 -0.27338046 0.053698309
-0.23594396 -0.27341986 0.053607199
-0.23613948 -0.27344203 0.053613916
-0.23635362 -0.27346629 0.053621657
-0.23654974 -0.27348515 0.053664297
-0.23672953 -0.27350342 0.053693153
-0.23693776 -0.27352983 0.053670801
-0.23717481 -0.2735782 0.053451255
-0.23735417 -0.27359641 0.053480111
-0.23759149 -0.27361628 0.053563006
-0.23779269 -0.27364054 0.053554617
-0.23798996 -0.27366829 0.053504549
-0.23821825 -0.2736963 0.053490169
-0.2384171 -0.27372128 0.053471372
-0.2386028 -0.27374581 0.053441081
-0.23884088 -0.27377439 0.053432431
-0.23903157 -0.27379832 0.053414848
-0.23924896 -0.27382362 0.053415611
-0.23946902 -0.27385905 0.053312071
-0.23966123 -0.27387801 0.053348944
-0.2398459 -0.27389815 0.053363852
-0.24007466 -0.27392939 0.053315867
-0.24024811 -0.27394831 0.053329691
-0.24042299 -0.2739661 0.053357422
-0.24066785 -0.27400884 0.053207345
-0.24084322 -0.27402493 0.053253602
-0.24107929 -0.27405089 0.053270459
-0.2412807 -0.27407444 0.053270187
-0.24145401 -0.27409574 0.053258531
-0.24168937 -0.27413037 0.053182688
-0.24187511 -0.27414954 0.053209171
-0.24208425 -0.27417672 0.053179868
-0.24227555 -0.27419776 0.053193569
-0.24249372 -0.27422249 0.053201284
-0.24268888 -0.27425119 0.053138472
-0.2428675 -0.27426755 0.053185876
-0.24312139 -0.27431485 0.052998647
-0.24332292 -0.27433446 0.053040095
-0.24349988 -0.27434966 0.053097934
-0.24370143 -0.2743766 0.053061731
-0.24390395 -0.27440441 0.053017408
-0.24411705 -0.27443072 0.053001989
-0.24431536 -0.27445543 0.052985512
-0.24453351 -0.27448091 0.052985113
-0.24472238 -0.27450582 0.052954793
-0.24492818 -0.27453172 0.052934792
-0.2451514 -0.27456164 0.052893799
-0.24532874 -0.27458519 0.052863561
-0.24550632 -0.27459839 0.052943416
-0.24572062 -0.27462912 0.052882787
-0.24593058 -0.27466172 0.052796699
-0.24612452 -0.27467805 0.052863687
-0.24632928 -0.27470645 0.052815877
-0.24653009 -0.27473712 0.052739121
-0.24671762 -0.27475345 0.052798044
-0.24693036 -0.2747865 0.052710772
-0.24712005 -0.2748163 0.052629463
-0.2473329 -0.27483541 0.052690517
-0.24753115 -0.27485275 0.052751683
-0.2477351 -0.27487832 0.052732848
-0.24792194 -0.27489698 0.052766286
-0.24811473 -0.27492124 0.052747529
-0.24832593 -0.27496016 0.052596532
-0.24852288 -0.27497944 0.052635688
-0.24873495 -0.27500716 0.052604053
-0.24892367 -0.27502471 0.052651376
-0.24912629 -0.27505288 0.052603573
-0.24933274 -0.27508181 0.052552275
-0.24953592 -0.27511418 0.05246044
-0.24972439 -0.27513501 0.052473001
-0.24992202 -0.27515525 0.052502885
-0.25013041 -0.27518341 0.052461993
-0.25033337 -0.27520594 0.052474454
-0.25050825 -0.27522275 0.052512612
-0.25070292 -0.27524689 0.05249732
-0.25091338 -0.27528143 0.052391522
-0.25111386 -0.27530146 0.05242718
-0.25129941 -0.27532303 0.052428175
-0.25151411 -0.27535939 0.052308448
-0.25171611 -0.27538133 0.052325543
-0.2519218 -0.27540767 0.0523009
-0.25212634 -0.27542883 0.05232957
-0.25235015 -0.27546144 0.052260764
-0.25253204 -0.27548313 0.052255996
-0.25270373 -0.27549627 0.052328937
-0.25290763 -0.27552918 0.052232459
-0.25310737 -0.27555284 0.052228719
-0.25331819 -0.27557811 0.052221417
-0.25348869 -0.27560261 0.052172702
-0.25368291 -0.27561918 0.052237358
-0.25387815 -0.27564603 0.052194253
-0.25409892 -0.27567172 0.052194998
-0.25429305 -0.27569735 0.052163489
-0.25450423 -0.27572379 0.052144602
-0.25469503 -0.2757594 0.052003019
-0.25489199 -0.27577507 0.052080411
-0.25508988 -0.27579701 0.052092917
-0.25529289 -0.27582684 0.052027732
-0.25546995 -0.27584249 0.052080929
-0.25564191 -0.27584988 0.052215297
-0.25586304 -0.27589309 0.052030623
-0.25604522 -0.27591154 0.052060615
-0.25624612 -0.2759445 0.051959526
-0.25644279 -0.27596486 0.051987082
-0.25664419 -0.27599353 0.051932346
-0.25684145 -0.27601504 0.051948328
-0.25703785 -0.27604115 0.051914476
-0.25722665 -0.27606595 0.051885322
-0.25742549 -0.27608413 0.05193837
-0.25763854 -0.27611023 0.051925264
-0.25781962 -0.27613345 0.051903106
-0.25800851 -0.27615902 0.051865838
-0.25820324 -0.27618274 0.051855192
-0.25839978 -0.27621064 0.051802792
-0.25861645 -0.27623814 0.05177924
-0.2588003 -0.27625304 0.051848613
-0.25899494 -0.27628517 0.051748723
-0.25917336 -0.27630338 0.051776417
-0.259377 -0.2763333 0.051711239
-0.25957635 -0.27636153 0.051658832
-0.25979176 -0.27638713 0.051653817
-0.25997642 -0.27640375 0.051705807
-0.26016492 -0.27642131 0.05175313
-0.26034981 -0.27644837 0.051695026
-0.2605499 -0.27648038 0.051603217
-0.26074511 -0.27650854 0.051546209
-0.26094022 -0.276537 0.051485717
-0.2611334 -0.27655914 0.051490132
-0.26132679 -0.27656916 0.051623181
-0.26151428 -0.27658218 0.051716864
-0.26170897 -0.27662396 0.051515002
-0.2619071 -0.27665257 0.051456809
-0.26210579 -0.27666867 0.051531866
-0.26229608 -0.27669397 0.051499233
-0.26249209 -0.27673152 0.051343709
-0.26268959 -0.27674025 0.051495261
-0.26287884 -0.27676061 0.051513612
-0.26307955 -0.27678689 0.051483214
-0.26328385 -0.27681449 0.051443517
-0.26346982 -0.27683717 0.051432926
-0.26366383 -0.27686924 0.05133304
-0.26386076 -0.27689794 0.051272534
-0.26406029 -0.2769171 0.051316306
-0.26424566 -0.27693492 0.051356703
-0.26444212 -0.27695927 0.0513414
-0.26463857 -0.27698553 0.051306397
-0.26482394 -0.27700004 0.051381551
-0.26501337 -0.27703366 0.051259689
-0.26520959 -0.2770721 0.051094897
-0.26541281 -0.27708504 0.051209331
-0.26559851 -0.27709621 0.051320411
-0.26579419 -0.27713308 0.051171854
-0.26599756 -0.27715331 0.051208645
-0.26618323 -0.27717075 0.051253669
-0.2663742 -0.27721295 0.051042557
-0.26657793 -0.27722865 0.051128022
-0.26677749 -0.27725166 0.051131234
-0.26697254 -0.27728176 0.051053356
-0.26715764 -0.2773039 0.051047403
-0.26735678 -0.27732894 0.051028602
-0.26755419 -0.27734238 0.051130332
-0.26773512 -0.27736777 0.051085003
-0.26793292 -0.2773993 0.050995529
-0.26812863 -0.27742237 0.050992973
-0.26832825 -0.27744436 0.051006623
-0.26851749 -0.27746397 0.05103308
-0.26870829 -0.27749214 0.050970308
-0.26889646 -0.27751577 0.05095274
-0.26909131 -0.2775417 0.050918907
-0.26928574 -0.27756867 0.050873484
-0.26948014 -0.2775836 0.050955538
-0.26967356 -0.27761343 0.050878827
-0.26987347 -0.27763459 0.050901741
-0.27007174 -0.27766049 0.050872512
-0.27025524 -0.27768597 0.050829493
-0.27045369 -0.277711 0.050809532
-0.27064034 -0.2777282 0.050858032
-0.27081585 -0.2777546 0.050795369
-0.27101672 -0.27778244 0.050748736
-0.27120632 -0.27780175 0.050778672
-0.2714065 -0.27783072 0.050719313
-0.27160591 -0.277861 0.050644882
-0.27180466 -0.27787709 0.05071995
-0.27198431 -0.27790147 0.050683904
-0.27217793 -0.27792782 0.050644282
-0.27238092 -0.27795064 0.050653268
-0.27256709 -0.27796978 0.050680913
-0.27275401 -0.27799433 0.050651763
-0.27294824 -0.27801931 0.050627202
-0.27313617 -0.27804202 0.050618909
-0.27333292 -0.27806893 0.050576955
-0.27352467 -0.27809155 0.050574429
-0.27371806 -0.27811754 0.050538287
-0.2739172 -0.27814057 0.050540335
-0.27410927 -0.27816269 0.050543603
-0.27430326 -0.27818763 0.050519045
-0.27448878 -0.27820823 0.050530471
-0.27467769 -0.27823475 0.050482772
-0.27486363 -0.27827024 0.050336599
-0.27506575 -0.2782791 0.050492749
-0.27524921 -0.27830741 0.050419606
-0.27543986 -0.27833626 0.050349873
-0.27563331 -0.27835664 0.050372824
-0.27582905 -0.27837908 0.050377235
-0.27602348 -0.27839851 0.050411768
-0.2762123 -0.27842909 0.050321188
-0.27640796 -0.27845609 0.050276924
-0.27659634 -0.278478 0.050277896
-0.27679724 -0.27849916 0.050301962
-0.27699167 -0.27851892 0.050333023
-0.27718562 -0.27854759 0.050269064
-0.27735889 -0.2785852 0.050084736
-0.2775645 -0.27860561 0.050122667
-0.27775994 -0.27862048 0.050207023
-0.2779406 -0.27864617 0.050158225
-0.27814603 -0.27866709 0.050190374
-0.27835336 -0.27869394 0.050162233
-0.27854756 -0.27871433 0.050186347
-0.27872738 -0.27873698 0.050168838
-0.27891925 -0.27875599 0.05020456
-0.27910835 -0.27879184 0.050058354
-0.27931243 -0.27880728 0.050147291
-0.27949008 -0.27883872 0.050033618
-0.27968991 -0.27886832 0.049967296
-0.27987918 -0.27888626 0.050011151
-0.28007782 -0.27891001 0.050005093
-0.2802754 -0.27893791 0.049953863
-0.28046626 -0.27895811 0.049975678
-0.28066006 -0.27898249 0.049956918
-0.28086084 -0.27900782 0.049936939
-0.28104576 -0.27903271 0.049902011
-0.28123307 -0.27905577 0.049889088
-0.28142518 -0.2790722 0.049952619
-0.28161633 -0.27909857 0.04990954
-0.28182194 -0.27912641 0.049868669
-0.28199753 -0.279149 0.04984656
-0.28219491 -0.27917379 0.049827773
-0.2823776 -0.27919722 0.049805615
-0.28257126 -0.27922168 0.049785689
-0.28276783 -0.27924138 0.049820211
-0.2829574 -0.27926582 0.049795683
-0.28314799 -0.2792896 0.049779266
-0.28332731 -0.27932072 0.049671378
-0.28352904 -0.27934536 0.049659509
-0.28370875 -0.27937061 0.049614191
-0.28391361 -0.27938536 0.049711227
-0.28408059 -0.27941853 0.049566347
-0.28428063 -0.27943903 0.049596213
-0.2844831 -0.2794556 0.049671248
-0.28470352 -0.27947435 0.049745001
-0.28487992 -0.27950665 0.049620915
-0.2850785 -0.27953336 0.049583569
-0.28530347 -0.27953985 0.049792871
-0.28549007 -0.27957597 0.049640901
-0.28566387 -0.27960205 0.049579404
-0.28584862 -0.2796292 0.049520139
-0.28603777 -0.27964911 0.049543131
-0.28622127 -0.27967688 0.04947577
-0.2864289 -0.27969861 0.049502097
-0.28662682 -0.27972096 0.049509965
-0.28681019 -0.27974874 0.049442604
-0.28700492 -0.27977279 0.049428467
-0.28719154 -0.27979425 0.049431771
-0.28737482 -0.2798197 0.049388748
-0.2875787 -0.27984363 0.049387291
-0.28777623 -0.27986637 0.049390517
-0.28795931 -0.27989191 0.049346343
-0.288149 -0.27991417 0.049344987
-0.28834024 -0.27994218 0.049284521
-0.28854212 -0.27996296 0.049314372
-0.28871378 -0.27999172 0.049221605
-0.28891921 -0.280013 0.049250267
-0.28912005 -0.28003439 0.049272016
-0.28930455 -0.28005922 0.049237095
-0.28950018 -0.28008512 0.049204413
-0.28969249 -0.28010845 0.049194932
-0.28989583 -0.28012893 0.049229406
-0.29008222 -0.28015497 0.049184039
-0.29027364 -0.28017679 0.049189631
-0.29046321 -0.2802034 0.049141921
-0.29065332 -0.28022778 0.049118556
-0.29086399 -0.28024739 0.049171519
-0.29106051 -0.28027108 0.049163163
-0.29123497 -0.28030208 0.04905067
-0.29145181 -0.28031933 0.049136043
-0.2916334 -0.28034732 0.049064055
-0.29181719 -0.28037247 0.0490245
-0.2920115 -0.28039715 0.049003415
-0.2922231 -0.28041685 0.049056374
-0.29239407 -0.28044707 0.04894739
-0.29258376 -0.28047174 0.048920542
-0.29278165 -0.28049508 0.048917972
-0.29299214 -0.28051367 0.048981369
-0.29319367 -0.28053755 0.04897761
-0.29335931 -0.28056955 0.048843171
-0.29356775 -0.2805891 0.048893832
-0.29377416 -0.28060776 0.048951462
-0.29396304 -0.28063637 0.048881743
-0.29413515 -0.28066924 0.048746094
-0.2943348 -0.28068876 0.048786391
-0.2945503 -0.28070441 0.048886824
-0.2947405 -0.28073254 0.048824057
-0.29494256 -0.28075987 0.048784379
-0.2951355 -0.28078195 0.048788793
-0.29533389 -0.28080556 0.048783898
-0.29552713 -0.28083426 0.048718791
-0.29572195 -0.28085583 0.048731308
-0.29589316 -0.28088367 0.048647813
-0.29608926 -0.28090811 0.048631344
-0.2962867 -0.28093052 0.04863805
-0.29648519 -0.28095427 0.048632
-0.29670018 -0.28097272 0.048702318
-0.29689404 -0.28099963 0.048656899
-0.29708466 -0.2810244 0.048630044
-0.29725838 -0.28105134 0.048559278
-0.29744527 -0.28108039 0.048482623
-0.29765764 -0.28109691 0.048570346
-0.29786572 -0.28111792 0.048604786
-0.29806179 -0.28114423 0.048568621
-0.29824874 -0.28117022 0.04852441
-0.29843795 -0.28119853 0.04845817
-0.29865664 -0.28121513 0.048552789
-0.29882631 -0.28124774 0.048417158
-0.29902542 -0.28126869 0.048441235
-0.29919004 -0.28130114 0.048301
-0.29937491 -0.28132623 0.048263762
-0.29960334 -0.28134188 0.048380338
-0.29979107 -0.28136918 0.048323371
-0.29999694 -0.28139135 0.048342761
-0.30019325 -0.28141484 0.048336726
-0.30040559 -0.28143537 0.048381571
-0.30055863 -0.28147075 0.04819623
-0.30078241 -0.28148824 0.04828734
-0.30097193 -0.28151366 0.048252385
-0.30118373 -0.28153458 0.048292585
-0.30137888 -0.28155857 0.04827961
-0.3015711 -0.28158477 0.048239999
-0.30175826 -0.28161088 0.048194628
-0.30196452 -0.28163344 0.048210539
-0.30215791 -0.28165799 0.048189461
-0.30237067 -0.28167903 0.048229665
-0.30254212 -0.28171054 0.04810793
-0.30276465 -0.28172922 0.048185144
-0.30294907 -0.2817561 0.048128203
-0.30314708 -0.28178099 0.048109412
-0.30333209 -0.28180772 0.048054785
-0.30353814 -0.28183073 0.048066068
-0.30375168 -0.28185195 0.048105098
-0.30394053 -0.28187785 0.048064359
-0.30412659 -0.28190437 0.048013199
-0.30432943 -0.2819283 0.048010595
-0.30454609 -0.28195032 0.048044972
-0.30474356 -0.2819756 0.048021547
-0.30491969 -0.28200445 0.047933377
-0.30510283 -0.28203043 0.047884569
-0.3053138 -0.28205267 0.047909718
-0.30550906 -0.28207725 0.047890939
-0.30573004 -0.28209737 0.047950789
-0.30595911 -0.28211585 0.048038378
-0.30610222 -0.28215319 0.047819506
-0.30631495 -0.28217533 0.047848117
-0.30651328 -0.28220308 0.047799192
-0.30672294 -0.28222474 0.04782898
-0.30692506 -0.28225175 0.047792785
-0.30711761 -0.28227466 0.047787931
-0.3073262 -0.28229916 0.047786444
-0.30752006 -0.28232551 0.047746822
-0.30772075 -0.28234687 0.047768567
-0.30792055 -0.28237209 0.047748607
-0.30812451 -0.28239885 0.04771702
-0.3083159 -0.28242582 0.047668144
-0.30851433 -0.28244898 0.047667891
-0.30870256 -0.28247306 0.047645692
-0.30889302 -0.28250021 0.047593348
-0.30909765 -0.28252345 0.047600001
-0.30928928 -0.28255045 0.047551125
-0.30945 -0.28257871 0.047450319
-0.30970669 -0.28259212 0.047625788
-0.30987096 -0.2826255 0.047475122
-0.31009212 -0.28264466 0.047545396
-0.3103098 -0.28266802 0.047567021
-0.31050205 -0.28269619 0.047506552
-0.31070733 -0.28272191 0.047487706
-0.31090704 -0.28274643 0.047474701
-0.31109866 -0.28277135 0.047447838
-0.31131321 -0.28279662 0.047445152
-0.31150743 -0.28282335 0.04740205
-0.31171548 -0.28284878 0.047390141
-0.31190288 -0.28287119 0.047384169
-0.31210473 -0.28289446 0.047387369
-0.31231931 -0.28292215 0.047359176
-0.31250104 -0.28294784 0.047311537
-0.3127287 -0.282969 0.047369011
-0.31288886 -0.28299949 0.047243871
-0.31308827 -0.28302333 0.047237813
-0.31330582 -0.28304636 0.047262914
-0.31351167 -0.2830703 0.047263768
-0.31371832 -0.28309631 0.047243759
-0.31392121 -0.28312296 0.04721218
-0.31410581 -0.28314835 0.047171466
-0.314345 -0.28316921 0.047246244
-0.31454816 -0.2831938 0.047236685
-0.31473863 -0.28322151 0.047178548
-0.31491867 -0.28324878 0.047112364
-0.3151103 -0.2832742 0.047079708
-0.31531245 -0.28330013 0.047055095
-0.31552234 -0.28332487 0.047052439
-0.31574881 -0.28334817 0.047085594
-0.31594357 -0.28337222 0.047071457
-0.31613225 -0.28339931 0.047017969
-0.31634963 -0.28342208 0.047045384
-0.31656399 -0.28344846 0.047031116
-0.31674796 -0.28347626 0.046963751
-0.31695193 -0.28350219 0.046941433
-0.31716114 -0.28352433 0.046965439
-0.31736177 -0.28355181 0.046922296
-0.31754795 -0.28357837 0.046871137
-0.31777096 -0.2836017 0.046899676
-0.31796882 -0.28362766 0.046869297
-0.3181971 -0.28365433 0.046868823
-0.31841242 -0.28368288 0.046832524
-0.31860203 -0.28370908 0.046789452
-0.31879944 -0.28373322 0.046777621
-0.31901941 -0.2837573 0.046794601
-0.31921977 -0.28378114 0.046789691
-0.31939712 -0.28381103 0.046692245
-0.31962559 -0.28383216 0.046750873
-0.31982931 -0.2838586 0.046722773
-0.3200365 -0.28388071 0.046744473
-0.21359111 -0.27095768 0.052056707
-0.21382937 -0.27098969 0.052012123
-0.21407591 -0.27102616 0.051930398
-0.21433078 -0.27106494 0.051834702
-0.21457326 -0.27110007 0.051762275
-0.2148186 -0.2711353 0.051692151
-0.21508819 -0.2711792 0.051560424
-0.2153385 -0.27121896 0.051448554
-0.21555799 -0.27124539 0.051440027
-0.21578358 -0.27127317 0.051424507
-0.2160223 -0.27130634 0.051368326
-0.2162576 -0.27133822 0.051321439
-0.21648896 -0.27136976 0.051273432
-0.21672225 -0.27140215 0.051218454
-0.21695818 -0.27143577 0.051154189
-0.21719849 -0.27147007 0.051087573
-0.21744001 -0.27150619 0.051003564
-0.21766849 -0.27153707 0.050959058
-0.21790071 -0.27156955 0.050901771
-0.21813729 -0.27160281 0.050842129
-0.21837027 -0.27163583 0.050780207
-0.21861123 -0.27167112 0.050704315
-0.21884201 -0.27170345 0.050647035
-0.21907282 -0.27173591 0.050588593
-0.21930616 -0.27176952 0.050520871
-0.21954411 -0.271804 0.05044964
-0.21978381 -0.27184057 0.050358694
-0.22001244 -0.27187252 0.050302587
-0.22025307 -0.27190974 0.050205838
-0.22047052 -0.27193591 0.050197326
-0.22070129 -0.27196914 0.050130785
-0.22092935 -0.27200004 0.050085105
-0.221166 -0.27203605 0.049996503
-0.22138709 -0.27206537 0.049958996
-0.22161166 -0.27209634 0.049908713
-0.22183833 -0.27212828 0.049850307
-0.22206396 -0.2721599 0.049794231
-0.22229145 -0.2721912 0.049743928
-0.22251545 -0.27222231 0.049691334
-0.22273511 -0.27225158 0.049652677
-0.2229638 -0.27228498 0.049581513
-0.22318771 -0.27231508 0.049539346
-0.22340651 -0.27234429 0.049500696
-0.22362864 -0.27237505 0.049449272
-0.22384784 -0.27240461 0.049407139
-0.22407515 -0.27243665 0.049348734
-0.22429346 -0.27246597 0.049307771
-0.22451182 -0.27249545 0.049265645
-0.22472957 -0.27252471 0.049224682
-0.2249493 -0.27255368 0.049189508
-0.22516716 -0.27258319 0.049146228
-0.22538631 -0.27261341 0.049097147
-0.22564085 -0.27265224 0.0490003
-0.22580585 -0.27265728 0.049150918
-0.22599402 -0.27267718 0.049172744
-0.22622728 -0.27271572 0.049052875
-0.22654188 -0.27278894 0.048665892
-0.22691682 -0.27281785 0.048823126
-0.22711137 -0.27284256 0.048802029
-0.22732958 -0.27287319 0.04874716
-0.22754151 -0.27290091 0.048715506
-0.2277544 -0.27292919 0.048679225
-0.22797023 -0.27295756 0.048645221
-0.22820038 -0.27299029 0.048583318
-0.22839391 -0.27301353 0.048576139
-0.22860524 -0.2730414 0.048542179
-0.22882734 -0.27307186 0.048494231
-0.22902554 -0.27309477 0.048496291
-0.22923848 -0.27312371 0.048453048
-0.2294509 -0.27315247 0.048410963
-0.22966434 -0.27317894 0.048394367
-0.22986524 -0.27320349 0.048382506
-0.23007502 -0.27323118 0.048348553
-0.23028511 -0.27325913 0.048312284
-0.23048574 -0.27328378 0.048299257
-0.23069301 -0.27330744 0.048304718
-0.23088814 -0.27332935 0.048313759
-0.23108718 -0.27335185 0.048321594
-0.23127317 -0.27336755 0.048385154
-0.23146187 -0.27338162 0.048469558
-0.23161685 -0.27338088 0.048668917
-0.23072204 -0.27254725 0.056396551
-0.23094994 -0.27258274 0.056302212
-0.23109016 -0.27256235 0.056691732
-0.23130876 -0.27259284 0.05663918
-0.23181666 -0.27259603 0.05723349
-0.23241994 -0.2726478 0.057430796
-0.23376659 -0.27314243 0.053854305
-0.23399688 -0.27317876 0.053754151
-0.23419388 -0.27319074 0.053870939
-0.23445444 -0.27322897 0.053787947
-0.23466957 -0.27325684 0.053758603
-0.23485431 -0.27327591 0.053785093
-0.23507673 -0.27330464 0.053755682
-0.2352917 -0.27333084 0.053743713
-0.23549321 -0.27336368 0.053644925
-0.23566967 -0.2733798 0.053692326
-0.23593357 -0.2734192 0.05360122
-0.23613219 -0.27344143 0.053611379
-0.23634341 -0.27346578 0.053614501
-0.23653774 -0.27348354 0.053666413
-0.2367131 -0.27350095 0.053698763
-0.23692988 -0.27353078 0.053650856
-0.23716335 -0.27357885 0.053430166
-0.23734154 -0.27359441 0.053485665
-0.23758139 -0.2736159 0.053554632
-0.23777774 -0.27363905 0.053552076
-0.23799342 -0.2736707 0.053483311
-0.2382081 -0.27369589 0.05348178
-0.238399 -0.27371973 0.05346534
-0.23858538 -0.27374271 0.053452425
-0.23883046 -0.27377388 0.053425167
-0.23901221 -0.27379596 0.053415753
-0.23923971 -0.27382386 0.053401381
-0.23945796 -0.27385813 0.053308263
-0.23964997 -0.27387694 0.053346291
-0.2398352 -0.2738975 0.053357713
-0.24006042 -0.2739284 0.053308591
-0.24023961 -0.27394703 0.053332798
-0.24041618 -0.27396601 0.053350076
-0.24066027 -0.27400821 0.053204626
-0.24083973 -0.27402282 0.053271711
-0.24108027 -0.27405193 0.053260714
-0.24127291 -0.27407366 0.053268608
-0.24145286 -0.27409753 0.053238343
-0.24168363 -0.27412888 0.053191498
-0.24187952 -0.27415088 0.053200524
-0.24208456 -0.27417734 0.053173557
-0.24226663 -0.27419621 0.053198911
-0.24249485 -0.27422374 0.053189158
-0.24268687 -0.27425012 0.05314723
-0.24287826 -0.2742714 0.053158604
-0.24313559 -0.27431658 0.052998003
-0.2433258 -0.27433473 0.053040672
-0.24351066 -0.27435118 0.053094972
-0.243715 -0.27438033 0.053039044
-0.24391486 -0.27440608 0.053013273
-0.24412099 -0.27443191 0.052994411
-0.24432346 -0.27445742 0.052974425
-0.24454337 -0.2744818 0.052987911
-0.24474151 -0.2745091 0.052943617
-0.24494728 -0.274535 0.052923597
-0.24516693 -0.27456462 0.052881461
-0.2453384 -0.27458593 0.052867487
-0.24552289 -0.27459961 0.052950766
-0.24574272 -0.27463505 0.052847214
-0.24594904 -0.27466461 0.052788951
-0.24614975 -0.27468127 0.052860513
-0.24635325 -0.2747114 0.052793004
-0.24655637 -0.27474138 0.052726656
-0.24675365 -0.27475786 0.052795924
-0.24695387 -0.27479118 0.052690201
-0.24715286 -0.27482077 0.052622721
-0.24736542 -0.27483961 0.052686095
-0.24755302 -0.27485311 0.052775137
-0.24776958 -0.27488443 0.05271101
-0.24795066 -0.27489769 0.0527943
-0.2481592 -0.2749308 0.052701265
-0.24835905 -0.27496508 0.052585103
-0.24856085 -0.27498287 0.052646235
-0.24877264 -0.27501035 0.052616909
-0.24896349 -0.27503002 0.052644514
-0.24916069 -0.275056 0.052612972
-0.24938479 -0.27508974 0.052532561
-0.24957536 -0.27511922 0.052455869
-0.2497716 -0.27514139 0.052463736
-0.24997507 -0.2751644 0.052471552
-0.25018275 -0.27518845 0.052473534
-0.25037986 -0.27521169 0.052470967
-0.25055769 -0.27522817 0.052516051
-0.2507568 -0.27525723 0.052454364
-0.25097081 -0.27528858 0.052386776
-0.25116453 -0.27530837 0.052416667
-0.25134742 -0.27533072 0.052406088
-0.25157222 -0.2753675 0.052294396
-0.25177875 -0.27539095 0.052301027
-0.25198597 -0.27541527 0.052299544
-0.25218353 -0.27543595 0.052324779
-0.25241208 -0.27547044 0.052242026
-0.25258353 -0.27548739 0.052274402
-0.25276005 -0.27550241 0.052333392
-0.25297505 -0.27553695 0.052233346
-0.25317094 -0.27555993 0.052231945
-0.25338027 -0.27558768 0.052196845
-0.25355262 -0.27561033 0.052170113
-0.25375399 -0.27562761 0.052235883
-0.25394806 -0.27565292 0.052207839
-0.2541725 -0.27568373 0.052158721
-0.25437033 -0.27570531 0.05217468
-0.25458905 -0.27573788 0.052100115
-0.25475967 -0.27576852 0.051986478
-0.25496209 -0.27578244 0.05208933
-0.25516868 -0.27580744 0.052079726
-0.25536063 -0.27583575 0.052016936
-0.25553665 -0.27584451 0.052141987
-0.25573289 -0.27586383 0.052179985
-0.25593859 -0.27590403 0.052008163
-0.25612482 -0.2759237 0.052030001
-0.25632778 -0.27595463 0.051953223
-0.2565248 -0.27597567 0.051973831
-0.25672477 -0.2760019 0.051943425
-0.25692999 -0.27602565 0.051945433
-0.25711629 -0.27605188 0.051897742
-0.25731096 -0.27607507 0.051892873
-0.25752574 -0.27609798 0.051915664
-0.25771993 -0.27612033 0.051918916
-0.25790122 -0.27614412 0.051890962
-0.25809669 -0.27616936 0.05186522
-0.25829175 -0.27619392 0.051846437
-0.25849617 -0.27622423 0.051777765
-0.25870007 -0.2762461 0.051798325
-0.25889835 -0.27627078 0.051781841
-0.2590799 -0.27629647 0.051734183
-0.25926077 -0.27631235 0.051789671
-0.25946975 -0.27634725 0.051678084
-0.25967535 -0.27637413 0.051647637
-0.25987917 -0.2763963 0.051664721
-0.26007059 -0.27641252 0.0517294
-0.2602545 -0.27643675 0.051700272
-0.26043808 -0.27646026 0.051678099
-0.2606447 -0.2764914 0.051603615
-0.26083422 -0.2765238 0.051494479
-0.26103389 -0.27654439 0.051523183
-0.26123136 -0.27656955 0.051500909
-0.26142034 -0.27657577 0.051668745
-0.26160961 -0.27659547 0.051694036
-0.26180944 -0.27664495 0.051416807
-0.26200444 -0.27666038 0.051494207
-0.26220074 -0.27668136 0.051514819
-0.26239473 -0.27670807 0.05147171
-0.26259458 -0.27674836 0.051291827
-0.26278341 -0.27674735 0.051536135
-0.26298419 -0.27677363 0.05150573
-0.26318511 -0.27680191 0.051454458
-0.26338166 -0.27682468 0.05145653
-0.26357165 -0.27685177 0.051404178
-0.26376191 -0.27688286 0.051310107
-0.2639727 -0.27690935 0.051290058
-0.26415813 -0.27692881 0.051313065
-0.26435056 -0.2769466 0.051362675
-0.26454714 -0.27697372 0.051318392
-0.26474348 -0.27699775 0.051306553
-0.26493251 -0.27701589 0.051348075
-0.26512182 -0.27705526 0.05116478
-0.26532495 -0.27708688 0.051081054
-0.26552123 -0.27709231 0.051266208
-0.26570672 -0.27711377 0.051268354
-0.26590222 -0.27715081 0.051117469
-0.26610604 -0.27716237 0.051246952
-0.26629809 -0.2771917 0.051173735
-0.26648906 -0.27723029 0.051000856
-0.26669028 -0.27723575 0.051191784
-0.26688883 -0.2772679 0.051096495
-0.26708078 -0.27729309 0.051067311
-0.26726899 -0.27731887 0.051026553
-0.26747581 -0.27734074 0.051050566
-0.2676622 -0.27735531 0.051126875
-0.26785341 -0.27738386 0.05106061
-0.26804435 -0.27741274 0.050990868
-0.26824379 -0.27743548 0.050996393
-0.26843974 -0.27745751 0.051005416
-0.26863557 -0.27748004 0.051008657
-0.26882297 -0.27750674 0.050957479
-0.26901826 -0.27753109 0.05094102
-0.26920933 -0.27755713 0.050901406
-0.26940817 -0.27758154 0.050888397
-0.26959783 -0.27759999 0.050927594
-0.26979905 -0.2776283 0.050876319
-0.26999235 -0.27764717 0.050915495
-0.27019274 -0.27767736 0.050843373
-0.27037671 -0.27770147 0.050815403
-0.27057317 -0.277722 0.050840642
-0.27075413 -0.27774411 0.050830077
-0.2709392 -0.27777416 0.050740682
-0.27113968 -0.27779409 0.05077748
-0.27133441 -0.27781868 0.05075755
-0.27153379 -0.2778492 0.050680794
-0.27173987 -0.27787328 0.050680477
-0.2719188 -0.27789155 0.050708164
-0.27210885 -0.27791756 0.050667405
-0.27230337 -0.27794215 0.050647471
-0.2725051 -0.27796724 0.050630957
-0.27268517 -0.27798378 0.050678335
-0.27287552 -0.27800897 0.050646845
-0.27307421 -0.27803272 0.050640784
-0.27325904 -0.27806056 0.050574571
-0.27345812 -0.27808359 0.050576612
-0.27365211 -0.27810866 0.050550889
-0.27384746 -0.27813157 0.050549492
-0.27404493 -0.27815706 0.050523743
-0.27423397 -0.27817804 0.050535135
-0.27443269 -0.2782017 0.050530232
-0.27461496 -0.27822146 0.050546311
-0.27480385 -0.27825838 0.050388511
-0.27500409 -0.27827981 0.050409093
-0.27519351 -0.27829537 0.050478429
-0.27538088 -0.27832839 0.050360039
-0.27557963 -0.27835184 0.050357461
-0.27576891 -0.27837265 0.050371163
-0.27596465 -0.27839047 0.050424233
-0.27615419 -0.27842027 0.050342917
-0.27634189 -0.27844742 0.050287109
-0.27654085 -0.27847067 0.050286841
-0.2767278 -0.27849415 0.050269272
-0.27693456 -0.27850902 0.050367448
-0.27712849 -0.27853778 0.050302327
-0.2773141 -0.27857095 0.050180472
-0.27750033 -0.27860308 0.050070215
-0.27770406 -0.27861747 0.050169569
-0.2778922 -0.27863967 0.050167069
-0.27808553 -0.27866071 0.050183062
-0.27828619 -0.27869007 0.050120201
-0.27849305 -0.27870977 0.050167393
-0.27868164 -0.27873167 0.050168354
-0.27886391 -0.27875209 0.050177485
-0.27905199 -0.27877811 0.05013442
-0.27925223 -0.278804 0.050107487
-0.27944267 -0.27882439 0.050126985
-0.27962595 -0.27885783 0.049999353
-0.27982762 -0.27888235 0.049988642
-0.28001592 -0.27890119 0.050022058
-0.28021353 -0.27892581 0.050005578
-0.28040862 -0.27895242 0.049964782
-0.28060102 -0.27897468 0.049966872
-0.28080523 -0.27900049 0.049945716
-0.28099424 -0.27902541 0.049915388
-0.28118038 -0.27904934 0.049892031
-0.28136447 -0.27906865 0.049915049
-0.28156045 -0.27909145 0.049915969
-0.28176618 -0.27911317 0.04993999
-0.28195325 -0.27914247 0.049861003
-0.28213236 -0.2791684 0.049807571
-0.28232449 -0.27918813 0.049836323
-0.28251451 -0.27921513 0.049785133
-0.28271183 -0.27923709 0.04979647
-0.28290665 -0.27925798 0.049815927
-0.28310019 -0.27927983 0.049823813
-0.28328273 -0.27931163 0.04971242
-0.28347322 -0.27933541 0.049695991
-0.28365055 -0.2793676 0.049574196
-0.28385785 -0.27937803 0.049719885
-0.28403306 -0.27941141 0.04958304
-0.28422204 -0.27943608 0.049555033
-0.28442547 -0.279452 0.049638174
-0.28464231 -0.2794677 0.049739756
-0.28483406 -0.27949601 0.049676958
-0.28501666 -0.27952707 0.049573679
-0.28523284 -0.27953854 0.049719296
-0.28544322 -0.27956104 0.049740963
-0.28561133 -0.27959773 0.049560145
-0.28579798 -0.27962139 0.04954027
-0.28598773 -0.27964333 0.049542379
-0.28616798 -0.27967051 0.049477361
-0.28637278 -0.27968907 0.049533829
-0.28656316 -0.27971777 0.049465254
-0.28676465 -0.27973825 0.049497411
-0.28694883 -0.27976555 0.049435839
-0.28714016 -0.27978909 0.049422871
-0.28732306 -0.27981025 0.049425039
-0.28751883 -0.27983606 0.049393509
-0.28771701 -0.27985844 0.049401361
-0.28790745 -0.27988473 0.049358279
-0.28809229 -0.2799072 0.049348839
-0.28828382 -0.27993077 0.049335882
-0.28847647 -0.27995807 0.049284674
-0.28866881 -0.2799834 0.049254324
-0.28885433 -0.2800056 0.049248356
-0.2890574 -0.28002802 0.049261972
-0.28924984 -0.28004918 0.049275652
-0.28943431 -0.28007609 0.049218707
-0.28962633 -0.28010157 0.049186047
-0.28983358 -0.28012228 0.049222805
-0.29002804 -0.28014675 0.049204029
-0.29021534 -0.28017235 0.049164444
-0.2904076 -0.28019384 0.049174648
-0.29059654 -0.28021872 0.049144328
-0.29079533 -0.2802414 0.049149856
-0.29099849 -0.28026229 0.049179684
-0.29117996 -0.28029037 0.049106542
-0.29136062 -0.28031683 0.049049616
-0.29157549 -0.28033495 0.04912341
-0.29174358 -0.28036463 0.049016744
-0.29193997 -0.28038844 0.049007226
-0.29213473 -0.28041109 0.049008153
-0.29233786 -0.28043416 0.049014807
-0.29251415 -0.28046042 0.048954438
-0.29270163 -0.28048778 0.04889632
-0.29290161 -0.28050852 0.048923858
-0.29311937 -0.28052261 0.049043972
-0.29328775 -0.280559 0.048866618
-0.29347304 -0.28058183 0.048853703
-0.2936818 -0.28059956 0.048924055
-0.293879 -0.28062335 0.048915692
-0.2940571 -0.28065586 0.048791584
-0.29423362 -0.28068194 0.048733532
-0.2944524 -0.28069633 0.048851319
-0.29465348 -0.28072059 0.048842933
-0.29484466 -0.28074664 0.048803318
-0.29504582 -0.28077093 0.048794921
-0.29523528 -0.28079423 0.048781976
-0.29543775 -0.28081813 0.048779365
-0.29562134 -0.2808435 0.048737492
-0.29580098 -0.28087017 0.048677109
-0.2959837 -0.28089741 0.048614375
-0.29618967 -0.28091699 0.048661575
-0.29637682 -0.28094277 0.048619669
-0.29659104 -0.28095981 0.048703894
-0.29679173 -0.28098613 0.048673481
-0.29698047 -0.28100991 0.048654746
-0.29714474 -0.28103825 0.04855739
-0.29734612 -0.28106278 0.048546672
-0.29752848 -0.28108856 0.048499014
-0.29774281 -0.2811076 0.048562378
-0.29795018 -0.28112885 0.048593335
-0.29813817 -0.28115454 0.048553742
-0.29831699 -0.28118297 0.048473664
-0.2985141 -0.28120741 0.048458342
-0.29872572 -0.28122613 0.048521724
-0.29888943 -0.28125596 0.048408139
-0.29908255 -0.28128016 0.048390538
-0.29925114 -0.28131142 0.048267651
-0.29946512 -0.28132963 0.048339121
-0.2996532 -0.28135532 0.04829954
-0.29986411 -0.2813746 0.048355963
-0.30004817 -0.28140146 0.048299026
-0.30027866 -0.28141692 0.048420206
-0.30043575 -0.28145123 0.048251048
-0.30063075 -0.28147367 0.048254292
-0.3008233 -0.28149825 0.048232045
-0.30103609 -0.28151742 0.048291944
-0.30123451 -0.28154191 0.048277769
-0.30143195 -0.28156531 0.048274036
-0.30161649 -0.2815921 0.04821825
-0.30181757 -0.2816146 0.048228402
-0.30200812 -0.28164124 0.048181843
-0.30221528 -0.28166229 0.048215125
-0.30240878 -0.28168684 0.048194036
-0.30259252 -0.28171387 0.048134778
-0.30280736 -0.2817345 0.048181906
-0.30298752 -0.28176111 0.048122674
-0.3031837 -0.28178644 0.048096936
-0.30336687 -0.28181362 0.048035361
-0.30358478 -0.28183243 0.04810565
-0.30377936 -0.28185689 0.048086874
-0.30396789 -0.28188416 0.048031058
-0.30415857 -0.28190961 0.047997244
-0.3043704 -0.2819314 0.048028171
-0.30457315 -0.28195411 0.048038304
-0.30475244 -0.28198227 0.047961701
-0.30493957 -0.28200862 0.047913998
-0.30515197 -0.28203046 0.047944926
-0.30533028 -0.28205884 0.047864854
-0.30552915 -0.28208131 0.047872692
-0.30575657 -0.28210002 0.047955658
-0.30595809 -0.28212455 0.047944948
-0.30612162 -0.28215739 0.047798924
-0.3063283 -0.28217959 0.047819454
-0.30653185 -0.28220621 0.047789026
-0.30675995 -0.28222272 0.047896322
-0.30692863 -0.28225803 0.047730565
-0.30714417 -0.28227612 0.047805499
-0.30734405 -0.28230241 0.047773939
-0.30753857 -0.28232864 0.047736622
-0.30773821 -0.28235021 0.047754891
-0.30792305 -0.28237727 0.04769678
-0.3081474 -0.28240228 0.047709081
-0.30833033 -0.28242737 0.047669526
-0.30852708 -0.28244969 0.047676235
-0.30872038 -0.28247511 0.047645874
-0.30891261 -0.28250194 0.047599304
-0.30910891 -0.28252563 0.047590941
-0.3092882 -0.28255498 0.047501583
-0.30946547 -0.28258008 0.047455128
-0.30972242 -0.28259689 0.047594663
-0.3098788 -0.28262717 0.047467232
-0.31011945 -0.2826438 0.047588341
-0.31031179 -0.28267306 0.047516264
-0.31052667 -0.28269926 0.047504298
-0.31071547 -0.28272349 0.04748093
-0.31092378 -0.2827487 0.047471326
-0.31111467 -0.28277373 0.047442149
-0.31132442 -0.2827999 0.047424421
-0.31152299 -0.28282472 0.04740677
-0.31172502 -0.28285009 0.047387943
-0.31191167 -0.28287265 0.047379658
-0.31211659 -0.28289756 0.047368914
-0.31232131 -0.28292587 0.047322251
-0.31251773 -0.28294793 0.047331274
-0.31272683 -0.28297225 0.047332089
-0.31288466 -0.28300205 0.047211599
-0.31310841 -0.28302503 0.047244765
-0.31332493 -0.28304607 0.047289569
-0.31351569 -0.2830736 0.047233738
-0.31374502 -0.28309801 0.047258746
-0.31393722 -0.28312427 0.047217969
-0.3141318 -0.28315017 0.047184128
-0.31436339 -0.28317013 0.047258947
-0.31455457 -0.28319773 0.047203116
-0.31476006 -0.28322303 0.047188889
-0.31493056 -0.28325179 0.047094963
-0.31513476 -0.28327632 0.047087699
-0.31533894 -0.28330192 0.047068857
-0.31554645 -0.28332704 0.04705926
-0.31576589 -0.28335041 0.047083184
-0.31595957 -0.28337565 0.04705514
-0.31614867 -0.28340265 0.047002796
-0.31637642 -0.28342488 0.04704868
-0.31657982 -0.28345084 0.0470252
-0.31677479 -0.28347909 0.046967018
-0.3169691 -0.28350541 0.046928547
-0.31719142 -0.28352767 0.046967518
-0.31738922 -0.28355655 0.046905842
-0.31757402 -0.2835823 0.046861634
-0.31780803 -0.28360409 0.046920218
-0.31799614 -0.28363141 0.046863247
-0.31824586 -0.28365809 0.046889268
-0.31844363 -0.28368711 0.046826437
-0.31863111 -0.2837126 0.046788007
-0.31884015 -0.28373617 0.04679694
-0.31903645 -0.28376052 0.046781622
-0.31924239 -0.28378555 0.046770882
-0.3194561 -0.28381544 0.046718363
-0.31966299 -0.28383559 0.046760917
-0.31987152 -0.28386235 0.046735082
-0.32006854 -0.28388679 0.046719763
-0.21350393 -0.27094623 0.052070159
-0.21373935 -0.27097821 0.05202214
-0.2139792 -0.27101207 0.051960185
-0.21422064 -0.27104664 0.05189243
-0.21447673 -0.27108598 0.051792122
-0.21472163 -0.27112216 0.051711597
-0.21497807 -0.27116078 0.051619407
-0.21522954 -0.27120212 0.05149249
-0.21546549 -0.27123395 0.051446784
-0.2156859 -0.2712608 0.051434785
-0.21591684 -0.27129194 0.051390268
-0.21615088 -0.27132446 0.051335309
-0.21638134 -0.27135447 0.051302381
-0.21661735 -0.27138793 0.051239297
-0.21685699 -0.27142188 0.051176183
-0.21709299 -0.27145559 0.051110782
-0.21733199 -0.27149063 0.051034935
-0.21756315 -0.27152258 0.050982311
-0.21779978 -0.27155569 0.050923862
-0.21803725 -0.27159047 0.050849177
-0.21826735 -0.27162227 0.050796553
-0.21849966 -0.27165511 0.05073582
-0.2187385 -0.27168959 0.050665759
-0.21897081 -0.27172267 0.050602704
-0.21920024 -0.27175462 0.050547775
-0.21943793 -0.27179018 0.050464977
-0.21967308 -0.27182356 0.050401904
-0.21990713 -0.2718578 0.0503284
-0.22014821 -0.27189517 0.050230525
-0.22037126 -0.27192497 0.050190706
-0.22059375 -0.27195337 0.050164789
-0.22082286 -0.27198595 0.050102912
-0.22105508 -0.27201998 0.050029427
-0.22127968 -0.27205083 0.049980327
-0.22150959 -0.27208284 0.049925394
-0.22173664 -0.27211496 0.049865842
-0.22195825 -0.27214479 0.049823713
-0.22218466 -0.27217683 0.049764175
-0.22241426 -0.27220914 0.04970577
-0.22263496 -0.27223885 0.049663648
-0.22285672 -0.27226916 0.049616877
-0.22308579 -0.27230281 0.049543422
-0.22330132 -0.27233052 0.049516391
-0.22352251 -0.27236086 0.049468473
-0.22374529 -0.27239072 0.049427498
-0.22396752 -0.27242172 0.049373776
-0.22418718 -0.27245167 0.049328186
-0.22440656 -0.27248156 0.049282599
-0.22462882 -0.27251157 0.0492393
-0.22484475 -0.27254009 0.049204163
-0.22506109 -0.27256888 0.049166713
-0.2252806 -0.27259922 0.049116485
-0.22554548 -0.2726455 0.048953567
-0.22572175 -0.27265188 0.049104065
-0.22612283 -0.27270344 0.04905371
-0.22640499 -0.2727558 0.048847795
-0.22686294 -0.27282965 0.048631359
-0.22699849 -0.27282479 0.048850514
-0.22722869 -0.27285981 0.048764303
-0.22744334 -0.27288881 0.048722222
-0.22765565 -0.27291679 0.048688263
-0.22786686 -0.27294433 0.04865779
-0.22808617 -0.27297172 0.04863885
-0.22829613 -0.27300158 0.048581749
-0.22850749 -0.27302945 0.048547797
-0.22871831 -0.27305716 0.048515014
-0.22893327 -0.27308413 0.048494939
-0.22913706 -0.27310991 0.048473798
-0.22934864 -0.27313825 0.048435215
-0.22957724 -0.27316946 0.048387244
-0.22976923 -0.27319241 0.048381239
-0.22997259 -0.27321684 0.04837399
-0.23018469 -0.27324578 0.048329607
-0.23038754 -0.27327156 0.048307307
-0.23059893 -0.27329734 0.048295371
-0.23079294 -0.27331871 0.048309051
-0.23099777 -0.27334121 0.04832381
-0.23118593 -0.27335957 0.048361853
-0.2313692 -0.27337387 0.048437003
-0.23153681 -0.27337834 0.048596844
-0.23055717 -0.27249494 0.056746967
-0.23084959 -0.2725684 0.056330133
-0.23101415 -0.27256465 0.056573398
-0.23120238 -0.27257526 0.056693703
-0.23142472 -0.27260616 0.056641139
-0.23174945 -0.27260023 0.057105705
-0.23227513 -0.27260694 0.057684675
-0.23390491 -0.2731649 0.053787421
-0.23411039 -0.27318704 0.053806804
-0.23434414 -0.27321327 0.053817883
-0.23458374 -0.27324653 0.053761728
-0.2347738 -0.27326873 0.053761523
-0.23499131 -0.2732946 0.05375649
-0.2352026 -0.27331862 0.053763099
-0.23541933 -0.27335325 0.053664237
-0.23558551 -0.27336872 0.053705916
-0.23585187 -0.27340773 0.053621758
-0.23604806 -0.27343217 0.053605303
-0.23625724 -0.27345532 0.053618863
-0.23646019 -0.27347463 0.053664919
-0.23665419 -0.27349412 0.053698283
-0.23684953 -0.27351826 0.053684153
-0.23709206 -0.27356619 0.053476203
-0.23727094 -0.27358794 0.053466819
-0.23750833 -0.27360794 0.053548537
-0.23771051 -0.27363092 0.053555198
-0.23789227 -0.27365464 0.053528413
-0.23813747 -0.27368757 0.053482644
-0.23834467 -0.27371201 0.05348001
-0.2385276 -0.27373675 0.05344395
-0.23874775 -0.27376172 0.053451635
-0.23896123 -0.27379048 0.053410731
-0.23916651 -0.27381393 0.053416215
-0.23939031 -0.27384773 0.053334679
-0.23958957 -0.27386937 0.053351797
-0.23977084 -0.27388933 0.0533644
-0.23999937 -0.27392042 0.053317595
-0.24018142 -0.27394104 0.053324394
-0.24036275 -0.27395904 0.053357854
-0.24060722 -0.27400151 0.053210139
-0.24077991 -0.27401793 0.05324946
-0.2410062 -0.27404144 0.053280286
-0.2412284 -0.27407092 0.05324278
-0.24139285 -0.27408594 0.053286791
-0.24163136 -0.2741251 0.053166918
-0.24182159 -0.27414304 0.053211905
-0.24202856 -0.27417094 0.053172193
-0.24221872 -0.2741912 0.053192846
-0.24243541 -0.27421486 0.053209841
-0.24264361 -0.27424631 0.05313421
-0.2428208 -0.27426162 0.053190872
-0.24305896 -0.27430654 0.053009607
-0.24327813 -0.27433008 0.053031214
-0.24346124 -0.27434522 0.053097092
-0.24365638 -0.27436966 0.053079486
-0.24386553 -0.2744002 0.053014275
-0.24407838 -0.2744264 0.053000011
-0.2442755 -0.27445018 0.052991651
-0.24449597 -0.2744776 0.052973855
-0.24468578 -0.27450076 0.052963234
-0.24489757 -0.27452901 0.05292581
-0.24510777 -0.27455607 0.052898824
-0.24530506 -0.27458304 0.05285687
-0.24547884 -0.2745958 0.052936725
-0.24568486 -0.27462229 0.05291092
-0.24590163 -0.27465799 0.052800477
-0.24610136 -0.27467662 0.052850023
-0.24630326 -0.27470261 0.052824251
-0.24651223 -0.27473491 0.052740514
-0.24670069 -0.27475211 0.052791301
-0.24691434 -0.27478319 0.05272606
-0.24710228 -0.27481434 0.052628554
-0.24731065 -0.27483234 0.052695423
-0.24752353 -0.27485436 0.052725181
-0.24772373 -0.27487656 0.052737661
-0.24791396 -0.27489844 0.052740928
-0.2481032 -0.27491945 0.05275232
-0.24831814 -0.27495888 0.052600183
-0.24852046 -0.27498034 0.052623071
-0.24873191 -0.27500758 0.05259607
-0.24891979 -0.27502438 0.05265034
-0.24912599 -0.27505293 0.05260253
-0.24932747 -0.2750802 0.052562855
-0.24953897 -0.27511454 0.052460555
-0.24972348 -0.27513465 0.052475467
-0.24992749 -0.27515489 0.052513398
-0.25013769 -0.27518502 0.052453965
-0.25034016 -0.27520716 0.052469905
-0.25051883 -0.27522463 0.052505698
-0.25071296 -0.27524829 0.052495047
-0.25092345 -0.27528295 0.052388117
-0.25112715 -0.27530301 0.052427217
-0.25131229 -0.2753242 0.052431688
-0.25152677 -0.27536041 0.052313149
-0.25173339 -0.27538401 0.052318621
-0.25193906 -0.27541044 0.052292824
-0.25214705 -0.2754319 0.052322615
-0.25237426 -0.2754648 0.052254967
-0.25255567 -0.27548599 0.052254826
-0.252727 -0.27549878 0.052331224
-0.25293806 -0.27553251 0.052234724
-0.25313389 -0.27555549 0.052233323
-0.25335276 -0.27558282 0.052214384
-0.25352281 -0.27560681 0.052170299
-0.25371313 -0.27562273 0.052237295
-0.25391528 -0.27565005 0.05219762
-0.25413665 -0.2756767 0.052189093
-0.25433353 -0.27570164 0.052167989
-0.25454521 -0.27572891 0.052140996
-0.25473559 -0.27576414 0.052002929
-0.25493649 -0.27578083 0.052074485
-0.25513405 -0.27580237 0.052090459
-0.25533694 -0.27583221 0.052025288
-0.25551718 -0.27584767 0.052084241
-0.25568923 -0.2758553 0.052216239
-0.25591454 -0.27590013 0.052020002
-0.25609612 -0.27591771 0.052058093
-0.25629732 -0.27595139 0.051950082
-0.25648981 -0.27597049 0.051985778
-0.25669456 -0.27599931 0.051933341
-0.25689933 -0.27602237 0.051942304
-0.2570917 -0.27604747 0.051914282
-0.25728008 -0.27607164 0.051890932
-0.25748977 -0.27609134 0.05194157
-0.25769943 -0.27611759 0.051922694
-0.25787696 -0.27614072 0.051897097
-0.25806907 -0.27616611 0.051865604
-0.25826728 -0.27619025 0.051854927
-0.25846756 -0.27621901 0.051797882
-0.2586799 -0.2762447 0.051788263
-0.25886491 -0.27626246 0.051828649
-0.25905877 -0.2762931 0.05174385
-0.25923663 -0.27631015 0.05178313
-0.25944448 -0.2763423 0.051699389
-0.25964341 -0.27636969 0.05165511
-0.25985828 -0.27639413 0.051661681
-0.26003888 -0.27640921 0.051725272
-0.26023206 -0.27643046 0.051738955
-0.26042008 -0.27645701 0.051690117
-0.26062325 -0.27648818 0.051611044
-0.26081565 -0.27651885 0.051523946
-0.26101291 -0.27654332 0.051508624
-0.26120678 -0.27656817 0.051485233
-0.26139948 -0.27657568 0.051643729
-0.26158747 -0.27659076 0.051716536
-0.26178291 -0.27663642 0.051474169
-0.26198301 -0.27665916 0.051480856
-0.26218241 -0.27667862 0.05152113
-0.26237249 -0.27670357 0.051491972
-0.26256874 -0.2767432 0.051314481
-0.26276532 -0.27674705 0.051516972
-0.26295486 -0.27676952 0.051513307
-0.26315919 -0.27679732 0.0514713
-0.26335958 -0.27682281 0.051449016
-0.26354569 -0.2768476 0.051416412
-0.2637431 -0.27687973 0.051319994
-0.26394325 -0.27690649 0.051283814
-0.26413569 -0.27692646 0.051310249
-0.26432449 -0.27694359 0.051362187
-0.26452091 -0.27696916 0.051334143
-0.2647137 -0.27699441 0.051304959
-0.26490262 -0.27701014 0.051371969
-0.26509544 -0.27704754 0.051214196
-0.26529858 -0.27708426 0.05107604
-0.26549116 -0.2770921 0.051231064
-0.26568025 -0.27710798 0.051296901
-0.26587573 -0.27714536 0.051142588
-0.26608285 -0.27716091 0.051233795
-0.26626456 -0.2771832 0.051222071
-0.26645529 -0.27722496 0.051015653
-0.26665962 -0.27723429 0.051169425
-0.26686206 -0.27726328 0.051112376
-0.26705372 -0.27729049 0.051061191
-0.26724207 -0.27731457 0.051038992
-0.26744133 -0.27733806 0.05103641
-0.26763877 -0.27735117 0.051141582
-0.2678194 -0.27737772 0.051083535
-0.26801357 -0.2774086 0.050996415
-0.2682128 -0.27743188 0.050996155
-0.26841214 -0.27745473 0.051000524
-0.2686013 -0.27747443 0.051025815
-0.26879206 -0.27750218 0.050967693
