# .PCD v0.7 - Point Cloud Data file format
VERSION 0.7
FIELDS x y z
SIZE 4 4 4
TYPE F F F
COUNT 1 1 1
WIDTH 1286
HEIGHT 1
VIEWPOINT 0 0 0 1 0 0 0
POINTS 1286
DATA ascii
-0.080300331 -0.44163084 0.054547116
-0.080468588 -0.44175813 0.05450926
-0.080633484 -0.44188279 0.054472573
-0.080800794 -0.44200861 0.054439336
-0.080968052 -0.44213462 0.054404937
-0.081135407 -0.44226107 0.054368239
-0.081301756 -0.44238564 0.05433847
-0.081468888 -0.44251209 0.05430061
-0.081630506 -0.44263139 0.054282408
-0.081800029 -0.44275922 0.054246858
-0.081962675 -0.44288114 0.054217104
-0.082128569 -0.44300595 0.054183874
-0.082293496 -0.44312894 0.05415757
-0.082457609 -0.44325042 0.054137047
-0.082619496 -0.44337159 0.05410846
-0.082783818 -0.44349396 0.05408331
-0.082952119 -0.44362089 0.054047756
-0.083113015 -0.44374058 0.054023795
-0.083272897 -0.44385827 0.054007903
-0.083435886 -0.44397855 0.053989694
-0.083598331 -0.44409314 0.054003809
-0.083754741 -0.4441987 0.054046806
-0.08390902 -0.44429931 0.054110594
-0.084057614 -0.44438663 0.054230969
-0.084200568 -0.44445553 0.05443909
-0.084068395 -0.44299564 0.062800862
-0.084369868 -0.44315147 0.06317547
-0.08454866 -0.44330668 0.063012891
-0.084840931 -0.44342574 0.063572228
-0.085225329 -0.44378412 0.063071497
-0.08602865 -0.44493175 0.059582546
-0.086224273 -0.44507781 0.0595503
-0.086392753 -0.4451994 0.059548225
-0.086562008 -0.44532946 0.059497658
-0.086724609 -0.44544154 0.05952793
-0.086884722 -0.44555938 0.059512038
-0.087054513 -0.44568551 0.059488021
-0.08722049 -0.44580755 0.059472106
-0.087380067 -0.44591802 0.059498928
-0.087552346 -0.44605216 0.059436806
-0.087690033 -0.44614589 0.059469521
-0.087838426 -0.44625774 0.059438691
-0.088019505 -0.44639161 0.059416927
-0.088212512 -0.44654804 0.059309673
-0.088379368 -0.4466677 0.059312221
-0.088544592 -0.4467898 0.059292838
-0.088701092 -0.44689935 0.059311599
-0.088855438 -0.44700965 0.059316523
-0.089040644 -0.44714367 0.059312038
-0.089207157 -0.44727102 0.059266113
-0.089357935 -0.44737795 0.059275664
-0.089535736 -0.44752002 0.059189282
-0.089701712 -0.44763869 0.05919414
-0.089857802 -0.44774815 0.059211746
-0.090015545 -0.44785506 0.059252426
-0.090195507 -0.44799829 0.059168335
-0.090356566 -0.44811755 0.059147824
-0.090507448 -0.44824436 0.059036195
-0.090680733 -0.44835567 0.059118345
-0.090825982 -0.44846222 0.059106003
-0.090994492 -0.44857368 0.059166253
-0.091173291 -0.4487159 0.059083316
-0.091342226 -0.44883913 0.05907315
-0.091493808 -0.44895253 0.059046928
-0.091651618 -0.4490715 0.059013739
-0.091804355 -0.44918007 0.059022136
-0.091975965 -0.44930542 0.059010804
-0.092137247 -0.44942993 0.05895913
-0.09229669 -0.44953543 0.059015967
-0.092451945 -0.44965634 0.058959704
-0.092617519 -0.44976678 0.059013046
-0.092778012 -0.44988942 0.058969453
-0.092942461 -0.4500196 0.058896985
-0.093103826 -0.45013514 0.058900714
-0.093287319 -0.45027226 0.058869697
-0.093440473 -0.45038602 0.058848079
-0.093592614 -0.45049471 0.058853015
-0.093759134 -0.45062602 0.058782838
-0.093923926 -0.45074832 0.05876001
-0.094091691 -0.45087337 0.058733694
-0.094248958 -0.45098293 0.058755908
-0.094412394 -0.45109826 0.058770016
-0.094580837 -0.45122924 0.058710225
-0.094738707 -0.45134377 0.058704734
-0.094909184 -0.45147225 0.058669172
-0.095057711 -0.45157835 0.058674127
-0.095199935 -0.45167765 0.058692962
-0.095367126 -0.45180359 0.058658578
-0.095527299 -0.45191732 0.058668077
-0.09568508 -0.45203421 0.058647588
-0.095849529 -0.45216289 0.058584362
-0.096012376 -0.45227778 0.058598466
-0.096187547 -0.45240629 0.058583654
-0.096345022 -0.45252371 0.058558553
-0.096511371 -0.45264867 0.058526468
-0.096671969 -0.45277289 0.05847365
-0.096826002 -0.45288613 0.05845895
-0.096979044 -0.45298588 0.058522742
-0.097139075 -0.4531059 0.058493003
-0.09730541 -0.45323896 0.058411296
-0.097476564 -0.45335889 0.058431134
-0.09762992 -0.45346451 0.058460295
-0.097777635 -0.45357245 0.058450252
-0.097940467 -0.45370451 0.058359325
-0.098099314 -0.4538022 0.058461174
-0.098261982 -0.45393977 0.058335625
-0.098429985 -0.45406157 0.058330085
-0.098592028 -0.45417646 0.058340732
-0.098742247 -0.45429075 0.058302972
-0.098901279 -0.45440006 0.05833441
-0.099063009 -0.45452979 0.058252737
-0.099221848 -0.45464483 0.058248393
-0.099383615 -0.45476046 0.058253281
-0.099545233 -0.45487955 0.058236226
-0.099709682 -0.45500126 0.0582157
-0.099865794 -0.45510527 0.058266781
-0.10001147 -0.45523325 0.058125172
-0.10018799 -0.45535329 0.058168061
-0.10033503 -0.45545474 0.05819495
-0.10050426 -0.45558986 0.058113217
-0.10065722 -0.45569405 0.058149312
-0.10081773 -0.45581859 0.058094181
-0.10096698 -0.45592839 0.058079507
-0.10113431 -0.45604557 0.058099367
-0.10128765 -0.45614648 0.058157388
-0.10143757 -0.45627618 0.058023829
-0.1016 -0.45640546 0.057947911
-0.10176839 -0.45651343 0.058028936
-0.1019256 -0.45661032 0.058128484
-0.10207832 -0.45673773 0.058021456
-0.10224354 -0.45686677 0.057959378
-0.10240386 -0.45698494 0.057942335
-0.10255861 -0.45709699 0.057938024
-0.10272973 -0.45720994 0.058000557
-0.10288314 -0.4573288 0.057948928
-0.10303705 -0.45744443 0.057919227
-0.10319109 -0.45755899 0.05789645
-0.10335116 -0.45767641 0.057882879
-0.10350521 -0.45779026 0.057864718
-0.10365436 -0.45789567 0.057876594
-0.1038103 -0.45804289 0.0576622
-0.10398083 -0.45814466 0.057790533
-0.10413085 -0.45824638 0.057828955
-0.10428856 -0.45838356 0.057683807
-0.10445261 -0.45849726 0.05771061
-0.10460899 -0.45861316 0.057690125
-0.10477128 -0.45872107 0.057744633
-0.10493746 -0.45882836 0.057819903
-0.10508599 -0.45892411 0.057888329
-0.10522883 -0.45905888 0.057692487
-0.10537955 -0.45920083 0.057487365
-0.10555073 -0.45931438 0.057546437
-0.10571348 -0.45943129 0.057547849
-0.10587794 -0.45954359 0.057585031
-0.10603381 -0.4596591 0.057564557
-0.10619816 -0.4597719 0.057598278
-0.10634163 -0.45988074 0.05756402
-0.10650938 -0.45997655 0.057716604
-0.10665942 -0.46007904 0.057750404
-0.10680073 -0.4602274 0.057464536
-0.10695592 -0.46036881 0.05728247
-0.1071252 -0.46047044 0.057406198
-0.10728075 -0.46057707 0.057438817
-0.10743845 -0.46068752 0.057457566
-0.10759861 -0.46078521 0.057565179
-0.10774586 -0.46091637 0.057410855
-0.10790288 -0.46105081 0.057279568
-0.10807081 -0.4611643 0.057324812
-0.10822462 -0.46127421 0.057329744
-0.10838643 -0.46138439 0.057368089
-0.10854816 -0.46149489 0.057404134
-0.10869995 -0.46162239 0.057292491
-0.10885784 -0.46173918 0.057273161
-0.10900749 -0.46184888 0.057260796
-0.10917028 -0.46195772 0.05731184
-0.10933207 -0.46208146 0.057267088
-0.10948438 -0.46219349 0.0572524
-0.10964021 -0.46231294 0.057207689
-0.10979668 -0.46242493 0.05721144
-0.10995606 -0.46253905 0.057215177
-0.11011443 -0.46264845 0.057243161
-0.11026064 -0.46276248 0.057189267
-0.11041348 -0.46288523 0.057111092
-0.11057963 -0.46299613 0.057164419
-0.11072737 -0.46310768 0.057132445
-0.11088968 -0.46322933 0.057102699
-0.11104442 -0.46333763 0.057121467
-0.1112015 -0.46344876 0.057133298
-0.11134499 -0.46355951 0.057087496
-0.11149424 -0.46368515 0.056975875
-0.11165804 -0.46379375 0.057032678
-0.11181345 -0.46390671 0.057026051
-0.11197588 -0.46401715 0.057065558
-0.11213247 -0.46411851 0.057135105
-0.11227714 -0.46425307 0.056948483
-0.11242748 -0.46437103 0.056888785
-0.11258852 -0.46448293 0.056913294
-0.11275437 -0.46459019 0.056987412
-0.11291158 -0.46470612 0.05697038
-0.11306477 -0.46483064 0.05688297
-0.11322238 -0.4649412 0.056900572
-0.11337092 -0.4650507 0.056884751
-0.11352266 -0.46516192 0.056872375
-0.11367882 -0.46528313 0.056818418
-0.1138486 -0.46538776 0.056925979
-0.11399185 -0.4654972 0.056887105
-0.1141329 -0.46562183 0.056745522
-0.11429043 -0.46574137 0.056707714
-0.11445412 -0.46584707 0.056781836
-0.11461148 -0.46595371 0.056822523
-0.11475518 -0.46607533 0.056710925
-0.11490572 -0.46619567 0.056637384
-0.11507285 -0.4663035 0.056713797
-0.11522415 -0.46641892 0.05667372
-0.11538245 -0.46653754 0.056645155
-0.11552746 -0.466649 0.056601651
-0.11569688 -0.46675977 0.056669969
-0.1158493 -0.46687019 0.05666567
-0.11599351 -0.46699408 0.056542523
-0.11615764 -0.46710858 0.056564704
-0.11630709 -0.46722078 0.056536183
-0.11647561 -0.46733263 0.056594118
-0.11662697 -0.46744752 0.056557506
-0.11678687 -0.46756482 0.056543935
-0.11693455 -0.4676818 0.056478482
-0.11708787 -0.46779531 0.056459174
-0.11724283 -0.46790415 0.056475632
-0.11740619 -0.4680194 0.05648974
-0.11754642 -0.46813646 0.056390863
-0.11772136 -0.46825275 0.056449916
-0.11786891 -0.46836206 0.056430642
-0.11801916 -0.46847355 0.05641019
-0.11816856 -0.46859252 0.056340113
-0.11832917 -0.46871278 0.056311533
-0.11847743 -0.46883205 0.056234531
-0.11864287 -0.468936 0.056327119
-0.11880274 -0.46904969 0.056335464
-0.11894811 -0.46915993 0.056301195
-0.11910304 -0.46927589 0.056273796
-0.11925477 -0.46938655 0.056264881
-0.11941483 -0.46950358 0.056253619
-0.11957975 -0.46962187 0.056256168
-0.11972408 -0.4697291 0.056235757
-0.11988209 -0.46985349 0.056170247
-0.12006135 -0.4699693 0.056251217
-0.12021181 -0.47009337 0.056154586
-0.12035334 -0.47020155 0.056115713
-0.12050983 -0.47031358 0.056119476
-0.12065221 -0.47041824 0.05610599
-0.12079882 -0.47053388 0.056044012
-0.12096744 -0.47064784 0.056089252
-0.12112322 -0.47076333 0.056068774
-0.12127516 -0.47087395 0.056061015
-0.12141958 -0.47098404 0.056023277
-0.12157388 -0.47109389 0.056030516
-0.12172437 -0.47121102 0.055976592
-0.12189253 -0.4713226 0.056034531
-0.12204114 -0.47143137 0.056023329
-0.12219445 -0.47155052 0.055969391
-0.1223602 -0.47166017 0.056028493
-0.12251453 -0.4717761 0.055998787
-0.12266727 -0.47188956 0.055977173
-0.1228122 -0.4720051 0.055908278
-0.12297081 -0.47211695 0.055922415
-0.12313355 -0.47223628 0.055908818
-0.1232822 -0.47234792 0.055880301
-0.12343466 -0.4724642 0.055840224
-0.1235975 -0.47257796 0.055861257
-0.12375306 -0.47268799 0.055873089
-0.12389992 -0.47280005 0.055834197
-0.12404272 -0.47291839 0.055738769
-0.12419811 -0.47303659 0.055699825
-0.12437022 -0.4731459 0.055788904
-0.1245072 -0.47325987 0.055694655
-0.12466522 -0.47337487 0.055686869
-0.12482326 -0.47348991 0.055679068
-0.12499858 -0.47360438 0.055750813
-0.12513784 -0.47371507 0.055686563
-0.12529916 -0.47382963 0.055696078
-0.12545398 -0.47394535 0.055669829
-0.12560429 -0.47405666 0.055650536
-0.125765 -0.4741689 0.05567158
-0.12591039 -0.47428101 0.055625767
-0.12606683 -0.47439903 0.055592589
-0.12622739 -0.47451642 0.055581316
-0.12638213 -0.47462717 0.055585075
-0.12653081 -0.47474372 0.055526547
-0.12669185 -0.47485864 0.05553259
-0.12684804 -0.47497177 0.055528268
-0.12699777 -0.47508571 0.055490505
-0.12715128 -0.47520161 0.055457354
-0.12730145 -0.47531301 0.055436902
-0.12745973 -0.4754284 0.055427946
-0.12762402 -0.4755432 0.055448975
-0.12777175 -0.47565493 0.055415843
-0.12793034 -0.47576565 0.055436902
-0.12807378 -0.47588482 0.055339158
-0.12823632 -0.47599763 0.055364806
-0.12838663 -0.47610915 0.055344366
-0.12855184 -0.47622651 0.055353843
-0.12870228 -0.47634035 0.055319544
-0.12886389 -0.47645116 0.055353284
-0.12901515 -0.47656959 0.05529473
-0.12917091 -0.47668314 0.055285793
-0.12932572 -0.47680131 0.05524455
-0.12947935 -0.47691277 0.055239085
-0.12962562 -0.47702682 0.055185191
-0.12978196 -0.47714043 0.055178564
-0.12993772 -0.47724965 0.055196166
-0.13010676 -0.47736734 0.055220626
-0.13026941 -0.4774853 0.055215117
-0.13040897 -0.47759736 0.055143945
-0.13056862 -0.4777154 0.055124599
-0.13072895 -0.47782698 0.05514795
-0.13087505 -0.47793886 0.055106755
-0.13104174 -0.47805691 0.055118535
-0.13119328 -0.47818157 0.055023048
-0.13130525 -0.47829145 0.054843538
-0.13151118 -0.47840518 0.055054776
-0.1316407 -0.47851282 0.054966345
-0.13180338 -0.47862688 0.054985069
-0.13197596 -0.47874105 0.055046447
-0.13212216 -0.47885716 0.05497985
-0.13228995 -0.4789694 0.055032019
-0.13243748 -0.47908551 0.054971188
-0.13258229 -0.47919947 0.054911532
-0.13273273 -0.47931352 0.054876082
-0.13288835 -0.47942773 0.054862522
-0.13305761 -0.47954443 0.054893911
-0.13321894 -0.4796569 0.054916102
-0.13337073 -0.47977513 0.05486102
-0.13351485 -0.47988504 0.054823294
-0.133661 -0.48000297 0.054745164
-0.13383907 -0.48011643 0.054835364
-0.13399887 -0.48022911 0.054849491
-0.1341573 -0.48034969 0.054809369
-0.13429354 -0.48046312 0.054715134
-0.13445207 -0.48057586 0.054723501
-0.13462119 -0.48069319 0.054750264
-0.13477449 -0.48081347 0.0546894
-0.13492402 -0.48092574 0.054660879
-0.13509248 -0.48104131 0.054695733
-0.13524494 -0.48115003 0.054701816
-0.13539472 -0.48126814 0.054638673
-0.13556522 -0.48137838 0.054715067
-0.13569824 -0.48149514 0.054586217
-0.13587226 -0.48161152 0.054640654
-0.13599917 -0.481722 0.054523382
-0.13612948 -0.48183453 0.054408405
-0.13631095 -0.48195174 0.054490503
-0.1364827 -0.48207006 0.054523036
-0.13661106 -0.48218232 0.054401133
-0.13677946 -0.48229671 0.054442916
-0.13694909 -0.48241499 0.054466218
-0.13711159 -0.48253077 0.054473396
-0.13726507 -0.48264927 0.054424077
-0.13742414 -0.48276296 0.05442898
-0.13759454 -0.48288161 0.054453433
-0.13773715 -0.48299533 0.054385707
-0.13790198 -0.48311162 0.054399796
-0.1380603 -0.48322722 0.054389697
-0.13821459 -0.48334238 0.054364614
-0.13837463 -0.48345825 0.054360263
-0.13854018 -0.48357493 0.054375511
-0.13869336 -0.48369002 0.054345809
-0.13884583 -0.48380855 0.054291885
-0.13899255 -0.48392105 0.054249525
-0.13916327 -0.48403862 0.054282062
-0.13931566 -0.48415372 0.054248903
-0.1394753 -0.48427159 0.054230712
-0.13964184 -0.48438877 0.054247104
-0.13978878 -0.48450312 0.054194361
-0.1399608 -0.48462123 0.054229192
-0.14012638 -0.4847402 0.054230586
-0.14026545 -0.48485342 0.054150179
-0.14042582 -0.48497161 0.054133136
-0.14058861 -0.48508853 0.054134555
-0.14076024 -0.48520863 0.054155543
-0.14089961 -0.48532188 0.054076288
-0.14106679 -0.48543802 0.054101914
-0.14122108 -0.48555541 0.054062974
-0.1413911 -0.48567548 0.054077048
-0.14154831 -0.4857918 0.05405771
-0.14171007 -0.48590893 0.054053359
-0.14186575 -0.48602995 0.053998258
-0.14201897 -0.48614565 0.053965095
-0.14217803 -0.48625913 0.053971145
-0.14235166 -0.48637861 0.054004818
-0.14247105 -0.48648816 0.053859886
-0.14264573 -0.48660955 0.053886622
-0.14281103 -0.48672602 0.05390187
-0.14297399 -0.48684534 0.053889431
-0.14312601 -0.4869594 0.053860899
-0.14330882 -0.48708266 0.053911828
-0.14342082 -0.48718899 0.05375424
-0.14365537 -0.4873226 0.053969942
-0.14380601 -0.48744452 0.053887166
-0.1439409 -0.48755848 0.053783696
-0.14409743 -0.48767525 0.053758599
-0.1442589 -0.4877899 0.053768098
-0.14440444 -0.48790759 0.053688809
-0.14459243 -0.48803103 0.053761639
-0.1447801 -0.48816228 0.053784855
-0.1449111 -0.48827383 0.053679094
-0.14506441 -0.48839167 0.053633235
-0.14521028 -0.48849866 0.05362089
-0.14541453 -0.48863378 0.053693645
-0.14557016 -0.48874611 0.053691629
-0.1457299 -0.48886859 0.053645737
-0.14587186 -0.48898858 0.053536456
-0.14603117 -0.48910639 0.053517118
-0.14619046 -0.48921365 0.05356241
-0.14636494 -0.48934108 0.053551063
-0.14652111 -0.48945832 0.053521346
-0.14667925 -0.48957455 0.053506624
-0.14681859 -0.48968345 0.053453919
-0.14702696 -0.48981455 0.053569343
-0.14717022 -0.48993042 0.053491227
-0.14732239 -0.49004987 0.053430371
-0.14750747 -0.49017873 0.053457052
-0.14767353 -0.49030158 0.053436514
-0.14781541 -0.49041417 0.053372249
-0.14797941 -0.49052635 0.053408284
-0.14814337 -0.49064881 0.053380836
-0.14833894 -0.49079087 0.053372838
-0.14847219 -0.49089557 0.053319015
-0.14863887 -0.49101305 0.053334247
-0.1487873 -0.49112886 0.053279184
-0.14896517 -0.49125797 0.053272437
-0.14914376 -0.49138159 0.053302623
-0.14933094 -0.49152043 0.053277351
-0.14949331 -0.49163139 0.053313393
-0.14964178 -0.49174312 0.053283717
-0.14976934 -0.49184933 0.053195294
-0.14995457 -0.49198076 0.053206973
-0.15010612 -0.49209052 0.053202681
-0.15026882 -0.49221039 0.053185623
-0.1504291 -0.49232969 0.053161658
-0.15059388 -0.49245161 0.053141128
-0.15077934 -0.49257922 0.053177048
-0.15088858 -0.49268469 0.053012542
-0.15109119 -0.49282411 0.053051822
-0.15127137 -0.49295187 0.05306353
-0.15143754 -0.49307445 0.053045306
-0.15159443 -0.49319446 0.053001739
-0.15175463 -0.49330577 0.053026251
-0.15187204 -0.49340922 0.052910179
-0.15208203 -0.49354848 0.052982889
-0.15222399 -0.49366304 0.052907083
-0.15243392 -0.49379566 0.053020198
-0.15259019 -0.49391711 0.052965093
-0.15277448 -0.49405897 0.052908678
-0.067677885 -0.4327839 0.053091303
-0.067816563 -0.43285841 0.053246327
-0.067957677 -0.43293637 0.053390943
-0.068104625 -0.43302286 0.05350899
-0.068250477 -0.43310761 0.053632811
-0.068389907 -0.43318266 0.05378782
-0.068533897 -0.4332644 0.053922035
-0.068682119 -0.43335238 0.054036614
-0.06883882 -0.43345305 0.054110762
-0.068990797 -0.43354657 0.05420801
-0.069148272 -0.43365344 0.054247532
-0.069308773 -0.43375987 0.054303203
-0.069471121 -0.43386915 0.05434962
-0.069643557 -0.43399131 0.054361369
-0.069822133 -0.43412566 0.054325782
-0.070026822 -0.43430048 0.054157346
-0.070195436 -0.4344199 0.054169115
-0.070028298 -0.43372712 0.057676688
-0.07020963 -0.43386343 0.057641082
-0.070397355 -0.43401003 0.057570823
-0.070585273 -0.43415993 0.057480942
-0.070771039 -0.43430397 0.057417616
-0.070958674 -0.43445122 0.057342745
-0.071161464 -0.43461734 0.057219323
-0.071348831 -0.43477044 0.057107519
-0.071519442 -0.43489128 0.05711928
-0.071704313 -0.43503526 0.057052497
-0.071887203 -0.43517625 0.056994967
-0.072062716 -0.43530557 0.056976691
-0.072239503 -0.43543711 0.056950346
-0.072421849 -0.43557793 0.056891646
-0.07260412 -0.43571886 0.056831807
-0.072782539 -0.43585667 0.056774292
-0.072962448 -0.43599424 0.056724839
-0.073144302 -0.43613526 0.056662694
-0.073326878 -0.43627775 0.056594774
-0.073508568 -0.43641904 0.056530304
-0.07368958 -0.43655944 0.056468166
-0.073870301 -0.43669966 0.056406025
-0.074051328 -0.43684065 0.056340411
-0.074230723 -0.43697914 0.056282889
-0.074410819 -0.4371191 0.056219604
-0.074590623 -0.43725884 0.056156307
-0.074768454 -0.43739545 0.056103405
-0.074948654 -0.43753642 0.056034345
-0.075128756 -0.4376775 0.055964127
-0.075310409 -0.4378216 0.055882365
-0.075484045 -0.43795198 0.055849101
-0.075659484 -0.43808576 0.055803146
-0.075837389 -0.43822414 0.055739861
-0.076013416 -0.43835944 0.055686969
-0.076190263 -0.4384965 0.05562716
-0.076364636 -0.4386327 0.055561583
-0.076540254 -0.43876809 0.055506393
-0.076715976 -0.43890396 0.05544889
-0.076890573 -0.43903804 0.055397168
-0.077064417 -0.43917105 0.055348907
-0.077238545 -0.4393048 0.055297188
-0.077413604 -0.43944058 0.055237379
-0.077586249 -0.43957213 0.055192586
-0.077758655 -0.43970352 0.055147797
-0.077931508 -0.439836 0.055098385
-0.078102157 -0.43996462 0.055062838
-0.078276843 -0.44010103 0.054997269
-0.078446746 -0.44022876 0.054964028
-0.078618854 -0.44036087 0.054913469
-0.078790426 -0.44049221 0.054865222
-0.078961611 -0.4406231 0.054818138
-0.079133816 -0.44075626 0.054761805
-0.079302534 -0.44088292 0.05472973
-0.079472765 -0.44101274 0.054684952
-0.079641268 -0.44113943 0.054651719
-0.079810768 -0.44126835 0.054609254
-0.07998053 -0.44139802 0.054563321
-0.080148146 -0.44152373 0.054532401
-0.08031705 -0.44165221 0.05448994
-0.080484882 -0.44177881 0.054454409
-0.080651239 -0.4419066 0.054405041
-0.080821127 -0.44203392 0.05437411
-0.08098796 -0.44215924 0.054342031
-0.081156299 -0.44228786 0.054296117
-0.08132235 -0.44241205 0.054267514
-0.081488222 -0.44253609 0.054238915
-0.081655987 -0.44266433 0.054192994
-0.081820838 -0.44278669 0.054170173
-0.081986204 -0.44291037 0.054141577
-0.082155466 -0.44303837 0.054103725
-0.082321405 -0.44316381 0.054067045
-0.082483262 -0.44328496 0.054038465
-0.082651585 -0.44341171 0.054004081
-0.082816489 -0.44353563 0.053972028
-0.082977101 -0.44365475 0.053950381
-0.083141424 -0.44377789 0.05392063
-0.083309062 -0.44390413 0.053886257
-0.083475173 -0.44402725 0.053864572
-0.083637811 -0.44414726 0.053846385
-0.083800308 -0.44427189 0.053799335
-0.083963133 -0.44438809 0.053805366
-0.084122673 -0.44450155 0.053813726
-0.084275112 -0.44460329 0.053862505
-0.084431797 -0.44470039 0.053958584
-0.084573179 -0.44477063 0.054151662
-0.084718309 -0.44484434 0.054340102
-0.085233912 -0.44435689 0.059600152
-0.085403658 -0.44449201 0.059520766
-0.08558052 -0.44461173 0.059567109
-0.08573965 -0.44473147 0.059535082
-0.085917294 -0.44487098 0.059463724
-0.086093806 -0.44499612 0.059475444
-0.086252667 -0.44511604 0.059441119
-0.086418726 -0.44524363 0.059391744
-0.086602166 -0.44538221 0.059351508
-0.08676815 -0.44549167 0.059412912
-0.086931393 -0.44561231 0.059393562
-0.087104186 -0.44573456 0.059406459
-0.0872766 -0.44587538 0.059303977
-0.087420359 -0.44598028 0.059295114
-0.087585971 -0.44609568 0.059318438
-0.087742262 -0.44619718 0.059385665
-0.087932855 -0.44634584 0.059315387
-0.088079005 -0.44645172 0.059311122
-0.088240556 -0.44657642 0.059259471
-0.088418372 -0.44670868 0.059233114
-0.088578835 -0.44682357 0.059236862
-0.08873985 -0.44696257 0.059095196
-0.088895947 -0.44706413 0.059161272
-0.089096159 -0.44720936 0.05915441
-0.089251071 -0.44732249 0.059144326
-0.089393079 -0.44741654 0.059194323
-0.089566261 -0.44755149 0.059131064
-0.089728385 -0.44766551 0.059147492
-0.089906365 -0.44780147 0.059099209
-0.090075091 -0.44793078 0.05905097
-0.090248227 -0.44805914 0.059028104
-0.090382449 -0.44816056 0.058998525
-0.09055765 -0.44827926 0.05904372
-0.090730973 -0.44840926 0.059011623
-0.090904377 -0.44854006 0.058974899
-0.091053709 -0.44865388 0.058936007
-0.09120594 -0.44876018 0.058955938
-0.091377154 -0.44888335 0.058956161
-0.091528267 -0.44897512 0.059060339
-0.091690414 -0.4491125 0.058933675
-0.091843985 -0.44921452 0.058985911
-0.092025921 -0.4493635 0.058875307
-0.092199221 -0.44948649 0.058885895
-0.092343271 -0.44959122 0.058879338
-0.092515349 -0.44970903 0.058916472
-0.092682905 -0.44985351 0.058770172
-0.092838421 -0.44996575 0.058768168
-0.092984989 -0.45007193 0.058763899
-0.093156956 -0.45020321 0.058717962
-0.093313202 -0.4503203 0.058689415
-0.093489088 -0.45043257 0.058777295
-0.09366294 -0.45057592 0.058665574
-0.09380877 -0.45067987 0.058671705
-0.093976378 -0.45080441 0.058647707
-0.094137408 -0.4509216 0.058639906
-0.094322041 -0.45105502 0.058636583
-0.094481021 -0.45117691 0.058590718
-0.09461008 -0.45127687 0.058547318
-0.094767429 -0.45138934 0.058552228
-0.094936341 -0.45150822 0.058568608
-0.095090255 -0.45161557 0.058589693
-0.095254071 -0.45173699 0.058568031
-0.095413432 -0.45186689 0.058474854
-0.095585063 -0.45198774 0.058491215
-0.095735863 -0.45209321 0.058510005
-0.095898338 -0.4522312 0.05838104
-0.096050985 -0.45232934 0.058452897
-0.096228622 -0.45245716 0.058453076
-0.096388459 -0.45257235 0.058452211
-0.096547447 -0.45267805 0.058505569
-0.096695274 -0.45278308 0.058513988
-0.096848547 -0.45292458 0.058322757
-0.09701959 -0.45304409 0.058344901
-0.097178049 -0.45314226 0.058442116
-0.097338259 -0.45326975 0.058367394
-0.097501412 -0.45340335 0.058268424
-0.097656973 -0.45349848 0.058371417
-0.09781073 -0.45361888 0.058311731
-0.097978823 -0.45374152 0.058301579
-0.098129191 -0.45385271 0.058283448
-0.098288357 -0.4539721 0.058253735
-0.098450474 -0.45410532 0.05815246
-0.098609298 -0.45421261 0.058195442
-0.098771095 -0.45432809 0.058201477
-0.098924026 -0.45443958 0.058192566
-0.099091314 -0.45457879 0.058077417
-0.099247202 -0.45468038 0.058142334
-0.099402897 -0.45479259 0.058141485
-0.099570088 -0.45491871 0.058105953
-0.099725835 -0.45502663 0.058131643
-0.099883318 -0.45516101 0.058002703
-0.10005692 -0.45527479 0.058070987
-0.10020711 -0.45537284 0.058132477
-0.10035851 -0.45549816 0.058032408
-0.10052812 -0.45562491 0.058003787
-0.10067983 -0.45574155 0.057957958
-0.10084142 -0.45585141 0.057997458
-0.10100299 -0.45596182 0.058033496
-0.10114695 -0.45608968 0.057885014
-0.10132247 -0.45621538 0.057888672
-0.10146429 -0.4563044 0.057968672
-0.10162472 -0.4564234 0.057947025
-0.10178793 -0.45654497 0.057921901
-0.1019416 -0.45666474 0.057865664
-0.10210513 -0.45678276 0.057863623
-0.10225536 -0.45690197 0.057795875
-0.10241304 -0.45701483 0.05779963
-0.102569 -0.45711893 0.057849552
-0.10272647 -0.45723295 0.057845227
-0.1028791 -0.45737138 0.057670157
-0.10304711 -0.45748153 0.057736158
-0.10320435 -0.45757979 0.057827611
-0.10335193 -0.45769197 0.057791039
-0.10351167 -0.45782441 0.057684004
-0.10366844 -0.45793962 0.057669301
-0.10382677 -0.45806199 0.057617664
-0.10400291 -0.45819497 0.057579774
-0.10416292 -0.45829707 0.057659678
-0.10431734 -0.4583948 0.05774191
-0.10446155 -0.45850417 0.057707656
-0.10461662 -0.45862421 0.057656035
-0.10476669 -0.45873687 0.057627521
-0.10491668 -0.45887208 0.057460546
-0.10508777 -0.45897409 0.05759
-0.10524558 -0.45908439 0.057609901
-0.10539527 -0.45920771 0.057514466
-0.1055534 -0.45933729 0.057417832
-0.10572816 -0.45945081 0.057493035
-0.10587364 -0.45955431 0.057500318
-0.10603105 -0.45967492 0.057455607
-0.1061914 -0.45978782 0.057470884
-0.10635377 -0.45986828 0.057693847
-0.10650092 -0.45998639 0.057619199
-0.10664193 -0.46012697 0.05737957
-0.10680134 -0.46025899 0.057273697
-0.10696553 -0.46037129 0.057309721
-0.10712065 -0.46047834 0.05733772
-0.1072841 -0.46059257 0.057358753
-0.10743878 -0.46070874 0.057329062
-0.1075969 -0.46082568 0.057309732
-0.10776352 -0.46094143 0.057335354
-0.10792252 -0.46102625 0.05751681
-0.10806517 -0.46113488 0.057480253
-0.10820574 -0.46126911 0.057277557
-0.10836211 -0.46140307 0.057146311
-0.10852829 -0.46152642 0.057123486
-0.10868956 -0.46163002 0.057199907
-0.10883982 -0.46173847 0.057197932
-0.10901415 -0.46186203 0.057209674
-0.10915369 -0.46196747 0.057178907
-0.10930008 -0.46207523 0.057164267
-0.10946011 -0.4622075 0.057059541
-0.10962023 -0.46231365 0.057115205
-0.10979187 -0.46243471 0.057130419
-0.10994907 -0.46255156 0.057107639
-0.11009294 -0.46265635 0.057099923
-0.11025123 -0.46277758 0.057055213
-0.1104036 -0.46288869 0.057046302
-0.11055483 -0.46300125 0.057023544
-0.11071583 -0.46311274 0.057050362
-0.11087262 -0.46323535 0.056990661
-0.11102101 -0.46335113 0.056935616
-0.11117485 -0.463449 0.057014391
-0.11131833 -0.46357593 0.056869373
-0.11148607 -0.4636904 0.056907687
-0.11164736 -0.46380699 0.056904502
-0.11178754 -0.46391535 0.056858733
-0.11195947 -0.46404114 0.056846246
-0.1121076 -0.46414071 0.056889288
-0.11225437 -0.46426231 0.056791559
-0.11241525 -0.464369 0.056847218
-0.11257684 -0.46447021 0.056939803
-0.1127352 -0.46458977 0.056905475
-0.1128675 -0.46471015 0.056751281
-0.11300316 -0.46483165 0.056605153
-0.11315345 -0.46494371 0.056581248
-0.11330657 -0.46506724 0.056499638
-0.11347982 -0.46517703 0.056591004
-0.11364517 -0.46527565 0.056715872
-0.11380006 -0.46537915 0.05676464
-0.11394421 -0.46550563 0.056625389
-0.11410074 -0.46562576 0.056579534
-0.11425692 -0.46572834 0.056639839
-0.11441684 -0.46584564 0.056626268
-0.11456563 -0.46596304 0.056563146
-0.1147133 -0.46607679 0.056517333
-0.11487207 -0.46619478 0.056494541
-0.11503781 -0.46630329 0.056560557
-0.11519755 -0.46640804 0.056623153
-0.11534881 -0.46651912 0.056609631
-0.11550358 -0.46663177 0.05660186
-0.11565519 -0.46675476 0.056516796
-0.11579496 -0.46687752 0.056381028
-0.1159547 -0.46699056 0.056392848
-0.11612118 -0.46708736 0.056533866
-0.11627412 -0.46720114 0.056511108
-0.11642219 -0.46732575 0.056400679
-0.11658017 -0.46744391 0.05637328
-0.11673331 -0.46755353 0.056377053
-0.11689062 -0.46766442 0.056391194
-0.11703892 -0.46777695 0.056355767
-0.11719305 -0.46789348 0.056321457
-0.11735013 -0.46800458 0.056333292
-0.11750347 -0.4681215 0.056293227
-0.11766197 -0.46823552 0.056293517
-0.1178158 -0.46834844 0.05627998
-0.11796539 -0.46845999 0.056256078
-0.11811616 -0.46857092 0.056241415
-0.11827213 -0.46868274 0.056244023
-0.11841755 -0.46879977 0.056168225
-0.11857025 -0.46891659 0.056125853
-0.11872728 -0.46902788 0.056136526
-0.11888789 -0.46914434 0.056131035
-0.11904724 -0.46925467 0.056157861
-0.11920991 -0.4693636 0.056207735
-0.1193674 -0.46948162 0.056179181
-0.11951105 -0.46959886 0.056094162
-0.11966884 -0.46971333 0.056088686
-0.11981345 -0.46982017 0.056071747
-0.11999658 -0.46994066 0.056141131
-0.12013248 -0.47005102 0.056064226
-0.12028182 -0.4701688 0.056001101
-0.12043536 -0.47028169 0.055986412
-0.12058373 -0.4703871 0.055994831
-0.12075291 -0.47050375 0.056026217
-0.12090347 -0.4706209 0.055972323
-0.12105846 -0.47073334 0.055966862
-0.12121256 -0.47084308 0.055974089
-0.12136741 -0.4709526 0.055985942
-0.12150989 -0.47106919 0.055899769
-0.12166437 -0.47118485 0.055872388
-0.12180183 -0.47130576 0.055737786
-0.12195736 -0.47141498 0.055754237
-0.12211402 -0.47153279 0.055723391
-0.12229628 -0.47164604 0.055833161
-0.12244325 -0.47175798 0.055795431
-0.12260586 -0.47186553 0.055853389
-0.12275844 -0.4719817 0.055814479
-0.12292442 -0.47210282 0.055804335
-0.12307598 -0.47221637 0.055776976
-0.1232229 -0.47232544 0.05575655
-0.12337856 -0.47243518 0.055770703
-0.12354369 -0.47255379 0.055772111
-0.12369583 -0.47267547 0.055697426
-0.12384184 -0.47278202 0.055688553
-0.12398843 -0.47289932 0.055616211
-0.12413168 -0.47300914 0.055575039
-0.12428789 -0.47311887 0.055591498
-0.12444993 -0.47323018 0.055624075
-0.12460862 -0.47334492 0.05562089
-0.12476239 -0.47345534 0.055622369
-0.12490914 -0.47356975 0.055568483
-0.12505959 -0.47368345 0.055535354
-0.12521955 -0.4738006 0.055522934
-0.12537357 -0.47391364 0.055509403
-0.12552823 -0.47402662 0.055499323
-0.12568516 -0.47413668 0.055516928
-0.12584151 -0.47424689 0.055531077
-0.12599652 -0.47435993 0.055522151
-0.12614845 -0.47447842 0.055465929
-0.12629582 -0.47459254 0.055416662
-0.12645882 -0.47470945 0.05541924
-0.12660635 -0.47482103 0.055386119
-0.12676832 -0.47493568 0.055397924
-0.12692098 -0.47504663 0.055391323
-0.12709093 -0.47516531 0.055413473
-0.12723684 -0.47528195 0.055342287
-0.12739436 -0.47539246 0.055359889
-0.12753597 -0.47550467 0.055296808
-0.12768477 -0.47561848 0.055255607
-0.12784302 -0.4757314 0.05526166
-0.12800355 -0.4758465 0.055264242
-0.12814957 -0.47595587 0.055238061
-0.12831059 -0.47606871 0.055256791
-0.12845971 -0.47618482 0.055202905
-0.12861514 -0.47629812 0.055193979
-0.12877737 -0.4764156 0.055189628
-0.12894101 -0.4765262 0.055233739
-0.12909038 -0.47664455 0.055167146
-0.12925543 -0.47675747 0.055203162
-0.12941015 -0.47687101 0.055189632
-0.12954849 -0.47698316 0.055112712
-0.12970829 -0.47710094 0.055095688
-0.12984605 -0.47721076 0.055030316
-0.13002028 -0.47732803 0.055080131
-0.13017951 -0.4774437 0.0550735
-0.13032129 -0.47755775 0.055000022
-0.13047475 -0.47767359 0.054966878
-0.13063799 -0.47778276 0.055017911
-0.13080005 -0.47790068 0.055010103
-0.13095105 -0.47801664 0.054965429
-0.13110504 -0.47813043 0.054947276
-0.13125825 -0.47824422 0.054925665
-0.13139901 -0.47835809 0.054848745
-0.13156602 -0.47846976 0.054900911
-0.13171118 -0.4785836 0.054843571
-0.13185632 -0.47869948 0.05477355
-0.13202767 -0.47881976 0.054792229
-0.13218687 -0.47893372 0.054795977
-0.1323079 -0.47904092 0.054672994
-0.13248704 -0.4791553 0.054762028
-0.13264716 -0.47927353 0.054743841
-0.13281119 -0.47938985 0.054754481
-0.13295887 -0.47949964 0.0547329
-0.13313989 -0.47962067 0.05478961
-0.13327679 -0.47973418 0.054697704
-0.13345091 -0.47984913 0.054761365
-0.13358743 -0.47996256 0.054668311
-0.13378112 -0.48008254 0.054787256
-0.13392435 -0.48020026 0.054697625
-0.13408163 -0.48031077 0.054714069
-0.13422373 -0.48042053 0.054668292
-0.13438393 -0.48054105 0.054636262
-0.1345534 -0.48066413 0.054629564
-0.13469148 -0.4807736 0.054567661
-0.13484858 -0.48088625 0.054570261
-0.13500468 -0.48100081 0.054556709
-0.13516635 -0.48111579 0.054565057
-0.13533133 -0.48123109 0.054586083
-0.13545918 -0.48134357 0.05446076
-0.13560982 -0.48145589 0.054436866
-0.13577825 -0.48157161 0.054470554
-0.13591027 -0.48168427 0.054362521
-0.13610065 -0.48180205 0.054480333
-0.13624761 -0.48191604 0.054429919
-0.13638636 -0.48203111 0.054336838
-0.13656467 -0.48214811 0.054406252
-0.13670556 -0.48226151 0.054332789
-0.1368839 -0.48237872 0.054401048
-0.13701922 -0.48249334 0.054295305
-0.13720183 -0.48261121 0.054378539
-0.13733748 -0.48272401 0.054285489
-0.1375062 -0.48284051 0.054315716
-0.1376628 -0.48295751 0.054289475
-0.13780285 -0.48306897 0.054224093
-0.13797815 -0.48319003 0.054255445
-0.1381464 -0.48330674 0.054282214
-0.13829118 -0.48342237 0.054212194
-0.13846366 -0.483538 0.054264329
-0.13857898 -0.48364803 0.054098692
-0.13876392 -0.48376718 0.054184221
-0.13892509 -0.48388502 0.054172955
-0.1390827 -0.48400065 0.054159407
-0.13924493 -0.484117 0.054161977
-0.1393926 -0.48423132 0.05411271
-0.13954751 -0.48434842 0.054078396
-0.13971554 -0.48446572 0.054100554
-0.13987349 -0.48458162 0.054087006
-0.14001365 -0.48469487 0.054011226
-0.14017469 -0.48481297 0.053997658
-0.14034012 -0.4849318 0.053999063
-0.14049363 -0.48504713 0.053969372
-0.14065124 -0.48516145 0.053963896
-0.14083451 -0.48528337 0.054025203
-0.14097162 -0.48539779 0.053928688
-0.14114058 -0.48551747 0.053940456
-0.14128789 -0.48563191 0.05388888
-0.14146641 -0.48575169 0.053942129
-0.14162724 -0.48586854 0.053935487
-0.14175066 -0.48598215 0.053783651
-0.14190957 -0.48609704 0.05378047
-0.1420826 -0.48621777 0.053803761
-0.14223368 -0.48633134 0.053774081
-0.1424123 -0.48645648 0.053795032
-0.14255068 -0.48656619 0.053733118
-0.1427182 -0.48668614 0.053736821
-0.14288549 -0.48680294 0.053758986
-0.14304867 -0.4869222 0.053747706
-0.14317282 -0.48703238 0.053620096
-0.14335021 -0.48715287 0.053664133
-0.14355735 -0.48727936 0.053802621
-0.1436978 -0.48739752 0.053698003
-0.14384367 -0.48751354 0.053630278
-0.14400843 -0.48763341 0.053622451
-0.14416538 -0.48774859 0.053608906
-0.1443361 -0.48786822 0.053628739
-0.14449883 -0.48799095 0.053594384
-0.1446519 -0.4881039 0.053577401
-0.14480999 -0.48822722 0.053518843
-0.14499898 -0.48834947 0.053603191
-0.14513664 -0.48846695 0.053490512
-0.14527154 -0.48857301 0.053435542
-0.1454764 -0.4887082 0.05351058
-0.14561449 -0.48881656 0.053455591
-0.14576966 -0.48893178 0.05343397
-0.14595994 -0.48906097 0.0534814
-0.14611502 -0.48918232 0.053421699
-0.14626855 -0.48929429 0.05341278
-0.14643559 -0.48941389 0.053416487
-0.14659967 -0.4895359 0.053392511
-0.14673065 -0.48964423 0.053306408
-0.14694378 -0.48977482 0.053446017
-0.1471135 -0.48990428 0.053401243
-0.14725614 -0.49001989 0.053321999
-0.14743771 -0.49014187 0.053375237
-0.14757332 -0.49025577 0.053275254
-0.14771926 -0.49036923 0.053223692
-0.14787729 -0.49048275 0.053225137
-0.14809138 -0.49062476 0.053298969
-0.14822787 -0.49073744 0.053210527
-0.14837977 -0.49085104 0.053184312
-0.14856741 -0.49097946 0.053224821
-0.14874856 -0.49110493 0.053254984
-0.14887519 -0.49121368 0.053146984
-0.14900675 -0.49131793 0.053088568
-0.14920639 -0.49145406 0.053134788
-0.14936599 -0.49157134 0.053120065
-0.14954112 -0.49169415 0.053139877
-0.14969981 -0.49181414 0.053104393
-0.14985687 -0.4919309 0.053081617
-0.15001132 -0.49204558 0.053059999
-0.15016128 -0.49216193 0.053008407
-0.15033419 -0.49228165 0.053037461
-0.15048595 -0.49240136 0.052973166
-0.15065518 -0.49252161 0.052982632
-0.15079276 -0.49263468 0.052896496
-0.15102279 -0.49278009 0.053019859
-0.15116695 -0.49289924 0.052925602
-0.15132684 -0.49301577 0.052916653
-0.15151657 -0.49314347 0.052970994
-0.15166464 -0.49326372 0.052887112
-0.15180904 -0.49337193 0.052860931
-0.15198028 -0.49349326 0.052872688
-0.15216121 -0.49361742 0.05290978
-0.15232624 -0.49374124 0.052878875
-0.15247604 -0.49385935 0.05281575
-0.15265827 -0.49400043 0.052754745
-0.067813724 -0.43301731 0.052260205
-0.067948326 -0.43308419 0.052444089
-0.06808351 -0.43315411 0.052611817
-0.068223089 -0.43322793 0.052774917
-0.068364859 -0.43330729 0.052913766
-0.068507791 -0.43338582 0.053062994
-0.068648458 -0.43346328 0.053208783
-0.068795621 -0.43354782 0.053339534
-0.068934754 -0.43362266 0.05349455
-0.069085099 -0.4337118 0.053611439
-0.069235004 -0.43380266 0.053715643
-0.069385819 -0.43389234 0.053831376
-0.069539979 -0.43399212 0.053899787
-0.06971626 -0.43412066 0.05388964
-0.069864526 -0.43420884 0.054003075
-0.070025712 -0.43431425 0.054067992
-0.07018394 -0.43441772 0.054131769
-0.070357338 -0.43453947 0.054150477
-0.070557848 -0.43470353 0.05402945
-0.070402727 -0.43402404 0.05750861
-0.07057298 -0.43414617 0.057511181
-0.070756957 -0.43428457 0.057474449
-0.070943326 -0.43442976 0.057406567
-0.071132824 -0.43457744 0.057337508
-0.071320288 -0.43472493 0.057260383
-0.071508713 -0.43487144 0.057193641
-0.071702719 -0.43503007 0.057077251
-0.071903497 -0.43519714 0.056938916
-0.072075576 -0.43532094 0.056939173
-0.072257534 -0.43545809 0.056901302
-0.072437711 -0.43559545 0.056854211
-0.072616324 -0.43572754 0.056832507
-0.072795019 -0.4358629 0.056791194
-0.072978064 -0.4360027 0.056741785
-0.073159486 -0.43614304 0.056682002
-0.073342003 -0.43628246 0.056632586
-0.073523663 -0.43642372 0.05656819
-0.073707417 -0.43656573 0.056508385
-0.073886171 -0.43670261 0.056457847
-0.074071713 -0.43684819 0.056384187
-0.074250698 -0.436986 0.056329027
-0.074432954 -0.43712655 0.056271553
-0.074613884 -0.43726823 0.056201376
-0.074793212 -0.43740743 0.056139294
-0.074977636 -0.43755254 0.056063347
-0.075154908 -0.43768877 0.0560105
-0.075336702 -0.43782991 0.055947252
-0.075514928 -0.43796831 0.055885173
-0.075697079 -0.43811068 0.055816155
-0.075879827 -0.43825445 0.055741359
-0.076059058 -0.43839225 0.05568736
-0.076234221 -0.43852636 0.055637982
-0.076412603 -0.43866318 0.05558629
-0.076586932 -0.43879634 0.055539228
-0.076769158 -0.43894064 0.055458672
-0.076942645 -0.43907279 0.055413924
-0.077121735 -0.43921199 0.055350695
-0.077294916 -0.43934414 0.055304788
-0.077473633 -0.43948328 0.0552404
-0.077646844 -0.43961599 0.055191044
-0.077823892 -0.43975261 0.055134743
-0.077995971 -0.43988377 0.055089995
-0.078171872 -0.4400188 0.055038314
-0.078345604 -0.44015357 0.054978572
-0.078520052 -0.44028643 0.054933824
-0.078692026 -0.44041845 0.054883312
-0.078865871 -0.44055068 0.054839715
-0.079036295 -0.44068027 0.054797284
-0.079211101 -0.44081488 0.054743312
-0.079382785 -0.44094744 0.054688193
-0.07955651 -0.44108054 0.054638822
-0.079724394 -0.44120622 0.054609101
-0.079896636 -0.44133693 0.054567825
-0.080065936 -0.44146588 0.05452425
-0.080237761 -0.44159627 0.054482978
-0.080406785 -0.44172522 0.054438245
-0.080577768 -0.44185448 0.054400437
-0.080745086 -0.44198048 0.054366104
-0.08091294 -0.44210786 0.054326002
-0.081080034 -0.44223389 0.054290514
-0.081248149 -0.44235823 0.054270025
-0.081414059 -0.44248229 0.054241467
-0.081584178 -0.44261128 0.05420135
-0.081748933 -0.44273338 0.054179732
-0.081915461 -0.44285527 0.054167315
-0.082079515 -0.4429763 0.054149158
-0.082244851 -0.44309601 0.05414483
-0.082407072 -0.44321346 0.054140519
-0.082569733 -0.44332767 0.054158125
-0.082729213 -0.44343936 0.054176908
-0.082893103 -0.44355202 0.054209501
-0.083054587 -0.44366384 0.054236345
-0.083215669 -0.44377482 0.054266654
-0.083385184 -0.44388193 0.054358065
-0.083564848 -0.44399801 0.054439034
-0.083718911 -0.44408813 0.054566294
-0.083864219 -0.44416723 0.054722432
-0.085051291 -0.44424397 0.059486702
-0.08522971 -0.44438985 0.05937963
-0.08538571 -0.44450715 0.059348822
-0.085562237 -0.44462645 0.059396345
-0.085728467 -0.44474772 0.059386246
-0.085896648 -0.44487438 0.059351917
-0.086059541 -0.4449814 0.059414513
-0.086228371 -0.4451102 0.059369788
-0.086397402 -0.4452399 0.05932045
-0.086557545 -0.44536415 0.059265397
-0.086711004 -0.44546419 0.059329193
-0.086873092 -0.44559434 0.059246436
-0.087065428 -0.44572729 0.059280038
-0.087220237 -0.44584411 0.059246927
-0.08738324 -0.44596517 0.059224155
-0.087553099 -0.44608641 0.059230186
-0.08771316 -0.4461993 0.059244357
-0.087876692 -0.44632259 0.059210036
-0.088022575 -0.44642791 0.059208125
-0.088206135 -0.44657749 0.059101023
-0.088374659 -0.44669592 0.059118595
-0.088551134 -0.44681743 0.059152283
-0.088718034 -0.44693828 0.059147947
-0.088876605 -0.4470627 0.059084825
-0.089048043 -0.44718358 0.05910008
-0.089196995 -0.4472928 0.059087768
-0.089368694 -0.44743064 0.059000336
-0.08952041 -0.44752583 0.059086077
-0.089674145 -0.44765207 0.058990665
-0.089843936 -0.44777668 0.058975931
-0.090035118 -0.44791782 0.058954172
-0.090199769 -0.44805059 0.058866777
-0.090346575 -0.4481543 0.058878705
-0.090520136 -0.44826749 0.058950476
-0.090680763 -0.44838661 0.05892887
-0.090858117 -0.44852346 0.058872558
-0.091017097 -0.44863707 0.058877498
-0.091172874 -0.44875759 0.058825925
-0.091355801 -0.44888884 0.058828428
-0.091513492 -0.44900814 0.05879299
-0.091681018 -0.44912753 0.058800194
-0.09181942 -0.44923967 0.058723323
-0.091972105 -0.44934952 0.058723681
-0.092151351 -0.44947734 0.058730818
-0.092302114 -0.44959033 0.05870349
-0.092464074 -0.44969723 0.058762636
-0.092641652 -0.4498297 0.058734022
-0.092803039 -0.44994599 0.05873318
-0.092961699 -0.45006165 0.058724277
-0.093131773 -0.45019662 0.058647238
-0.093284391 -0.45030865 0.058633752
-0.093446612 -0.45043102 0.058599442
-0.093610287 -0.45054781 0.058605514
-0.093776211 -0.45067754 0.058542348
-0.093924791 -0.45078328 0.058549643
-0.094092846 -0.45089611 0.058599532
-0.094248898 -0.45101571 0.058554865
-0.094424248 -0.45115826 0.058454733
-0.094589934 -0.45127368 0.058478095
-0.09473525 -0.45137706 0.058485419
-0.094895594 -0.45151144 0.058369204
-0.095045373 -0.45160958 0.058428414
-0.095216148 -0.4517445 0.058354843
-0.095372751 -0.45185396 0.058374792
-0.095524147 -0.45196512 0.058361307
-0.095701426 -0.45208946 0.058381144
-0.095867574 -0.45221201 0.058362968
-0.096016057 -0.45232353 0.0583345
-0.096167997 -0.45244318 0.058271416
-0.096327141 -0.45255294 0.05830057
-0.096496403 -0.45268357 0.058246613
-0.096681818 -0.45280927 0.05829411
-0.096835665 -0.45292351 0.058272537
-0.096974701 -0.45302767 0.058247581
-0.097152099 -0.45316094 0.058213189
-0.097308651 -0.45327789 0.058186993
-0.09745875 -0.45338154 0.058213897
-0.09761484 -0.45349118 0.058230385
-0.097776897 -0.45360738 0.058233
-0.097932853 -0.45371374 0.058269095
-0.098077901 -0.45384443 0.05810798
-0.098254561 -0.45397907 0.058062069
-0.098410279 -0.45408225 0.058116622
-0.098572001 -0.45419765 0.058122702
-0.098721929 -0.45431903 0.058040008
-0.098892242 -0.45444986 0.057989508
-0.099056803 -0.45455602 0.058064792
-0.099206664 -0.45465872 0.058096308
-0.099358961 -0.45478278 0.058007833
-0.099514335 -0.45489812 0.057986252
-0.099683903 -0.4550333 0.057905763
-0.099842124 -0.45514733 0.057904936
-0.10000075 -0.45525351 0.057953715
-0.10014535 -0.45533982 0.058062557
-0.10030095 -0.45549297 0.057810243
-0.10046823 -0.45560619 0.057854366
-0.10062407 -0.4557085 0.057914689
-0.10078 -0.45581105 0.057973869
-0.1009304 -0.45593882 0.057854246
-0.10108696 -0.45606503 0.057771519
-0.10125131 -0.45617628 0.057814501
-0.10140624 -0.45628718 0.057818305
-0.10157467 -0.45641682 0.057766661
-0.10172807 -0.45651454 0.057844311
-0.10188795 -0.45663542 0.057808861
-0.10203818 -0.45675495 0.057738848
-0.10219582 -0.45688793 0.057619203
-0.10236077 -0.45699513 0.057689864
-0.1025113 -0.45711017 0.057648703
-0.10267536 -0.45722294 0.057681296
-0.10282241 -0.45733795 0.05762516
-0.10297808 -0.45744258 0.057670489
-0.10313162 -0.45757353 0.057545081
-0.10329886 -0.45768669 0.057589203
-0.10346117 -0.45780686 0.057568744
-0.10361475 -0.45789173 0.057725996
-0.10376032 -0.45799664 0.057725228
-0.10391036 -0.45813787 0.057521403
-0.10407319 -0.45826802 0.057442099
-0.10422786 -0.45835084 0.057616644
-0.10437711 -0.45849133 0.057413973
-0.10454717 -0.4586069 0.057455774
-0.10471041 -0.45872191 0.057471067
-0.10486709 -0.45883518 0.057467945
-0.10501763 -0.45893404 0.057525989
-0.1051692 -0.45905194 0.057472128
-0.1053252 -0.45917752 0.057390552
-0.10548227 -0.45929936 0.057336662
-0.10564488 -0.45942557 0.05728044
-0.10579887 -0.45950547 0.057469994
-0.10594881 -0.45962611 0.057391912
-0.1060955 -0.45974499 0.057310387
-0.10624886 -0.4598653 0.057249594
-0.10641816 -0.45999199 0.057219863
-0.10657352 -0.46008906 0.057310194
-0.106723 -0.46021748 0.057182498
-0.10688403 -0.46032786 0.057216268
-0.10703942 -0.4604423 0.057200462
-0.10720733 -0.46056291 0.057201892
-0.10736728 -0.46068382 0.057166442
-0.10751241 -0.46078688 0.057174917
-0.10766227 -0.46089619 0.057166051
-0.10780312 -0.46100748 0.057105325
-0.10796037 -0.46114016 0.056985669
-0.10813947 -0.46123946 0.057167023
-0.10829292 -0.46134213 0.05721467
-0.10843846 -0.46145886 0.057141233
-0.10858308 -0.46157682 0.057056256
-0.1087435 -0.46170241 0.056994267
-0.10890555 -0.46183178 0.056916129
-0.10906289 -0.4619348 0.056978747
-0.10921583 -0.4620384 0.057018332
-0.10938197 -0.46216094 0.057000156
-0.10953093 -0.46225792 0.057062831
-0.10968884 -0.46237358 0.05705047
-0.10985827 -0.46249756 0.057038046
-0.11000273 -0.4626075 0.057001531
-0.11014986 -0.46270749 0.057037678
-0.11029729 -0.46282521 0.056966528
-0.1104497 -0.46295369 0.056851514
-0.11060263 -0.46306932 0.05681726
-0.11075672 -0.46319485 0.056727625
-0.11092958 -0.46330795 0.056797091
-0.11109314 -0.46340469 0.056925453
-0.11123981 -0.46351114 0.056920063
-0.11139034 -0.46362939 0.056859285
-0.11154409 -0.46373829 0.056870013
-0.11170722 -0.46386865 0.056790713
-0.11185978 -0.46398932 0.056724161
-0.11201992 -0.46409115 0.056806382
-0.11216668 -0.46420234 0.056772165
-0.11233439 -0.46432206 0.056778207
-0.11248216 -0.4644421 0.056694366
-0.11264572 -0.46456093 0.056687746
-0.11278978 -0.46465963 0.056718133
-0.11293973 -0.46474791 0.056838498
-0.11308922 -0.46488029 0.05668658
-0.11323684 -0.46500435 0.056577358
-0.11339488 -0.46511391 0.056603074
-0.11355825 -0.46522805 0.056624137
-0.11371119 -0.46535143 0.056542575
-0.11387085 -0.46546423 0.056555584
-0.1140069 -0.4655745 0.05647989
-0.11417116 -0.46568343 0.056536712
-0.11432487 -0.46580118 0.056493219
-0.11449601 -0.46590924 0.056585778
-0.11466675 -0.46600497 0.05675216
-0.11482619 -0.46610987 0.056812469
-0.11497258 -0.46622911 0.056727495
-0.11511858 -0.46635255 0.05661482
-0.11526286 -0.46646029 0.056590989
-0.11540578 -0.4665772 0.056504872
-0.11555295 -0.46669906 0.056407191
-0.11569972 -0.4668169 0.056332584
-0.11585014 -0.46693206 0.056290265
-0.1160177 -0.46705166 0.056296319
-0.1161897 -0.46716845 0.056339253
-0.11633798 -0.46728092 0.056303866
-0.11648087 -0.46738899 0.05627197
-0.11663932 -0.46750277 0.056273453
-0.11679161 -0.46761271 0.056271505
-0.11693861 -0.46773332 0.056180745
-0.11710784 -0.4678483 0.056222543
-0.11725768 -0.46795589 0.05622407
-0.11740697 -0.46807119 0.056175981
-0.1175648 -0.4681817 0.056194775
-0.11771381 -0.4682934 0.056167454
