# .PCD v0.7 - Point Cloud Data file format
VERSION 0.7
FIELDS x y z
SIZE 4 4 4
TYPE F F F
COUNT 1 1 1
WIDTH 758
HEIGHT 1
VIEWPOINT 0 0 0 1 0 0 0
POINTS 758
DATA ascii
-0.39993706 -0.26793736 0.058155581
-0.40012833 -0.26790887 0.058190428
-0.40032324 -0.26788089 0.05821833
-0.40052533 -0.26784837 0.058272727
-0.40072736 -0.26783186 0.058210649
-0.40091166 -0.26781023 0.058201704
-0.40110627 -0.26779601 0.058129299
-0.401301 -0.26777533 0.058104154
-0.4014923 -0.26775157 0.058104411
-0.4016872 -0.26772645 0.058111556
-0.40188536 -0.26770532 0.058086406
-0.40208372 -0.26768103 0.058084313
-0.40228593 -0.26765308 0.058105268
-0.4024733 -0.26763409 0.0580744
-0.40266356 -0.26761979 0.058006611
-0.40285444 -0.26759911 0.057984952
-0.40304887 -0.26757765 0.057965588
-0.40324396 -0.26755106 0.057983115
-0.40343806 -0.26753139 0.057951055
-0.40364033 -0.26750377 0.057969704
-0.40381962 -0.2674894 0.057912357
-0.40401441 -0.26746508 0.057913739
-0.40420437 -0.26744813 0.05786556
-0.40440264 -0.26742336 0.057866935
-0.4046033 -0.26740399 0.057826772
-0.40478176 -0.26739147 0.057756748
-0.40497851 -0.26735774 0.057824999
-0.4051753 -0.26733947 0.057780247
-0.40536574 -0.26731881 0.057758592
-0.40556437 -0.26729259 0.057770338
-0.40575868 -0.26727006 0.057759039
-0.40594855 -0.26725122 0.057724699
-0.40613958 -0.26722798 0.057721492
-0.4063262 -0.26720828 0.057696395
-0.40651247 -0.26718974 0.057663225
-0.4067049 -0.26716176 0.057693448
-0.4069111 -0.26713362 0.057712074
-0.40708834 -0.26712188 0.057637438
-0.40729791 -0.26709399 0.057651434
-0.40750974 -0.26706961 0.057637755
-0.40767822 -0.26705295 0.057606973
-0.40785891 -0.26703984 0.05753924
-0.40806571 -0.26701039 0.05756709
-0.40825796 -0.26699299 0.057520051
-0.4084442 -0.2669735 0.057493806
-0.40864235 -0.26693201 0.057617396
-0.40887585 -0.26688728 0.057732761
-0.40908831 -0.26686186 0.057725981
-0.40928927 -0.2668238 0.057821888
-0.40947509 -0.2667903 0.057898276
-0.40968558 -0.26675472 0.057967611
-0.40986791 -0.26672244 0.058038238
-0.4100706 -0.26668277 0.058144521
-0.41028044 -0.26664284 0.058246151
-0.41048074 -0.26660234 0.05836051
-0.41065645 -0.26657182 0.058424257
-0.41086018 -0.26653233 0.058528215
-0.41108909 -0.26649004 0.058629759
-0.41129664 -0.26645085 0.05872795
-0.41149819 -0.26641086 0.058837689
-0.41170233 -0.26637289 0.058930121
-0.41190428 -0.2663396 0.058990281
-0.41210932 -0.26630089 0.059087329
-0.41230482 -0.26626179 0.059195939
-0.41250914 -0.26622537 0.059276849
-0.41272119 -0.26618171 0.059403837
-0.41292882 -0.26614046 0.059517011
-0.41311681 -0.26610479 0.059607208
-0.34309134 -0.27435014 0.062780224
-0.34336111 -0.27433363 0.06265676
-0.34358388 -0.27431041 0.062624589
-0.34378758 -0.27427503 0.062698565
-0.34400481 -0.27424604 0.062713675
-0.34424186 -0.27422202 0.062674522
-0.3444396 -0.27418831 0.0627416
-0.34472263 -0.274176 0.062575422
-0.34492674 -0.27414402 0.06262403
-0.34516346 -0.27412036 0.062582567
-0.34536114 -0.27408841 0.062636979
-0.34556785 -0.27405724 0.06267751
-0.34582293 -0.27403858 0.062582925
-0.34606972 -0.27401793 0.062510297
-0.34627706 -0.27398714 0.062547363
-0.34654158 -0.27397144 0.062422775
-0.34674567 -0.27393994 0.062467925
-0.34697485 -0.27391517 0.062441483
-0.34719971 -0.27389091 0.062415071
-0.34740943 -0.27386111 0.062442895
-0.34764749 -0.273839 0.062388748
-0.3478784 -0.2738167 0.062342707
-0.34803101 -0.2737892 0.062405385
-0.34825698 -0.27375439 0.062455043
-0.34845501 -0.27373296 0.062432215
-0.34868124 -0.27371296 0.062373511
-0.34893888 -0.27367249 0.062435694
-0.34920233 -0.27365834 0.062300742
-0.34943143 -0.27364779 0.06217055
-0.34961835 -0.27359897 0.062357575
-0.34985578 -0.27357951 0.062284984
-0.35007739 -0.27355391 0.062271267
-0.35030177 -0.27352923 0.062248304
-0.35053468 -0.27350715 0.062198788
-0.350748 -0.27347943 0.062208168
-0.35097694 -0.27345639 0.062169045
-0.35119039 -0.27343056 0.062164582
-0.35139832 -0.27340144 0.062188968
-0.35162693 -0.27337861 0.062148694
-0.35185599 -0.27335605 0.062106121
-0.35208771 -0.27333444 0.062054299
-0.35230482 -0.27330846 0.062047526
-0.35252357 -0.27328306 0.062034961
-0.35274938 -0.27325994 0.061999321
-0.35296589 -0.2732358 0.061979853
-0.35317066 -0.27320626 0.06201002
-0.35339758 -0.27318382 0.061968602
-0.35361707 -0.27315912 0.061950274
-0.35383248 -0.27313319 0.061944649
-0.35408404 -0.27311906 0.061820123
-0.3542648 -0.27308208 0.061926477
-0.35450134 -0.27306333 0.061849289
-0.35471439 -0.2730388 0.061835602
-0.35492808 -0.27301279 0.061832286
-0.35513401 -0.27298421 0.061854374
-0.35536009 -0.27296251 0.061808359
-0.3555707 -0.27294838 0.061720908
-0.35579985 -0.27291521 0.06175556
-0.3560001 -0.27288499 0.06179497
-0.35623398 -0.27286643 0.061718933
-0.35642332 -0.27284545 0.06170075
-0.35663199 -0.27280724 0.061790846
-0.35687444 -0.27279204 0.0616825
-0.35709357 -0.2727688 0.061653793
-0.35726416 -0.27274525 0.061671436
-0.35751417 -0.27271631 0.06165643
-0.35774413 -0.27269727 0.061587326
-0.35795948 -0.27267307 0.061569028
-0.358105 -0.2726444 0.06164673
-0.35840723 -0.27263129 0.061468937
-0.35861999 -0.27260646 0.061457563
-0.3588149 -0.27258086 0.061468177
-0.35902813 -0.27255252 0.061482154
-0.35921621 -0.27251858 0.061559658
-0.35942534 -0.27249265 0.061559826
-0.35964397 -0.27247041 0.061524212
-0.35985151 -0.27244404 0.061529003
-0.36007375 -0.27242342 0.061478391
-0.36028403 -0.27239829 0.06147163
-0.36050576 -0.27237773 0.061421026
-0.36072385 -0.27235588 0.061383113
-0.36094293 -0.27233455 0.061340574
-0.36113745 -0.27230346 0.061391536
-0.36136273 -0.27228484 0.06132362
-0.36156598 -0.27225536 0.061354943
-0.361781 -0.2722328 0.061325107
-0.36200961 -0.27221596 0.061241031
-0.36220661 -0.27218616 0.061280455
-0.36240527 -0.27216956 0.061221875
-0.36263695 -0.27215031 0.061152775
-0.36284542 -0.27213186 0.061098762
-0.36307859 -0.27210516 0.061082687
-0.36328036 -0.27208835 0.061022937
-0.36350062 -0.27206054 0.061026521
-0.36372215 -0.27203766 0.060993195
-0.36391011 -0.27200437 0.061066087
-0.36414337 -0.27198902 0.060967006
-0.36434481 -0.27196181 0.060983349
-0.36455053 -0.2719366 0.060981229
-0.36476052 -0.27191341 0.060960643
-0.36496705 -0.2718865 0.060970053
-0.36517429 -0.27186221 0.060959853
-0.36539212 -0.27184293 0.06090349
-0.36559609 -0.27181733 0.060905997
-0.36581397 -0.27179834 0.060847327
-0.36605063 -0.27178842 0.060705576
-0.36624095 -0.27175438 0.060781911
-0.36644557 -0.27172947 0.060778648
-0.36665216 -0.27170557 0.060766153
-0.36683568 -0.2716774 0.060805634
-0.36699501 -0.27164197 0.060920157
-0.36723307 -0.27161276 0.060917892
-0.36745426 -0.2715964 0.060837306
-0.36766002 -0.27157244 0.060825966
-0.36787567 -0.27155122 0.060785752
-0.36808509 -0.27152935 0.060755953
-0.3682887 -0.2715022 0.060769975
-0.36849904 -0.27148098 0.060734406
-0.36870039 -0.2714552 0.06074037
-0.3689082 -0.27143291 0.060715184
-0.36912656 -0.27141386 0.060656525
-0.36934257 -0.27139622 0.060589798
-0.36953574 -0.27136642 0.060632698
-0.36972314 -0.27134094 0.060649104
-0.36994275 -0.2713156 0.060635388
-0.3701461 -0.27129146 0.060627513
-0.37034869 -0.27126443 0.06064155
-0.37056467 -0.2712476 0.060569063
-0.37077171 -0.27122584 0.060540423
-0.37098807 -0.2712096 0.060463324
-0.37117749 -0.27117532 0.060541969
-0.37136936 -0.27114505 0.060589485
-0.37159556 -0.27113232 0.060477756
-0.37179673 -0.27110767 0.060475659
-0.37200612 -0.27108532 0.06044931
-0.37219858 -0.27105558 0.060492214
-0.37240702 -0.27103555 0.060449727
-0.37255299 -0.27100745 0.060522821
-0.37279728 -0.27098775 0.060445588
-0.37302175 -0.27096704 0.06039381
-0.37323254 -0.27094623 0.060354769
-0.3734253 -0.27091694 0.06039422
-0.37363788 -0.27089754 0.060343646
-0.37384591 -0.2708782 0.060296554
-0.37404948 -0.27085325 0.060294442
-0.37424245 -0.27082425 0.060331583
-0.3744545 -0.27080503 0.060279861
-0.37465847 -0.27078351 0.060252391
-0.374865 -0.27076089 0.060230665
-0.37506279 -0.27073541 0.060237803
-0.37526655 -0.27071106 0.060231082
-0.37546709 -0.27068761 0.060220912
-0.3756817 -0.27067107 0.060147285
-0.37587816 -0.27064496 0.06016019
-0.37608021 -0.27062288 0.060138494
-0.37628287 -0.27060139 0.060112171
-0.3764931 -0.27058557 0.060037404
-0.37668809 -0.27055553 0.060080297
-0.37688819 -0.27052927 0.060090888
-0.37708154 -0.27050763 0.060073834
-0.37729758 -0.27048716 0.060027853
-0.3774749 -0.27046323 0.060042009
-0.37765503 -0.27044481 0.060013495
-0.37787566 -0.27042502 0.059958279
-0.37810069 -0.27039221 0.059994105
-0.37830684 -0.27037469 0.059935499
-0.37851149 -0.27035278 0.059910327
-0.3786861 -0.27033392 0.059889913
-0.37888467 -0.27030724 0.059905119
-0.37910777 -0.27028003 0.059901759
-0.3792913 -0.27025837 0.059893977
-0.37948313 -0.27023676 0.059878092
-0.37969208 -0.27021921 0.059817165
-0.37989902 -0.27018926 0.059848469
-0.38010433 -0.27016521 0.059838276
-0.38030168 -0.27014893 0.05977856
-0.38051176 -0.27012572 0.05975797
-0.38069883 -0.27010041 0.059773229
-0.38088813 -0.27007723 0.059771188
-0.38108861 -0.27004921 0.059794456
-0.38129774 -0.27003321 0.059721995
-0.38150814 -0.27000695 0.05972331
-0.38170165 -0.26998025 0.059743159
-0.38191223 -0.26996627 0.059654549
-0.38210684 -0.26994085 0.059664011
-0.38229752 -0.26991561 0.059675798
-0.38249791 -0.26989612 0.059636813
-0.38270852 -0.26987898 0.059571266
-0.38289008 -0.26985297 0.059596926
-0.38307875 -0.26983017 0.059592575
-0.38328776 -0.26980755 0.059568536
-0.38348794 -0.2697843 0.059557229
-0.38368776 -0.26976076 0.059548214
-0.38389486 -0.26973647 0.059538022
-0.38407773 -0.26971662 0.059517559
-0.38428059 -0.26969683 0.059478566
-0.38446596 -0.26967552 0.059466168
-0.38465577 -0.26965481 0.059445672
-0.38485411 -0.26963019 0.059445895
-0.38507608 -0.26960537 0.059426405
-0.38525543 -0.26958197 0.059434779
-0.38546696 -0.2695592 0.059409581
-0.38567051 -0.26953647 0.059391327
-0.38586223 -0.269519 0.059345473
-0.38605282 -0.26950023 0.059309993
-0.38625324 -0.26947394 0.05932058
-0.3864359 -0.26945016 0.059328943
-0.38663453 -0.26942676 0.059319928
-0.38682365 -0.26941198 0.059256792
-0.3870194 -0.26939034 0.059237432
-0.38723397 -0.26936233 0.059247945
-0.38743785 -0.26933575 0.059257366
-0.38761416 -0.2693145 0.059253074
-0.38780344 -0.26929525 0.05922221
-0.38800073 -0.26928246 0.059137128
-0.38821983 -0.26926193 0.059088834
-0.38840592 -0.26923233 0.05913638
-0.3886081 -0.26920977 0.059118137
-0.38881028 -0.26919368 0.059052631
-0.38899991 -0.26916352 0.059101306
-0.3892054 -0.26914701 0.059035785
-0.38939798 -0.26912186 0.059045251
-0.38957936 -0.26909727 0.059060536
-0.38977453 -0.26906988 0.059083831
-0.38996536 -0.26905552 0.059016071
-0.39016458 -0.26902875 0.05903127
-0.39035925 -0.26900774 0.059008457
-0.39056706 -0.26899031 0.058947533
-0.39076668 -0.26896459 0.058954664
-0.39095691 -0.26894289 0.058941085
-0.39115262 -0.26891702 0.058952846
-0.39133593 -0.26889694 0.058933541
-0.3915236 -0.26887822 0.058900382
-0.39173189 -0.26885536 0.058878645
-0.39192489 -0.26883221 0.058873124
-0.39211887 -0.26881143 0.058849163
-0.39230746 -0.26878694 0.058857501
-0.39250854 -0.26876545 0.058832344
-0.39269626 -0.26874828 0.058787659
-0.39289939 -0.2687231 0.058787845
-0.39309537 -0.26869878 0.058788083
-0.39328927 -0.26867896 0.058757193
-0.39348376 -0.26866114 0.05871132
-0.3936789 -0.26863486 0.058726542
-0.39388576 -0.2686103 0.058718652
-0.39407608 -0.26859188 0.058680866
-0.39426178 -0.26857105 0.058665007
-0.39445779 -0.26854783 0.058657169
-0.39465481 -0.2685281 0.058622818
-0.39484766 -0.26850718 0.058601163
-0.39503515 -0.26848027 0.058627941
-0.39523888 -0.26845908 0.058598168
-0.39543191 -0.26843938 0.058567286
-0.39563102 -0.26841515 0.058564045
-0.39581299 -0.26839572 0.058541279
-0.39600796 -0.26836947 0.058556501
-0.39620373 -0.26834691 0.058544055
-0.39639536 -0.26832202 0.058552373
-0.39659199 -0.26830423 0.058504183
-0.396788 -0.26828369 0.058476754
-0.39697689 -0.2682645 0.058445893
-0.39717248 -0.26824245 0.058429986
-0.39736411 -0.26821849 0.058431394
-0.39756313 -0.26819587 0.05841662
-0.39774835 -0.26817822 0.058377709
-0.39794001 -0.26815522 0.0583722
-0.39813542 -0.26813364 0.058352828
-0.39833742 -0.26810685 0.058365718
-0.39852148 -0.26807988 0.058395967
-0.39871365 -0.26806331 0.058343194
-0.39890528 -0.2680411 0.058331914
-0.39909708 -0.26802218 0.058296427
-0.39929253 -0.26800582 0.05823902
-0.39949068 -0.26797521 0.05828305
-0.39968607 -0.26796171 0.058204893
-0.39988792 -0.26793271 0.058233913
-0.40006855 -0.26790538 0.058269959
-0.40026709 -0.26788563 0.058234446
-0.40045846 -0.26786378 0.058220856
-0.40065318 -0.26785368 0.0581185
-0.40084091 -0.2678299 0.058122233
-0.40102494 -0.2678113 0.058091387
-0.40121618 -0.26778662 0.058098562
-0.4014115 -0.26775101 0.058181789
-0.40161002 -0.26772493 0.058192387
-0.40180492 -0.26770058 0.058193777
-0.4020128 -0.26768994 0.058083281
-0.40219972 -0.26767576 0.05801785
-0.40238005 -0.2676554 0.058003165
-0.40258905 -0.26762804 0.058013715
-0.40277311 -0.26760551 0.058011696
-0.40295714 -0.26758331 0.058007367
-0.40315512 -0.26756078 0.0579926
-0.40335274 -0.26754066 0.057960548
-0.40354005 -0.26751947 0.057945833
-0.40373436 -0.26749772 0.057928786
-0.40392861 -0.26747599 0.057911728
-0.40411595 -0.26745415 0.057901628
-0.40431795 -0.26742798 0.057909898
-0.40450838 -0.26740795 0.057883635
-0.40469444 -0.26739213 0.057830889
-0.40490258 -0.2673693 0.057809163
-0.40508759 -0.26734206 0.057840571
-0.40527865 -0.26731867 0.057838518
-0.40546799 -0.26730242 0.057785757
-0.40565777 -0.26728407 0.057747971
-0.40585193 -0.26726171 0.057735533
-0.40603659 -0.26723659 0.05775195
-0.40622354 -0.26721558 0.057736084
-0.40641519 -0.26719004 0.057749011
-0.40661183 -0.26717103 0.057710048
-0.40680891 -0.26715019 0.057683762
-0.40700698 -0.26712608 0.057680517
-0.40720278 -0.26710904 0.057627726
-0.40739632 -0.26708832 0.057603758
-0.40759873 -0.26706132 0.057617795
-0.40777564 -0.26703966 0.057615809
-0.40796024 -0.26701549 0.05762532
-0.40815455 -0.26700178 0.057549469
-0.40834796 -0.26697209 0.057591211
-0.40852866 -0.2669495 0.057592668
-0.40871257 -0.26693597 0.057524949
-0.40892646 -0.26689777 0.0576104
-0.40915814 -0.2668578 0.057692312
-0.4093565 -0.26682577 0.057746712
-0.40956205 -0.26678526 0.057856411
-0.40976268 -0.26674899 0.057939611
-0.4099378 -0.26671776 0.058009114
-0.41013443 -0.26668391 0.058078505
-0.41033915 -0.26664034 0.058211271
-0.41055965 -0.26659957 0.058309365
-0.41074193 -0.26656225 0.058416869
-0.41095629 -0.2665216 0.058519617
-0.41114452 -0.26648685 0.058602877
-0.41136736 -0.26645052 0.058666386
-0.41157177 -0.26641127 0.058768019
-0.41177383 -0.26637071 0.058881201
-0.41197866 -0.26633188 0.058979377
-0.41218275 -0.26628873 0.059109826
-0.4123674 -0.26626325 0.059128553
-0.41256776 -0.26622781 0.059206001
-0.41279107 -0.2661818 0.059339833
-0.41299057 -0.26614299 0.059442639
-0.41319716 -0.26610392 0.059540808
-0.4134059 -0.26605609 0.059701219
-0.34305736 -0.27434179 0.06287194
-0.34336251 -0.27433226 0.062665403
-0.34354597 -0.27429494 0.062771775
-0.34377313 -0.27426678 0.062771901
-0.34394979 -0.27422777 0.062896736
-0.34422493 -0.27421311 0.062754877
-0.34445751 -0.27418804 0.062727317
-0.34466773 -0.27415594 0.06277132
-0.34495363 -0.27414453 0.062595986
-0.34518933 -0.27411911 0.062568411
-0.34542149 -0.2740944 0.062538557
-0.34561589 -0.27405858 0.062624119
-0.34582448 -0.27402797 0.062658906
-0.34608072 -0.27400979 0.062559783
-0.34633365 -0.2739909 0.062468745
-0.34654155 -0.2739588 0.062515058
-0.34674531 -0.27392718 0.0625614
-0.34698954 -0.2739048 0.062503815
-0.34722412 -0.27388155 0.062461268
-0.34745279 -0.27385524 0.062446401
-0.34767354 -0.27382851 0.062441953
-0.34793723 -0.27381191 0.062324345
-0.3481594 -0.27378577 0.062314123
-0.34838298 -0.27377304 0.062204778
-0.34861019 -0.27373555 0.062272906
-0.34881574 -0.2737034 0.06232154
-0.34905389 -0.27368209 0.062261682
-0.34927395 -0.27365416 0.062266454
-0.34948245 -0.27362466 0.062293176
-0.34971067 -0.27359918 0.062272552
-0.34992734 -0.27357215 0.062273882
-0.35015473 -0.27354664 0.062254414
-0.35039231 -0.27352586 0.062191106
-0.35058433 -0.27349016 0.062277831
-0.35082743 -0.27347124 0.062196046
-0.35106701 -0.27344975 0.062136188
-0.35128313 -0.27342308 0.062135212
-0.35150212 -0.27339733 0.062125005
-0.35172048 -0.27337152 0.062115952
-0.35195816 -0.27334994 0.062058397
-0.35218084 -0.27332562 0.062034342
-0.35238186 -0.2732999 0.062040351
-0.35263023 -0.27327684 0.061983906
-0.35285434 -0.27325156 0.061965611
-0.35306489 -0.27322733 0.06195198
-0.35327214 -0.27319339 0.062012136
-0.35350674 -0.27317345 0.061945379
-0.35372683 -0.27314726 0.06193747
-0.35391396 -0.27312639 0.061920486
-0.35416496 -0.27309623 0.061913591
-0.35440084 -0.27307725 0.061838765
-0.3546131 -0.27304885 0.061853945
-0.35484385 -0.27302843 0.061794113
-0.35502818 -0.27300349 0.061809424
-0.35527188 -0.27297503 0.061796799
-0.35550609 -0.27295434 0.061735809
-0.35571152 -0.27292585 0.06175793
-0.35594663 -0.27291122 0.061651982
-0.35615602 -0.27287877 0.06169945
-0.35637838 -0.27285451 0.061675396
-0.3565641 -0.27282494 0.061722971
-0.35681716 -0.27280605 0.061631925
-0.3570379 -0.2727834 0.061597496
-0.35725343 -0.27275714 0.061594222
-0.35745013 -0.27272609 0.061642893
-0.35767487 -0.27270326 0.061606161
-0.35788894 -0.27267861 0.061592504
-0.35810769 -0.27265385 0.061575387
-0.35829473 -0.2726385 0.061518066
-0.35853398 -0.27260426 0.061551563
-0.35876009 -0.27258253 0.061505593
-0.35896087 -0.27255335 0.06153696
-0.35916662 -0.27252609 0.061549861
-0.35936803 -0.27249524 0.061592754
-0.35962534 -0.27248782 0.061414093
-0.35983226 -0.2724593 0.061435051
-0.36006638 -0.27244335 0.06133949
-0.36025822 -0.27240911 0.061415847
-0.36047193 -0.27238545 0.061395295
-0.36068079 -0.27235794 0.061407022
-0.3609277 -0.27234772 0.061258376
-0.36111808 -0.27231303 0.061339349
-0.36132684 -0.27228776 0.06133496
-0.36154702 -0.27226517 0.061300531
-0.36176696 -0.27224466 0.061251137
-0.36198726 -0.2722224 0.06121441
-0.36218798 -0.27219418 0.06123887
-0.36239037 -0.27216667 0.061256394
-0.36260629 -0.27214494 0.061219689
-0.36282033 -0.27212045 0.061204888
-0.36304441 -0.27210242 0.061133575
-0.36325374 -0.27207613 0.061136089
-0.3634685 -0.27205437 0.061100535
-0.36369359 -0.27203515 0.061037283
-0.36389604 -0.27201256 0.061019078
-0.36410096 -0.27198032 0.06106887
-0.36430967 -0.27195632 0.061055247
-0.36452147 -0.27193162 0.061043926
-0.36473286 -0.27190903 0.061017614
-0.36494163 -0.27188313 0.061017819
-0.36515564 -0.27186194 0.060978822
-0.36535978 -0.27183628 0.060981359
-0.36556408 -0.27181077 0.060982741
-0.36579114 -0.27179381 0.060901035
-0.36599165 -0.27176672 0.060917418
-0.36621109 -0.27174643 0.060866863
-0.36640745 -0.27171749 0.060900558
-0.36661381 -0.27169108 0.060906541
-0.36683792 -0.27167577 0.060815629
-0.36705518 -0.27165496 0.060770851
-0.36726665 -0.27163377 0.060734168
-0.36744002 -0.2715936 0.060870543
-0.36765558 -0.27157459 0.060814254
-0.36786169 -0.27154854 0.060817931
-0.36807036 -0.27152628 0.06079163
-0.36827669 -0.27150053 0.060793005
-0.36847818 -0.27147472 0.06079901
-0.36870551 -0.27146009 0.060700011
-0.36890304 -0.27143243 0.060723327
-0.36911136 -0.27141052 0.060694728
-0.36932096 -0.27138939 0.0606592
-0.36953288 -0.27136722 0.060629431
-0.3697378 -0.27134383 0.060614672
-0.36993653 -0.27131459 0.060648356
-0.37014148 -0.27129138 0.060632449
-0.37034169 -0.27126303 0.06065806
-0.37056133 -0.27124825 0.060567155
-0.37076879 -0.27122679 0.060536258
-0.37096471 -0.27119884 0.060563035
-0.37117401 -0.27117601 0.060540192
-0.37138101 -0.27115458 0.060509294
-0.37158379 -0.27112815 0.060518753
-0.37178981 -0.27110636 0.060491316
-0.37199959 -0.27108428 0.060462706
-0.37220266 -0.27106366 0.060429517
-0.37241516 -0.27104077 0.060404353
-0.3726081 -0.27101144 0.060443826
-0.37281188 -0.27098885 0.060424455
-0.37302122 -0.27096981 0.060373958
-0.37323132 -0.27094865 0.06033843
-0.3734425 -0.27093112 0.060275242
-0.37362602 -0.27089602 0.060365461
-0.37382728 -0.27087229 0.060356483
-0.37403741 -0.27085158 0.060317509
-0.37424043 -0.27082923 0.06029699
-0.3744455 -0.27080837 0.060263794
-0.37464523 -0.27078405 0.060260594
-0.37484917 -0.27075967 0.060253903
-0.37505811 -0.27074179 0.060195334
-0.37525809 -0.27071792 0.060188666
-0.3754541 -0.27069137 0.06020508
-0.3756696 -0.27067554 0.060125723
-0.37585691 -0.27064297 0.060194034
-0.37605813 -0.27061719 0.060200043
-0.37624744 -0.27059841 0.06016577
-0.3764551 -0.27057439 0.060153306
-0.37663823 -0.27055764 0.060109828
-0.37685069 -0.2705406 0.060042024
-0.37706432 -0.27050856 0.060082555
-0.37727764 -0.27049252 0.060006671
-0.3774645 -0.27046949 0.060005829
-0.37766823 -0.27044308 0.060014125
-0.37784523 -0.27042237 0.060005262
-0.37804669 -0.27040097 0.059978995
-0.37825352 -0.27037391 0.059989586
-0.37847844 -0.27035469 0.059926335
-0.37867308 -0.27032816 0.059943896
-0.37887883 -0.27030736 0.059909545
-0.37905625 -0.27028751 0.059893765
-0.3792446 -0.27025941 0.059928641
-0.37946868 -0.27023318 0.059917256
-0.37965438 -0.27022433 0.059813835
-0.37986761 -0.27019992 0.059799045
-0.38006315 -0.27018559 0.0597267
-0.38025141 -0.270154 0.059786938
-0.38045979 -0.27012926 0.059779078
-0.3806546 -0.27010727 0.059763219
-0.38086763 -0.270087 0.05971846
-0.38106877 -0.27005967 0.059735991
-0.38126379 -0.27003434 0.059744336
-0.38145268 -0.27001107 0.059743483
-0.38163802 -0.26999229 0.059712686
-0.38184753 -0.26996535 0.059719801
-0.38205045 -0.26994807 0.059662409
-0.38224307 -0.26992479 0.05965808
-0.38242918 -0.26990324 0.059646871
-0.38263875 -0.26988086 0.059620567
-0.38284373 -0.2698665 0.059540115
-0.38303366 -0.26984087 0.059555389
-0.38323545 -0.26981929 0.059530288
-0.38342577 -0.26978981 0.059573218
-0.38361913 -0.269768 0.059557363
-0.38382944 -0.2697517 0.059486106
-0.38400346 -0.26973104 0.059479557
-0.38420221 -0.26970211 0.059510939
-0.38440716 -0.26968029 0.059484661
-0.38460553 -0.26966023 0.059451483
-0.38480434 -0.26964092 0.059412554
-0.38498873 -0.26961884 0.059407108
-0.38518211 -0.26959324 0.059418917
-0.38537979 -0.26956317 0.059459522
-0.38558182 -0.26954347 0.059420571
-0.3857657 -0.269526 0.059381705
-0.3859615 -0.26950881 0.05933011
-0.38617322 -0.26948693 0.059298031
-0.38636529 -0.2694653 0.059282184
-0.38655588 -0.26944181 0.059281327
-0.38673469 -0.26941833 0.059290893
-0.38693702 -0.26939496 0.059278455
-0.38714156 -0.26937479 0.059240654
-0.3873409 -0.26934734 0.059260502
-0.3875455 -0.26932764 0.05921923
-0.38773942 -0.26930958 0.059175707
-0.38791987 -0.26928905 0.059162214
-0.38811439 -0.26926047 0.059194766
-0.3883144 -0.26924038 0.059160441
-0.38850242 -0.26921374 0.05918495
-0.38870344 -0.26919556 0.059135631
-0.38890865 -0.2691783 0.059075929
-0.38908547 -0.2691524 0.059105095
-0.38928849 -0.2691384 0.059023492
-0.38949233 -0.26911294 0.059024882
-0.38967165 -0.26908484 0.059067868
-0.3898766 -0.26906145 0.059053112
-0.39007637 -0.26904264 0.059009559
-0.39026174 -0.26902577 0.05896493
-0.39044833 -0.26899692 0.059006736
-0.39064395 -0.26897818 0.058966666
-0.39083803 -0.2689566 0.058948502
-0.39103183 -0.26893461 0.058933794
-0.39122683 -0.26891527 0.058898345
-0.39141765 -0.26888731 0.058929756
-0.39160559 -0.26886934 0.058890868
-0.39179972 -0.26884872 0.058865786
-0.39199075 -0.26882121 0.05889374
-0.39219397 -0.26881337 0.058767192
-0.39238837 -0.26878527 0.058796279
-0.39258182 -0.26875463 0.058844969
-0.39278239 -0.26873225 0.058826782
-0.39298433 -0.26871368 0.058779765
-0.39317474 -0.26869461 0.058746628
-0.39336386 -0.26867223 0.058738858
-0.39354202 -0.26865056 0.058735758
-0.39373583 -0.26863125 0.058701448
-0.39393795 -0.2686038 0.058718987
-0.39413539 -0.26858482 0.05867891
-0.39432397 -0.26856154 0.058678061
-0.39451343 -0.26854119 0.058655296
-0.39471027 -0.26852116 0.058623295
-0.39490321 -0.26850069 0.05859822
-0.39509341 -0.26848403 0.058547802
-0.39528582 -0.26846218 0.058533102
-0.39547032 -0.26843831 0.058540337
-0.39566442 -0.26840886 0.058579795
-0.39585915 -0.26838154 0.058603123
-0.39605179 -0.26836124 0.058576897
-0.39624482 -0.26834294 0.058535688
-0.39643312 -0.26831988 0.05853368
-0.39663699 -0.26830247 0.058476292
-0.39682934 -0.26828223 0.058450058
-0.39702156 -0.26826185 0.058424987
-0.39721206 -0.26823124 0.058475997
-0.39740151 -0.2682167 0.0584106
-0.39759615 -0.26818907 0.058436237
-0.39778057 -0.26816553 0.058441162
-0.3979806 -0.26815191 0.058359578
-0.39816791 -0.26812297 0.058401376
-0.39835721 -0.26811227 0.058308315
-0.3985593 -0.2680878 0.058303945
-0.39874727 -0.26806557 0.058296181
-0.3989459 -0.26804313 0.058280304
-0.39913383 -0.26802123 0.058270231
-0.39932552 -0.26800388 0.058223262
-0.39951998 -0.26797059 0.058290396
-0.39971164 -0.26795515 0.058229595
-0.39990661 -0.26793569 0.058195285
-0.40011203 -0.26790816 0.0582105
-0.40028915 -0.26788551 0.058215465
-0.40048751 -0.26786453 0.058189206
-0.40067878 -0.26784045 0.058191802
-0.40086985 -0.26782635 0.058121789
-0.40105769 -0.26779735 0.058163587
-0.40125915 -0.26778197 0.058093518
-0.4014506 -0.26775268 0.05813415
-0.40164518 -0.26773152 0.058112524
-0.40182599 -0.26770592 0.058135916
-0.40202683 -0.26769391 0.058041655
-0.40222114 -0.26767358 0.058014262
-0.40241539 -0.26765358 0.057984572
-0.40259144 -0.26763991 0.057924993
-0.40278348 -0.26760739 0.057988677
-0.40297577 -0.26757419 0.058056958
-0.40317357 -0.26755327 0.058030713
-0.40336922 -0.26752251 0.058078241
-0.40356785 -0.2675187 0.057926353
-0.40375739 -0.26750433 0.057859797
-0.40394077 -0.26748487 0.057835922
-0.40412974 -0.26745319 0.057896156
-0.40433034 -0.26743397 0.057854913
-0.40452468 -0.26741093 0.05784712
-0.4047206 -0.26738048 0.057892337
-0.40490484 -0.26735681 0.057898425
-0.40509665 -0.26734546 0.05780765
-0.40529454 -0.26732183 0.057801001
-0.40547723 -0.26730436 0.05776329
-0.40565532 -0.26729125 0.057697944
-0.4058553 -0.2672593 0.057750061
-0.40605038 -0.26723334 0.05776301
-0.40624973 -0.26720467 0.057792082
-0.40644145 -0.26719081 0.057719752
-0.4066394 -0.26716703 0.05771425
-0.40682527 -0.2671493 0.057675373
-0.40701622 -0.26712608 0.057672214
-0.40721381 -0.26710328 0.057659797
-0.40738958 -0.26708493 0.057634793
-0.40757704 -0.26706195 0.057632796
-0.40777233 -0.26704577 0.057574291
-0.40795577 -0.26702455 0.057563089
-0.40814424 -0.26700795 0.057513826
-0.40834758 -0.26697859 0.05754403
-0.4085308 -0.26695791 0.057529371
-0.40872872 -0.26693413 0.057523873
-0.40892228 -0.26691276 0.057504557
-0.40912068 -0.26687157 0.05762583
-0.40936282 -0.26683095 0.057703115
-0.40956324 -0.26680213 0.057732183
-0.40975729 -0.26676509 0.057826973
-0.40996984 -0.26672482 0.057928599
-0.41015705 -0.26668927 0.058018811
-0.41035891 -0.26665884 0.058058236
-0.41056511 -0.26661953 0.058158733
-0.41077095 -0.26657456 0.05830073
-0.41095918 -0.2665458 0.058340225
-0.4111532 -0.26650578 0.058456913
-0.41135201 -0.26647004 0.058537856
-0.41156617 -0.266431 0.058629092
-0.41177586 -0.26638824 0.058751479
-0.41198108 -0.26634824 0.058857739
-0.41218388 -0.26630712 0.058974396
-0.41237345 -0.26627237 0.05905652
-0.41258037 -0.26624292 0.059084408
-0.41278562 -0.2662048 0.059176836
-0.41299391 -0.26616192 0.05930154
-0.41319779 -0.26612145 0.059412427
-0.41340387 -0.26608339 0.059503697
