# .PCD v0.7 - Point Cloud Data file format
VERSION 0.7
FIELDS x y z
SIZE 4 4 4
TYPE F F F
COUNT 1 1 1
WIDTH 611
HEIGHT 1
VIEWPOINT 0 0 0 1 0 0 0
POINTS 611
DATA ascii
-0.24545403 -0.26468152 0.062551305
-0.24566761 -0.26465169 0.062578045
-0.24585737 -0.2646161 0.062668331
-0.24613768 -0.26460272 0.062514901
-0.24636778 -0.26457715 0.062495448
-0.2465945 -0.26454934 0.062495612
-0.24682537 -0.26452416 0.062472709
-0.24706863 -0.26450223 0.062415145
-0.24729007 -0.2644749 0.062416486
-0.24752171 -0.2644487 0.062400501
-0.24773443 -0.26441929 0.062424939
-0.24797022 -0.26439586 0.062384717
-0.24821359 -0.26437452 0.062322542
-0.24845408 -0.26435262 0.0622673
-0.24867497 -0.26432723 0.062254813
-0.24886663 -0.26429266 0.062335849
-0.24910146 -0.26426953 0.062294468
-0.24933636 -0.26424655 0.06225194
-0.24958427 -0.26422718 0.062171303
-0.24982132 -0.26420504 0.062120687
-0.25004041 -0.26417816 0.062120892
-0.25026172 -0.26415196 0.062114164
-0.25049034 -0.26412785 0.062085494
-0.25070766 -0.2641007 0.062089164
-0.25091729 -0.26407152 0.062114786
-0.25114053 -0.26404616 0.062099971
-0.2513729 -0.26402351 0.06205745
-0.25159413 -0.26399776 0.062047265
-0.25181973 -0.26397341 0.06202323
-0.25205669 -0.26395237 0.061964542
-0.25225183 -0.26391944 0.062030576
-0.25247681 -0.26389515 0.062006541
-0.25270319 -0.26387304 0.061965197
-0.25291514 -0.26384515 0.061979268
-0.25315222 -0.26382473 0.061915971
-0.25337392 -0.26379991 0.061898865
-0.25359279 -0.26377431 0.061889846
-0.25380737 -0.26374748 0.06189353
-0.2540251 -0.2637217 0.061886825
-0.25424007 -0.26369518 0.061888196
-0.25445637 -0.26367083 0.061872259
-0.25468305 -0.26364806 0.061835535
-0.25488982 -0.26361921 0.061861157
-0.25513196 -0.26360151 0.061773624
-0.25536901 -0.26358238 0.061701093
-0.25557089 -0.26355222 0.061740577
-0.25580555 -0.26353258 0.061673835
-0.25601429 -0.26350474 0.061690226
-0.25621465 -0.26347604 0.061720494
-0.25643516 -0.26345214 0.061697625
-0.25665575 -0.26342839 0.061673608
-0.25688696 -0.26340821 0.061613794
-0.25710499 -0.26338384 0.061596707
-0.25732106 -0.26335889 0.061585389
-0.25750905 -0.26332462 0.061667599
-0.25774786 -0.26330745 0.061578929
-0.25795743 -0.26328236 0.061574556
-0.25817516 -0.26325834 0.061555162
-0.25839609 -0.26323548 0.061524227
-0.25860867 -0.26320988 0.061520997
-0.2588191 -0.26318356 0.061524697
-0.25903937 -0.26316079 0.061493754
-0.25927666 -0.26314414 0.061402783
-0.25947955 -0.26311544 0.06143073
-0.25972179 -0.26310086 0.061320134
-0.25992367 -0.26307198 0.06135039
-0.26012745 -0.2630457 0.06135989
-0.26032501 -0.2630153 0.06140516
-0.26055729 -0.26299769 0.061325729
-0.26077706 -0.2629756 0.061290182
-0.26097426 -0.26294526 0.061335459
-0.26118919 -0.26292154 0.061316069
-0.26139888 -0.26289597 0.061315164
-0.26163858 -0.26288188 0.061203424
-0.2618497 -0.26285705 0.06119559
-0.26203951 -0.26282412 0.061266258
-0.26226667 -0.26280761 0.061183408
-0.26246592 -0.26277843 0.061218284
-0.26271382 -0.26276836 0.061069608
-0.26291427 -0.26273981 0.061098717
-0.26313922 -0.26272103 0.061034326
-0.26331171 -0.26268139 0.061169643
-0.26351592 -0.26265442 0.061183751
-0.26374453 -0.26264358 0.061058216
-0.26395753 -0.26261428 0.061081514
-0.264166 -0.26258931 0.061077148
-0.26438957 -0.26257071 0.06101276
-0.2645883 -0.26254189 0.061045334
-0.26479045 -0.26251662 0.061049066
-0.26499248 -0.26249135 0.061052803
-0.26523274 -0.26247826 0.060932994
-0.26543066 -0.26245144 0.06095174
-0.26564056 -0.26243198 0.060905859
-0.26583898 -0.26240337 0.060937282
-0.26605642 -0.26238313 0.060890213
-0.26624471 -0.26235875 0.060899772
-0.26648265 -0.26233491 0.060860686
-0.26669937 -0.26231259 0.060829759
-0.26690549 -0.26228777 0.060826562
-0.26711041 -0.26226243 0.060827985
-0.26730731 -0.26223576 0.060846735
-0.26749331 -0.2622107 0.060863223
-0.2677359 -0.26219419 0.060766459
-0.26794505 -0.26217118 0.060747102
-0.26814634 -0.2621446 0.060761221
-0.26834431 -0.2621187 0.060773049
-0.26857725 -0.26210511 0.060663648
-0.26878259 -0.2620807 0.060658135
-0.26898545 -0.26205516 0.060663022
-0.26919025 -0.26203063 0.060658671
-0.26938039 -0.26200825 0.060652085
-0.26953751 -0.26198119 0.060709059
-0.26981008 -0.26196259 0.060600638
-0.26999426 -0.26192799 0.06068863
-0.2701861 -0.26192099 0.060567871
-0.27040729 -0.2619006 0.060518481
-0.27061534 -0.2618784 0.060494516
-0.27079934 -0.26183891 0.060618252
-0.27101475 -0.26181582 0.060594257
-0.27125448 -0.26180327 0.060470983
-0.27144575 -0.2617774 0.060488604
-0.27162671 -0.26175597 0.060483206
-0.27182233 -0.26173258 0.060478903
-0.27206352 -0.26170662 0.060452491
-0.27226031 -0.26168907 0.060404353
-0.27247936 -0.26166376 0.060393024
-0.27267864 -0.26164025 0.060386397
-0.27289107 -0.26161653 0.060369328
-0.27310047 -0.26159635 0.060329221
-0.2732929 -0.26156658 0.060374513
-0.27350536 -0.2615484 0.060317077
-0.27368963 -0.26152968 0.060288608
-0.27390948 -0.26150823 0.060248449
-0.27412692 -0.26148549 0.060219824
-0.2743212 -0.26146242 0.06021437
-0.27450556 -0.26143882 0.060221646
-0.27471927 -0.26140597 0.060270298
-0.27491605 -0.26138735 0.06023024
-0.27513298 -0.26137033 0.060160112
-0.27533162 -0.26134485 0.060168482
-0.27554277 -0.26131892 0.060168706
-0.2757296 -0.26130292 0.060118318
-0.27591991 -0.2612808 0.060109418
-0.27614793 -0.26126039 0.060054235
-0.27631906 -0.26124313 0.06002697
-0.27653009 -0.26121187 0.060066417
-0.27674794 -0.26118514 0.060066618
-0.27694818 -0.26116717 0.06001848
-0.27713645 -0.26114422 0.060017657
-0.27733278 -0.26112089 0.060012192
-0.27756009 -0.26109806 0.05997546
-0.27774668 -0.2610772 0.059960812
-0.27794716 -0.26105398 0.059950721
-0.27814609 -0.26103288 0.059926793
-0.27834886 -0.26100844 0.059923612
-0.27855602 -0.26098728 0.059892729
-0.27874684 -0.26096684 0.059871137
-0.27894634 -0.2609466 0.059840292
-0.27915585 -0.26091805 0.059861299
-0.27937463 -0.26089326 0.059846513
-0.27954769 -0.26087591 0.059818089
-0.27974111 -0.26084822 0.059847228
-0.27994007 -0.26083466 0.05976795
-0.28014401 -0.26080871 0.059775144
-0.28033742 -0.26078448 0.059778918
-0.28055897 -0.26076597 0.059715685
-0.28075954 -0.26074433 0.059694059
-0.28096113 -0.26072019 0.059689723
-0.28114653 -0.26069319 0.059721202
-0.28135774 -0.26067373 0.059674166
-0.28154552 -0.26064876 0.059688337
-0.28174895 -0.2606301 0.059642483
-0.2819531 -0.26060504 0.059642751
-0.28215703 -0.2605871 0.059591129
-0.28235292 -0.26055863 0.059623726
-0.28254455 -0.26054108 0.059580222
-0.28275242 -0.26052344 0.059522822
-0.2829594 -0.26049772 0.059525378
-0.2831516 -0.26047742 0.059501484
-0.28334507 -0.26045462 0.059494879
-0.28354302 -0.26043221 0.059481341
-0.28374577 -0.26040667 0.059486222
-0.28395078 -0.26038736 0.05944382
-0.2841419 -0.26036263 0.059453368
-0.28433037 -0.26033932 0.059454862
-0.28453663 -0.26031351 0.059458576
-0.28474349 -0.26029664 0.059396558
-0.28494287 -0.26027232 0.059395701
-0.28512704 -0.26025331 0.059369534
-0.2853134 -0.26023248 0.059354886
-0.28551587 -0.26021171 0.059325181
-0.28571519 -0.26018772 0.059322007
-0.2859115 -0.2601693 0.059280794
-0.28610852 -0.26015627 0.059199218
-0.28631052 -0.26011777 0.059299819
-0.28651708 -0.26009777 0.059260868
-0.28671315 -0.26007512 0.059250794
-0.28690907 -0.26005706 0.059207276
-0.28710026 -0.26003358 0.059207607
-0.28729558 -0.26001036 0.059202146
-0.28750682 -0.25998729 0.059181623
-0.28770596 -0.259969 0.059136938
-0.28789592 -0.25994438 0.059146494
-0.28809074 -0.25992095 0.059143342
-0.28828168 -0.25989765 0.059142515
-0.28846845 -0.25987929 0.059109416
-0.28866634 -0.25984979 0.059147771
-0.28885779 -0.25983793 0.059062757
-0.28907001 -0.25981206 0.059061833
-0.28926244 -0.25978589 0.059080601
-0.28945416 -0.25976977 0.059026729
-0.28965691 -0.2597529 0.058968198
-0.28985757 -0.25972763 0.058973089
-0.29003993 -0.25969264 0.059065707
-0.29023448 -0.25968149 0.058972605
-0.29043531 -0.2596567 0.058974039
-0.29063541 -0.25964284 0.058895916
-0.29084066 -0.25961921 0.058884647
-0.29102242 -0.25959516 0.058897693
-0.29123223 -0.25957286 0.058872573
-0.29142681 -0.25955102 0.058857888
-0.29161227 -0.25953344 0.058820188
-0.2918019 -0.25951001 0.058821663
-0.29200625 -0.25949231 0.058767732
-0.29220942 -0.25945902 0.058829121
-0.29239786 -0.2594406 0.058794864
-0.2925804 -0.25941125 0.058845967
-0.29279408 -0.25939038 0.058806986
-0.29297674 -0.25936857 0.058802735
-0.29316369 -0.25934783 0.058786936
-0.29335868 -0.25932813 0.058756098
-0.29354182 -0.25930768 0.058741476
-0.29374811 -0.25928834 0.058697909
-0.29393971 -0.259262 0.058718987
-0.29413915 -0.25924474 0.058666237
-0.29432383 -0.25921986 0.058682725
-0.29452834 -0.25920627 0.058598816
-0.29472053 -0.25917256 0.058672938
-0.29491901 -0.25916332 0.058562532
-0.29510155 -0.25913334 0.05861824
-0.29530153 -0.25910956 0.058612756
-0.29549831 -0.2590974 0.058525417
-0.29570431 -0.25907022 0.058539517
-0.29587877 -0.25903788 0.058619477
-0.29606459 -0.25902736 0.058529884
-0.29626456 -0.25901559 0.058436759
-0.29646662 -0.25898808 0.058456644
-0.29666257 -0.25896466 0.058452331
-0.2968438 -0.25894144 0.058459625
-0.29704618 -0.25891486 0.058472581
-0.2972368 -0.25889885 0.058418706
-0.29743791 -0.25888142 0.058365948
-0.29763755 -0.25885895 0.058351245
-0.29782164 -0.25883305 0.058375813
-0.29801714 -0.25880888 0.058377277
-0.29821041 -0.25879082 0.058336072
-0.29840583 -0.2587665 0.058338687
-0.29859403 -0.25874245 0.05834594
-0.29878601 -0.25871933 0.0583428
-0.29897207 -0.25870326 0.058293562
-0.2991634 -0.25867677 0.058315791
-0.29935095 -0.2586706 0.058192749
-0.29956198 -0.25865495 0.05811803
-0.29975203 -0.25862104 0.058195625
-0.29994756 -0.25859925 0.058179788
-0.30013224 -0.25857764 0.058172062
-0.3003374 -0.25854647 0.058216151
-0.30052659 -0.25853303 0.058144983
-0.30071878 -0.25851557 0.058100335
-0.30092111 -0.25849247 0.058087919
-0.30111238 -0.25846583 0.05811131
-0.3012934 -0.25844485 0.058102451
-0.30148885 -0.25842714 0.05805663
-0.30168745 -0.25840339 0.058052313
-0.3018719 -0.25838214 0.05804228
-0.30206349 -0.25836319 0.05800917
-0.30225495 -0.2583403 0.058004875
-0.30244988 -0.25831732 0.057998266
-0.30263779 -0.25829738 0.057975546
-0.30283621 -0.25827745 0.057943545
-0.3030346 -0.2582556 0.057925388
-0.30321881 -0.25823408 0.057917673
-0.30341372 -0.25820905 0.057926048
-0.3036049 -0.25818902 0.057901002
-0.30379978 -0.25816494 0.05790247
-0.30403832 -0.25811803 0.058031734
-0.30423173 -0.25806907 0.058216553
-0.30442536 -0.25802338 0.058377147
-0.3046236 -0.25797051 0.058586165
-0.30481836 -0.25792247 0.058762908
-0.30501321 -0.25787792 0.058914274
-0.30520481 -0.25783435 0.059061043
-0.30540955 -0.25777394 0.059319615
-0.30560553 -0.25773078 0.059459455
-0.30580652 -0.25768027 0.059648842
-0.30600372 -0.25763446 0.059807122
-0.30620277 -0.25758007 0.060026512
-0.24544838 -0.26468074 0.062562048
-0.24565801 -0.26464999 0.062599197
-0.24591571 -0.264631 0.062507004
-0.24613953 -0.26460385 0.062504888
-0.24638447 -0.26458201 0.062445045
-0.24660382 -0.26455241 0.062464848
-0.24683031 -0.26452619 0.062453493
-0.24706797 -0.26450288 0.062410966
-0.2472948 -0.26447693 0.062397316
-0.24751209 -0.26444712 0.062420584
-0.24773514 -0.26442039 0.062416166
-0.24796298 -0.26439497 0.062397882
-0.24821454 -0.26437578 0.062312651
-0.24840099 -0.26433823 0.062420212
-0.24867776 -0.26432589 0.06226223
-0.2488873 -0.26429605 0.06229246
-0.24911954 -0.2642723 0.062258027
-0.24934337 -0.2642464 0.062246691
-0.24957746 -0.26422337 0.062205326
-0.25049454 -0.26412553 0.062098771
-0.2506865 -0.2640914 0.062176339
-0.25091782 -0.26406822 0.062138453
-0.25113446 -0.26403943 0.062154815
-0.25136489 -0.26401621 0.06211808
-0.25159812 -0.26399389 0.062072121
-0.25183219 -0.26397195 0.06202269
-0.25204784 -0.26394486 0.062027529
-0.25226983 -0.26391965 0.062012739
-0.25245535 -0.26388395 0.062107623
-0.25269076 -0.26386279 0.062051266
-0.25295973 -0.26385 0.061903704
-0.25315627 -0.26381767 0.061963961
-0.25338921 -0.26379618 0.061912227
-0.25360909 -0.26377094 0.061899755
-0.25382471 -0.26374447 0.061899975
-0.25402606 -0.26371378 0.061944071
-0.25423768 -0.26368621 0.061955839
-0.25447524 -0.26366669 0.061885647
-0.2547197 -0.26364774 0.061805047
-0.25493759 -0.26362243 0.061794885
-0.25517228 -0.26360247 0.061730471
-0.25537276 -0.26357186 0.06177457
-0.25561088 -0.2635532 0.061697461
-0.25581786 -0.2635248 0.061719619
-0.25603503 -0.26350147 0.061695628
-0.25626171 -0.26347601 0.06167851
-0.25648168 -0.26345202 0.061656814
-0.25669721 -0.26342669 0.061648969
-0.25689581 -0.26339585 0.061696533
-0.25714892 -0.26338309 0.061562859
-0.25738123 -0.26336184 0.061509989
-0.25759175 -0.2633352 0.061515994
-0.2578052 -0.26330963 0.061511617
-0.25801679 -0.26328352 0.061513014
-0.25823298 -0.26325902 0.061498247
-0.25845164 -0.26323551 0.061474249
-0.25863394 -0.26320681 0.061520733
-0.25885171 -0.26318496 0.061485205
-0.25908408 -0.26317206 0.061371226
-0.259267 -0.26314375 0.061414249
-0.25952101 -0.26311088 0.06142699
-0.25973877 -0.26308572 0.061415665
-0.25996912 -0.2630671 0.061345514
-0.26013643 -0.26304841 0.061332107
-0.26033121 -0.26302087 0.061358936
-0.26060176 -0.26299071 0.061337017
-0.26081565 -0.26296648 0.061322264
-0.26105458 -0.26294979 0.061230168
-0.2612702 -0.26292649 0.061207328
-0.26147425 -0.26291248 0.061126903
-0.26171932 -0.26288697 0.061093576
-0.26189834 -0.26285002 0.061203469
-0.26210102 -0.26282796 0.061182991
-0.26233706 -0.26280516 0.061138175
-0.26254353 -0.26277888 0.061145358
-0.26271713 -0.26274967 0.061203402
-0.26294169 -0.26273662 0.061097533
-0.26317614 -0.26270565 0.061113805
-0.2633785 -0.26267797 0.061134838
-0.26360402 -0.2626577 0.061080836
-0.26381591 -0.26263201 0.061078772
-0.26400188 -0.26260599 0.061102185
-0.26422298 -0.26258016 0.061093159
-0.26443738 -0.26255572 0.061079551
-0.26467308 -0.2625424 0.060965557
-0.26487738 -0.26251608 0.06097506
-0.265086 -0.26248953 0.060982227
-0.26530954 -0.26247153 0.06091325
-0.26551172 -0.26244453 0.060929667
-0.26571876 -0.26242179 0.060910333
-0.26593029 -0.26239896 0.060887512
-0.26614481 -0.26237327 0.060883131
-0.26634669 -0.26235068 0.060867276
-0.26654199 -0.26232308 0.060894109
-0.26677382 -0.26230976 0.060783591
-0.26698047 -0.26227653 0.060841493
-0.26718882 -0.26225284 0.060827911
-0.267407 -0.26223159 0.060787775
-0.26759699 -0.26219958 0.060851518
-0.26778477 -0.262171 0.060892213
-0.26799262 -0.26215637 0.06081292
-0.26819468 -0.26213691 0.060774006
-0.26844057 -0.26212487 0.06064152
-0.26867303 -0.26210898 0.060549453
-0.26888415 -0.26207376 0.060617715
-0.26909095 -0.26205027 0.06060414
-0.26929581 -0.26202589 0.060598649
-0.26950103 -0.26199946 0.060608134
-0.26971477 -0.26197967 0.060561098
-0.26990691 -0.26195151 0.060594857
-0.27003956 -0.26191926 0.060711876
-0.27030694 -0.26193187 0.060379855
-0.27049109 -0.26189506 0.06048397
-0.2707524 -0.26186207 0.060490917
-0.27094984 -0.26183453 0.06051543
-0.27114823 -0.26181239 0.060499594
-0.27136448 -0.26178756 0.060487125
-0.27157509 -0.26176724 0.06044703
-0.27172151 -0.26174212 0.060499422
-0.27195179 -0.26172271 0.060435023
-0.27217218 -0.26170054 0.060399495
-0.27240336 -0.2616744 0.060383506
-0.27259624 -0.26165494 0.060352709
-0.27281883 -0.26163191 0.060321774
-0.27301696 -0.26160538 0.06033821
-0.27321652 -0.26158747 0.060290083
-0.27342868 -0.26155877 0.060309928
-0.27361822 -0.26154053 0.060273372
-0.2738362 -0.26151535 0.060262054
-0.274032 -0.26149839 0.060210489
-0.27422819 -0.26147115 0.060233854
-0.27442348 -0.26144874 0.060222637
-0.27463484 -0.26142266 0.060224026
-0.27484173 -0.26140481 0.060168952
-0.27505293 -0.26137605 0.060189947
-0.27526572 -0.26135388 0.060161367
-0.27547386 -0.26133448 0.060116664
-0.27565986 -0.26130959 0.060132001
-0.275857 -0.26129183 0.060085032
-0.27605847 -0.2612657 0.060095698
-0.27627996 -0.2612412 0.060076289
-0.27647415 -0.26122192 0.060043178
-0.27669391 -0.26119652 0.060031861
-0.27688423 -0.26117489 0.060019512
-0.27708918 -0.26115146 0.060007095
-0.27729204 -0.2611267 0.060006216
-0.27745193 -0.26109931 0.060063172
-0.27768916 -0.26108345 0.059966475
-0.27789426 -0.2610575 0.059972502
-0.27809039 -0.26104051 0.059920937
-0.27830639 -0.26102251 0.059858907
-0.27848309 -0.26099497 0.059901949
-0.27868915 -0.26097313 0.059876852
-0.27889872 -0.26095086 0.059851743
-0.27911547 -0.26092774 0.059826598
-0.27927831 -0.26090267 0.05986394
-0.27949235 -0.26088414 0.059807681
-0.27968872 -0.26085874 0.059817217
-0.2799055 -0.26083609 0.059788607
-0.28010941 -0.26081672 0.059747379
-0.28029734 -0.2607916 0.059762716
-0.28051016 -0.26077288 0.059708767
-0.28070685 -0.26074481 0.059737891
-0.28090185 -0.26072559 0.059703618
-0.28111023 -0.26071748 0.059575908
-0.2813108 -0.26068592 0.059626922
-0.28150067 -0.26065582 0.059676826
-0.28170764 -0.2606402 0.05960561
-0.28191641 -0.26061204 0.059624318
-0.28210676 -0.26058963 0.059617728
-0.28230733 -0.26056892 0.0595892
-0.28251317 -0.2605457 0.059574477
-0.2827104 -0.26052228 0.059569016
-0.28289601 -0.26049963 0.059568215
-0.28310823 -0.26047501 0.059558082
-0.28330502 -0.26045525 0.059526101
-0.28349018 -0.2604363 0.059498794
-0.28369629 -0.26041397 0.059477154
-0.28390008 -0.2603896 0.059472822
-0.2840997 -0.26036918 0.059443131
-0.2842873 -0.26034111 0.059480369
-0.2844879 -0.26032594 0.059411488
-0.28469425 -0.26030454 0.059382938
-0.28489763 -0.26027611 0.059408575
-0.28509456 -0.26025775 0.059366226
-0.28530768 -0.26023537 0.059338789
-0.28549951 -0.26020771 0.059369083
-0.28567857 -0.26018792 0.059353329
-0.28588054 -0.26017132 0.059293665
-0.28608686 -0.26014647 0.059290469
-0.28630441 -0.26012528 0.05925034
-0.28648734 -0.26009682 0.059294507
-0.28669554 -0.26008812 0.059171412
-0.28687525 -0.2600514 0.059279006
-0.28708225 -0.26003245 0.059231997
-0.28727585 -0.26001197 0.059208103
-0.28748283 -0.25998861 0.059193388
-0.28766948 -0.25995988 0.059236385
-0.28788057 -0.25994673 0.059143245
-0.28806764 -0.25992358 0.059144747
-0.28825355 -0.25990406 0.059120893
-0.28844827 -0.25988078 0.059116594
-0.28865689 -0.25985515 0.059116844
-0.28885415 -0.25984073 0.05904568
-0.28906006 -0.259817 0.059034422
-0.28924981 -0.25979277 0.059041664
-0.28942403 -0.25979057 0.058901425
-0.28964218 -0.25975153 0.058991555
-0.28984496 -0.25973514 0.058929585
-0.29004058 -0.25970843 0.058949493
-0.29023641 -0.25968203 0.058967099
-0.29042429 -0.25965533 0.05899395
-0.29060856 -0.259653 0.058845595
-0.29081362 -0.25961712 0.058924258
-0.29100448 -0.2596077 0.058821987
-0.2911973 -0.25957677 0.058875334
-0.29140535 -0.25955185 0.058870986
-0.29159734 -0.25953239 0.058841333
-0.29179648 -0.25951219 0.05881051
-0.29198307 -0.25947681 0.058901921
-0.29215366 -0.25945348 0.058919642
-0.29234248 -0.25943565 0.058880776
-0.2925519 -0.25942805 0.058748454
-0.29274702 -0.25940111 0.058770671
-0.29295126 -0.25938454 0.05870869
-0.29315305 -0.25935599 0.058736645
-0.29334339 -0.25933483 0.058720842
-0.29355064 -0.25930971 0.058718786
-0.29373562 -0.25928539 0.058730677
-0.29392353 -0.25926751 0.058692977
-0.29412341 -0.25925148 0.058631018
-0.2943227 -0.2592259 0.058639381
-0.29450595 -0.25918907 0.05874465
-0.29469037 -0.25918153 0.058634333
-0.29489598 -0.25918087 0.058454759
-0.29508749 -0.25914586 0.058539249
-0.29529166 -0.25911403 0.058589086
-0.29548717 -0.25909868 0.058525998
-0.29568788 -0.25907767 0.058499765
-0.29587632 -0.25905371 0.058505878
-0.29607385 -0.25903466 0.058468133
-0.29626507 -0.2590082 0.058490366
-0.29645652 -0.25898215 0.058509137
-0.29664707 -0.25895324 0.058549821
-0.29685575 -0.25894746 0.058404818
-0.29703727 -0.2589258 0.058400571
-0.29723015 -0.25890526 0.058377843
-0.29742596 -0.25888216 0.058371231
-0.2976172 -0.25885585 0.058392312
-0.29781759 -0.25883675 0.058352258
-0.29800507 -0.25880995 0.058380269
-0.29819319 -0.25878572 0.05838868
-0.29838762 -0.25877354 0.058303688
-0.29858464 -0.25875753 0.058244038
-0.29878229 -0.2587271 0.058289297
-0.29896984 -0.25870046 0.058316164
-0.29916382 -0.25868908 0.058225404
-0.29935199 -0.25866628 0.058223441
-0.29954273 -0.25863701 0.058266431
-0.29973871 -0.25861785 0.058231004
-0.29993117 -0.25860003 0.058188666
-0.30012125 -0.25859261 0.058072567
-0.30031809 -0.2585541 0.058177777
-0.30051053 -0.25853819 0.058121614
-0.30070257 -0.25852028 0.058080439
-0.30089718 -0.25849196 0.058113031
-0.30108532 -0.25847137 0.058094926
-0.30128074 -0.25845337 0.058051433
-0.3014684 -0.25842732 0.058073681
-0.30166355 -0.25840652 0.058050938
-0.30185115 -0.25837779 0.058092784
-0.30205727 -0.25836667 0.057989292
-0.30223793 -0.25834385 0.057994276
-0.30247161 -0.25830084 0.058099329
-0.30267724 -0.25824299 0.058338232
-0.30287284 -0.25818667 0.058574878
-0.30306524 -0.25814587 0.058700856
-0.30325815 -0.25809947 0.05886719
-0.30344424 -0.25805676 0.059012793
-0.30364153 -0.25800985 0.059179101
-0.3038429 -0.25796181 0.059350006
-0.30404103 -0.25791588 0.059508245
-0.3042357 -0.25787434 0.059637673
-0.304432 -0.2578173 0.059878923
-0.3046284 -0.25776625 0.060076367
-0.24535605 -0.26469746 0.062522627
-0.24556458 -0.26466492 0.062573627
-0.24580729 -0.26464224 0.06252192
-0.24603143 -0.26461363 0.06253022
-0.24627121 -0.26458895 0.062495794
-0.24652047 -0.26456672 0.062434837
-0.24675164 -0.26454169 0.062410831
-0.24698539 -0.26451582 0.062390275
-0.2471756 -0.26448065 0.062477097
-0.24743621 -0.26446176 0.06238151
-0.24766293 -0.26443443 0.062378272
-0.24793932 -0.26441991 0.062236503
-0.24812199 -0.26438296 0.062342957
-0.24835134 -0.26435655 0.062330484
-0.24859524 -0.26433563 0.06226493
-0.24883708 -0.26431274 0.062215522
-0.24903014 -0.26427862 0.062291957
-0.24923582 -0.26424628 0.06234413
-0.2495214 -0.26423538 0.062167749
-0.24971861 -0.26420093 0.062243018
-0.24994743 -0.26417664 0.062215567
-0.25019756 -0.26415667 0.062137313
-0.25041899 -0.26413059 0.062129483
-0.25065693 -0.26410753 0.062084701
-0.25088587 -0.26408213 0.062065315
-0.25111419 -0.26405662 0.062047094
-0.2513144 -0.26402494 0.062099289
-0.25155282 -0.26400247 0.062049896
-0.25177929 -0.26397672 0.062035128
