# .PCD v0.7 - Point Cloud Data file format
VERSION 0.7
FIELDS x y z
SIZE 4 4 4
TYPE F F F
COUNT 1 1 1
WIDTH 1281
HEIGHT 1
VIEWPOINT 0 0 0 1 0 0 0
POINTS 1281
DATA ascii
-0.27562946 -0.34860569 0.048726577
-0.27582979 -0.34865907 0.048753295
-0.27601418 -0.34871471 0.048714083
-0.27622873 -0.34877598 0.048702508
-0.27640891 -0.3488307 0.048661001
-0.27659988 -0.34888357 0.048666924
-0.27678981 -0.348939 0.048645053
-0.27697274 -0.34899482 0.048600059
-0.27716637 -0.34905007 0.048589751
-0.27734092 -0.34910879 0.048493851
-0.27752054 -0.34916237 0.048461612
-0.27777031 -0.34921741 0.048607346
-0.27792495 -0.3492735 0.048482601
-0.27816162 -0.349327 0.048607551
-0.27834105 -0.34938669 0.048515093
-0.2785545 -0.34944612 0.048518583
-0.27874687 -0.34950176 0.048501328
-0.27894294 -0.34955961 0.048472475
-0.27912885 -0.34961438 0.048446
-0.27932876 -0.3496733 0.048417129
-0.27952412 -0.34972897 0.048407972
-0.27972478 -0.34978563 0.048403412
-0.27990827 -0.34983829 0.048390843
-0.2801125 -0.34989607 0.048385113
-0.28030416 -0.34995541 0.048329651
-0.28050885 -0.3500087 0.048369076
-0.28069985 -0.35006586 0.048333306
-0.28085393 -0.35011831 0.048242144
-0.28106764 -0.3501783 0.048240993
-0.28130496 -0.35023329 0.04835321
-0.28147957 -0.35029092 0.048267726
-0.28170043 -0.35035312 0.048264228
-0.28187221 -0.35040748 0.048203077
-0.28207684 -0.35046455 0.048205446
-0.28229478 -0.35051814 0.048278395
-0.28247613 -0.35057789 0.04819056
-0.28267637 -0.35063407 0.048189476
-0.28284606 -0.35068962 0.048110977
-0.28304166 -0.35074592 0.048096023
-0.28325334 -0.35080427 0.048105307
-0.28344512 -0.35086069 0.048078798
-0.28365755 -0.3509191 0.048089236
-0.2838352 -0.35097358 0.048043117
-0.28403765 -0.35103214 0.048024654
-0.28425637 -0.35108855 0.048072107
-0.28444463 -0.35114729 0.048013188
-0.28464836 -0.351206 0.047997043
-0.28483474 -0.35126162 0.047963612
-0.28504592 -0.35131934 0.047977522
-0.28522521 -0.3513771 0.047903605
-0.28541231 -0.35143173 0.047881745
-0.28563946 -0.35149276 0.047907159
-0.28581643 -0.35154951 0.047836725
-0.28605741 -0.35161382 0.047867849
-0.28625453 -0.3516728 0.047830891
-0.28644127 -0.35172862 0.047796298
-0.2866624 -0.35178784 0.047822896
-0.28684902 -0.35184067 0.04781726
-0.28701937 -0.35189748 0.047728334
-0.28724417 -0.35195687 0.047763016
-0.28744516 -0.35201302 0.047764249
-0.28764746 -0.35207027 0.047758531
-0.28782839 -0.35212827 0.047686912
-0.28804141 -0.35218674 0.047698501
-0.18459126 -0.3226898 0.052841388
-0.18482615 -0.32276139 0.052784584
-0.18507048 -0.32283753 0.052709199
-0.18530515 -0.32291177 0.052625764
-0.18554844 -0.32299009 0.052526079
-0.18578646 -0.32306409 0.052454203
-0.18604998 -0.32315248 0.052311562
-0.18627064 -0.32321876 0.052267574
-0.18648733 -0.32328016 0.052260652
-0.18672055 -0.32335174 0.052199222
-0.186947 -0.32342061 0.052145936
-0.18717137 -0.32348698 0.052111186
-0.18739086 -0.32355177 0.05207878
-0.18762864 -0.32362664 0.051997647
-0.1878562 -0.32369664 0.051936246
-0.18808866 -0.3237685 0.05187019
-0.18831997 -0.32384109 0.051793728
-0.1885417 -0.32390651 0.051761299
-0.18877603 -0.32398126 0.051672082
-0.18900393 -0.32405075 0.051616471
-0.18922696 -0.32411864 0.051563207
-0.18945687 -0.32418966 0.051498316
-0.18967822 -0.32425675 0.051448531
-0.18991143 -0.32433009 0.051369734
-0.19014038 -0.32440227 0.051290963
-0.19036815 -0.32447246 0.051228404
-0.19059142 -0.32454124 0.051167026
-0.19082893 -0.32461795 0.051067371
-0.19105212 -0.32468694 0.051003683
-0.19126192 -0.32474607 0.051000275
-0.19148543 -0.32481551 0.050933108
-0.19171113 -0.32488513 0.05087056
-0.19193423 -0.32495317 0.05081613
-0.19215891 -0.32502234 0.050754752
-0.19237755 -0.32508916 0.050700344
-0.19259748 -0.32515547 0.050654043
-0.19281209 -0.32521981 0.050612394
-0.19303638 -0.32528925 0.050547548
-0.19325379 -0.32535571 0.050493143
-0.19347218 -0.32542148 0.050448
-0.19369049 -0.32548878 0.050387815
-0.19390708 -0.32555357 0.050347313
-0.19412085 -0.32561803 0.050302204
-0.19433866 -0.32568389 0.050254747
-0.19455336 -0.32574922 0.050203845
-0.19476523 -0.32581127 0.050177261
-0.19498321 -0.32587904 0.050111279
-0.19519751 -0.32594296 0.05007311
-0.19540811 -0.32600597 0.0500338
-0.19561985 -0.32606834 0.050003756
-0.19582936 -0.32613078 0.049966764
-0.19606766 -0.3262102 0.049842779
-0.19626924 -0.32625824 0.049925111
-0.19664708 -0.32636437 0.049921978
-0.19688131 -0.3264353 0.049869809
-0.19736871 -0.32661441 0.049452733
-0.19750835 -0.32662684 0.049713694
-0.19773081 -0.32669944 0.049612962
-0.19794109 -0.32676354 0.049562071
-0.19815013 -0.32682526 0.049530871
-0.198355 -0.3268857 0.04950086
-0.19856483 -0.32694659 0.049480081
-0.19877094 -0.32700974 0.049426906
-0.19897905 -0.32707122 0.049395714
-0.19918539 -0.32713312 0.049355261
-0.19940059 -0.32719672 0.049322881
-0.19959079 -0.3272503 0.049319573
-0.19979905 -0.32731229 0.04928375
-0.20002003 -0.32738045 0.049222391
-0.20020892 -0.32743332 0.049222562
-0.20040725 -0.32748991 0.049212266
-0.20061234 -0.32754996 0.049186882
-0.20081663 -0.32761118 0.049147606
-0.20101854 -0.32766902 0.049134973
-0.20121244 -0.32772258 0.049142078
-0.20140909 -0.32777658 0.049152628
-0.201594 -0.32782516 0.049184084
-0.2017768 -0.32786864 0.049259558
-0.20194757 -0.32790282 0.049392991
-0.20210052 -0.32792136 0.049630728
-0.20108576 -0.32681403 0.057687104
-0.20158048 -0.32699898 0.057232931
-0.20173495 -0.32701263 0.057522766
-0.20195106 -0.32708085 0.057447538
-0.20229158 -0.32713425 0.05785799
-0.20241487 -0.32712376 0.058298513
-0.20277148 -0.32718655 0.058661401
-0.20431571 -0.32802945 0.054644607
-0.20453228 -0.3280952 0.054594837
-0.20473385 -0.32814026 0.054706115
-0.20498076 -0.32821923 0.054609876
-0.20517288 -0.32827303 0.054610029
-0.20537454 -0.32832867 0.054618247
-0.20558247 -0.32838759 0.054611374
-0.20579416 -0.32845411 0.054540798
-0.20596588 -0.32850346 0.054528318
-0.20620583 -0.32857317 0.054503918
-0.206407 -0.32863528 0.054447293
-0.20660254 -0.32868826 0.054464798
-0.2068053 -0.32874101 0.054504264
-0.20700149 -0.32879239 0.054539144
-0.20717523 -0.32883948 0.054554444
-0.20741649 -0.32892445 0.054384135
-0.2075967 -0.32898435 0.054291718
-0.20780006 -0.32903111 0.054391403
-0.2080204 -0.32909092 0.054409936
-0.20820016 -0.32914385 0.054384682
-0.2084316 -0.32921401 0.054332525
-0.20863146 -0.32926926 0.054339588
-0.20880929 -0.32932305 0.05430045
-0.20899965 -0.32937434 0.054320306
-0.20923391 -0.32944527 0.054268137
-0.20941055 -0.3294934 0.054281108
-0.20964284 -0.3295652 0.054215059
-0.20983942 -0.32962275 0.054190874
-0.21001437 -0.32966945 0.054213122
-0.21022958 -0.32973269 0.054184213
-0.21042025 -0.32978725 0.054172799
-0.21060041 -0.32983413 0.054207757
-0.21081799 -0.32990772 0.054083876
-0.21099931 -0.32995847 0.054084089
-0.21119362 -0.3300066 0.054145604
-0.21143605 -0.33007947 0.054096878
-0.2115891 -0.3301177 0.054142393
-0.21180469 -0.33019024 0.054023162
-0.21200043 -0.33023995 0.054073088
-0.21220085 -0.33029997 0.054034986
-0.21239807 -0.33035401 0.054046702
-0.21258913 -0.33040443 0.05407697
-0.21279895 -0.3304691 0.054019146
-0.21297319 -0.33051303 0.054066863
-0.21319401 -0.33058977 0.053920969
-0.21341749 -0.33065531 0.053892016
-0.21359482 -0.33069986 0.053942047
-0.21377857 -0.33074847 0.053970035
-0.2139799 -0.33081359 0.053884454
-0.21418671 -0.33087304 0.053869482
-0.21437374 -0.33092552 0.05386851
-0.21458915 -0.33098879 0.053839602
-0.21477473 -0.33103982 0.053849056
-0.21497437 -0.33110079 0.053799383
-0.21517563 -0.33116069 0.053764753
-0.2153766 -0.33122039 0.053731281
-0.2155361 -0.33126029 0.053777926
-0.21573678 -0.33131328 0.053809304
-0.21594474 -0.33138502 0.053677373
-0.21614288 -0.33143848 0.053697184
-0.21633397 -0.33149007 0.053715877
-0.21653625 -0.3315556 0.053629138
-0.21671715 -0.33160505 0.053640936
-0.21693343 -0.33166763 0.053621277
-0.21710674 -0.33172879 0.053497627
-0.21730976 -0.33177832 0.053569522
-0.21752435 -0.33183911 0.053562623
-0.21769252 -0.33187589 0.053663641
-0.21789199 -0.33193907 0.053591974
-0.21806647 -0.33198035 0.053666323
-0.21827924 -0.33205801 0.053489212
-0.21847259 -0.33211356 0.053475466
-0.21867092 -0.33216828 0.053483702
-0.21886237 -0.33221737 0.053527862
-0.21905415 -0.33227497 0.053489808
-0.21924697 -0.33233014 0.053478383
-0.21945296 -0.33240035 0.05335572
-0.21963106 -0.33245116 0.053346694
-0.21982643 -0.33250207 0.053383887
-0.22003014 -0.33256552 0.053321455
-0.22021836 -0.33261442 0.053358689
-0.22040094 -0.33266351 0.053378578
-0.22057904 -0.33271018 0.053410072
-0.22078824 -0.33278295 0.053271186
-0.22098751 -0.33283567 0.053301416
-0.22116677 -0.33288443 0.053315531
-0.22136074 -0.33294773 0.053227678
-0.22156775 -0.33300865 0.053198814
-0.22176805 -0.3330684 0.053163029
-0.22197084 -0.33312246 0.053189769
-0.22217661 -0.33318174 0.053173639
-0.22236292 -0.33323827 0.053130984
-0.22253035 -0.33327708 0.053210009
-0.22272058 -0.33333555 0.053159222
-0.2229134 -0.33339354 0.053120006
-0.22312135 -0.33345202 0.053117767
-0.22328983 -0.33350414 0.053069416
-0.22347429 -0.33355236 0.053103194
-0.22366831 -0.33360749 0.053095236
-0.22387917 -0.33366618 0.053098768
-0.22407597 -0.33372733 0.053039845
-0.22426882 -0.33378047 0.053048111
-0.22446635 -0.33385047 0.052904647
-0.224648 -0.33389965 0.052921072
-0.22484809 -0.33394882 0.05298835
-0.2250406 -0.33400875 0.05292945
-0.22521605 -0.33405799 0.052928537
-0.2253796 -0.33408612 0.053101376
-0.2255943 -0.3341628 0.052939311
-0.22576906 -0.33421054 0.052951131
-0.22595508 -0.33427125 0.052866794
-0.22614728 -0.334324 0.052877367
-0.2263419 -0.33438334 0.052830044
-0.22653727 -0.33443639 0.052846394
-0.22672726 -0.33449218 0.052821081
-0.22690719 -0.33454657 0.052781932
-0.22709788 -0.33459532 0.052827254
-0.22730836 -0.33465606 0.052809954
-0.22748354 -0.33470616 0.052799776
-0.22766675 -0.33476192 0.052755974
-0.2278558 -0.33481604 0.052744571
-0.22804508 -0.33487114 0.052723896
-0.22824952 -0.33493516 0.052657999
-0.2284354 -0.33497772 0.052750822
-0.22861975 -0.33504009 0.052645639
-0.22879368 -0.33508676 0.052665576
-0.22898629 -0.33514389 0.052634478
-0.22917986 -0.335206 0.052557036
-0.2293857 -0.33526483 0.052545547
-0.22956584 -0.33531004 0.052596711
-0.22975282 -0.335356 0.052659422
-0.22992842 -0.33541274 0.052585561
-0.23011434 -0.33547282 0.052507017
-0.2303063 -0.33552986 0.052474752
-0.23049226 -0.33559304 0.052366093
-0.23068324 -0.33564451 0.052385941
-0.23087297 -0.33568439 0.052515801
-0.2310528 -0.33572361 0.05262487
-0.23123874 -0.33579174 0.052467573
-0.23142746 -0.33585688 0.052347332
-0.23162496 -0.33590353 0.052431986
-0.23181279 -0.33595884 0.052405536
-0.23199748 -0.33602369 0.0522772
-0.23218818 -0.33606806 0.052365359
-0.23237219 -0.3361145 0.052415356
-0.23256674 -0.33617061 0.052399293
-0.23276119 -0.33623111 0.052340381
-0.23294519 -0.33628249 0.052341733
-0.23312882 -0.33634406 0.052242361
-0.23332277 -0.33640453 0.052182287
-0.23351373 -0.33645362 0.052225295
-0.23369427 -0.3365013 0.052253306
-0.23388156 -0.33655363 0.052254647
-0.23407197 -0.33661038 0.052221227
-0.23425284 -0.3366558 0.052272402
-0.23443563 -0.33671525 0.052191548
-0.2346234 -0.3367891 0.051983297
-0.23482263 -0.33683163 0.052113108
-0.23500486 -0.33686927 0.052244164
-0.23518603 -0.33693501 0.052097324
-0.23538342 -0.3369903 0.052097455
-0.2355718 -0.33703592 0.052167103
-0.23575081 -0.33710817 0.051950797
-0.23595333 -0.33715636 0.05203427
-0.23614077 -0.33720645 0.052057609
-0.23632877 -0.33726877 0.051962841
-0.23650885 -0.33731836 0.05197116
-0.23670536 -0.33737588 0.051946986
-0.23689836 -0.33742008 0.052043237
-0.23707703 -0.33747447 0.052000634
-0.23726121 -0.33753467 0.051916294
-0.23745491 -0.33758867 0.05191876
-0.23764485 -0.33764255 0.05191198
-0.23783238 -0.33769268 0.051935323
-0.23801418 -0.33774772 0.051895011
-0.23819624 -0.33780187 0.051863953
-0.23838536 -0.33785743 0.051838651
-0.23857665 -0.33791667 0.051783234
-0.23875962 -0.33795971 0.051863331
-0.23895057 -0.33801943 0.051802129
-0.23914157 -0.33807066 0.051824287
-0.23933777 -0.33812737 0.051807053
-0.23951562 -0.3381812 0.051767915
-0.23971428 -0.33824047 0.051732145
-0.23988932 -0.33828461 0.051779866
-0.24006514 -0.33834165 0.051703684
-0.24025682 -0.33839872 0.051670268
-0.24044074 -0.33844846 0.051687837
-0.24063583 -0.33850637 0.051655557
-0.24083212 -0.33856869 0.051583897
-0.24102153 -0.33861625 0.051637337
-0.24119894 -0.33866972 0.051600512
-0.24137992 -0.33872381 0.051567152
-0.24158724 -0.33878151 0.051570702
-0.24176177 -0.33882716 0.051602215
-0.24194641 -0.33888182 0.051573459
-0.2421286 -0.33893409 0.051560938
-0.24231435 -0.33898717 0.051550705
-0.24250445 -0.33904535 0.051502235
-0.24269366 -0.33909929 0.051493153
-0.2428824 -0.33915377 0.051477112
-0.24307504 -0.33920866 0.051468007
-0.24326144 -0.33926085 0.05146819
-0.24345055 -0.33931485 0.051457942
-0.24363329 -0.33936635 0.051454671
-0.2438187 -0.33942428 0.051395815
-0.24399501 -0.33948702 0.051265206
-0.2441977 -0.33952686 0.051430892
-0.24437353 -0.3395853 0.051340815
-0.24455561 -0.33964172 0.051287759
-0.24474598 -0.33969429 0.051294871
-0.24494196 -0.33974585 0.051327437
-0.24512899 -0.3397975 0.051334564
-0.24530524 -0.3398549 0.051256061
-0.24549441 -0.33991268 0.051208764
-0.24567804 -0.33996326 0.051217064
-0.2458705 -0.34001419 0.051246174
-0.2460646 -0.34006771 0.051254429
-0.24625203 -0.34012681 0.051189762
-0.24642092 -0.34019324 0.051002454
-0.24661857 -0.34024373 0.051050059
-0.24681349 -0.34028921 0.051139362
-0.24698922 -0.3403424 0.051100239
-0.24718662 -0.34039709 0.051106159
-0.24738565 -0.3404541 0.051093537
-0.24757475 -0.34050444 0.051119186
-0.24774872 -0.3405554 0.051097441
-0.24794178 -0.34060648 0.051126536
-0.24812242 -0.3406696 0.051004015
-0.24832278 -0.34071577 0.05110139
-0.24849167 -0.34077662 0.050968513
-0.2486897 -0.34083751 0.050915375
-0.24886972 -0.34088436 0.05095033
-0.24906273 -0.34093887 0.050945852
-0.24925281 -0.34099835 0.050884657
-0.24944153 -0.34104931 0.05090335
-0.24963033 -0.34110335 0.050891947
-0.24982098 -0.34115931 0.050866641
-0.25000015 -0.34121302 0.050832123
-0.25018686 -0.34126529 0.050832309
-0.25037411 -0.34131142 0.050893862
-0.25056782 -0.34136862 0.050865062
-0.25076428 -0.34143001 0.05080267
-0.25093499 -0.34147969 0.050784409
-0.2511214 -0.34153223 0.050781123
-0.2513026 -0.34158757 0.050736174
-0.25148454 -0.3416397 0.050724808
-0.25168395 -0.34169114 0.050767776
-0.25186524 -0.34174368 0.050750617
-0.25204948 -0.34180009 0.050703347
-0.25222573 -0.3418577 0.050622523
-0.25241354 -0.34191489 0.050577551
-0.25259283 -0.34196308 0.050597459
-0.25278872 -0.34201649 0.050611492
-0.25295463 -0.34207347 0.050508723
-0.25315309 -0.34212324 0.050565593
-0.25335878 -0.34217244 0.050647892
-0.25356096 -0.34222585 0.050679259
-0.25373718 -0.34228808 0.050553288
-0.25393277 -0.34234187 0.050562691
-0.25415495 -0.34238708 0.050729431
-0.25431231 -0.34244969 0.050547976
-0.25449702 -0.34250328 0.050529644
-0.25467604 -0.34255919 0.050473124
-0.2548641 -0.34260911 0.050499935
-0.2550368 -0.34266278 0.050448097
-0.25523505 -0.34272042 0.050427377
-0.25542861 -0.3427707 0.050465733
-0.2556113 -0.34282741 0.050411515
-0.25579974 -0.34288195 0.05039433
-0.25597924 -0.34293303 0.050386447
-0.25615692 -0.342987 0.050344996
-0.25636032 -0.34304288 0.050355513
-0.25654349 -0.34309712 0.050326768
-0.25672451 -0.34314993 0.050306138
-0.25690746 -0.34320208 0.050297081
-0.257092 -0.34326014 0.05023475
-0.25728562 -0.34331304 0.050247639
-0.25745714 -0.34336686 0.050191157
-0.25765535 -0.34342045 0.050209813
-0.25784791 -0.34347177 0.050235447
-0.25803104 -0.34352812 0.050185852
-0.25822082 -0.34358445 0.050154768
-0.25841075 -0.34363666 0.050164189
-0.25860634 -0.34368929 0.050185181
-0.25878572 -0.34374472 0.05013445
-0.2589722 -0.3437961 0.050142746
-0.25915504 -0.34385249 0.050091997
-0.25934279 -0.34390551 0.050087545
-0.25954884 -0.34395742 0.050144374
-0.25973865 -0.34401387 0.050112121
-0.25990003 -0.34407029 0.050002433
-0.26011381 -0.34412032 0.050098583
-0.26028857 -0.34417883 0.050005041
-0.26047027 -0.34423169 0.049985569
-0.26065633 -0.34428722 0.049952172
-0.2608653 -0.34433886 0.050019406
-0.26103145 -0.34439567 0.049918957
-0.26121265 -0.34445053 0.049878642
-0.26140967 -0.34450343 0.049900778
-0.26161826 -0.34455368 0.049980741
-0.26179445 -0.3446134 0.049879089
-0.26196665 -0.3446686 0.049811035
-0.26217431 -0.34471929 0.049884059
-0.26237026 -0.34477097 0.049915455
-0.26254544 -0.34483075 0.049810335
-0.2627162 -0.34488967 0.049701758
-0.26292032 -0.34493795 0.049788695
-0.26312706 -0.344991 0.049836252
-0.26331335 -0.34504837 0.049785487
-0.26351047 -0.3451052 0.049769409
-0.26369506 -0.34515783 0.049760338
-0.26388898 -0.34521198 0.049761649
-0.26406878 -0.34526893 0.049697023
-0.26424974 -0.34532231 0.049670611
-0.2644234 -0.34537876 0.04959444
-0.26462305 -0.34543192 0.049621187
-0.26480281 -0.34548557 0.049588989
-0.26500809 -0.34553784 0.04964003
-0.26520512 -0.34559169 0.049652897
-0.26539746 -0.34564802 0.049628735
-0.26556817 -0.34570172 0.049571104
-0.26574811 -0.3457554 0.049538903
-0.26592404 -0.34581292 0.04945809
-0.26613793 -0.34586573 0.049527608
-0.26634344 -0.3459169 0.04959023
-0.26652452 -0.34597361 0.049531389
-0.2667042 -0.34602898 0.049481824
-0.26688817 -0.34608677 0.049420647
-0.26710114 -0.34613553 0.049527228
-0.26725122 -0.34619385 0.049367808
-0.26745316 -0.34624743 0.049396865
-0.2676087 -0.34630477 0.049261734
-0.26780659 -0.34635901 0.049273439
-0.26800698 -0.34641144 0.049309451
-0.26820558 -0.34646422 0.049337361
-0.26838475 -0.34651971 0.049285479
-0.26860175 -0.34657159 0.049372356
-0.26877099 -0.34662843 0.049279995
-0.26894444 -0.34668466 0.049204979
-0.26914719 -0.34673858 0.049232878
-0.26934743 -0.34679148 0.049264256
-0.26953879 -0.34684551 0.049259786
-0.2697311 -0.34689948 0.049258787
-0.26991141 -0.34695491 0.04921037
-0.2701048 -0.34701025 0.04919894
-0.27029198 -0.34706488 0.049177125
-0.27049246 -0.34711948 0.049192287
-0.27068618 -0.34717348 0.049194753
-0.27085835 -0.34723127 0.049101222
-0.27107146 -0.34728324 0.049176537
-0.27124953 -0.347339 0.049118876
-0.27143407 -0.34739411 0.049085487
-0.27161539 -0.34745088 0.049026642
-0.27182832 -0.34750319 0.049098484
-0.27201712 -0.34755793 0.049080133
-0.27219796 -0.34761482 0.049018987
-0.2723805 -0.3476702 0.048977505
-0.27258673 -0.34772474 0.04900885
-0.27278763 -0.3477785 0.049033277
-0.27296498 -0.34783441 0.048972145
-0.27314425 -0.34789145 0.048905209
-0.27333638 -0.34794477 0.048909996
-0.27352479 -0.34800237 0.048862699
-0.2737191 -0.3480556 0.048874419
-0.27393854 -0.34810948 0.048948549
-0.27413851 -0.34816369 0.048966028
-0.27429104 -0.34822413 0.048792705
-0.27449581 -0.34827802 0.048826374
-0.27469251 -0.3483364 0.048794087
-0.27491638 -0.34839034 0.048879765
-0.27506953 -0.34844929 0.04872264
-0.27528921 -0.3485024 0.048804868
-0.275484 -0.3485598 0.04877723
-0.27567044 -0.34861648 0.048733409
-0.27586326 -0.34866905 0.048747458
-0.27604601 -0.348726 0.048690926
-0.27626261 -0.34878463 0.048710644
-0.2764467 -0.34884033 0.048670307
-0.27663082 -0.34889233 0.048665877
-0.27682111 -0.34894893 0.048633624
-0.27700102 -0.34900364 0.048591003
-0.27720207 -0.34905973 0.048593428
-0.27737328 -0.34911734 0.04849875
-0.2775434 -0.34916899 0.048459653
-0.27779058 -0.34922412 0.048597313
-0.27794403 -0.34928021 0.048469141
-0.27818716 -0.34933457 0.048603356
-0.27836907 -0.34939414 0.048519038
-0.27857071 -0.34945166 0.048508722
-0.27876478 -0.34950837 0.048485707
-0.2789619 -0.34956497 0.048471939
-0.27914774 -0.34961972 0.048445504
-0.27934688 -0.34967747 0.048425935
-0.27953869 -0.3497344 0.048394836
-0.27973813 -0.34979105 0.048386849
-0.27992123 -0.34984255 0.048384733
-0.28011918 -0.34989819 0.04838255
-0.28032035 -0.34995949 0.048334025
-0.28051054 -0.35001203 0.048341136
-0.28070757 -0.35006899 0.0483239
-0.28086078 -0.35012144 0.048230466
-0.28108388 -0.35018227 0.048246674
-0.28130168 -0.35023543 0.048323128
-0.28147927 -0.35029295 0.048246935
-0.28170848 -0.35035384 0.048279315
-0.28188309 -0.35040921 0.048215881
-0.28207326 -0.35046542 0.048187099
-0.28229809 -0.35052106 0.048258878
-0.28247458 -0.35057756 0.04818964
-0.28267711 -0.35063368 0.048195533
-0.282841 -0.35068816 0.048111312
-0.2830427 -0.35074654 0.048092894
-0.28323588 -0.35080287 0.048071034
-0.28343734 -0.35086024 0.048061885
-0.28365201 -0.35091645 0.048100136
-0.28383288 -0.35097191 0.048052881
-0.28402078 -0.35102844 0.048014846
-0.28424186 -0.35108691 0.048048437
-0.28443581 -0.35114452 0.048016161
-0.28463402 -0.35120216 0.047995441
-0.28481695 -0.35125774 0.047952808
-0.28503466 -0.35131645 0.047974825
-0.28521138 -0.35137314 0.047904432
-0.28540254 -0.35142878 0.047883749
-0.285631 -0.3514877 0.047933511
-0.28581262 -0.35154444 0.047875822
-0.28604397 -0.35160971 0.047871143
-0.28624082 -0.35166967 0.047823809
-0.28642946 -0.35172343 0.047814712
-0.28663862 -0.35178047 0.04782984
-0.28682107 -0.35183427 0.047803409
-0.28700727 -0.35189217 0.047746859
-0.28721574 -0.35195139 0.047738828
-0.28742883 -0.3520056 0.047792144
-0.28762466 -0.35206375 0.047759853
-0.28780705 -0.35212073 0.047702171
-0.28801084 -0.35218003 0.047680266
-0.18446687 -0.32265082 0.052882046
-0.18469399 -0.32271904 0.052836843
-0.18494008 -0.32279626 0.052755646
-0.18517174 -0.3228687 0.052681468
-0.18540692 -0.32294217 0.05260729
-0.1856446 -0.32301724 0.052523818
-0.18589693 -0.32309881 0.052417107
-0.18615094 -0.32318288 0.0522907
-0.18636647 -0.32324618 0.052261777
-0.18658027 -0.32330725 0.052250236
-0.18680486 -0.32337499 0.052202731
-0.18703586 -0.32344678 0.052133203
-0.18726015 -0.32351327 0.052097287
-0.187482 -0.32357967 0.05205559
-0.18770984 -0.32364985 0.051993012
-0.18793836 -0.3237206 0.05192697
-0.18817833 -0.32379729 0.051834218
-0.18840159 -0.32386503 0.051783249
-0.18862668 -0.32393268 0.051738076
-0.18885475 -0.32400364 0.051668547
-0.1890821 -0.3240743 0.051600188
-0.18930706 -0.32414359 0.051538792
-0.18953484 -0.32421342 0.051479697
-0.18975744 -0.32428142 0.051424094
-0.18998387 -0.32435063 0.051367324
-0.1902177 -0.32442605 0.051269978
-0.19044569 -0.32449654 0.051205091
-0.19066788 -0.32456481 0.051146016
-0.19089951 -0.32463926 0.051052153
-0.19111869 -0.32470584 0.051001217
-0.1913349 -0.32476923 0.050973445
-0.19155446 -0.32483628 0.050919022
-0.19178419 -0.32490867 0.050840229
-0.19199894 -0.32497284 0.050800893
-0.19222036 -0.32504004 0.050749935
-0.19244492 -0.32511088 0.050672323
-0.19266254 -0.32517585 0.050632961
-0.19287737 -0.32524049 0.050588991
-0.193095 -0.32530713 0.050533425
-0.19331357 -0.32537448 0.050473213
-0.19353093 -0.32543972 0.050430387
-0.19374827 -0.32550651 0.050372504
-0.19396201 -0.32556957 0.050341271
-0.19417509 -0.32563373 0.050297305
-0.19439495 -0.32570109 0.050240569
-0.19461358 -0.32576776 0.050187305
-0.19482341 -0.32583007 0.050152622
-0.1950385 -0.32589456 0.050110962
-0.19525301 -0.32595879 0.050070472
-0.1954653 -0.32602307 0.050023034
-0.19567782 -0.32608613 0.049988337
-0.19588868 -0.32614967 0.049944386
-0.19614138 -0.32623467 0.049805246
-0.19630119 -0.32626152 0.049980443
-0.19671082 -0.32638699 0.049875237
-0.196982 -0.32648402 0.049668822
-0.19741835 -0.32662457 0.049489353
-0.19756329 -0.32664713 0.049665786
-0.19778101 -0.32671496 0.049598634
-0.19798955 -0.32677796 0.049553536
-0.19819714 -0.32683882 0.049526975
-0.19840463 -0.32690129 0.04948419
-0.19862354 -0.32696569 0.049454097
-0.19881822 -0.32702398 0.049417183
-0.19902286 -0.32708472 0.049383678
-0.19923095 -0.32714805 0.049333952
-0.19943792 -0.32720745 0.049320128
-0.19963509 -0.32726467 0.049300566
-0.19984169 -0.32732558 0.04927054
-0.20005688 -0.32738963 0.049233507
-0.20025007 -0.32744583 0.049212813
-0.20044883 -0.32750291 0.04919903
-0.20065483 -0.32756379 0.049167849
-0.20085448 -0.3276217 0.049148269
-0.2010563 -0.32767963 0.049134478
-0.2012465 -0.32773229 0.049140435
-0.20144422 -0.32778552 0.049161404
-0.20162661 -0.32783231 0.049203295
-0.20180917 -0.32787573 0.049278777
-0.20197068 -0.32790294 0.049455129
-0.20114946 -0.32684729 0.057536185
-0.201408 -0.32695249 0.057215195
-0.2015757 -0.32697493 0.057455204
-0.201774 -0.32702523 0.057506278
-0.20198688 -0.3270891 0.057464644
-0.2023 -0.32712477 0.057973735
-0.20284311 -0.32722878 0.058444563
-0.20307459 -0.32730982 0.058285855
-0.20435649 -0.32804379 0.054616001
-0.20455383 -0.32809371 0.054668248
-0.20478593 -0.32816038 0.054651976
-0.20501654 -0.32823005 0.054602124
-0.20519929 -0.32828027 0.054611593
-0.20541152 -0.32834089 0.05460006
-0.20561539 -0.32839656 0.054614052
-0.20582633 -0.32846686 0.054504082
-0.20598918 -0.32850876 0.054540291
-0.2062442 -0.32858741 0.05446947
-0.20643839 -0.32864368 0.054451093
-0.20664583 -0.32870069 0.054461583
-0.20683834 -0.32874903 0.054516166
-0.20702498 -0.3287988 0.054540664
-0.20721893 -0.32885513 0.054521121
-0.20745185 -0.32894188 0.054310281
-0.20762505 -0.3289912 0.054302432
-0.20785813 -0.32904679 0.054397337
-0.20805016 -0.32909948 0.054407917
-0.20822783 -0.329153 0.054371081
-0.20846379 -0.32922286 0.054333955
-0.20866224 -0.32927939 0.054324806
-0.20884359 -0.32933429 0.054284476
-0.20905766 -0.32939366 0.05429031
-0.20925878 -0.3294529 0.054261468
-0.20946549 -0.32951033 0.054266173
-0.20967871 -0.32957891 0.054179356
-0.20987073 -0.32962981 0.05420731
-0.21004401 -0.32967761 0.0542145
-0.21027184 -0.3297458 0.054171622
-0.2104456 -0.3297942 0.054174192
-0.21062405 -0.32984215 0.054194108
-0.21085861 -0.3299225 0.054050431
-0.21102853 -0.32996476 0.054102816
-0.21124129 -0.33002111 0.05413413
-0.21145803 -0.33008417 0.054110996
-0.21161863 -0.3301276 0.054126363
-0.21184498 -0.3302007 0.054031376
-0.21202376 -0.33024672 0.054070972
-0.21222842 -0.33030865 0.054025896
-0.21241339 -0.33035842 0.054045774
-0.21262388 -0.33041558 0.054063205
-0.21282405 -0.33047873 0.053993821
-0.21299723 -0.33052176 0.054047346
-0.21323682 -0.33060756 0.05386427
-0.21343841 -0.33066127 0.053891011
-0.21361703 -0.33070454 0.05395725
-0.21380626 -0.33075941 0.053938895
-0.21400726 -0.33082148 0.053882249
-0.21421388 -0.330881 0.053866118
-0.21440199 -0.33093497 0.053853549
-0.2146194 -0.33099774 0.053835042
-0.21480301 -0.33104983 0.053828292
-0.21500412 -0.3311097 0.053793654
-0.21521154 -0.33117074 0.053764775
-0.21539865 -0.33122727 0.053724416
-0.21556616 -0.33126718 0.053793032
-0.21576916 -0.33132648 0.053768806
-0.21597788 -0.33139619 0.053658858
-0.21616806 -0.33144364 0.053715765
-0.21636742 -0.33150229 0.053688087
-0.2165685 -0.33156663 0.053609438
-0.21674936 -0.33161288 0.053652503
-0.21696274 -0.33167914 0.053588845
-0.21713811 -0.33173972 0.053476751
-0.21734351 -0.33178908 0.053556748
-0.21754599 -0.33184174 0.053596221
-0.21773618 -0.33189297 0.053616077
-0.21792196 -0.33194581 0.053608149
-0.21810919 -0.33199692 0.053621072
-0.21831268 -0.33207011 0.053462498
-0.2185019 -0.33212036 0.053489305
-0.21870615 -0.3321797 0.053468555
-0.21889654 -0.33222765 0.053520828
-0.21908894 -0.33228651 0.053472348
-0.2192868 -0.33234522 0.053440034
-0.21948765 -0.33241257 0.053331286
-0.21967073 -0.33246264 0.053343065
-0.21986578 -0.33251345 0.053380266
-0.22007242 -0.33257735 0.053321272
-0.22026502 -0.33262891 0.053344592
-0.22044243 -0.33267492 0.05338072
-0.22062302 -0.33272582 0.053377464
-0.22083019 -0.33279589 0.05325941
-0.22102751 -0.33284593 0.053310491
-0.22120792 -0.33289692 0.05330608
-0.22141075 -0.33296567 0.053189211
-0.22161517 -0.33302277 0.053190455
-0.22181422 -0.33308089 0.05316741
-0.222013 -0.33313358 0.053196475
-0.22222708 -0.33319753 0.05315714
-0.22240797 -0.33325019 0.053137664
-0.22257218 -0.33328894 0.053208604
-0.2227747 -0.33335403 0.05312648
-0.22296245 -0.33340874 0.053105816
-0.22317356 -0.33346808 0.053103551
-0.22333866 -0.33351997 0.053048261
-0.2235283 -0.33356702 0.053107481
-0.22372317 -0.33362442 0.053079832
-0.22393009 -0.33368191 0.053084537
-0.22412561 -0.33374101 0.053041823
-0.22432251 -0.33379686 0.053034998
-0.22451629 -0.33386603 0.052889228
-0.22470306 -0.33391356 0.052935734
-0.22490089 -0.33396518 0.052972917
-0.22509289 -0.33402461 0.05291748
-0.22527386 -0.33407292 0.052940857
-0.22543454 -0.334102 0.053096361
-0.22565255 -0.33418012 0.05292961
-0.22582667 -0.33422682 0.052949548
-0.22601667 -0.33429056 0.052846633
-0.226208 -0.33434176 0.052869957
-0.2264024 -0.3344014 0.052819148
-0.2265975 -0.33445448 0.052834339
-0.22678727 -0.33451045 0.052806705
-0.22697024 -0.33456534 0.052771002
-0.22716384 -0.3346141 0.052824423
-0.22736704 -0.33467302 0.052804835
-0.22754209 -0.33472353 0.052790016
-0.22772826 -0.33477944 0.05275315
-0.22791691 -0.3348332 0.052744053
-0.22810629 -0.33488977 0.052709475
-0.22831681 -0.33495358 0.052662056
-0.22849563 -0.33499476 0.052749135
-0.22868305 -0.33505777 0.052646238
-0.2288571 -0.33510602 0.052651122
-0.22904572 -0.3351613 0.052626971
-0.22924566 -0.33522415 0.052559908
-0.2294513 -0.33528349 0.052542627
-0.22962764 -0.33532742 0.052596137
-0.22981435 -0.33537328 0.052658856
-0.22999327 -0.33543178 0.052576855
-0.23017533 -0.33549055 0.05250062
-0.23037057 -0.33554935 0.052460223
-0.23055945 -0.33561206 0.052364267
-0.23075014 -0.33566356 0.052382961
-0.23093972 -0.33570409 0.052505888
-0.23111579 -0.335742 0.052617308
-0.23130472 -0.33580959 0.052473873
-0.23149331 -0.33587751 0.052325808
-0.23169041 -0.33592242 0.052426685
-0.23187792 -0.33597749 0.052401386
-0.23206222 -0.33604139 0.052281134
-0.23225617 -0.33608931 0.052343816
-0.23243642 -0.33613268 0.052413516
-0.23263066 -0.33618906 0.052393973
-0.23282474 -0.33624956 0.052333899
-0.23301195 -0.33630103 0.052343339
-0.23319526 -0.33636203 0.052248575
-0.23338194 -0.3364208 0.052185051
-0.23357949 -0.33647293 0.052216455
-0.23375621 -0.33652028 0.052237533
-0.23394334 -0.33657101 0.052253928
-0.23413339 -0.33662799 0.052217036
-0.23431392 -0.33667392 0.052262411
-0.23449659 -0.33673167 0.052197758
-0.23468046 -0.33680505 0.051983707
-0.23488231 -0.3368521 0.052076459
-0.23506121 -0.33688632 0.052231867
-0.23524231 -0.33695039 0.05210121
-0.2354421 -0.33701035 0.052061953
-0.23562746 -0.33705148 0.052167531
-0.23580657 -0.33712149 0.051973179
-0.23600753 -0.33717504 0.051999927
-0.23619244 -0.33721921 0.052074242
-0.23638658 -0.33728507 0.05196204
-0.23656307 -0.33733314 0.051975019
-0.23675174 -0.33739072 0.05192887
-0.23694767 -0.33743659 0.052017026
-0.23712339 -0.33748743 0.052001052
-0.23730771 -0.33754611 0.051931754
-0.23749705 -0.33760089 0.05191455
-0.23768696 -0.33765393 0.051915873
-0.23787051 -0.33770368 0.051932286
-0.23805244 -0.33775756 0.051903538
-0.23823377 -0.33781269 0.051860899
-0.23842268 -0.33786795 0.051837899
-0.23860742 -0.33792371 0.05179872
-0.23879555 -0.33797187 0.051842906
-0.23898046 -0.33802706 0.051809512
-0.23916969 -0.33808121 0.051798105
-0.23936029 -0.33813268 0.051816791
-0.23954394 -0.3381899 0.051760241
-0.23973159 -0.33824682 0.051717564
-0.23991689 -0.33829349 0.051768713
-0.24008243 -0.3383469 0.051699515
-0.24027193 -0.33840707 0.051630199
-0.24045749 -0.33845344 0.051684812
-0.24064188 -0.33850849 0.051651426
-0.24083394 -0.33857045 0.051571675
-0.24102981 -0.33862007 0.051622763
-0.24120502 -0.33867019 0.051612586
-0.24138168 -0.33872414 0.051568806
-0.24158636 -0.33877918 0.051590901
-0.24176404 -0.33883151 0.051565651
-0.24194005 -0.33888045 0.051569365
-0.2421215 -0.33893326 0.051549885
-0.24231154 -0.33898574 0.051557001
-0.2424929 -0.33904386 0.051485397
-0.24267898 -0.33909595 0.051485583
-0.24286301 -0.33915055 0.051455669
-0.24305631 -0.33920419 0.051460449
-0.24323781 -0.33925664 0.051444445
-0.24342349 -0.33930922 0.051438838
-0.24361022 -0.33936065 0.051447138
-0.24378647 -0.33940941 0.051453158
-0.24396618 -0.33947745 0.051279657
-0.24416348 -0.33952242 0.051380545
-0.24433963 -0.33957124 0.05138541
-0.2445171 -0.33963192 0.051277936
-0.244708 -0.33968359 0.051295467
-0.24489026 -0.33973509 0.051291045
-0.24508598 -0.33978245 0.051364139
-0.24525638 -0.33984077 0.051260177
-0.24543756 -0.3398973 0.051203635
-0.24563123 -0.33995068 0.051211894
-0.24580817 -0.3400028 0.051186644
-0.24600685 -0.34004816 0.051287517
-0.2461908 -0.34010604 0.051225178
-0.24636361 -0.34016907 0.051081821
-0.24654578 -0.34022802 0.051004432
-0.24674152 -0.3402724 0.051106483
-0.24691908 -0.34032387 0.051089346
-0.24710773 -0.34037408 0.051114999
-0.2472984 -0.34043351 0.051056087
-0.24749959 -0.3404851 0.051102519
-0.24767527 -0.34053451 0.051100451
-0.24785207 -0.34058318 0.051108789
-0.24802817 -0.34063908 0.05104417
-0.24822541 -0.34069374 0.051050089
-0.24840485 -0.34074396 0.051050302
-0.24858469 -0.34080696 0.050926611
-0.24877463 -0.34085989 0.050929084
-0.24895646 -0.34090856 0.050951302
-0.2491475 -0.34096405 0.050931774
-0.24933311 -0.34101981 0.050894897
-0.2495167 -0.34107059 0.050900891
-0.24971089 -0.34112722 0.050879028
-0.24989392 -0.3411814 0.050850272
-0.25007388 -0.34123439 0.050825011
-0.25024664 -0.34127969 0.050855376
-0.25043634 -0.341333 0.050853226
-0.25063261 -0.3413856 0.050876521
-0.25081712 -0.3414447 0.050803758
-0.25098324 -0.34149665 0.050750766
-0.25117373 -0.34154677 0.050782204
-0.25134909 -0.34160215 0.050721064
-0.25153762 -0.34165338 0.050736286
-0.25172687 -0.34170434 0.050756145
-0.25190684 -0.34175462 0.050757527
-0.25208482 -0.34181389 0.050665099
-0.25226781 -0.34186798 0.050637502
-0.25243956 -0.34192741 0.050526582
-0.25263223 -0.34196904 0.050647181
-0.25280443 -0.34202811 0.050540891
-0.2529805 -0.34208274 0.050489012
-0.25317875 -0.34212983 0.05057136
-0.2533896 -0.34217906 0.050667539
-0.25357568 -0.34223434 0.050636463
-0.25375009 -0.34229463 0.050524365
-0.25395465 -0.34234199 0.050621741
-0.25416613 -0.34239149 0.050716758
-0.25432059 -0.34245506 0.050517913
-0.25450256 -0.34250718 0.050506536
-0.25468144 -0.34256059 0.050474331
-0.25486377 -0.34261256 0.050465271
-0.2550436 -0.34266326 0.050462015
-0.25522944 -0.34272087 0.050407767
-0.25542849 -0.34277114 0.050461158
-0.25560594 -0.34282732 0.050397698
-0.25579137 -0.34288052 0.050385147
-0.25596711 -0.34293056 0.050377272
-0.25614923 -0.34298497 0.050343901
-0.25634557 -0.34303877 0.050355606
-0.25652638 -0.34309363 0.050314128
-0.25670111 -0.34314409 0.050299324
-0.25688821 -0.34319681 0.05029602
-0.25707108 -0.34325522 0.050225586
-0.2572642 -0.34330812 0.050237309
-0.25743273 -0.3433606 0.050185472
-0.25763062 -0.34341413 0.050204128
-0.2578167 -0.34346312 0.050234426
-0.25799465 -0.34351885 0.050176747
-0.25818372 -0.34357524 0.050143324
-0.25837499 -0.34362689 0.050162017
-0.25856942 -0.34367967 0.050178375
-0.25874853 -0.34373501 0.050127633
-0.25893077 -0.34378543 0.050133634
-0.25911435 -0.34384143 0.050088666
-0.25930053 -0.34389475 0.050077263
-0.2595036 -0.34394532 0.050138745
-0.25969025 -0.34400055 0.050109975
-0.25984985 -0.34405726 0.049992163
-0.26006457 -0.34410688 0.050095275
-0.26023513 -0.34416443 0.049999416
-0.26041675 -0.34421715 0.049981102
-0.2605992 -0.34427154 0.049948879
-0.2608085 -0.34432295 0.050019585
-0.26096842 -0.34437928 0.049906407
-0.26115045 -0.34443378 0.049871869
-0.26134643 -0.34448677 0.049890533
-0.26154864 -0.34453654 0.049957804
-0.2617344 -0.34459385 0.049905874
-0.26189405 -0.34465003 0.049793866
-0.26210016 -0.34470087 0.049861114
-0.26230067 -0.34475133 0.049916815
-0.26248008 -0.34481007 0.049833648
-0.26264352 -0.34486872 0.049707722
-0.26284009 -0.34491843 0.049759958
-0.26305246 -0.34497008 0.049836449
-0.26323023 -0.34502563 0.049779925
-0.26342577 -0.34508264 0.049758058
-0.26361027 -0.34513512 0.049750149
-0.26379836 -0.34518859 0.049742214
-0.26398459 -0.34524748 0.049676389
-0.26416874 -0.34529844 0.049682368
-0.26433659 -0.34535417 0.04959695
-0.26453233 -0.3454079 0.049607508
-0.26471713 -0.34546047 0.049599599
-0.26490855 -0.34551346 0.049605541
-0.26511443 -0.34556556 0.049660057
-0.26530439 -0.34562218 0.049626634
-0.2654843 -0.34567574 0.049595587
-0.26565075 -0.34573001 0.049520597
-0.2658298 -0.34578687 0.049454801
-0.26603922 -0.34583867 0.049522042
-0.26623601 -0.34588951 0.049563855
-0.26642671 -0.34594607 0.049532745
-0.26661092 -0.34600061 0.049503986
-0.26678649 -0.34605804 0.049423158
-0.26699576 -0.34610716 0.049515881
-0.26715654 -0.3461653 0.049387641
-0.2673431 -0.34621647 0.049398243
-0.26751214 -0.34627476 0.049290814
-0.26768422 -0.34632957 0.049226217
-0.26791096 -0.34637958 0.049358226
-0.2680839 -0.34643579 0.049282037
-0.2682848 -0.34648815 0.049320366
-0.26846468 -0.34654191 0.049286995
-0.26868472 -0.34659478 0.049372703
-0.26882315 -0.34665552 0.049157724
-0.26903918 -0.34670466 0.049268935
-0.26921642 -0.3467603 0.049210105
-0.2694267 -0.34681326 0.049268074
-0.26961368 -0.34686774 0.049247403
-0.26979983 -0.34692234 0.049223263
-0.26997653 -0.34697807 0.049162127
-0.27018481 -0.34703156 0.049209673
-0.27036607 -0.34708679 0.049165871
-0.27056813 -0.34713969 0.049201876
-0.27073768 -0.34719625 0.049112976
-0.27094263 -0.34725034 0.049145494
-0.27113506 -0.34730446 0.049143329
-0.2713156 -0.34735984 0.049096055
-0.27149796 -0.34741503 0.049055733
-0.27168736 -0.34747091 0.049028099
-0.27189636 -0.34752351 0.049086068
-0.27208281 -0.34757972 0.049046874
-0.27226117 -0.34763402 0.049004253
-0.27244917 -0.34768879 0.048983589
-0.27265769 -0.34774303 0.049024187
-0.27285653 -0.34779823 0.049028937
-0.27301651 -0.34785554 0.04890649
-0.27319506 -0.34791121 0.048851129
-0.27341872 -0.34796309 0.048956506
-0.27359319 -0.34802043 0.048873372
-0.27378955 -0.3480747 0.048880454
-0.27401441 -0.3481268 0.048986979
-0.27417541 -0.34818521 0.04885643
-0.27436113 -0.34824172 0.048812605
-0.27455279 -0.34829903 0.048776858
-0.27475101 -0.34835467 0.048775829
-0.27498049 -0.34840685 0.048893917
-0.27513221 -0.34846705 0.048720554
-0.2753472 -0.3485204 0.048787765
-0.27553606 -0.34857681 0.048753191
-0.27572474 -0.34863201 0.048730202
-0.27592027 -0.34868556 0.048741914
-0.27609992 -0.3487426 0.048676122
-0.2763105 -0.34880027 0.048688922
-0.2764985 -0.34885561 0.048662454
-0.27668166 -0.34890762 0.048655711
-0.27686626 -0.3489632 0.048617683
-0.27704906 -0.34901768 0.04858546
-0.27724415 -0.34907398 0.048569381
-0.27741861 -0.34913132 0.04848624
-0.27760246 -0.34918219 0.04849223
-0.27783036 -0.34923938 0.048557058
-0.27799177 -0.3492938 0.048467033
-0.27822959 -0.34934714 0.048596654
-0.27840933 -0.34940669 0.048506547
-0.27861139 -0.34946528 0.048486952
-0.27879897 -0.34951979 0.048467442
-0.27899176 -0.34957531 0.048452545
-0.27918541 -0.34963083 0.04843995
-0.27938312 -0.34968856 0.048416905
-0.27957767 -0.34974527 0.048395041
-0.27977389 -0.34980083 0.048389383
-0.27995145 -0.34985241 0.048371091
-0.28015199 -0.34990904 0.048366562
-0.28034627 -0.34996817 0.048320383
-0.2805385 -0.35002056 0.048334435
-0.28073329 -0.35007745 0.048311412
-0.28087848 -0.35013002 0.048194841
-0.28110978 -0.35019055 0.048236474
-0.28132477 -0.35024258 0.048316427
-0.28149813 -0.3503001 0.048228662
-0.28172469 -0.35036096 0.04825411
-0.28190356 -0.35041505 0.048214957
-0.28208852 -0.35047016 0.048182722
-0.28231058 -0.35052463 0.048257999
-0.28249046 -0.35058209 0.048188724
-0.28269199 -0.35063922 0.04818188
-0.28285798 -0.35069361 0.048104577
-0.28305519 -0.35074979 0.048095435
-0.28324813 -0.3508071 0.048063159
-0.28344926 -0.35086331 0.048064422
-0.2836563 -0.35091951 0.048081867
-0.28384089 -0.35097378 0.048056591
-0.28402603 -0.35103023 0.048011616
-0.28423688 -0.35108656 0.048038308
-0.28443423 -0.35114405 0.048016429
-0.2846213 -0.35120162 0.04796565
-0.28481764 -0.35125813 0.047950722
-0.28502715 -0.35131466 0.047971629
-0.28520691 -0.35137129 0.047910474
-0.28538433 -0.3514258 0.047863219
-0.28561804 -0.35148355 0.047938436
-0.28580308 -0.35154128 0.04788072
-0.28602916 -0.35160434 0.047883008
-0.28622729 -0.35166526 0.047829859
-0.28640282 -0.35171783 0.047796518
-0.28660917 -0.35177371 0.047815122
-0.28680488 -0.35182959 0.047804836
-0.28699332 -0.35188541 0.047774892
-0.28719231 -0.35194644 0.047722898
-0.28739357 -0.35199842 0.047765851
-0.28759831 -0.35205659 0.047757842
-0.28778744 -0.35211155 0.047738314
-0.18467864 -0.32271472 0.0528372
-0.18491153 -0.32278526 0.052784994
-0.18515337 -0.3228626 0.05269105
-0.18539536 -0.32293889 0.052607529
-0.18563083 -0.32301265 0.052530985
-0.18587261 -0.32308784 0.052457891
-0.18613061 -0.32317433 0.052318685
-0.18635941 -0.32324573 0.052246816
-0.18657134 -0.32330567 0.052241065
-0.18679658 -0.32337254 0.052203961
-0.18702292 -0.32344151 0.052149482
-0.1872528 -0.32351145 0.052094985
-0.18747531 -0.32357827 0.052050948
-0.18770556 -0.32364866 0.051992968
-0.1879372 -0.32372004 0.051929198
-0.18816984 -0.32379219 0.05186078
-0.18840444 -0.32386702 0.05177151
-0.18862361 -0.32393101 0.051746026
-0.1888513 -0.32400176 0.051677633
-0.18907872 -0.32407114 0.051621985
-0.18930331 -0.32414019 0.051561724
-0.18953577 -0.32421297 0.051486358
-0.1897603 -0.32428226 0.051423781
-0.18998732 -0.32435188 0.05136466
-0.19021547 -0.3244237 0.05128701
-0.19044736 -0.32449672 0.051208168
-0.19067362 -0.32456622 0.051147897
-0.19090703 -0.32464048 0.051060945
-0.19112842 -0.32470852 0.051001862
-0.19134293 -0.32477084 0.050979875
-0.1915634 -0.32483849 0.050921954
-0.19178922 -0.32490838 0.050857045
-0.19201247 -0.32497668 0.050800264
-0.19223444 -0.3250443 0.050746962
-0.19245295 -0.32511118 0.050691374
-0.19267645 -0.32518005 0.050629951
-0.19288996 -0.32524386 0.050590597
-0.19311221 -0.32531214 0.050531503
-0.19332635 -0.3253766 0.050487511
-0.19354735 -0.32544428 0.050430752
-0.19377017 -0.32551333 0.050365858
-0.1939826 -0.32557553 0.050339252
-0.19419652 -0.32564029 0.050291788
-0.19441237 -0.32570499 0.050250106
-0.19463138 -0.32577345 0.050180607
-0.19484307 -0.32583556 0.050152838
-0.19505808 -0.32590002 0.050111167
-0.19527426 -0.32596543 0.050063692
-0.19548208 -0.32602668 0.050033625
-0.19569917 -0.32609293 0.049980361
-0.19590878 -0.32615566 0.049941018
-0.19615141 -0.32623675 0.049812324
-0.19633426 -0.32627505 0.049938776
-0.19673003 -0.32639095 0.049889188
-0.19699134 -0.326478 0.049753439
-0.19744812 -0.32663766 0.049442902
-0.19758902 -0.32665268 0.049681939
-0.19780539 -0.32672274 0.04958928
-0.19801587 -0.32678559 0.049551107
-0.19822079 -0.32684615 0.049519904
-0.19842887 -0.32690752 0.049489848
-0.1986427 -0.32696986 0.049465552
-0.19884524 -0.32703227 0.049410034
-0.19905263 -0.32709342 0.049379982
-0.1992611 -0.32715547 0.04934413
-0.19947426 -0.32721776 0.049318675
-0.19966796 -0.32727411 0.049297959
-0.19987421 -0.32733485 0.049269076
-0.20009418 -0.32740247 0.049209993
-0.20028214 -0.32745486 0.049212471
-0.20048469 -0.32751313 0.049197499
-0.20068774 -0.32757354 0.049162842
-0.20088878 -0.32763255 0.049136292
-0.20109338 -0.3276909 0.049125943
-0.20128487 -0.32774284 0.049142305
-0.20148186 -0.32779729 0.049149372
-0.2016685 -0.32784563 0.049187779
-0.20185046 -0.32788864 0.049265582
-0.2020199 -0.3279202 0.049421072
-0.2011849 -0.3268528 0.057579227
-0.20145994 -0.32697105 0.057175826
-0.2016308 -0.32699603 0.057399645
-0.2018151 -0.32703531 0.0575203
-0.20203362 -0.32710373 0.057449646
-0.20235428 -0.32714352 0.057939105
-0.20287693 -0.32723302 0.058495827
-0.20440045 -0.32805511 0.054625787
-0.20460308 -0.32810947 0.054649036
-0.20482901 -0.3281731 0.054645523
-0.20506096 -0.328244 0.054587543
-0.20524669 -0.32829466 0.054600462
-0.20545594 -0.32835492 0.054584295
-0.20566565 -0.32841355 0.054585502
-0.20586601 -0.32847911 0.054492936
-0.20603493 -0.328522 0.054536059
-0.20628916 -0.32860222 0.054447833
-0.20648043 -0.32865602 0.054445665
-0.2066839 -0.32871181 0.054457337
-0.20688258 -0.3287634 0.054496832
-0.20706445 -0.32881123 0.054527141
-0.20726043 -0.32886717 0.054516844
-0.20749396 -0.32895461 0.054301314
-0.20766729 -0.32900181 0.054314297
-0.20789817 -0.32905772 0.054399952
-0.20809659 -0.32911399 0.054393113
-0.20828202 -0.32917005 0.054352745
-0.20850888 -0.3292363 0.054326072
-0.20870085 -0.32929158 0.054311149
-0.20888102 -0.32934546 0.054277763
-0.20911101 -0.32941023 0.054274239
-0.20930327 -0.32946607 0.054254685
-0.20951389 -0.32952482 0.054257043
-0.20972943 -0.32959571 0.054153968
-0.20991667 -0.32964456 0.054188896
-0.21009575 -0.32969305 0.054205321
-0.21031703 -0.32975999 0.054156654
-0.21048851 -0.32980621 0.054174289
-0.21065912 -0.3298516 0.054197714
-0.21089768 -0.32993343 0.054050498
-0.21106787 -0.32997599 0.054100562
-0.21130489 -0.33004108 0.054113213
-0.21149606 -0.33009425 0.054116838
-0.211666 -0.33014452 0.054090455
-0.21189745 -0.33021492 0.054035947
-0.21208262 -0.33026487 0.054054663
-0.21228167 -0.33032379 0.054023489
-0.21246624 -0.33037323 0.054045681
-0.21268301 -0.33043426 0.054042224
-0.21286905 -0.33049098 0.053997219
-0.21305102 -0.33054063 0.05401016
-0.21330228 -0.33062768 0.053846661
-0.21349378 -0.33067632 0.053895462
-0.21366718 -0.33071977 0.053945512
-0.21386522 -0.33078149 0.053884238
-0.21406539 -0.33083978 0.053862318
-0.21426469 -0.33089727 0.053846214
-0.21446402 -0.33095485 0.053828944
-0.21467716 -0.33101287 0.053845193
-0.2148656 -0.3310706 0.053796705
-0.2150684 -0.3311294 0.053777099
-0.21528101 -0.33119345 0.05373311
-0.21544217 -0.33123878 0.053731106
-0.21563323 -0.33128399 0.05381234
-0.21584404 -0.33135602 0.053684965
-0.21604028 -0.33141416 0.053653814
-0.21623667 -0.33146253 0.053718802
-0.21644151 -0.33152807 0.053638946
-0.21662471 -0.33158407 0.053592805
-0.21682934 -0.33163592 0.053646162
-0.21701628 -0.33170044 0.053527027
-0.21721984 -0.33175817 0.05352015
-0.21742764 -0.33181423 0.053541068
-0.21760462 -0.33185193 0.053657129
-0.2178116 -0.33191794 0.053578429
-0.21798667 -0.33195665 0.053679429
-0.21819755 -0.33203202 0.053519625
-0.2183921 -0.33209336 0.053452574
-0.21859327 -0.33214462 0.053502478
-0.21879154 -0.33219963 0.05350722
-0.21898185 -0.33225554 0.053481892
-0.21917391 -0.33231002 0.053475082
-0.21938911 -0.33238152 0.053365059
-0.21957217 -0.33243573 0.053336289
-0.21976225 -0.33248776 0.053348027
-0.21996464 -0.33254963 0.053297147
