# .PCD v0.7 - Point Cloud Data file format
VERSION 0.7
FIELDS x y z
SIZE 4 4 4
TYPE F F F
COUNT 1 1 1
WIDTH 1244
HEIGHT 1
VIEWPOINT 0 0 0 1 0 0 0
POINTS 1244
DATA ascii
-0.10305044 -0.40193841 0.053627364
-0.10321055 -0.40204456 0.053591944
-0.10337639 -0.40215129 0.053576116
-0.10355702 -0.4022629 0.053589091
-0.10370952 -0.40236834 0.053527147
-0.10388223 -0.40247425 0.053544775
-0.10407678 -0.40259248 0.053571522
-0.10421288 -0.40269452 0.053464636
-0.10438277 -0.40279865 0.053482275
-0.10454085 -0.40290478 0.053438775
-0.10472732 -0.40301418 0.053489827
-0.10490787 -0.40312627 0.053499334
-0.10503653 -0.40322897 0.05335784
-0.10521679 -0.40333784 0.053386975
-0.10538072 -0.40344641 0.053351536
-0.10554962 -0.4035556 0.053332228
-0.10573421 -0.40366527 0.053374041
-0.10590477 -0.4037748 0.053359352
-0.10605507 -0.40388167 0.053278949
-0.10624476 -0.40399224 0.053335749
-0.10642742 -0.40410513 0.053348705
-0.10658465 -0.40421301 0.053290211
-0.10675964 -0.40432337 0.053288195
-0.10691006 -0.40442875 0.053218178
-0.10711007 -0.4045428 0.053294558
-0.10727444 -0.40465179 0.053257953
-0.10743698 -0.40476054 0.053215593
-0.10760538 -0.40486711 0.053211309
-0.10779388 -0.40498137 0.053239249
-0.1079326 -0.40508503 0.053132348
-0.10811625 -0.40519714 0.053154536
-0.10828114 -0.40530488 0.053128324
-0.10846606 -0.4054158 0.053163208
-0.10861185 -0.40552056 0.053078208
-0.10878471 -0.40563118 0.053065818
-0.10898434 -0.40574625 0.053134114
-0.10913052 -0.40585408 0.05303064
-0.10931888 -0.40596595 0.053073585
-0.10947103 -0.4060733 0.052997798
-0.10966399 -0.4061861 0.053053427
-0.10982475 -0.40629497 0.053002983
-0.10998346 -0.40640199 0.052956022
-0.11019 -0.40651891 0.053040452
-0.1103348 -0.40662357 0.052951992
-0.11052252 -0.40673736 0.052979931
-0.1106907 -0.40684769 0.052950244
-0.11085855 -0.40695798 0.052919406
-0.1110014 -0.40706375 0.052815948
-0.11116451 -0.40717322 0.052771267
-0.11136298 -0.40729073 0.052818786
-0.11157209 -0.40740606 0.052923985
-0.11170813 -0.40750912 0.052810166
-0.11188661 -0.40762311 0.052798897
-0.11207132 -0.40773833 0.052804921
-0.1122501 -0.40784967 0.052812129
-0.11240897 -0.40795574 0.05277209
-0.11258551 -0.40806815 0.052763145
-0.11275347 -0.40818173 0.052711517
-0.11294188 -0.40829521 0.052744076
-0.11310678 -0.40840545 0.052701704
-0.1132952 -0.40851769 0.052742347
-0.11342245 -0.40862444 0.052568536
-0.11364109 -0.4087472 0.052664444
-0.11381416 -0.40885514 0.052670524
-0.11397813 -0.40896672 0.052615449
-0.11416556 -0.40908191 0.052633006
-0.11432097 -0.40918899 0.052572213
-0.11449817 -0.40930074 0.052570187
-0.11466812 -0.40941647 0.052512772
-0.11483508 -0.40952745 0.052473854
-0.11504526 -0.40964791 0.052550182
-0.11520955 -0.40975437 0.052529752
-0.11536013 -0.40986055 0.052455112
-0.11552835 -0.40997198 0.052418496
-0.1157189 -0.41008574 0.052457973
-0.11588635 -0.41020113 0.052392498
-0.11605155 -0.41031066 0.052355889
-0.1162665 -0.41043022 0.052457601
-0.11642914 -0.41054326 0.052387524
-0.031241272 -0.35968968 0.03468347
-0.031398978 -0.35978633 0.034699988
-0.031563748 -0.35988635 0.034723409
-0.031715944 -0.35997027 0.034799997
-0.031887569 -0.36007926 0.034793366
-0.032027014 -0.36016616 0.034798436
-0.032183137 -0.36026502 0.034794189
-0.032334644 -0.36034817 0.034873083
-0.032485783 -0.36044261 0.034876946
-0.032643136 -0.36054331 0.03486577
-0.032803591 -0.36064219 0.034878813
-0.032964639 -0.36074397 0.034875706
-0.03311241 -0.36083436 0.034892283
-0.033280056 -0.36093494 0.034923762
-0.033430945 -0.36102962 0.034925312
-0.033583872 -0.36112502 0.034930319
-0.033733524 -0.3612141 0.034963045
-0.033899385 -0.36131465 0.03498761
-0.034058031 -0.36141384 0.034991436
-0.034189183 -0.36148027 0.035095833
-0.034385774 -0.36161825 0.035002492
-0.034526806 -0.36170226 0.035032958
-0.034656614 -0.36177319 0.035102721
-0.034828551 -0.361893 0.035026819
-0.034908701 -0.36188114 0.035431642
-0.035046395 -0.36195186 0.035534844
-0.035198577 -0.36204892 0.035526007
-0.035357751 -0.36214489 0.035552915
-0.035529699 -0.36226082 0.035502404
-0.035695754 -0.36237532 0.035436928
-0.035864733 -0.3624897 0.035384133
-0.036021825 -0.36259431 0.035346393
-0.036184337 -0.36270002 0.035323646
-0.036345072 -0.36280337 0.035308991
-0.03650428 -0.3629047 0.035301261
-0.036663558 -0.36300623 0.035292387
-0.036822509 -0.36310968 0.035269648
-0.036983497 -0.36321622 0.03523536
-0.03714557 -0.36331987 0.035224162
-0.037304413 -0.36342132 0.03521413
-0.037457615 -0.36351937 0.035202973
-0.037617885 -0.36362314 0.03518369
-0.037782341 -0.36373079 0.035156321
-0.037942037 -0.36383399 0.035138201
-0.038097657 -0.36393377 0.035125874
-0.038255665 -0.36403719 0.035099685
-0.038416229 -0.36413971 0.035089646
-0.038574222 -0.36424097 0.035077307
-0.038729843 -0.36434126 0.035061516
-0.038889624 -0.36444792 0.035021462
-0.03904631 -0.36454764 0.03501375
-0.039204676 -0.36465004 0.034995638
-0.039358445 -0.36475059 0.034970623
-0.039515913 -0.36484939 0.034972142
-0.039675824 -0.36495203 0.034958642
-0.03983061 -0.36504951 0.034957867
-0.039986365 -0.36515114 0.034933992
-0.040141761 -0.36525238 0.034911279
-0.040299222 -0.36535436 0.034892019
-0.040455375 -0.36545447 0.034879699
-0.040613465 -0.36555773 0.034854662
-0.040767837 -0.36565796 0.034834255
-0.040918499 -0.36575514 0.034818489
-0.041077584 -0.36585781 0.034801532
-0.041231886 -0.36595568 0.034796145
-0.041387338 -0.36605552 0.034782667
-0.041542828 -0.36615556 0.034768026
-0.041698534 -0.36625609 0.034751087
-0.041849416 -0.36635447 0.034728397
-0.042004406 -0.3664597 0.034677967
-0.042156108 -0.36655417 0.03468414
-0.042311713 -0.36665234 0.034682211
-0.04246252 -0.36674836 0.034674518
-0.042615958 -0.36684889 0.034648351
-0.042771019 -0.36694652 0.034647573
-0.042922296 -0.36704373 0.034634117
-0.043075532 -0.36714146 0.034625273
-0.043228045 -0.36724105 0.034601413
-0.043383326 -0.36734256 0.03457639
-0.043537147 -0.36744475 0.034540989
-0.043688376 -0.36754566 0.034503285
-0.043841705 -0.36764434 0.034488667
-0.043989792 -0.36773404 0.034511007
-0.044143371 -0.36783341 0.034492925
-0.044294372 -0.36793151 0.034472536
-0.044448122 -0.36803153 0.034450989
-0.044598505 -0.36812568 0.034453698
-0.044749856 -0.36822489 0.034427542
-0.044900589 -0.36832637 0.034384068
-0.045054693 -0.36842448 0.034376372
-0.045203209 -0.36851907 0.034368701
-0.04535494 -0.3686164 0.034356393
-0.04550425 -0.36871272 0.034340635
-0.045657881 -0.36881053 0.034332938
-0.045805227 -0.36890686 0.034309112
-0.045954905 -0.36900094 0.03430951
-0.046101559 -0.36909631 0.034289151
-0.046252061 -0.3691957 0.034258377
-0.046404429 -0.36929536 0.034233369
-0.046552848 -0.36939111 0.034217626
-0.04670319 -0.36948723 0.034207635
-0.046853002 -0.36958244 0.034201108
-0.047000602 -0.3696807 0.034165733
-0.047153942 -0.36977959 0.034149956
-0.047300197 -0.36987558 0.034123827
-0.047450196 -0.36996809 0.034135766
-0.047594436 -0.37006032 0.034125816
-0.04774398 -0.3701559 0.034115829
-0.047892075 -0.37025255 0.034093153
-0.04804175 -0.37034875 0.034079701
-0.048189472 -0.37044495 0.034058176
-0.048338793 -0.37054077 0.034045879
-0.048484273 -0.37063664 0.034017451
-0.048631847 -0.37073311 0.033993617
-0.048777871 -0.37083057 0.033957101
-0.04892686 -0.37092224 0.0339702
-0.049074128 -0.37101445 0.03397293
-0.049223453 -0.37111133 0.033953711
-0.049367078 -0.37120426 0.033936828
-0.049513478 -0.37129927 0.033917621
-0.049658578 -0.37139153 0.033911116
-0.049807861 -0.37148908 0.033887282
-0.049952239 -0.37158 0.033886556
-0.050101697 -0.37167838 0.033858098
-0.050244659 -0.37177089 0.033841219
-0.050394319 -0.3718749 0.03377698
-0.050538439 -0.37196121 0.03380511
-0.050684229 -0.3720516 0.033813622
-0.050827399 -0.3721405 0.033820987
-0.050974805 -0.37223509 0.033808697
-0.051119447 -0.3723329 0.033764105
-0.051266424 -0.3724269 0.033754129
-0.051411014 -0.3725149 0.033773031
-0.051553898 -0.37260899 0.033745758
-0.051698115 -0.37269622 0.033768125
-0.051845048 -0.37279072 0.033754688
-0.051987313 -0.37287834 0.033766679
-0.052132882 -0.37296948 0.033769406
-0.052275062 -0.37305704 0.033781398
-0.052414894 -0.37314385 0.033788778
-0.052559078 -0.37323144 0.033808835
-0.052702278 -0.37331629 0.033842754
-0.052843165 -0.37340039 0.03387206
-0.052987237 -0.37348774 0.033893265
-0.053126529 -0.3735671 0.033946835
-0.053270273 -0.37364715 0.034014229
-0.053408958 -0.37372437 0.034079336
-0.053548452 -0.37380385 0.034132894
-0.053687025 -0.37388027 0.034202617
-0.053828135 -0.37395778 0.034275796
-0.053968731 -0.37403333 0.034359366
-0.054108337 -0.37410527 0.034462571
-0.054242879 -0.37417418 0.03456464
-0.054383948 -0.37424278 0.034695543
-0.054520518 -0.37431014 0.034816083
-0.054661509 -0.37437707 0.034957372
-0.054797694 -0.37444168 0.035094064
-0.054935094 -0.37450194 0.035264239
-0.055074513 -0.37456042 0.035454024
-0.055211153 -0.37461558 0.035654217
-0.056005452 -0.37235126 0.053624071
-0.056168403 -0.37245104 0.053641725
-0.056326527 -0.37255326 0.05362362
-0.056478307 -0.37265062 0.053611312
-0.056636594 -0.37275454 0.05358281
-0.0567986 -0.37286472 0.05352889
-0.056952022 -0.37295762 0.053552374
-0.057123076 -0.37307474 0.053490322
-0.057293896 -0.37319154 0.053429432
-0.057466876 -0.37330595 0.053392775
-0.057656981 -0.37344432 0.053270612
-0.057825051 -0.37356505 0.053172786
-0.061247639 -0.37503803 0.057591073
-0.061417215 -0.37514979 0.057557896
-0.061571237 -0.375256 0.057497084
-0.061740614 -0.37536374 0.057489313
-0.061910041 -0.37546721 0.057509251
-0.062063925 -0.37556589 0.057496928
-0.06222089 -0.3756651 0.057493828
-0.062383931 -0.37576884 0.057486087
-0.062565409 -0.37588364 0.05748171
-0.062731765 -0.37598377 0.057510894
-0.06289725 -0.37609684 0.057452343
-0.063059829 -0.37620366 0.057422675
-0.063220337 -0.37629551 0.057481892
-0.063374795 -0.37641886 0.057311408
-0.063538291 -0.37654543 0.057157055
-0.063710988 -0.37661371 0.057419397
-0.063880138 -0.37671754 0.05743587
-0.064051792 -0.37685406 0.057250299
-0.064261973 -0.37697256 0.057339285
-0.064407662 -0.37707564 0.057264671
-0.064585224 -0.37718871 0.0572557
-0.064744301 -0.37729046 0.057244513
-0.064931661 -0.37740508 0.057265505
-0.065099627 -0.37751386 0.057245038
-0.065263674 -0.37762481 0.057194568
-0.065432519 -0.3777281 0.057213355
-0.06559673 -0.37783718 0.057175584
-0.065758079 -0.37794286 0.057148229
-0.065906927 -0.37804157 0.057115152
-0.066097006 -0.3781586 0.057131514
-0.066261657 -0.37826422 0.057117991
-0.06642621 -0.37838382 0.05701327
-0.066570729 -0.37847039 0.057041407
-0.066724241 -0.37856349 0.057063721
-0.066920236 -0.37868461 0.057077751
-0.067097217 -0.37879658 0.057073396
-0.067262314 -0.37889966 0.057078339
-0.067420959 -0.37901145 0.05700019
-0.067562722 -0.37910676 0.056960236
-0.06773854 -0.37921038 0.057005532
-0.06790214 -0.37931728 0.05697931
-0.06806381 -0.37941894 0.05697966
-0.0682327 -0.3795315 0.056938402
-0.06838423 -0.37963969 0.056854524
-0.068555616 -0.37975472 0.056807481
-0.068703778 -0.37985119 0.05678596
-0.068873197 -0.37996107 0.056764331
-0.069044463 -0.38006645 0.05677963
-0.069207095 -0.38016495 0.056804214
-0.069384322 -0.38027459 0.056816027
-0.069547966 -0.38038811 0.056747086
-0.069704659 -0.38048252 0.056774013
-0.06986881 -0.38057807 0.056823984
-0.070033893 -0.38068008 0.056835853
-0.070194595 -0.38079068 0.056773864
-0.070366919 -0.38090184 0.056755681
-0.070528314 -0.38100293 0.056758333
-0.070700139 -0.38111487 0.056733228
-0.070851877 -0.3812184 0.056680519
-0.071020797 -0.38132781 0.056660041
-0.071206927 -0.38144323 0.056670658
-0.071371876 -0.38155207 0.056637503
-0.071523614 -0.38164797 0.05663443
-0.071680948 -0.38174847 0.056624405
-0.071851037 -0.38185558 0.056623556
-0.072009668 -0.38196701 0.056547716
-0.07217218 -0.38207236 0.056527279
-0.072341986 -0.38217962 0.05652412
-0.07249964 -0.38228548 0.056480616
-0.072664678 -0.38239312 0.056455545
-0.072831348 -0.38250446 0.056413144
-0.072996572 -0.38260567 0.056430787
-0.073168002 -0.38270473 0.056487653
-0.073329665 -0.38280493 0.056497231
-0.073502257 -0.38291433 0.056491744
-0.073665738 -0.38301799 0.056486312
-0.073826924 -0.38311327 0.056525908
-0.073982775 -0.38322046 0.056466252
-0.074149355 -0.38332587 0.056461945
-0.074309058 -0.38343906 0.056379177
-0.07446146 -0.38355473 0.056250267
-0.07461068 -0.38367337 0.056089059
-0.074777044 -0.3837783 0.056087062
-0.074963912 -0.383872 0.056241982
-0.075136729 -0.38398066 0.056242265
-0.075322978 -0.38407093 0.056416806
-0.075490147 -0.38415614 0.056546424
-0.075655706 -0.38428205 0.056404755
-0.075805798 -0.38439345 0.056294329
-0.075958207 -0.38449758 0.056240454
-0.076114617 -0.38460726 0.056166947
-0.076285444 -0.38471305 0.056177627
-0.076451123 -0.38482341 0.056137547
-0.076606914 -0.38492861 0.056090586
-0.076787427 -0.38504407 0.056078136
-0.07695315 -0.38514966 0.056069225
-0.077121139 -0.38524905 0.056109935
-0.077271804 -0.38534942 0.056073397
-0.077434003 -0.38545352 0.056059889
-0.077603266 -0.38556063 0.056055568
-0.077765062 -0.385665 0.056038599
-0.077922307 -0.38577271 0.055981241
-0.078091912 -0.38587952 0.055980392
-0.078262977 -0.38598529 0.055992231
-0.078425989 -0.38608065 0.056038752
-0.078597665 -0.38618219 0.056080606
-0.078753948 -0.38629428 0.055990923
-0.078903273 -0.38639113 0.055971701
-0.079065859 -0.38651037 0.055861212
-0.079232655 -0.38661897 0.055837285
-0.079394355 -0.3867231 0.055821463
-0.079567097 -0.38682798 0.055846006
-0.079732694 -0.38692975 0.055861339
-0.07989908 -0.38703114 0.055882435
-0.08005622 -0.38713437 0.055853941
-0.08021567 -0.38724348 0.055796571
-0.080389388 -0.38734806 0.055826869
-0.080554903 -0.38745371 0.055816803
-0.080698587 -0.38756052 0.055709869
-0.080880158 -0.38766456 0.055775922
-0.081027046 -0.3877764 0.055649351
-0.081191972 -0.38787529 0.055680841
-0.081354678 -0.38797882 0.055673104
-0.081520937 -0.38808739 0.055646867
-0.081689075 -0.3881883 0.055678353
-0.081856638 -0.38829631 0.055661343
-0.082017675 -0.38839737 0.055662848
-0.082179502 -0.38850138 0.055648189
-0.082348607 -0.38861197 0.055620778
-0.082509838 -0.38872272 0.055559948
-0.08266519 -0.38882303 0.055542998
-0.082844973 -0.38893855 0.055527091
-0.082994938 -0.38903475 0.055514801
-0.08315777 -0.38913515 0.055527832
-0.08332549 -0.38923368 0.055573169
-0.083500624 -0.38934803 0.05554574
-0.083641052 -0.38944799 0.055469997
-0.083819106 -0.38954893 0.055541828
-0.083989777 -0.38966492 0.055485561
-0.084133893 -0.3897754 0.055356696
-0.084299825 -0.3898719 0.055407815
-0.084459767 -0.38997951 0.055361986
-0.084624216 -0.39008555 0.055345003
-0.084787272 -0.39019498 0.05530031
-0.084941708 -0.39028975 0.055315703
-0.08512757 -0.39039469 0.055393271
-0.085281387 -0.39050132 0.055329002
-0.085447043 -0.39060423 0.05533741
-0.085616335 -0.39071739 0.055293847
-0.085769668 -0.39081556 0.055282682
-0.085948505 -0.39092869 0.055278327
-0.086095855 -0.39102858 0.055231407
-0.086264901 -0.39113343 0.055240951
-0.086438023 -0.39124545 0.055220451
-0.08658845 -0.39134443 0.05519199
-0.086762294 -0.39146438 0.055123013
-0.086914457 -0.39156288 0.055104926
-0.087094821 -0.39167041 0.055143278
-0.087261103 -0.39177084 0.055170152
-0.087422803 -0.39186984 0.055187814
-0.08757937 -0.39197269 0.055159323
-0.087745003 -0.39208391 0.055113465
-0.08791782 -0.39219609 0.055090658
-0.088069089 -0.39229491 0.055066817
-0.088226616 -0.39240262 0.055010613
-0.08839345 -0.39250839 0.055005156
-0.088555723 -0.39261004 0.055007804
-0.088715434 -0.3927097 0.055012777
-0.088871785 -0.39281759 0.054950807
-0.089035034 -0.39291912 0.054958064
-0.089201175 -0.39302516 0.054947995
-0.089364439 -0.39313418 0.054906774
-0.089537553 -0.39323664 0.054948624
-0.089700319 -0.39334089 0.05493626
-0.089866795 -0.39345425 0.054880008
-0.090016559 -0.39355814 0.054816917
-0.090189427 -0.39366326 0.054840297
-0.090358801 -0.39376426 0.054876391
-0.090523757 -0.39387539 0.054828227
-0.090677395 -0.39398101 0.054769732
-0.090843782 -0.3940849 0.054774672
-0.091018014 -0.39419478 0.054772642
-0.091171347 -0.39429578 0.054743014
-0.091345429 -0.39440575 0.054739833
-0.091500491 -0.39450428 0.05473328
-0.091662474 -0.39461571 0.054671284
-0.091828093 -0.39471537 0.054700471
-0.092000119 -0.39482796 0.054671895
-0.092144892 -0.39493209 0.054586899
-0.09232457 -0.39503723 0.054637939
-0.092496552 -0.39514321 0.054652087
-0.092661709 -0.39524987 0.054633942
-0.092818595 -0.39535508 0.0545916
-0.092977703 -0.39546004 0.054559626
-0.093143649 -0.39556667 0.054544948
-0.093310863 -0.39567107 0.05454988
-0.093479514 -0.3957819 0.054519013
-0.09360978 -0.3958824 0.054398295
-0.093783237 -0.39598006 0.054472469
-0.093975417 -0.39608741 0.054560401
-0.094142385 -0.39620054 0.054507606
-0.094313845 -0.39630923 0.054502137
-0.094468459 -0.39641458 0.054449409
-0.094618544 -0.39652008 0.054377075
-0.094772704 -0.39662126 0.054349747
-0.094964653 -0.39673129 0.054419208
-0.095117919 -0.39684075 0.05433416
-0.095277272 -0.39694181 0.054328747
-0.095460266 -0.39704835 0.054384399
-0.095629625 -0.39715534 0.05438124
-0.095794968 -0.39726248 0.054360792
-0.095955759 -0.39737171 0.054308023
-0.0961027 -0.39747116 0.054262269
-0.09626615 -0.39757836 0.054233745
-0.096427098 -0.39768556 0.054194838
-0.096582435 -0.39779082 0.054145567
-0.096772864 -0.39789796 0.054227736
-0.096949175 -0.39800525 0.054251097
-0.097099274 -0.3981106 0.054179925
-0.097257778 -0.39821982 0.054117933
-0.09742061 -0.3983252 0.054098647
-0.097604424 -0.39843276 0.054150831
-0.097778991 -0.39853844 0.054177664
-0.097931921 -0.39864379 0.054118022
-0.0980886 -0.3987492 0.05407336
-0.09826456 -0.39886069 0.054067869
-0.098420501 -0.39896423 0.054032445
-0.098605148 -0.39907235 0.054084625
-0.098777674 -0.39918205 0.054076839
-0.098949261 -0.39928991 0.05407713
-0.099110082 -0.39940113 0.05401168
-0.099243313 -0.39950383 0.053888634
-0.099407002 -0.39960957 0.053870495
-0.099595912 -0.39972195 0.053912256
-0.099766128 -0.39982629 0.053929877
-0.099941388 -0.39993098 0.053965941
-0.1001067 -0.40003702 0.053952415
-0.10027251 -0.40015033 0.053893864
-0.10045284 -0.40025908 0.053924128
-0.10060932 -0.40036649 0.053865623
-0.10077109 -0.40047067 0.053849801
-0.10092348 -0.40057427 0.053799398
-0.10111816 -0.40068424 0.053880386
-0.1012709 -0.40079144 0.053808037
-0.10144112 -0.40089986 0.053799111
-0.10160558 -0.40100962 0.053757876
-0.10177246 -0.40111613 0.053747803
-0.10195421 -0.4012256 0.053779215
-0.10210216 -0.40133068 0.053701125
-0.10226588 -0.40143874 0.053667977
-0.10243586 -0.40154737 0.053656742
-0.10263337 -0.4016602 0.05373079
-0.10279387 -0.40176642 0.053696498
-0.10296416 -0.40187863 0.053663325
-0.10310359 -0.40198115 0.053566799
-0.10326949 -0.40208456 0.053572901
-0.10346791 -0.40219796 0.053646944
-0.10364394 -0.40230757 0.053654142
-0.10378885 -0.4024123 0.053565674
-0.10394216 -0.40251788 0.053506028
-0.10414338 -0.402632 0.053586982
-0.10432026 -0.40274355 0.053584948
-0.10446265 -0.40284634 0.053498805
-0.10461736 -0.40295053 0.05345415
-0.10479541 -0.40306067 0.053465959
-0.10496108 -0.40316945 0.053436272
-0.1051247 -0.40327799 0.05339966
-0.10528766 -0.40338644 0.053360745
-0.10547459 -0.40349793 0.053400215
-0.10563523 -0.4036046 0.053363618
-0.10581006 -0.40371469 0.053362746
-0.10597616 -0.40382212 0.053343445
-0.10616656 -0.403936 0.053381734
-0.10632426 -0.40404239 0.053334769
-0.10648009 -0.4041501 0.05327164
-0.10666335 -0.4042632 0.053285733
-0.10683159 -0.40437269 0.053261798
-0.10700217 -0.40448099 0.053255171
-0.10718668 -0.4045929 0.053281955
-0.10735852 -0.40470308 0.053268392
-0.10751642 -0.4048112 0.053211037
-0.1076773 -0.40491977 0.053162891
-0.10784575 -0.40502799 0.053148191
-0.10804214 -0.40514207 0.053209551
-0.10820644 -0.40525281 0.05316139
-0.10835719 -0.40535837 0.053091373
-0.10852922 -0.40546885 0.053076655
-0.1087224 -0.40558127 0.053135715
-0.10888523 -0.40569034 0.053092185
-0.10905723 -0.40580097 0.053076316
-0.10923794 -0.40591457 0.053076565
-0.10939924 -0.40602201 0.053037651
-0.10957065 -0.40613121 0.05302871
-0.10972615 -0.40624064 0.052952897
-0.10992581 -0.40635625 0.053017691
-0.1100805 -0.40646413 0.052948806
-0.11024456 -0.40657365 0.052907582
-0.11045349 -0.40669119 0.052997734
-0.11059926 -0.40679756 0.052902337
-0.11078605 -0.40690982 0.052936036
-0.11093695 -0.40701711 0.052855618
-0.11112696 -0.40713304 0.052878909
-0.11131157 -0.40724805 0.052886061
-0.11147304 -0.40735877 0.052826378
-0.11164536 -0.40746871 0.052816279
-0.11182672 -0.40758184 0.052822292
-0.11199971 -0.40769342 0.052804116
-0.1121508 -0.40780082 0.052723691
-0.11232393 -0.40791249 0.052705504
-0.1125267 -0.40803149 0.052761056
-0.11269729 -0.40814137 0.052744046
-0.1128746 -0.40825269 0.052745461
-0.11303011 -0.40835825 0.052695043
-0.11319901 -0.40847632 0.052618004
-0.11336792 -0.40858462 0.052604452
-0.11358207 -0.40870512 0.052696891
-0.11372133 -0.4088102 0.052583054
-0.11388545 -0.40891904 0.052546442
-0.11407992 -0.40903705 0.052574329
-0.11429928 -0.40916047 0.052669052
-0.11443637 -0.40926099 0.052575998
-0.11461137 -0.40937507 0.052549731
-0.11478791 -0.4094882 0.052536141
-0.11497876 -0.40960857 0.052534029
-0.11517476 -0.40972468 0.052580379
-0.11532 -0.40982842 0.052499995
-0.11548401 -0.40993896 0.052451845
-0.11564537 -0.41004625 0.052414082
-0.11584327 -0.41016713 0.052437343
-0.11602794 -0.41028112 0.052451421
-0.11618392 -0.41038734 0.052398689
-0.1163833 -0.41051146 0.052406922
-0.11654942 -0.41061872 0.052388769
-0.031288147 -0.35973784 0.034561917
-0.031435445 -0.35982335 0.034608491
-0.031599257 -0.35992807 0.034597274
-0.031760465 -0.36002961 0.034596466
-0.031913422 -0.36012059 0.034630317
-0.032046936 -0.36020198 0.034646954
-0.032208599 -0.3603102 0.03460459
-0.032368701 -0.36040089 0.034669563
-0.032521576 -0.36049396 0.034689579
-0.032671824 -0.36057773 0.034759212
-0.032807857 -0.36066073 0.034775846
-0.032970704 -0.36076504 0.034763485
-0.033077709 -0.36079994 0.034974147
-0.033272836 -0.36094695 0.034816206
-0.033442173 -0.36105412 0.034811888
-0.033606265 -0.36115444 0.034830675
-0.033753216 -0.36124218 0.034861103
-0.033900846 -0.36133495 0.034861512
-0.034051832 -0.36143234 0.034845747
-0.034222342 -0.36153954 0.034846041
-0.034383312 -0.36163399 0.034890242
-0.034541018 -0.36173239 0.034895211
-0.034697734 -0.36183587 0.034863267
-0.034858927 -0.36193082 0.034905154
-0.035031367 -0.36203691 0.034920443
-0.035198133 -0.36214599 0.034893062
-0.035362694 -0.36226082 0.034819517
-0.035514005 -0.36235538 0.034823369
-0.035678178 -0.36245486 0.03484793
-0.035838492 -0.36255777 0.03483443
-0.035996389 -0.36266181 0.034803629
-0.036166918 -0.36277485 0.034765836
-0.036324047 -0.36287594 0.034751199
-0.036481142 -0.36297485 0.034750402
-0.036521859 -0.36290926 0.035343423
-0.036617491 -0.36293414 0.035572611
-0.036803719 -0.36308089 0.035380084
-0.036965974 -0.36318696 0.035353877
-0.037136875 -0.36330789 0.035266463
-0.037300859 -0.36341682 0.035228699
-0.037479654 -0.36354735 0.03511123
-0.037635952 -0.36364558 0.035111595
-0.037787307 -0.36374143 0.035107374
-0.037934609 -0.36382672 0.035155099
-0.038093902 -0.36393201 0.035121981
-0.038251504 -0.36403018 0.035128117
-0.03840762 -0.36413345 0.035095014
-0.038568489 -0.36423671 0.035081498
-0.038726583 -0.3643384 0.035066858
-0.038886562 -0.36444303 0.035040662
-0.039041504 -0.36454272 0.035026025
-0.039198294 -0.36464289 0.035016004
-0.039352946 -0.3647424 0.035001379
-0.039511245 -0.3648451 0.034980953
-0.039666966 -0.36494651 0.03495824
-0.039825574 -0.36504745 0.034950521
-0.039982803 -0.36514896 0.034933571
-0.040139977 -0.36525309 0.034899306
-0.040292144 -0.36534962 0.034893926
-0.040449277 -0.3654514 0.034874666
-0.040604167 -0.3655498 0.034868117
-0.040760994 -0.3656514 0.034848861
-0.04091467 -0.36574817 0.034848079
-0.041070469 -0.36585107 0.034816138
-0.041226089 -0.36595121 0.034801498
-0.041382112 -0.36605212 0.034783404
-0.041540764 -0.36615467 0.034765288
-0.041694783 -0.3662554 0.034740273
-0.041847564 -0.36635426 0.034722194
-0.042002089 -0.36645335 0.034709871
-0.042158052 -0.36655492 0.034687158
-0.04231194 -0.36665323 0.034677148
-0.042463273 -0.36674747 0.034683313
-0.042619128 -0.36685219 0.034639828
-0.042769842 -0.36694852 0.034629833
-0.042922854 -0.36704594 0.034622133
-0.043080017 -0.36714756 0.034604032
-0.043234594 -0.36724791 0.034583636
-0.043388367 -0.36734706 0.034567855
-0.043542005 -0.36744609 0.034552075
-0.043690957 -0.36754024 0.034549013
-0.043842889 -0.36763662 0.034543637
-0.043998525 -0.36773959 0.034510527
-0.044152398 -0.36783969 0.034488983
-0.044302598 -0.36793658 0.034473218
-0.044454172 -0.3680329 0.034466684
-0.044607013 -0.36813164 0.034449756
-0.044760928 -0.36823246 0.03442359
-0.044912856 -0.3683331 0.034390509
-0.045062564 -0.36842668 0.034394369
-0.045211978 -0.36852306 0.034378618
-0.04536701 -0.36862335 0.034360521
-0.045515582 -0.3687185 0.034349386
-0.045669779 -0.36882094 0.034313984
-0.045820665 -0.36891735 0.034303989
-0.045969985 -0.36901441 0.034283616
-0.046119928 -0.36910936 0.034279402
-0.046271436 -0.36920741 0.03426132
-0.04642215 -0.36930764 0.034225944
-0.046574041 -0.3694033 0.03422517
-0.046719868 -0.36949795 0.034205973
-0.046869379 -0.36959282 0.034200601
-0.047020111 -0.36969021 0.034183685
-0.047172017 -0.36979014 0.034155216
-0.047323633 -0.36988595 0.034152143
-0.047473222 -0.36998159 0.034142166
-0.04761894 -0.37007707 0.034117188
-0.047770113 -0.37017244 0.034115277
-0.047918901 -0.37027073 0.03408451
-0.048069488 -0.3703652 0.034086064
-0.048216309 -0.37045979 0.034071468
-0.048365943 -0.3705565 0.034054559
-0.048514664 -0.37065548 0.034019191
-0.048662163 -0.37074801 0.034020748
-0.048808873 -0.37084305 0.034002699
-0.048960134 -0.37093988 0.033991557
-0.04910785 -0.37103751 0.033960797
-0.049257088 -0.37113452 0.033940423
-0.049403191 -0.37122899 0.033923529
-0.04955525 -0.37132406 0.033927377
-0.049697299 -0.37141404 0.033923201
-0.049847469 -0.3715139 0.033887826
-0.049993139 -0.37160814 0.033870932
-0.050138876 -0.37169811 0.033881735
-0.05029089 -0.37180308 0.033820957
-0.050436743 -0.37189367 0.033828299
-0.050579507 -0.37198642 0.033809118
-0.050726503 -0.37208003 0.033801444
-0.050872624 -0.3721717 0.03380302
-0.051018983 -0.372269 0.033768814
-0.051166631 -0.37236482 0.033749603
-0.051314853 -0.37245727 0.033754621
-0.051459193 -0.3725501 0.033741206
-0.051606879 -0.37264666 0.033717372
-0.051749051 -0.37273955 0.033694729
-0.051896967 -0.37283182 0.033699751
-0.052040465 -0.37292325 0.033692103
-0.05218628 -0.37301558 0.033687908
-0.052330334 -0.37310329 0.033706803
-0.052475691 -0.37319463 0.033707224
-0.052618422 -0.37328452 0.033706505
-0.052763306 -0.37338072 0.033673454
-0.052904285 -0.37345991 0.03373507
-0.053048104 -0.37354729 0.03375512
-0.053189427 -0.37363341 0.033772878
-0.053332247 -0.37371784 0.033807926
-0.053474061 -0.37379918 0.033859152
-0.053616509 -0.37388229 0.03390114
-0.053756215 -0.37396336 0.033945441
-0.053898595 -0.37404609 0.033989739
-0.054038588 -0.37412784 0.034030579
-0.054179654 -0.37420604 0.034099117
-0.054318383 -0.37428325 0.034164205
-0.054461073 -0.3743591 0.034254666
-0.054599009 -0.37443298 0.034338217
-0.054739781 -0.37450886 0.034420606
-0.054879792 -0.37458158 0.034520309
-0.055019222 -0.37465161 0.034635022
-0.055154368 -0.37472147 0.034733593
-0.055295885 -0.3747898 0.03486792
-0.055437494 -0.37485766 0.035005696
-0.055576459 -0.37492299 0.035149265
-0.055714823 -0.37498492 0.035312451
-0.05585365 -0.37504765 0.035472173
-0.057384647 -0.37319192 0.053797878
-0.057536624 -0.37329277 0.053763635
-0.05767785 -0.37339556 0.053672902
-0.057843946 -0.37350103 0.053666297
-0.058004435 -0.37360618 0.053638939
-0.058166958 -0.37370655 0.053650819
-0.058337841 -0.37380743 0.053693812
-0.058506969 -0.37389314 0.053827994
-0.062318049 -0.37573647 0.057426989
-0.062475003 -0.37582982 0.057461984
-0.062619001 -0.37592795 0.057412781
-0.062787175 -0.37604538 0.057336912
-0.062956467 -0.37614435 0.057385683
-0.063115217 -0.37625533 0.057313327
-0.063271426 -0.37635601 0.057297535
-0.063437782 -0.37645188 0.057354406
-0.06360659 -0.37655658 0.057363946
-0.063771568 -0.37666613 0.057326179
-0.063940093 -0.37677243 0.057324179
-0.0641049 -0.37688172 0.057287566
-0.064275987 -0.37699282 0.057264782
-0.064450853 -0.37710029 0.057281204
-0.064624377 -0.37721646 0.057235323
-0.06481114 -0.37733334 0.057238996
-0.06495446 -0.37742662 0.057218648
-0.065108858 -0.37753361 0.057154402
-0.065280765 -0.37761968 0.057297803
-0.065449774 -0.37773904 0.057212695
-0.065640442 -0.37786943 0.057144791
-0.065796897 -0.37796456 0.057165936
-0.065951362 -0.37806857 0.057121299
-0.066103905 -0.37816533 0.05711592
-0.066268623 -0.37826976 0.05711047
-0.066431932 -0.37837952 0.057064638
-0.066600479 -0.37848246 0.057084553
-0.066760868 -0.37858915 0.057046819
-0.066930808 -0.37869972 0.057022873
-0.067115061 -0.37881058 0.057055414
-0.067304596 -0.37893987 0.056989834
-0.067459956 -0.37902653 0.057061754
-0.06760858 -0.37912294 0.057042547
-0.067767598 -0.37923214 0.056982875
-0.06793195 -0.37934682 0.056909338
-0.068085238 -0.37943977 0.056931652
-0.068245396 -0.37955484 0.056838505
-0.068413042 -0.37964958 0.056908067
-0.068576068 -0.37975648 0.056879543
-0.068749122 -0.37986669 0.056870595
-0.068911716 -0.37997425 0.056836311
-0.069083229 -0.38008773 0.056799665
-0.069245197 -0.38017854 0.056871563
-0.0694298 -0.38029745 0.056853309
-0.069585435 -0.38038552 0.056917168
-0.069740444 -0.38049182 0.056859829
-0.069916531 -0.3806116 0.056801233
-0.070084698 -0.38073081 0.056713823
-0.070235126 -0.38082924 0.05668883
-0.070394777 -0.3809177 0.056766506
-0.070565134 -0.38102445 0.056769103
-0.07073231 -0.38112953 0.056769419
-0.070899174 -0.38124242 0.056717798
-0.07105501 -0.38135973 0.056592371
-0.071224347 -0.38146067 0.056628447
-0.071384333 -0.38155645 0.056659952
-0.071567185 -0.38167673 0.05662556
-0.071732745 -0.38179058 0.056562405
-0.071882598 -0.38188884 0.056536257
-0.072044238 -0.38198867 0.056548145
-0.072203107 -0.38209262 0.056521945
-0.072368212 -0.38219374 0.056539588
-0.072537065 -0.38230202 0.056526035
-0.072696269 -0.38240528 0.056505613
-0.072855785 -0.38250202 0.056529049
-0.07300932 -0.38261271 0.056437097
-0.073168978 -0.38272676 0.056348573
-0.073333576 -0.38283411 0.056323506
-0.07350266 -0.38294148 0.056316886
-0.073669001 -0.38304657 0.056313742
-0.073843025 -0.38314798 0.056365952
-0.074015729 -0.38324574 0.056436639
-0.074177831 -0.38336131 0.056348108
-0.074337639 -0.38346317 0.056339219
-0.074505232 -0.38356695 0.056349918
-0.07467559 -0.38367811 0.05632367
-0.074825898 -0.38378999 0.056210965
-0.074985757 -0.38389152 0.056204386
-0.075157471 -0.38399097 0.056260072
-0.075316943 -0.38409299 0.056248877
-0.075486958 -0.38420412 0.056221478
-0.075647265 -0.38430044 0.056250673
-0.075811505 -0.3844122 0.056195609
-0.075980313 -0.38451958 0.056187831
-0.076139688 -0.38462153 0.056176636
-0.076307908 -0.38472942 0.056163095
-0.076467887 -0.38482624 0.056187678
-0.076640286 -0.38493055 0.056214511
-0.076794125 -0.38503274 0.05617911
-0.076965228 -0.38514262 0.056164395
-0.077124476 -0.38525337 0.056095496
-0.07729122 -0.38536227 0.05606927
-0.077452876 -0.38547081 0.056024592
-0.077615969 -0.38557813 0.055993769
-0.077778354 -0.38567755 0.056011416
-0.077940837 -0.38578111 0.056002516
-0.078099631 -0.38587913 0.056014419
-0.078265689 -0.38598424 0.056010112
-0.078429259 -0.38608706 0.056010444
-0.078594401 -0.38619283 0.055998072
-0.078756265 -0.38630077 0.055958018
-0.078917362 -0.38640526 0.055937577
-0.079091124 -0.38651305 0.055947095
-0.079241633 -0.38662043 0.055864394
-0.079411864 -0.38672286 0.055894688
-0.079580367 -0.38683018 0.055885762
-0.079750754 -0.38693643 0.05589183
-0.079918832 -0.38704777 0.0558552
-0.080068044 -0.38714066 0.055861373
-0.080232583 -0.3872503 0.055821307
-0.080395229 -0.38734651 0.055860884
-0.08055412 -0.38745207 0.055824295
-0.080719933 -0.3875609 0.055794612
-0.080884919 -0.38767013 0.055759154
-0.081038013 -0.38777506 0.055702984
-0.081200473 -0.38788196 0.055672161
-0.081368662 -0.38798255 0.055705938
-0.081533313 -0.38808498 0.055713192
-0.081694655 -0.38818908 0.055696212
-0.081861429 -0.38829392 0.055696528
-0.082017273 -0.38840055 0.055640344
-0.082178414 -0.38850468 0.055622216
-0.082343161 -0.3886072 0.055629466
-0.082507208 -0.38871655 0.0555894
-0.082661301 -0.38882369 0.05552284
-0.082807876 -0.38892752 0.055447079
-0.082974099 -0.38903254 0.055443935
-0.083139829 -0.3891378 0.055437334
-0.083304726 -0.38924339 0.055424958
-0.083472133 -0.38935113 0.055409104
-0.083640195 -0.38945553 0.055417497
-0.083820015 -0.38956165 0.055462755
-0.083988078 -0.38967228 0.055430748
-0.084150404 -0.38977894 0.055401076
-0.084301792 -0.38988048 0.055359915
-0.084448591 -0.38998356 0.055289924
-0.084627151 -0.39008749 0.055344425
-0.084797598 -0.3901943 0.055347025
-0.084950753 -0.39029518 0.055317398
-0.085108832 -0.3904002 0.055280823
-0.085274234 -0.39050579 0.055270761
-0.085440785 -0.39060819 0.055286076
-0.085602455 -0.39071211 0.055271417
-0.085750163 -0.39081737 0.05519104
-0.085911527 -0.39092413 0.055156752
-0.08608637 -0.39102429 0.055220503
-0.086258076 -0.39113098 0.055228867
-0.086418211 -0.39124086 0.055169202
-0.086581774 -0.39134708 0.055147603
-0.086732857 -0.39145109 0.055089131
-0.086914904 -0.39155525 0.055156309
-0.087068394 -0.39166132 0.055094365
-0.087230533 -0.39176783 0.055064693
-0.087391511 -0.3918694 0.055062726
-0.087571509 -0.39197704 0.055098757
-0.087744445 -0.39208382 0.055111732
-0.087889284 -0.3921839 0.055053301
-0.088061661 -0.39229086 0.055062812
-0.088221684 -0.39239535 0.055037767
-0.088376522 -0.39249834 0.05500121
-0.088545397 -0.39260611 0.05499113
-0.08869417 -0.39271027 0.054922283
-0.088854566 -0.39281213 0.054915704
-0.089017153 -0.39292109 0.054872185
-0.08920604 -0.39302531 0.05496702
-0.089369632 -0.3931317 0.054944266
-0.089528054 -0.39324141 0.054878835
-0.089690648 -0.39334306 0.054882631
-0.08985433 -0.39344701 0.054876037
-0.090012856 -0.39355183 0.054842927
-0.090180114 -0.39365768 0.054838616
-0.090349495 -0.39377037 0.054798525
-0.09052901 -0.39387453 0.054855332
-0.090688907 -0.39397451 0.054859132
-0.090842605 -0.39407769 0.054816816
-0.091010585 -0.39418364 0.054814816
-0.091174856 -0.39429241 0.054779362
-0.091329895 -0.39439997 0.05471395
-0.091501579 -0.39450097 0.054759245
-0.091679908 -0.39460137 0.054835677
-0.091844544 -0.39471018 0.054801375
-0.092005059 -0.3948127 0.054791335
-0.092156947 -0.39492503 0.05468208
-0.092319787 -0.39502952 0.054668568
-0.092487544 -0.395138 0.054649256
-0.092635989 -0.39524159 0.054582722
-0.092802182 -0.39534801 0.054570332
-0.092972517 -0.39544976 0.05460526
-0.093133315 -0.39555672 0.054567516
-0.093291283 -0.39566168 0.054530941
-0.093467265 -0.39576539 0.054576218
-0.093635529 -0.39587402 0.054558054
-0.093779206 -0.39597568 0.054484621
-0.093955234 -0.39608172 0.0545149
-0.094121546 -0.39618841 0.05450137
-0.094285309 -0.39629525 0.054476302
-0.094441809 -0.39640036 0.054432813
-0.094602771 -0.39650527 0.054408915
-0.094769306 -0.39660996 0.054409232
-0.094939753 -0.39671248 0.054439537
-0.095127895 -0.39682475 0.054478981
-0.095259532 -0.39693481 0.054301735
-0.095439762 -0.39703923 0.054359689
-0.095609754 -0.39715216 0.054320745
-0.095773116 -0.39725715 0.054306068
-0.095933728 -0.39736024 0.054292567
-0.096100487 -0.39746526 0.054291721
-0.096267343 -0.39757031 0.054290876
-0.096425094 -0.39767551 0.054252002
-0.096580572 -0.39777875 0.054216594
-0.096729055 -0.39788395 0.054139674
-0.096910432 -0.39798909 0.054197621
-0.097082399 -0.39809439 0.05421637
-0.097244531 -0.39819968 0.054194778
-0.097413555 -0.39830503 0.054200854
-0.097575948 -0.39841422 0.054155026
-0.097743973 -0.39851967 0.054156486
-0.09792003 -0.3986291 0.054164831
-0.098065019 -0.3987323 0.054086767
-0.098250508 -0.39883828 0.054156244
-0.098397836 -0.39894152 0.0540874
-0.098572142 -0.39904737 0.054111913
-0.0987316 -0.39915472 0.054066099
-0.098888181 -0.3992638 0.053997215
-0.09905915 -0.39936966 0.054007895
-0.099207863 -0.39947289 0.053944822
-0.099393249 -0.3995868 0.05396235
-0.099549018 -0.39969215 0.053914249
-0.099720925 -0.39979827 0.053927228
-0.099872634 -0.39989984 0.053887222
-0.1000392 -0.40000579 0.053879466
-0.10021448 -0.40011227 0.053903975
-0.10037939 -0.40022001 0.053877741
-0.10055182 -0.40032825 0.053879183
-0.10072154 -0.40043458 0.053881794
-0.10088319 -0.40054047 0.053854428
-0.10103069 -0.40064541 0.053775214
-0.10120887 -0.4007507 0.053819317
-0.10137283 -0.40085855 0.053788491
-0.10154207 -0.40096334 0.053799178
-0.10171745 -0.40107042 0.053820215
-0.10187534 -0.40117443 0.053789414
-0.10202368 -0.40128115 0.053702109
-0.10220236 -0.40139207 0.053711593
-0.10235661 -0.40149754 0.053656578
-0.10254264 -0.40160581 0.053713344
-0.10270122 -0.40170833 0.053695228
-0.10285524 -0.40181383 0.053639054
-0.10304359 -0.40192428 0.053691193
-0.10320447 -0.40203553 0.053625748
-0.10335961 -0.40213785 0.053594965
-0.10352679 -0.40224472 0.05358373
-0.10369056 -0.40234962 0.053571362
-0.10384187 -0.40245324 0.053516362
-0.10401818 -0.40256283 0.053524707
-0.10416885 -0.40266642 0.053467385
-0.10438453 -0.40278217 0.05359672
-0.10451821 -0.4028855 0.053471405
-0.10467374 -0.40298805 0.053440608
-0.10484217 -0.40309379 0.053442065
-0.10501254 -0.40320301 0.053428516
-0.10517107 -0.40330923 0.053386167
-0.10535735 -0.4034189 0.053434856
-0.10549948 -0.40352312 0.053338341
-0.10566446 -0.4036302 0.053316735
-0.10584836 -0.40373978 0.053356212
-0.10601354 -0.40384859 0.053324215
-0.10618954 -0.40395731 0.053337172
-0.10635815 -0.40406507 0.053325936
-0.1065402 -0.40417475 0.053357333
-0.10669239 -0.40428033 0.053293094
-0.10683191 -0.40438256 0.053198904
-0.10702844 -0.40449601 0.053264856
-0.10719237 -0.40460333 0.053237479
-0.10737281 -0.40471464 0.053251579
-0.10754209 -0.40482283 0.053240333
-0.10771258 -0.40493125 0.053232547
-0.10786757 -0.40503737 0.053176366
-0.10804106 -0.40514785 0.053167414
-0.10820843 -0.40525591 0.053149257
-0.10839397 -0.4053669 0.053186413
-0.10855065 -0.40547338 0.053134836
-0.10870772 -0.40557992 0.053084422
-0.10888876 -0.40569034 0.053106591
-0.10904953 -0.40579906 0.053057306
-0.10921691 -0.40590587 0.053047232
-0.10940145 -0.40601709 0.05307861
-0.10955458 -0.4061231 0.053015515
-0.10973465 -0.40623668 0.053013459
-0.10990685 -0.40634602 0.05300682
-0.11007722 -0.40645507 0.052994423
-0.11026219 -0.40656674 0.05302465
-0.11041516 -0.40667284 0.052960403
-0.11056968 -0.40677917 0.052900761
-0.11077452 -0.40689611 0.05297821
-0.11092205 -0.40700126 0.052897833
-0.11109224 -0.40711054 0.052883122
-0.11127095 -0.4072215 0.052892607
-0.11144827 -0.4073351 0.052879024
-0.11161039 -0.40744445 0.052830882
-0.1117972 -0.40755853 0.052853025
-0.11197934 -0.40767181 0.05286134
-0.11211973 -0.40777424 0.052769452
-0.11229515 -0.4078849 0.052767415
-0.11245596 -0.40799272 0.052723903
-0.11263321 -0.40810663 0.052708007
-0.11281023 -0.40821776 0.052709427
-0.11298239 -0.40832937 0.052687783
-0.11316065 -0.40843806 0.052709967
-0.11332132 -0.4085488 0.052646823
-0.11349721 -0.40865993 0.052643634
-0.1136851 -0.4087722 0.05268193
-0.1138625 -0.40888515 0.05267296
-0.11400571 -0.40899786 0.052525654
-0.11419322 -0.40911028 0.052561648
-0.11439493 -0.40922165 0.052662194
-0.11457078 -0.40933454 0.052647457
-0.11473146 -0.4094469 0.052573942
-0.11486922 -0.40954748 0.052483212
-0.11504841 -0.40966386 0.052459233
-0.11522957 -0.40977263 0.052492939
-0.11541592 -0.409888 0.0525047
-0.11558414 -0.40999943 0.052468076
-0.11573545 -0.41010982 0.052369207
-0.1159516 -0.41023207 0.052458137
-0.11610028 -0.41033387 0.052404299
-0.11628322 -0.41044748 0.052413773
-0.11644265 -0.41055709 0.05235295
-0.031453777 -0.35985959 0.034447696
-0.031657245 -0.3599886 0.034440938
-0.03181329 -0.36008367 0.034460958
-0.031968415 -0.36017761 0.034484442
-0.032134432 -0.3602857 0.034460556
-0.032284807 -0.36037558 0.034490988
-0.032426365 -0.36045799 0.034534149
-0.032554399 -0.36052865 0.034598157
-0.032738119 -0.36064842 0.034570727
-0.032895502 -0.36074769 0.034568816
-0.03303533 -0.36081603 0.034696233
-0.033203721 -0.36092794 0.034657337
-0.033361789 -0.36102834 0.034650803
-0.033511035 -0.36111718 0.03468354
-0.033639573 -0.36119473 0.034704853
-0.033801932 -0.3612991 0.03469022
-0.033961635 -0.36139593 0.034713682
-0.034118604 -0.3614912 0.034736
-0.034276877 -0.36159247 0.034724846
-0.034426123 -0.36168167 0.034755286
-0.03458358 -0.36177993 0.034760296
-0.034735356 -0.36187264 0.034778025
-0.034871127 -0.36194998 0.034830451
-0.035023965 -0.36204213 0.034856256
-0.035196353 -0.3621569 0.034815032
-0.035373062 -0.36227134 0.034793407
-0.035512686 -0.36234987 0.034853887
-0.03566638 -0.36245 0.034831222
-0.035833288 -0.36255777 0.034813106
-0.036000159 -0.3626678 0.034779985
-0.03616561 -0.36277163 0.034781493
-0.036326237 -0.36287543 0.034763411
-0.036458973 -0.36295563 0.03478469
-0.036616378 -0.36305511 0.03478162
-0.036776341 -0.36315832 0.034764688
-0.036962368 -0.36328521 0.034700323
-0.037127983 -0.36340138 0.0346222
-0.037286818 -0.36350122 0.034622584
-0.037454054 -0.36361095 0.03459293
-0.037632376 -0.36374152 0.034473199
-0.037792131 -0.3638455 0.034450505
-0.037972517 -0.36397967 0.034315769
-0.038145628 -0.36410359 0.034217998
-0.038680539 -0.36425209 0.035439804
-0.038850486 -0.36438107 0.035295893
-0.039028641 -0.36451298 0.035166938
-0.039202347 -0.36464348 0.035028771
-0.03937301 -0.36476725 0.034921777
-0.039536726 -0.36487833 0.034869045
-0.039685152 -0.3649663 0.034904107
-0.039831098 -0.3650454 0.034986492
-0.039987169 -0.36515024 0.034943033
-0.040141661 -0.3652477 0.034941137
-0.040298149 -0.36534837 0.034926534
-0.04045061 -0.36544809 0.034901563
-0.040605459 -0.36554649 0.034895044
-0.040764675 -0.36564922 0.034878116
-0.040920004 -0.36574861 0.034866977
-0.041076109 -0.36584941 0.034850065
-0.041234471 -0.36595392 0.034818143
-0.041384555 -0.36604807 0.034819718
-0.041541852 -0.36615118 0.034792423
-0.041696094 -0.36624956 0.034783594
-0.041852884 -0.36635217 0.034757454
-0.042005368 -0.36645353 0.034722097
-0.042160891 -0.36655164 0.034720186
-0.042316664 -0.36665308 0.03469751
-0.042468816 -0.36675155 0.034679465
-0.042621195 -0.36684766 0.034677569
-0.042775329 -0.36694688 0.034662977
-0.042925999 -0.36704618 0.034633394
-0.043082692 -0.36714998 0.034599178
-0.043237362 -0.36725056 0.03457766
-0.04339283 -0.36734971 0.034568824
-0.043547377 -0.36745039 0.034546155
-0.043703228 -0.3675535 0.034513086
-0.043854214 -0.3676514 0.034493893
-0.044005223 -0.36774951 0.034473546
-0.044160217 -0.36784551 0.034483183
-0.044314813 -0.3679471 0.034454741
-0.04446448 -0.3680433 0.034441318
-0.044616304 -0.36814031 0.034431349
-0.044762217 -0.36823007 0.034444496
-0.044916071 -0.3683342 0.034396432
-0.045068152 -0.36842892 0.034402624
-0.045220472 -0.36853069 0.034363806
-0.045370549 -0.36862856 0.034341149
-0.045516919 -0.36871308 0.03439007
-0.04566101 -0.36879671 0.034435533
-0.045812249 -0.36889708 0.034401331
-0.045963913 -0.36899507 0.034384441
-0.046109989 -0.36908263 0.034412593
-0.046262838 -0.36918312 0.034384158
-0.046418272 -0.3692888 0.034332629
-0.046573482 -0.36939433 0.034281101
-0.046726879 -0.36949661 0.034243427
-0.046873748 -0.36959353 0.034213871
-0.047023833 -0.36969334 0.034178518
-0.047173806 -0.36978585 0.034190491
-0.047325399 -0.36988163 0.034187447
-0.047475584 -0.36998224 0.03414749
-0.04762673 -0.37008506 0.034097131
-0.047770992 -0.37017021 0.034133367
-0.047923885 -0.37026933 0.034114156
-0.048073217 -0.37036902 0.034076516
-0.048222043 -0.37046397 0.034067713
-0.048367195 -0.37055928 0.034041625
-0.048514418 -0.37065518 0.034020133
-0.048665822 -0.37074801 0.03403556
-0.048814215 -0.37084678 0.034000225
-0.048963927 -0.37094036 0.034004115
-0.049112689 -0.37103614 0.033989549
-0.049257323 -0.37112722 0.033988848
-0.049406096 -0.37122339 0.033971973
-0.049555626 -0.37132144 0.033945866
-0.049702756 -0.37141427 0.033943996
-0.049849153 -0.37151 0.033920206
-0.049996473 -0.37160808 0.033884875
-0.050143197 -0.37170047 0.033884164
-0.050291382 -0.37179643 0.033866141
-0.050437745 -0.37189764 0.033806577
-0.05058552 -0.37198839 0.033820864
-0.050732657 -0.37208244 0.033810917
-0.050879017 -0.3721748 0.033809062
-0.051023982 -0.37226874 0.03379105
-0.051170737 -0.37236238 0.033782259
-0.05131799 -0.37246257 0.033733077
-0.051465616 -0.37255374 0.033743903
-0.05160825 -0.37264249 0.033750139
-0.051754989 -0.37273684 0.033736743
-0.051903035 -0.37283483 0.033704858
-0.052050248 -0.37293091 0.033682227
-0.052191868 -0.37302309 0.033661921
-0.052339405 -0.37311494 0.033668131
-0.052485712 -0.37320918 0.03365358
-0.052628726 -0.37330014 0.033647113
-0.052771568 -0.37339079 0.033641811
-0.052922416 -0.37348682 0.03363416
-0.053063571 -0.37357289 0.033651941
-0.053208619 -0.37366438 0.033650078
-0.053350978 -0.3737542 0.033648238
-0.053494297 -0.37384072 0.033671781
-0.05363781 -0.3739213 0.033734553
-0.053781509 -0.37400895 0.033752322
-0.053920198 -0.37409416 0.033765499
-0.054065201 -0.37417924 0.033805192
-0.054205108 -0.3742615 0.033842597
-0.054347992 -0.37434649 0.033874217
-0.054487243 -0.37442636 0.033924323
-0.054629494 -0.37450901 0.033968642
-0.054768674 -0.37458831 0.034022201
-0.054909304 -0.37466478 0.034099996
-0.055050507 -0.37474304 0.034168553
-0.05519142 -0.37481987 0.034245189
-0.055329323 -0.37489322 0.034332231
-0.055471871 -0.37496701 0.034435403
-0.055610083 -0.37504053 0.034522437
-0.055750448 -0.37511331 0.034623306
-0.055887703 -0.37518179 0.0347392
-0.056029856 -0.37525126 0.034868918
