# .PCD v0.7 - Point Cloud Data file format
VERSION 0.7
FIELDS x y z
SIZE 4 4 4
TYPE F F F
COUNT 1 1 1
WIDTH 1195
HEIGHT 1
VIEWPOINT 0 0 0 1 0 0 0
POINTS 1195
DATA ascii
-0.11401837 -0.47105563 0.056302588
-0.11417074 -0.47116983 0.056286767
-0.11432278 -0.47128415 0.05626864
-0.11447987 -0.47139952 0.056266624
-0.11462602 -0.47151318 0.056226611
-0.11479162 -0.47162119 0.056306463
-0.11493689 -0.47174203 0.056219164
-0.11508817 -0.47186002 0.056175653
-0.11523735 -0.47197551 0.056137934
-0.11539461 -0.47209081 0.056137078
-0.11556418 -0.47220099 0.056221515
-0.11570702 -0.47231907 0.056139994
-0.11585526 -0.47243485 0.056096509
-0.11601378 -0.47254971 0.056103721
-0.1161649 -0.47266108 0.056099448
-0.1163104 -0.47278094 0.05601906
-0.11647519 -0.47289354 0.056067765
-0.11661629 -0.4730117 0.055978179
-0.11676753 -0.47313231 0.055918526
-0.1169296 -0.47324294 0.055967245
-0.11708093 -0.47335732 0.055945661
-0.11723926 -0.47346938 0.055969026
-0.117391 -0.47358063 0.055968203
-0.11754608 -0.47369987 0.055933911
-0.11769987 -0.47381052 0.055945762
-0.11785872 -0.47393158 0.055917218
-0.11800831 -0.47404355 0.055902563
-0.1181546 -0.47415939 0.055849858
-0.11831554 -0.47427395 0.055869751
-0.11848382 -0.47439235 0.055898819
-0.11863118 -0.47450212 0.05588764
-0.11877912 -0.47461459 0.055862609
-0.11891542 -0.47473285 0.055751137
-0.11908458 -0.47484273 0.055835575
-0.11924307 -0.47496104 0.05582203
-0.11938755 -0.47507709 0.055760104
-0.11953452 -0.47519249 0.055713166
-0.11968443 -0.47530717 0.055683516
-0.11984058 -0.47542319 0.055673435
-0.12000667 -0.47553712 0.055719834
-0.1201621 -0.4756507 0.055721298
-0.12031433 -0.47577032 0.05567202
-0.12046118 -0.47588027 0.055657379
-0.12061916 -0.47599342 0.055672668
-0.1207776 -0.47610921 0.055674117
-0.12093127 -0.47622588 0.055649057
-0.12108079 -0.47634065 0.055617098
-0.1212237 -0.47645137 0.055580564
-0.12136924 -0.47656932 0.05551172
-0.12154074 -0.47668055 0.055598456
-0.12168738 -0.47679323 0.055566512
-0.1218324 -0.47691119 0.055495359
-0.12198297 -0.47702828 0.055454165
-0.12216188 -0.47714892 0.055516645
-0.12231754 -0.47725791 0.055546947
-0.1224549 -0.47737178 0.055466603
-0.12260373 -0.47748414 0.055446181
-0.12276255 -0.47760269 0.055432633
-0.12290566 -0.47772062 0.055353411
-0.12306817 -0.47783631 0.055373292
-0.12322341 -0.47794801 0.055385143
-0.12338459 -0.47806162 0.05541195
-0.1235324 -0.47817418 0.055385776
-0.12367577 -0.4782919 0.05530886
-0.12382935 -0.47840393 0.055311486
-0.12399235 -0.47852227 0.055317521
-0.12415347 -0.4786385 0.055328175
-0.12429114 -0.47875187 0.055252455
-0.12444541 -0.47886628 0.055243544
-0.1246014 -0.47898296 0.055228855
-0.12474371 -0.47909817 0.055162329
-0.12491276 -0.4792141 0.05520986
-0.12507056 -0.47933072 0.055203229
-0.12522526 -0.47944531 0.055195469
-0.12537849 -0.47956222 0.055166949
-0.12552246 -0.47967505 0.055122338
-0.12568088 -0.47979176 0.055118017
-0.12583961 -0.47990853 0.055114843
-0.12599063 -0.48002553 0.055075966
-0.12614086 -0.48013815 0.055060148
-0.12630352 -0.48025054 0.055100791
-0.12644808 -0.4803699 0.055019259
-0.12660386 -0.48048469 0.055014953
-0.12678085 -0.48059496 0.055131655
-0.12693158 -0.48071426 0.055077776
-0.1270781 -0.48083353 0.055005454
-0.12723461 -0.48094636 0.055016145
-0.12737708 -0.48106131 0.054951929
-0.12752657 -0.48117417 0.054931503
-0.12767318 -0.48128912 0.054885715
-0.12783568 -0.48140633 0.054896377
-0.12798735 -0.48152137 0.054872479
-0.12814917 -0.48164076 0.054866984
-0.12829024 -0.48175144 0.054822382
-0.12845409 -0.48186889 0.054837644
-0.1286059 -0.48198402 0.054813746
-0.12876037 -0.48210129 0.054788683
-0.12891804 -0.48222071 0.054764759
-0.12906533 -0.48233366 0.054733962
-0.12923484 -0.48245162 0.05477111
-0.1294003 -0.48256949 0.054790974
-0.12953305 -0.48268384 0.054687593
-0.1296691 -0.48279428 0.054622263
-0.12985371 -0.48291528 0.054707766
-0.13000959 -0.48303282 0.054687314
-0.13016646 -0.48315242 0.054658774
-0.13032106 -0.48326403 0.054668315
-0.13047501 -0.4833796 0.054651335
-0.13062038 -0.48349458 0.054599788
-0.13078368 -0.48361278 0.054608129
-0.13091736 -0.48372301 0.054533578
-0.13110326 -0.48384115 0.054642152
-0.13125223 -0.48395839 0.054592893
-0.13141087 -0.48407832 0.054570116
-0.13154744 -0.48419067 0.054495551
-0.13174123 -0.48431194 0.054620229
-0.13188796 -0.48442715 0.054573294
-0.13201049 -0.48453629 0.054456126
-0.1321592 -0.48465163 0.054417249
-0.13230912 -0.48476708 0.05438298
-0.13246201 -0.48488471 0.0543487
-0.13263515 -0.48500267 0.054401971
-0.13280328 -0.48512021 0.054435663
-0.13294451 -0.48523483 0.054367993
-0.13310669 -0.4853518 0.054378651
-0.13324572 -0.48546615 0.054302912
-0.13340896 -0.48558336 0.054317027
-0.13358654 -0.48570418 0.054372583
-0.13374084 -0.48581865 0.054363675
-0.133884 -0.48593354 0.054302905
-0.13404524 -0.48605251 0.054297417
-0.13419218 -0.48616791 0.054250479
-0.13436306 -0.48628649 0.05428993
-0.13450751 -0.48640156 0.054233771
-0.13466808 -0.48652062 0.054224826
-0.13481738 -0.4866364 0.054185949
-0.13497673 -0.48675361 0.054182772
-0.13513553 -0.4868708 0.054177299
-0.13529834 -0.48698863 0.054185644
-0.13544616 -0.48710427 0.054141
-0.13560554 -0.48722339 0.0541263
-0.13575274 -0.48733896 0.054079354
-0.13591488 -0.48745689 0.054084241
-0.13605747 -0.48757175 0.054021176
-0.1362378 -0.48769441 0.054077875
-0.13639417 -0.48781326 0.054051653
-0.13654527 -0.48792955 0.054017372
-0.13669942 -0.48804641 0.053993471
-0.13685194 -0.48816299 0.053963806
-0.13702281 -0.48828447 0.053985938
-0.13719463 -0.48840451 0.054020774
-0.1373364 -0.48851934 0.053954251
-0.13749629 -0.48863903 0.053938385
-0.1376185 -0.48875195 0.053796995
-0.13781817 -0.48887733 0.053922795
-0.13798383 -0.48899496 0.053944968
-0.13811538 -0.48910955 0.053834662
-0.13827208 -0.48922881 0.053807285
-0.13843025 -0.48934516 0.053804114
-0.1385777 -0.48946112 0.053756021
-0.13876018 -0.48958555 0.05381155
-0.13887173 -0.48969445 0.053647142
-0.13905394 -0.48981735 0.053710755
-0.13924754 -0.48994267 0.05381006
-0.13940109 -0.4900648 0.053751554
-0.13954328 -0.490183 0.053666573
-0.13970146 -0.49029973 0.053661093
-0.13988437 -0.49042484 0.05371432
-0.14003037 -0.49053913 0.053669699
-0.14020284 -0.49065909 0.053707976
-0.14032984 -0.49077094 0.053594247
-0.14049336 -0.49089062 0.053594507
-0.14066617 -0.49102017 0.053576261
-0.14081016 -0.49113569 0.053515494
-0.14099225 -0.49125808 0.053581417
-0.14115177 -0.49137869 0.053558625
-0.14130642 -0.49149513 0.053539332
-0.14148384 -0.49161679 0.053589128
-0.14163114 -0.49173626 0.053519115
-0.14178529 -0.49185425 0.053488288
-0.14195329 -0.49197242 0.05351736
-0.14212711 -0.49209815 0.053526808
-0.14228034 -0.49221757 0.053483292
-0.14243442 -0.49233568 0.053451311
-0.14258242 -0.49245089 0.053410128
-0.14273505 -0.4925687 0.053373542
-0.14290561 -0.49269241 0.053380694
-0.14304844 -0.49281088 0.05329686
-0.14323097 -0.49293765 0.053338546
-0.14339867 -0.49306232 0.053327262
-0.14354613 -0.49317902 0.05327455
-0.14373679 -0.49330217 0.053373873
-0.14389539 -0.49342915 0.053308416
-0.14403199 -0.49354172 0.053232688
-0.14422719 -0.49367663 0.053281233
-0.14437994 -0.4937934 0.053251557
-0.14453852 -0.49392188 0.05317688
-0.14468928 -0.49403527 0.053158756
-0.14485997 -0.49415106 0.053214349
-0.14502653 -0.4942745 0.053205371
-0.14518589 -0.49439612 0.053175669
-0.14534591 -0.49451935 0.053139042
-0.14550993 -0.49463657 0.053156603
-0.14566128 -0.4947561 0.053103872
-0.14579986 -0.49486652 0.053050056
-0.14594345 -0.49497828 0.053010061
-0.14613473 -0.49510744 0.053075921
-0.14633019 -0.49524921 0.053084087
-0.14649524 -0.49537557 0.053050891
-0.14664832 -0.49548873 0.053044301
-0.14681761 -0.49561498 0.053030685
-0.14699551 -0.49574789 0.053014722
-0.1471585 -0.49587941 0.05294117
-0.14731346 -0.49599054 0.052955322
-0.14746784 -0.49610296 0.052959103
-0.14762655 -0.49622086 0.052949008
-0.14779696 -0.49635878 0.052869644
-0.14793265 -0.49646592 0.052822769
-0.14810802 -0.4965874 0.052864492
-0.14828432 -0.4967134 0.052883148
-0.14846008 -0.49684206 0.052883349
-0.064257801 -0.43538043 0.05170206
-0.064391747 -0.43544847 0.051883627
-0.064520642 -0.43551102 0.052075602
-0.064658076 -0.43558389 0.052243318
-0.06479764 -0.43566233 0.052386783
-0.064929307 -0.43572599 0.052584518
-0.06506075 -0.43579155 0.05276956
-0.065198936 -0.43586478 0.052938409
-0.065333515 -0.43593478 0.053110749
-0.065464482 -0.43599638 0.053317711
-0.065598711 -0.43606022 0.053525809
-0.065728903 -0.43611744 0.053755857
-0.065858975 -0.43617153 0.054004353
-0.066005141 -0.43622401 0.054333527
-0.06612312 -0.4362635 0.054616693
-0.066261627 -0.43633771 0.054780941
-0.066387661 -0.43638921 0.055027157
-0.066528298 -0.43646634 0.055183299
-0.066722646 -0.4366264 0.055076145
-0.067087963 -0.43648583 0.057539545
-0.067241333 -0.43659806 0.057539895
-0.067411005 -0.43671978 0.057555143
-0.067588128 -0.43685383 0.057528831
-0.067778282 -0.43700662 0.057447076
-0.067966841 -0.43715709 0.05737225
-0.068154246 -0.43730593 0.057302043
-0.068340003 -0.43745533 0.057221461
-0.068538174 -0.43762276 0.057086587
-0.068724416 -0.43777364 0.056999084
-0.068898022 -0.43790054 0.057000477
-0.069077097 -0.43803984 0.056951083
-0.069250152 -0.43816614 0.056953628
-0.069434106 -0.4383142 0.056873057
-0.069614813 -0.43845394 0.056828272
-0.069791742 -0.43859053 0.056785807
-0.069974467 -0.43873423 0.056726009
-0.070153587 -0.43887511 0.05666738
-0.070336908 -0.4390204 0.056600653
-0.070515469 -0.43916085 0.056542028
-0.070696145 -0.43930212 0.056488011
-0.070874363 -0.43944252 0.056428239
-0.071055435 -0.439585 0.056368448
-0.071235314 -0.43972892 0.056294821
-0.071414918 -0.43986937 0.056240808
-0.071592048 -0.440009 0.056181028
-0.071770951 -0.44014874 0.056128174
-0.071948461 -0.44028959 0.056062639
-0.072127536 -0.44043022 0.056005161
-0.072304845 -0.44057131 0.05593732
-0.072481833 -0.4407087 0.055890232
-0.072660848 -0.44085351 0.055807389
-0.072842285 -0.44099972 0.055726834
-0.073014215 -0.44113207 0.05568786
-0.073191702 -0.44127154 0.055630386
-0.073366866 -0.44141048 0.055566017
-0.073541507 -0.44154522 0.055524718
-0.073717803 -0.44168687 0.0554488
-0.073892146 -0.44182158 0.055406351
-0.07406497 -0.44195727 0.055351216
-0.074237727 -0.44208944 0.055316851
-0.074408665 -0.44222203 0.05527211
-0.074580215 -0.44235238 0.055243514
-0.074750096 -0.44248343 0.055203404
-0.074919477 -0.44261372 0.055165593
-0.075086027 -0.44273868 0.055147402
-0.075247802 -0.44285059 0.055186931
-0.075410016 -0.44296724 0.055199921
-0.075571597 -0.443075 0.055263668
-0.075739935 -0.44318464 0.055345841
-0.075917646 -0.44330537 0.055402584
-0.076090701 -0.44341657 0.055496275
-0.07624276 -0.44351256 0.05558892
-0.076399952 -0.44361502 0.055665385
-0.07656128 -0.44373003 0.055684142
-0.076722056 -0.44383988 0.055731747
-0.081777483 -0.44691929 0.059489027
-0.081944011 -0.44704542 0.059463922
-0.082109809 -0.4471637 0.059482656
-0.082272954 -0.44728714 0.059458721
-0.082450897 -0.44743955 0.059325121
-0.082588173 -0.44754153 0.059316315
-0.082738936 -0.44763085 0.059443578
-0.082942583 -0.44778723 0.059399813
-0.083112881 -0.44792622 0.059313551
-0.083276048 -0.4480449 0.059318461
-0.083426684 -0.44815361 0.059328046
-0.083590567 -0.44828159 0.059279885
-0.083775759 -0.44842595 0.05922699
-0.083919249 -0.44852751 0.059248157
-0.084073678 -0.44864875 0.059198886
-0.084266126 -0.44878814 0.059208259
-0.084430963 -0.4489063 0.05922354
-0.084590331 -0.449022 0.05922962
-0.084749646 -0.44915292 0.059143409
-0.084908605 -0.44927558 0.059105653
-0.085091919 -0.4494094 0.059108146
-0.085238293 -0.44950601 0.059171986
-0.085414916 -0.44964963 0.059085682
-0.085560113 -0.44975054 0.059118375
-0.085718341 -0.44987229 0.059082925
-0.085902959 -0.45002061 0.05900351
-0.086055674 -0.45013201 0.059006162
-0.086206138 -0.45025301 0.058940761
-0.086348929 -0.45033669 0.059066914
-0.086527348 -0.45047265 0.059034824
-0.086678639 -0.45057917 0.059060559
-0.086854428 -0.45073441 0.058900427
-0.087022483 -0.4508599 0.058885701
-0.087207317 -0.45099428 0.05889165
-0.087366261 -0.45111328 0.058875814
-0.087527335 -0.45123118 0.05887612
-0.087674163 -0.451352 0.058795743
-0.08782196 -0.45145598 0.058821499
-0.087974913 -0.45156065 0.058865678
-0.088151388 -0.45170435 0.058778226
-0.088319235 -0.45182034 0.058820032
-0.088478893 -0.45194542 0.058770731
-0.088631622 -0.45206198 0.058742236
-0.088817552 -0.45219275 0.05877471
-0.088978618 -0.45231369 0.05875656
-0.089137815 -0.4524388 0.058704965
-0.08929491 -0.45255321 0.05870875
-0.089453787 -0.45266339 0.058745977
-0.089621723 -0.45279586 0.058688566
-0.089786172 -0.45292407 0.058641553
-0.08993113 -0.45302957 0.058645397
-0.090078741 -0.45313549 0.058658473
-0.090257026 -0.45327041 0.05863215
-0.090424031 -0.45340106 0.058581665
-0.090573564 -0.45352158 0.058515117
-0.090734735 -0.45363152 0.058563873
-0.090888113 -0.45374265 0.058571137
-0.091045395 -0.45386368 0.058535695
-0.091210604 -0.45398462 0.058535978
-0.091382995 -0.45412132 0.058472775
-0.091536067 -0.45423201 0.058481194
-0.091686822 -0.45434672 0.05845502
-0.091838032 -0.45446697 0.058397695
-0.092008531 -0.45459005 0.058408331
-0.092167191 -0.45470405 0.058421344
-0.092332125 -0.45482746 0.058405474
-0.092491373 -0.45495015 0.058368869
-0.092640676 -0.45505214 0.058413077
-0.092797562 -0.45518377 0.05831188
-0.092961624 -0.4552989 0.058342166
-0.093123376 -0.45542303 0.058307856
-0.093275905 -0.45553446 0.058309361
-0.093428634 -0.45565161 0.058277406
-0.093584269 -0.45577314 0.0582316
-0.093748003 -0.45588306 0.058291871
-0.093912505 -0.45602143 0.058183722
-0.094073638 -0.45614836 0.058129802
-0.094222829 -0.45626059 0.058111712
-0.094374798 -0.45635998 0.058183592
-0.094553173 -0.45649496 0.058157265
-0.09470816 -0.45659903 0.058214135
-0.094851241 -0.4567152 0.058145314
-0.095014751 -0.45683831 0.05812484
-0.095175274 -0.45695886 0.058106683
-0.095333017 -0.45707068 0.058128931
-0.095470145 -0.45717236 0.058121286
-0.095629163 -0.45732066 0.057928938
-0.09579321 -0.45742354 0.058033057
-0.095953375 -0.45754308 0.058019526
-0.096108347 -0.45764807 0.058070615
-0.096275166 -0.45780039 0.057888616
-0.096438855 -0.45791066 0.057946589
-0.09659043 -0.45801872 0.05796425
-0.096747681 -0.45813248 0.057972647
-0.096893892 -0.45823181 0.058019176
-0.097044937 -0.45837295 0.057834953
-0.097218752 -0.45850477 0.057807501
-0.097389087 -0.45861322 0.057905816
-0.097530149 -0.45870343 0.057984669
-0.09766794 -0.45881766 0.057904344
-0.097830482 -0.45895877 0.057770818
-0.097987987 -0.45906815 0.057806902
-0.098143935 -0.45918706 0.057778399
-0.098315313 -0.45929205 0.057902083
-0.098453298 -0.45940125 0.057852905
-0.098612532 -0.45955411 0.05763403
-0.098789133 -0.45966694 0.057733461
-0.098936819 -0.45977542 0.057731528
-0.099082679 -0.45989209 0.057671923
-0.099243373 -0.46000206 0.057718381
-0.099396706 -0.46011487 0.057715259
-0.099555925 -0.46024534 0.057631362
-0.099711262 -0.46033591 0.05777128
-0.099859416 -0.46045524 0.057705902
-0.10000896 -0.46058148 0.057604745
-0.10018049 -0.46070287 0.057630368
-0.10033 -0.4608157 0.057609972
-0.10048334 -0.46093902 0.057543404
-0.10064263 -0.46105388 0.057554103
-0.10079564 -0.46116605 0.057553299
-0.10094729 -0.46129331 0.057455596
-0.10111685 -0.46140921 0.057505451
-0.10126457 -0.4615154 0.057517365
-0.10141048 -0.46163687 0.057428923
-0.10156471 -0.46175492 0.057398118
-0.1017293 -0.46187446 0.057404164
-0.10187849 -0.46197638 0.057448376
-0.10203341 -0.46210161 0.057377189
-0.10219675 -0.46221486 0.057415545
-0.10234715 -0.46233219 0.057372071
-0.10250934 -0.46244824 0.057388522
-0.10265556 -0.46255732 0.057376206
-0.10281024 -0.46267304 0.057361554
-0.10295932 -0.46278402 0.057350382
-0.10311288 -0.46291 0.057268821
-0.10327455 -0.46302679 0.05727835
-0.10343038 -0.46312386 0.057381351
-0.10357215 -0.463249 0.057252552
-0.10372593 -0.46337318 0.057182521
-0.10388903 -0.46348703 0.057216272
-0.10404221 -0.46358979 0.057273142
-0.10418636 -0.46371609 0.057147793
-0.10435479 -0.463835 0.057174589
-0.10450995 -0.4639346 0.05725915
-0.10467049 -0.46406013 0.057210993
-0.10481348 -0.46418005 0.057119109
-0.10495817 -0.46429685 0.057053737
-0.10512038 -0.46441883 0.057034433
-0.10528213 -0.46452191 0.057127014
-0.10543358 -0.46464729 0.057039693
-0.10557656 -0.46475306 0.057033174
-0.10574117 -0.46487758 0.057009235
-0.10588796 -0.46499014 0.05697846
-0.10604401 -0.46510801 0.05695688
-0.10620277 -0.46522209 0.056969889
-0.10635695 -0.46532461 0.057032526
-0.1065053 -0.46545821 0.056881767
-0.10665894 -0.46556723 0.056902874
-0.10682023 -0.46567246 0.056980468
-0.10696756 -0.46578947 0.056925476
-0.10711852 -0.46591294 0.056847386
-0.1072779 -0.46602082 0.056900762
-0.10744824 -0.46614322 0.056914859
-0.10759027 -0.46624964 0.056900267
-0.10773624 -0.46636218 0.056866046
-0.10788043 -0.46647134 0.056844521
-0.10804759 -0.46659714 0.056824025
-0.10820749 -0.46673042 0.056726273
-0.10836872 -0.46684688 0.056735806
-0.10851754 -0.46695599 0.05673502
-0.10866651 -0.46706006 0.056765389
-0.10881479 -0.46717945 0.056699999
-0.10898041 -0.46730146 0.05669567
-0.10912036 -0.46741399 0.056634936
-0.10927165 -0.46752071 0.05665952
-0.1094245 -0.46763542 0.056642566
-0.10958826 -0.46774974 0.056676313
-0.10972869 -0.46785691 0.056650184
-0.10989121 -0.46797243 0.056671247
-0.11003882 -0.46809593 0.056578185
-0.11020207 -0.46821085 0.056606166
-0.11035133 -0.46831951 0.056609984
-0.11050705 -0.46843615 0.056594174
-0.11064386 -0.46855441 0.056485012
-0.11080588 -0.46867034 0.056501463
-0.11096808 -0.46878198 0.056544438
-0.11111937 -0.4689059 0.056465201
-0.11126328 -0.46901828 0.056422912
-0.11142084 -0.4691292 0.05644976
-0.11157507 -0.46923846 0.056472018
-0.11174559 -0.469365 0.056461897
-0.11189783 -0.46948367 0.056418411
-0.11204896 -0.46959504 0.05641415
-0.11219962 -0.46970281 0.056429505
-0.1123476 -0.46980843 0.056446027
-0.11249998 -0.46992683 0.056404851
-0.112648 -0.47005162 0.056306005
-0.11280099 -0.47015804 0.056339812
-0.11295298 -0.47026891 0.056342468
-0.11310706 -0.47037861 0.056361273
-0.11324814 -0.47050306 0.05623363
-0.113397 -0.47061926 0.056190152
-0.11356548 -0.4707357 0.056231953
-0.11372583 -0.47084215 0.056298018
-0.1138723 -0.47095242 0.056279939
-0.11401218 -0.47107312 0.056169607
-0.11416811 -0.4711926 0.056137633
-0.11432093 -0.47130656 0.056125291
-0.11448181 -0.47141665 0.056171745
-0.11464169 -0.47153768 0.056147829
-0.11479139 -0.47164974 0.056133196
-0.11494414 -0.47176039 0.056140468
-0.11508782 -0.47187507 0.056083184
-0.1152504 -0.47199485 0.056078859
-0.11542405 -0.47210991 0.056151781
-0.11555753 -0.47221562 0.056103777
-0.11569973 -0.47233725 0.055998042
-0.11585777 -0.47244909 0.056021437
-0.11600034 -0.47255746 0.05599761
-0.11615279 -0.47267476 0.055963356
-0.11631082 -0.4727931 0.055947524
-0.11646017 -0.47290832 0.055912122
-0.11661489 -0.47302157 0.055912465
-0.11677516 -0.47313601 0.055930078
-0.11692531 -0.47324476 0.055937365
-0.11707301 -0.47336048 0.055891592
-0.11722695 -0.47347412 0.055886164
-0.11737657 -0.47358915 0.055853076
-0.11753078 -0.47370869 0.055813037
-0.11768545 -0.47382209 0.055812217
-0.11784191 -0.47393793 0.055804476
-0.11799572 -0.47405165 0.055797897
-0.11814792 -0.47416878 0.055763636
-0.11829476 -0.47428447 0.055714406
-0.11845084 -0.47439754 0.055721659
-0.11860314 -0.47450882 0.055723161
-0.11877004 -0.47462487 0.055760354
-0.11892627 -0.47474095 0.055750303
-0.11906336 -0.47485617 0.055660751
-0.11922116 -0.47497737 0.055626467
-0.11938993 -0.47508487 0.05572363
-0.11953662 -0.47520044 0.0556744
-0.11968812 -0.47531763 0.055636689
-0.11982254 -0.47543031 0.055550613
-0.11999176 -0.47554904 0.055582017
-0.12014803 -0.47566244 0.055588122
-0.12029453 -0.47577786 0.055538896
-0.1204568 -0.47589549 0.055546116
-0.12061483 -0.47600868 0.055561431
-0.12075137 -0.47612062 0.055489182
-0.12089417 -0.47623661 0.055420361
-0.12104572 -0.47635096 0.055399954
-0.12121388 -0.47645473 0.055516738
-0.12136537 -0.47657439 0.055464033
-0.12152806 -0.47668967 0.055487394
-0.12167741 -0.47680449 0.055454306
-0.12183987 -0.47692245 0.055460371
-0.12200638 -0.47704244 0.05547218
-0.12214235 -0.47715664 0.055383794
-0.12228942 -0.47726676 0.055369172
-0.12244582 -0.47738066 0.055372965
-0.12260092 -0.47749722 0.055354837
-0.12275783 -0.4776136 0.055345934
-0.12289625 -0.47772235 0.055301372
-0.12304118 -0.47784007 0.055231381
-0.12320624 -0.47795075 0.055292808
-0.123351 -0.47807083 0.055207834
-0.12350672 -0.47818497 0.055207018
-0.12365217 -0.47829774 0.055169329
-0.12380664 -0.47841442 0.055147745
-0.1239672 -0.47853062 0.055156134
-0.1241401 -0.47864589 0.055224437
-0.12430013 -0.47875997 0.055243202
-0.12442976 -0.47887391 0.055128314
-0.12460063 -0.47898963 0.055185087
-0.12473536 -0.47910312 0.05509555
-0.12488709 -0.47922009 0.055060137
-0.12503275 -0.4793351 0.055009764
-0.12520795 -0.47944865 0.055098832
-0.12535501 -0.47955912 0.0550819
-0.1255101 -0.47967377 0.055075318
-0.12566647 -0.4797951 0.055034116
-0.1258125 -0.4799079 0.054998737
-0.12596667 -0.48002264 0.054987535
-0.12612429 -0.48014393 0.0549521
-0.12627232 -0.48025668 0.054925933
-0.126414 -0.48036951 0.054870971
-0.12657481 -0.48048857 0.054863196
-0.1267357 -0.48060116 0.054894648
-0.12689763 -0.48071817 0.054904182
-0.12704943 -0.48083097 0.054894153
-0.12719272 -0.48094597 0.054833405
-0.12734067 -0.48106304 0.054780707
-0.12750989 -0.4811781 0.054834038
-0.12766767 -0.481289 0.054862048
-0.12782206 -0.4814083 0.054824322
-0.12797382 -0.48152339 0.054800451
-0.12812886 -0.48163646 0.054803088
-0.12827143 -0.48175552 0.054714657
-0.12843357 -0.48186886 0.054747261
-0.12858 -0.48198384 0.054700345
-0.12872805 -0.48209888 0.054660346
-0.12887004 -0.48221368 0.054594994
-0.12906097 -0.48233646 0.054697812
-0.12921116 -0.48244962 0.054678563
-0.12935445 -0.48256251 0.054630507
-0.1295182 -0.48268235 0.054630794
-0.1296773 -0.48279804 0.054635722
-0.1298272 -0.48291329 0.05460263
-0.12997247 -0.4830263 0.054562643
-0.13012066 -0.48314142 0.054522641
-0.13027278 -0.48325485 0.054510303
-0.13043648 -0.48337105 0.054532506
-0.13059118 -0.48349059 0.054494776
-0.13073422 -0.48360538 0.054434028
-0.13091242 -0.48372287 0.054512694
-0.13107218 -0.48383901 0.054517616
-0.13120326 -0.48395288 0.054409645
-0.13135512 -0.48406842 0.054383453
-0.13151439 -0.48418653 0.054374546
-0.13168862 -0.48430413 0.054434769
-0.13183206 -0.48441714 0.054386713
-0.13197783 -0.48453221 0.054336339
-0.13213652 -0.48464856 0.054335497
-0.13230504 -0.48476407 0.054383062
-0.13242388 -0.48487642 0.054230154
-0.13256654 -0.48499113 0.054168258
-0.13273917 -0.48510909 0.054219257
-0.13288894 -0.48522463 0.054183867
-0.13307175 -0.48534393 0.054271732
-0.13322541 -0.48546004 0.054250151
-0.13337007 -0.48557508 0.054195173
-0.13351814 -0.4856905 0.054152861
-0.13366874 -0.48580626 0.054119766
-0.1338397 -0.48592281 0.054171927
-0.13399611 -0.4860394 0.054159567
-0.13416405 -0.48615754 0.054188676
-0.13431735 -0.48627204 0.054175183
-0.13446504 -0.48638758 0.054130562
-0.13461821 -0.48650387 0.054105535
-0.13478012 -0.48662144 0.054111592
-0.13495187 -0.48674047 0.05415222
-0.13508345 -0.48685375 0.054050002
-0.13524431 -0.48697129 0.054051466
-0.13538757 -0.48708624 0.053990718
-0.13554691 -0.48720193 0.053996801
-0.13570967 -0.48731992 0.054004021
-0.13587022 -0.48743761 0.054003179
-0.13601354 -0.48755261 0.053942427
-0.1361749 -0.48767054 0.05394388
-0.1363273 -0.48778704 0.053914234
-0.13649057 -0.48790368 0.05393184
-0.13665554 -0.48802406 0.053934425
-0.13679455 -0.48813838 0.053858712
-0.13693699 -0.48825163 0.053804889
-0.13711321 -0.48837239 0.053854719
-0.1372617 -0.48849005 0.053800873
-0.13742524 -0.48860708 0.053817317
-0.13757968 -0.48872584 0.05378304
-0.13774312 -0.48884299 0.053798333
-0.13790201 -0.48896098 0.053788267
-0.13805872 -0.48908028 0.053760901
-0.13822217 -0.48919761 0.053775035
-0.13838151 -0.48931751 0.053755745
-0.13853173 -0.48943239 0.053726114
-0.13869017 -0.48954895 0.05372297
-0.13881499 -0.48966053 0.053601179
-0.13900049 -0.48978409 0.053675182
-0.13917589 -0.48991057 0.05368695
-0.13930972 -0.49002075 0.053613562
-0.13948463 -0.49014246 0.053651866
-0.13961552 -0.49025679 0.053540424
-0.13977581 -0.49037716 0.053522278
-0.13993911 -0.49049193 0.053551406
-0.14011072 -0.49061638 0.053558584
-0.14026411 -0.49073857 0.053498939
-0.14041939 -0.49085337 0.053492352
-0.1405796 -0.4909693 0.053500734
-0.14075162 -0.49109253 0.053517129
-0.14089084 -0.49120551 0.05345064
-0.14105517 -0.49132562 0.053452078
-0.14123696 -0.49144971 0.053506497
-0.14138199 -0.49156559 0.053448047
-0.14151865 -0.491678 0.053373493
-0.14169407 -0.49180239 0.053397954
-0.1418647 -0.49192426 0.053416654
-0.14202663 -0.49204871 0.053381197
-0.14216916 -0.49216256 0.053323925
-0.14231938 -0.49227822 0.05328967
-0.1424979 -0.49240071 0.053339489
-0.14265391 -0.49252385 0.053285599
-0.14279987 -0.49263412 0.053265221
-0.14294387 -0.49274543 0.053229854
-0.14312845 -0.49287865 0.05324157
-0.14328906 -0.49300155 0.053209569
-0.14344552 -0.49311605 0.053209901
-0.14360385 -0.49323404 0.053197525
-0.14378813 -0.49336895 0.053197712
-0.14395067 -0.49348813 0.053196859
-0.14409667 -0.49360165 0.053156856
-0.14424297 -0.49371675 0.053108789
-0.14440042 -0.49383619 0.053083729
-0.14458281 -0.49396798 0.053094309
-0.14474259 -0.49408379 0.05310154
-0.14490822 -0.49421132 0.05306375
-0.1450482 -0.49431911 0.053031866
-0.1452098 -0.4944399 0.053017162
-0.14538386 -0.49456692 0.053019706
-0.14550096 -0.49467149 0.05290604
-0.14564921 -0.49478018 0.052905254
-0.14586262 -0.49491525 0.053033337
-0.14601964 -0.49504641 0.0529356
-0.14617985 -0.49516425 0.052932449
-0.14634801 -0.49529001 0.052916571
-0.14650962 -0.49540696 0.052924946
-0.14668649 -0.49553949 0.052906707
-0.14682496 -0.49565285 0.052834451
-0.14700742 -0.49578145 0.052864641
-0.14717588 -0.49590898 0.052839521
-0.1473258 -0.49601871 0.052839886
-0.14746529 -0.49613243 0.052769933
-0.14765005 -0.49626616 0.052779339
-0.14781269 -0.49638388 0.052787717
-0.14795853 -0.49649537 0.05275926
-0.14811677 -0.49661329 0.052746885
-0.14827734 -0.49674019 0.052690662
-0.14844729 -0.49686441 0.052692074
-0.066920936 -0.43644506 0.05704717
-0.067038134 -0.43650156 0.057224236
-0.06717182 -0.43658179 0.057330839
-0.067312256 -0.43666428 0.057453558
-0.067465737 -0.43676516 0.057523139
-0.067643702 -0.43690041 0.057493351
-0.067836061 -0.43705958 0.057382725
-0.068013914 -0.43719512 0.057350639
-0.068196803 -0.4373363 0.057306994
-0.068382382 -0.43748516 0.057228703
-0.068566434 -0.43763173 0.057157364
-0.068749964 -0.43777776 0.057087168
-0.068940207 -0.43793538 0.056976553
-0.06912747 -0.43808836 0.056880958
-0.069308043 -0.43822724 0.056840777
-0.069483638 -0.43836093 0.056809854
-0.069665462 -0.4385055 0.056740828
-0.06984739 -0.43865055 0.056669489
-0.070023105 -0.43878204 0.056652408
-0.07019721 -0.43891409 0.056624953
-0.070374653 -0.43904895 0.05659518
-0.070556283 -0.43919453 0.056519222
-0.070732743 -0.43933135 0.0564733
-0.070911743 -0.43947288 0.056410052
-0.071090095 -0.43961033 0.056368731
-0.071267284 -0.43974921 0.056313571
-0.071443498 -0.43988663 0.05626303
-0.071620002 -0.44002482 0.056209028
-0.071798466 -0.44016349 0.056160782
-0.071971804 -0.4402965 0.056124099
-0.072142988 -0.44042581 0.056100134
-0.072315753 -0.4405582 0.056064606
-0.07248722 -0.44068506 0.056056779
-0.072654068 -0.44080701 0.056058209
-0.072826304 -0.44093212 0.056064226
-0.072995022 -0.44105086 0.056093343
-0.073167831 -0.44117028 0.05613628
-0.073357724 -0.44129705 0.056210272
-0.073515713 -0.4413957 0.056313287
-0.073676184 -0.44150606 0.056356296
-0.073830277 -0.44160432 0.056444317
-0.080854073 -0.4462907 0.059201926
-0.081020929 -0.44641647 0.059180275
-0.081182383 -0.44652852 0.059217505
-0.081346385 -0.4466415 0.05926048
-0.081509136 -0.44675699 0.059282709
-0.081679754 -0.44688761 0.059248343
-0.081827641 -0.44698131 0.059336409
-0.081999332 -0.44711521 0.059287056
-0.082151689 -0.44723323 0.059248168
-0.082341559 -0.44737491 0.059232179
-0.08248581 -0.4474709 0.05929026
-0.082665801 -0.44761682 0.059205092
-0.082839951 -0.4477596 0.059113018
-0.082980119 -0.4478637 0.059104212
-0.083132103 -0.44796938 0.059138022
-0.083285645 -0.44807297 0.059191439
-0.083459407 -0.44820264 0.059176691
-0.083642982 -0.44834143 0.059150331
-0.083824724 -0.44847506 0.059147071
-0.083979547 -0.44859695 0.059095487
-0.084159113 -0.44872439 0.059119936
-0.084328741 -0.44885716 0.05906827
-0.084490821 -0.44898117 0.059036262
-0.084657252 -0.44910452 0.059027314
-0.084810182 -0.44921452 0.059039205
-0.084960736 -0.44933236 0.058993407
-0.085132748 -0.44947529 0.058890969
-0.085281871 -0.44957313 0.058959417
-0.08547233 -0.44971544 0.058942262
-0.085643604 -0.44984081 0.058942519
-0.08578407 -0.44994169 0.05895447
-0.085951708 -0.45007166 0.058910899
-0.086108617 -0.45018917 0.058895074
-0.086281374 -0.45033017 0.058807634
-0.086440302 -0.4504379 0.05885987
-0.086609483 -0.45056632 0.058832444
-0.086773448 -0.45069379 0.058787733
-0.086944222 -0.45081976 0.05878222
-0.087092884 -0.45093581 0.058738753
-0.087243371 -0.45104977 0.058716029
-0.087401062 -0.45116326 0.058727898
-0.087560892 -0.45127547 0.058757056
-0.087726779 -0.4513925 0.058783878
-0.087894402 -0.4515284 0.05870454
-0.088046998 -0.45164236 0.058691036
-0.088219494 -0.4517675 0.058698211
-0.088393547 -0.45190024 0.058666144
-0.088561811 -0.45203009 0.058626026
-0.088721722 -0.45214429 0.058643654
-0.08887475 -0.4522624 0.058607075
-0.089034699 -0.45237717 0.058621239
-0.089184657 -0.45247984 0.058664292
-0.089356035 -0.45261523 0.058604546
-0.08951728 -0.45275277 0.058487162
-0.089669406 -0.45286888 0.058458671
-0.089837745 -0.45298922 0.058476251
-0.090009585 -0.45313144 0.058377273
-0.090168037 -0.45323998 0.058422592
-0.090327933 -0.45335776 0.058418289
-0.090478219 -0.45348248 0.058329813
-0.090633437 -0.45358729 0.058383223
-0.090798728 -0.45370713 0.058390424
-0.090972453 -0.45383048 0.058413744
-0.091129266 -0.45394734 0.058401391
-0.091289781 -0.45407325 0.058350928
-0.091451742 -0.45418948 0.058365077
-0.091599807 -0.45430303 0.058334298
-0.091768809 -0.45443553 0.058281485
-0.091937691 -0.45456851 0.058225214
-0.092090249 -0.45467499 0.058256723
-0.092242196 -0.45477435 0.058328614
-0.092404738 -0.45490077 0.05828391
-0.092573121 -0.45503283 0.058231112
-0.092746675 -0.45516121 0.058223274
-0.092896417 -0.45526889 0.058235176
-0.093043372 -0.45537719 0.058230944
-0.093194075 -0.4555043 0.058129765
-0.093358263 -0.4556216 0.058147367
-0.093519896 -0.45574662 0.058107287
-0.093684196 -0.45586994 0.058089122
-0.093845464 -0.45599046 0.058074422
-0.093995079 -0.45610911 0.058019407
-0.094158992 -0.45622605 0.05803816
-0.094305381 -0.45633489 0.058028162
-0.094480976 -0.45647472 0.05796032
-0.094621398 -0.45656639 0.058027655
-0.094779357 -0.45668048 0.05803721
-0.094954558 -0.45682266 0.057953216
-0.095100462 -0.45693746 0.057905141
-0.095255569 -0.45703989 0.057972394
-0.095424682 -0.45717114 0.057927664
-0.095573649 -0.45727807 0.057940729
-0.095736995 -0.45739955 0.05792949
-0.095899917 -0.45752701 0.057880171
-0.096057594 -0.45763898 0.05790126
-0.096211866 -0.45775551 0.057879675
-0.096383244 -0.4578886 0.057833783
-0.096541047 -0.45799801 0.057871021
-0.096673273 -0.45808193 0.057948798
-0.096826486 -0.45823783 0.057684913
-0.09700112 -0.45836416 0.057694383
-0.097170696 -0.45847967 0.057746563
-0.097319625 -0.45858333 0.057779241
-0.097474821 -0.45871201 0.05768843
-0.097633168 -0.45883936 0.057619523
-0.097785518 -0.45894074 0.057681028
-0.097940095 -0.45904928 0.057709068
-0.098103173 -0.4591656 0.057727814
-0.098257922 -0.45929241 0.057646234
-0.098435394 -0.45941946 0.057663772
-0.098592207 -0.45953348 0.057668712
-0.098736644 -0.4596428 0.057647184
-0.098878458 -0.45973206 0.057735283
-0.0990308 -0.45988274 0.057499103
-0.099204361 -0.46001092 0.057492428
-0.099354461 -0.46010855 0.057566628
-0.099530883 -0.46023902 0.057558775
-0.099674165 -0.4603374 0.057598408
-0.099821419 -0.46046063 0.057505328
-0.099976569 -0.46059215 0.057397209
-0.10015182 -0.46071279 0.057443596
-0.10029882 -0.46082249 0.057431284
-0.10046381 -0.46095434 0.057364654
-0.10062114 -0.46104118 0.057535738
-0.10077234 -0.46116006 0.057486486
-0.10092324 -0.46129039 0.057366848
-0.10108705 -0.46141335 0.057348683
-0.10124503 -0.46153203 0.057330541
-0.10139664 -0.46164796 0.057300899
-0.10154487 -0.4617528 0.057323202
-0.10170683 -0.46187019 0.057330422
-0.10186181 -0.46200562 0.057198081
-0.10201956 -0.46211439 0.05723878
-0.1021648 -0.46221724 0.05725994
-0.10233021 -0.46234405 0.057225611
-0.10248874 -0.46245128 0.057279002
-0.10263346 -0.46257287 0.057184786
-0.10278695 -0.46270832 0.057045519
-0.10296872 -0.4628152 0.057203796
-0.10311545 -0.46292314 0.057200719
-0.10326188 -0.46304771 0.057096101
-0.10341135 -0.46315768 0.057093009
-0.10358573 -0.46328074 0.057120934
-0.10373873 -0.46339157 0.057128206
-0.10388134 -0.46350682 0.057062849
-0.10403807 -0.46362534 0.057040103
-0.10420744 -0.46371397 0.057253819
-0.10435089 -0.46383461 0.05715961
-0.1045045 -0.4639585 0.057090722
-0.10466176 -0.46408966 0.056994133
-0.10481526 -0.46419933 0.057010632
-0.10495704 -0.46431437 0.056942958
-0.10511965 -0.46443605 0.056927111
-0.10527707 -0.46455261 0.056919366
-0.10543703 -0.46466529 0.056946211
-0.10557896 -0.46479189 0.05680931
-0.10573775 -0.46491233 0.05678425
-0.10589711 -0.46503183 0.056767263
-0.10605631 -0.46513939 0.056821808
-0.10619275 -0.46524799 0.056769166
-0.1063604 -0.46535638 0.056855977
-0.10651769 -0.46546692 0.056883987
-0.10667284 -0.46559748 0.056781642
-0.10682669 -0.46571791 0.056734685
-0.10698383 -0.46582854 0.056761548
-0.10714112 -0.46594462 0.056756102
-0.1072977 -0.4660615 0.056742586
-0.10745382 -0.46617347 0.056756761
-0.10761084 -0.46626854 0.056877084
-0.10776246 -0.46640682 0.056712456
-0.10791089 -0.4665271 0.056642443
-0.10807145 -0.46663946 0.056673907
-0.10821868 -0.46676576 0.056562364
-0.10837152 -0.46687588 0.056573108
-0.1085289 -0.46698651 0.056601118
-0.10869383 -0.46710455 0.056617565
-0.10884299 -0.46722326 0.056560241
-0.1089998 -0.46733937 0.056552488
-0.10914971 -0.46745232 0.05653324
-0.10929473 -0.46755558 0.056550939
-0.10944838 -0.46766517 0.056568597
-0.10959674 -0.46778408 0.056506656
-0.10974616 -0.46790642 0.05642857
-0.10989887 -0.46802124 0.056410465
-0.1100591 -0.46813872 0.056409612
-0.11020865 -0.46825162 0.056389216
-0.11037339 -0.46836549 0.056429893
-0.11051978 -0.46848086 0.056380656
-0.11068638 -0.46860203 0.056385551
-0.11082827 -0.46872059 0.056297123
-0.11098741 -0.46883458 0.056312431
-0.11113238 -0.4689422 0.056303591
-0.11129105 -0.46905661 0.056314304
-0.1114458 -0.4691779 0.056266181
-0.11159748 -0.46929711 0.056216925
-0.11174332 -0.46941206 0.056167692
-0.11190514 -0.46952036 0.056229148
-0.11205342 -0.46963367 0.056200676
-0.11220858 -0.46974647 0.056205634
-0.11235493 -0.46985701 0.056185246
-0.1125127 -0.4699721 0.056187879
-0.1126596 -0.4700861 0.056149032
-0.11281808 -0.47020075 0.056157432
-0.11296871 -0.47031254 0.056148563
-0.11312519 -0.47042093 0.056185812
-0.11327095 -0.47054654 0.056071974
-0.11342134 -0.47065467 0.056083873
-0.11357749 -0.47077069 0.056073822
-0.1137392 -0.47089097 0.05606259
-0.11388294 -0.47100264 0.056023762
-0.11402823 -0.47110993 0.056018382
-0.1141953 -0.47122401 0.056068264
-0.11434052 -0.47134537 0.055977508
-0.11449758 -0.47146091 0.055974372
-0.11464351 -0.47157478 0.055932071
-0.11480206 -0.47168279 0.05598085
-0.1149541 -0.47179386 0.055982355
-0.11510695 -0.47191471 0.055928484
-0.1152567 -0.4720268 0.055913847
-0.11540794 -0.47213826 0.055909596
-0.11555745 -0.47226027 0.055833805
-0.11571351 -0.47237298 0.055843368
-0.11586168 -0.4724921 0.055779133
-0.11602134 -0.47260344 0.05581291
-0.11616561 -0.47271436 0.055780992
-0.11632247 -0.47282687 0.055795174
-0.11646399 -0.47294819 0.055688273
-0.11662102 -0.47306067 0.055703603
-0.11677635 -0.47317377 0.055707399
-0.11692694 -0.47328857 0.055680074
-0.11709268 -0.47340128 0.055732276
-0.11724979 -0.47351092 0.05576491
-0.11740588 -0.47362402 0.055772174
-0.11755198 -0.47374031 0.055716015
-0.11770943 -0.47385898 0.055695578
-0.1178627 -0.47397 0.055702846
-0.11800635 -0.4740839 0.055650167
-0.11815391 -0.47419953 0.055604395
-0.11830594 -0.47431386 0.055586286
-0.11846726 -0.47442564 0.055624668
-0.11863236 -0.47454801 0.055615727
-0.11877023 -0.47466323 0.05552962
-0.11891919 -0.47477549 0.055510379
-0.11907302 -0.47488657 0.055519953
-0.11922467 -0.47500098 0.055499535
-0.11937732 -0.47511518 0.055484895
-0.11953415 -0.47522846 0.055494454
-0.11968551 -0.47534573 0.055455573
-0.119841 -0.47545934 0.05545707
-0.11998457 -0.47557279 0.055406697
-0.12013257 -0.47568798 0.055365536
-0.12028646 -0.47580463 0.055341654
-0.1204346 -0.47591707 0.055317797
-0.12059636 -0.47603223 0.05533772
-0.12075433 -0.47614288 0.05536804
-0.12090984 -0.47625667 0.055368375
-0.12106482 -0.47637585 0.055334095
-0.12121467 -0.47649068 0.055303313
-0.1213873 -0.47661209 0.055333562
-0.1215297 -0.47672296 0.055293582
-0.12167235 -0.47683632 0.055239756
-0.12181432 -0.47695228 0.05516747
-0.12196874 -0.4770588 0.05520704
-0.12213799 -0.47718346 0.055202685
-0.12229642 -0.4772996 0.055201855
-0.12243782 -0.47741053 0.055157267
-0.12259212 -0.47752231 0.055164531
-0.1227382 -0.47763264 0.055144154
-0.1229039 -0.47775298 0.055150207
-0.12305488 -0.47786769 0.055125181
-0.12321264 -0.4779841 0.055119731
-0.12335492 -0.4780997 0.055050917
-0.12350935 -0.47821406 0.055043176
-0.1236637 -0.47832605 0.055049285
-0.12382391 -0.47844237 0.055055369
-0.12397332 -0.47855726 0.055022281
-0.1241334 -0.47867367 0.055027209
-0.12429629 -0.47878525 0.055073656
-0.12443047 -0.47889662 0.05499449
-0.12457705 -0.47901401 0.054933719
-0.12473896 -0.47913042 0.054946713
-0.12489542 -0.47924495 0.054947045
-0.12503664 -0.47935802 0.054888617
-0.12518385 -0.47947302 0.054845147
-0.12534726 -0.47958729 0.054877758
-0.12551469 -0.47970372 0.054914944
-0.12566853 -0.47982299 0.054874908
-0.12579876 -0.47993416 0.054779612
-0.12598786 -0.48005232 0.054902077
-0.12612712 -0.48016322 0.054848272
-0.12626602 -0.48028281 0.054740235
-0.12643078 -0.48039749 0.054776289
-0.12657684 -0.48051471 0.054714371
-0.12673837 -0.48062739 0.054748129
-0.1268864 -0.48074239 0.054708127
-0.12704293 -0.48085526 0.054718837
-0.12720115 -0.48097029 0.054723781
-0.12735792 -0.48108751 0.054709107
-0.1275055 -0.48120469 0.054654103
-0.12766573 -0.48132196 0.054654412
-0.12781036 -0.48143697 0.054599427
-0.12796107 -0.48155206 0.054570939
-0.12811692 -0.48166728 0.054564349
-0.12825964 -0.48178014 0.054513987
-0.12842761 -0.48189983 0.054533876
-0.12857525 -0.48201284 0.05450426
-0.12872562 -0.48213208 0.054449242
-0.12888379 -0.48224345 0.054476097
-0.12904853 -0.48236325 0.054481
-0.12922113 -0.48248348 0.054518171
-0.12937579 -0.48259497 0.054528892
-0.12950647 -0.4827053 0.054440517
-0.12967549 -0.48282155 0.054485776
-0.12981883 -0.4829385 0.054413494
-0.12996453 -0.48305354 0.054363109
-0.13014497 -0.48317072 0.05445331
-0.13030386 -0.48328471 0.054467477
-0.13044205 -0.48340324 0.054362908
-0.13059705 -0.48351896 0.0543494
-0.13075471 -0.48363492 0.054346263
-0.13090195 -0.48375013 0.054301642
-0.1310723 -0.48387101 0.054324981
-0.13122047 -0.48398444 0.054295354
-0.13138191 -0.48410469 0.054282971
-0.13152365 -0.48421568 0.054239534
-0.13169205 -0.48433474 0.054265182
-0.13184689 -0.48445073 0.054249369
-0.1320072 -0.48456731 0.054254297
-0.13213894 -0.4846811 0.054149762
-0.13230203 -0.48479798 0.054165058
-0.13244306 -0.48491263 0.054096237
-0.1326178 -0.48503274 0.054143786
-0.13277692 -0.48514938 0.054142941
-0.13290995 -0.48526317 0.054044168
-0.13306265 -0.4853791 0.054019146
-0.13321584 -0.48549697 0.053984873
-0.13338062 -0.4856126 0.054015163
-0.13356492 -0.48573434 0.054094955
-0.13371655 -0.48584858 0.054075699
-0.13385487 -0.48596469 0.053986132
-0.13401307 -0.48608336 0.053969145
-0.13416804 -0.48619983 0.053951021
-0.13434833 -0.48631978 0.054023914
-0.13451669 -0.48643821 0.054053035
-0.13465561 -0.48655441 0.053965762
-0.13480832 -0.48667076 0.053938426
-0.13495649 -0.48678645 0.053894952
-0.13511087 -0.48690307 0.053873379
-0.13527283 -0.48702085 0.053878292
-0.1354346 -0.48714042 0.053871669
-0.13558853 -0.48725709 0.053847786
-0.13575044 -0.48737502 0.053851549
-0.13590184 -0.48749137 0.053818449
-0.13606124 -0.4876107 0.053802609
-0.13623479 -0.48773241 0.053835161
-0.13637458 -0.48784694 0.053761736
-0.13651296 -0.48796117 0.053683698
-0.13670349 -0.48808426 0.053783081
-0.13683981 -0.48819986 0.053687751
-0.13699833 -0.48831761 0.053677689
-0.13716963 -0.48843762 0.053710252
-0.13733593 -0.48855689 0.053725533
-0.13747115 -0.48867226 0.053626746
-0.13760743 -0.48878613 0.053541802
-0.13776544 -0.48890558 0.053519048
-0.13795511 -0.48902935 0.053610355
-0.13811001 -0.48914674 0.053586468
-0.13825494 -0.48926389 0.053519934
-0.13843501 -0.48938614 0.053577837
-0.13856581 -0.48950058 0.053465225
-0.1387357 -0.4896194 0.053498946
-0.13892859 -0.48974609 0.053586774
-0.13908333 -0.48986852 0.053531729
-0.13920201 -0.48997885 0.053390346
-0.13937832 -0.49010086 0.053433258
-0.13954544 -0.49022105 0.053446233
-0.13971935 -0.49034435 0.053470701
-0.13986501 -0.49046338 0.053396091
-0.14000663 -0.49057522 0.053346884
-0.14017418 -0.49069577 0.053359844
-0.14032775 -0.49081179 0.053338274
-0.14050335 -0.49093422 0.053375427
-0.14064762 -0.49105299 0.053296208
-0.1408127 -0.49117479 0.053290728
-0.14097939 -0.49129698 0.053289853
-0.14115295 -0.49141771 0.053328164
-0.14131048 -0.49153647 0.053307723
-0.14147036 -0.49165577 0.053294189
-0.14161019 -0.49177358 0.053201154
-0.14178622 -0.49189669 0.053235993
-0.1419517 -0.49201897 0.053229351
-0.14208925 -0.49213472 0.053138636
-0.14224604 -0.49225348 0.053114738
-0.14243583 -0.49237868 0.053197961
-0.14260776 -0.49250877 0.053172827
-0.14275607 -0.49262264 0.053140897
-0.14290375 -0.49274236 0.053070888
-0.14306161 -0.49285716 0.053075831
-0.14321777 -0.49297604 0.053048469
-0.14338309 -0.49309722 0.053047609
-0.14357725 -0.49322867 0.053112354
-0.14371909 -0.49334854 0.053015843
-0.14384511 -0.49345699 0.052918259
-0.14403953 -0.49358726 0.052991077
-0.14417881 -0.49369913 0.052931499
-0.14434269 -0.49381736 0.052942179
-0.14452194 -0.4939484 0.052943543
-0.14467743 -0.49406603 0.052920803
-0.14485307 -0.49419478 0.052919876
-0.14501858 -0.49431515 0.052924775
-0.14517483 -0.49443889 0.052868575
-0.14532781 -0.49455601 0.052837767
-0.14545034 -0.49465922 0.052756354
-0.14565182 -0.49478954 0.052860297
-0.14585055 -0.4949207 0.052946944
-0.14599638 -0.49504462 0.052843489
-0.14616044 -0.49517637 0.05277339
-0.14630263 -0.49529076 0.052711494
-0.14646722 -0.49540856 0.052727934
-0.14665273 -0.49553651 0.052775424
-0.14681548 -0.49566519 0.052718025
-0.14697886 -0.49578708 0.052704483
-0.14714292 -0.49591061 0.052683998
-0.14730451 -0.49603346 0.052656613
-0.14745146 -0.49614522 0.052631609
-0.14762367 -0.49627262 0.052623779
-0.14778319 -0.49639225 0.052606788
-0.14792728 -0.49650189 0.052581802
-0.14811476 -0.49663532 0.052605044
-0.14827606 -0.49676523 0.05253382
-0.14845084 -0.49688819 0.052564055
