# .PCD v0.7 - Point Cloud Data file format
VERSION 0.7
FIELDS x y z
SIZE 4 4 4
TYPE F F F
COUNT 1 1 1
WIDTH 1220
HEIGHT 1
VIEWPOINT 0 0 0 1 0 0 0
POINTS 1220
DATA ascii
-0.097616889 -0.39006385 0.053142756
-0.097794205 -0.39016831 0.053188041
-0.097944163 -0.39027488 0.053104103
-0.098116547 -0.39038143 0.053114761
-0.098295659 -0.39048803 0.053153113
-0.09846139 -0.3905966 0.053122219
-0.098613136 -0.3906993 0.053071775
-0.098788403 -0.39080986 0.053067401
-0.098928601 -0.39091238 0.052969661
-0.099104196 -0.39102301 0.052966435
-0.099269502 -0.39112595 0.052971363
-0.099457599 -0.39123508 0.05303045
-0.099632457 -0.39134404 0.053035319
-0.099790618 -0.39144698 0.05301024
-0.099934667 -0.39155501 0.052891694
-0.10010791 -0.39165846 0.052926604
-0.1002887 -0.39176595 0.052966088
-0.10044119 -0.39187241 0.052893691
-0.10060391 -0.39197561 0.052885924
-0.10076535 -0.39208424 0.052836575
-0.10093528 -0.39219147 0.052832227
-0.10110882 -0.39230251 0.052817471
-0.1012734 -0.39240775 0.052803922
-0.10144176 -0.39251503 0.052792657
-0.10160623 -0.39262211 0.052766398
-0.10177153 -0.39272574 0.052766696
-0.10193184 -0.39283261 0.052724279
-0.10209912 -0.39293644 0.05273151
-0.1022591 -0.39303985 0.052711047
-0.10245638 -0.39315113 0.052794345
-0.10260947 -0.3932628 0.052689597
-0.10276525 -0.39337113 0.052618343
-0.10292758 -0.39347652 0.052594393
-0.10309415 -0.39357716 0.052620105
-0.10327726 -0.39368266 0.052682683
-0.10344291 -0.39379358 0.052635625
-0.10361291 -0.3938998 0.052638214
-0.10377628 -0.39400551 0.052616574
-0.10394283 -0.39411318 0.052594922
-0.10410316 -0.39421698 0.052573308
-0.10427372 -0.39433011 0.052532002
-0.10443521 -0.39443737 0.052491888
-0.10460418 -0.3945421 0.052500263
-0.10477956 -0.39465088 0.052508593
-0.10493773 -0.39475951 0.052445404
-0.10510385 -0.39486572 0.052431844
-0.10527039 -0.39497203 0.052419428
-0.10544367 -0.39507911 0.05243009
-0.10562032 -0.39518505 0.052462667
-0.10578471 -0.39529449 0.05242024
-0.10594778 -0.39539894 0.052405536
-0.10609742 -0.39550343 0.052334305
-0.10626467 -0.39560845 0.052333444
-0.10643403 -0.39572015 0.052296758
-0.10662594 -0.39582998 0.052367378
-0.10678014 -0.39593509 0.052311145
-0.10697625 -0.39604408 0.05240484
-0.10713091 -0.39614776 0.052360147
-0.10725868 -0.39624938 0.052216269
-0.10743991 -0.39635819 0.052248824
-0.1075738 -0.39646208 0.052115306
-0.10774391 -0.39656943 0.05211097
-0.10794607 -0.39668292 0.052200004
-0.10809299 -0.39678708 0.052119557
-0.10825523 -0.39689344 0.052088682
-0.10843907 -0.39700302 0.052127011
-0.10862233 -0.39711416 0.052152626
-0.10877147 -0.39721867 0.052079085
-0.10893175 -0.39732638 0.052030899
-0.10911912 -0.3974368 0.052078448
-0.10929392 -0.39754537 0.052085631
-0.10943001 -0.39764634 0.051980972
-0.10963028 -0.39776054 0.052057326
-0.10978843 -0.39786658 0.052011464
-0.10995186 -0.39797646 0.051962104
-0.11013557 -0.39808527 0.052005045
-0.11029989 -0.39819536 0.051957995
-0.1104646 -0.39830258 0.051931731
-0.11063806 -0.39841133 0.051931992
-0.11080825 -0.39851958 0.051921867
-0.11097985 -0.39862958 0.051905971
-0.11113917 -0.398736 0.051862419
-0.11132165 -0.398848 0.051878788
-0.11148342 -0.39895493 0.051842149
-0.1116487 -0.39906251 0.051815886
-0.11181986 -0.3991712 0.051806916
-0.1120002 -0.39928308 0.051815219
-0.11214939 -0.39938778 0.051740535
-0.1123271 -0.39949784 0.051750012
-0.11250027 -0.39960709 0.051745653
-0.11267993 -0.39971906 0.051750496
-0.11284824 -0.39982751 0.051731151
-0.11301311 -0.39993674 0.051692184
-0.11319153 -0.40004721 0.05170165
-0.11336456 -0.40015811 0.051685743
-0.11353285 -0.40026671 0.051665239
-0.11371296 -0.40038052 0.051659688
-0.11385843 -0.40048599 0.051564224
-0.11405089 -0.40060237 0.051593255
-0.11421915 -0.40071252 0.051562361
-0.11437323 -0.40081567 0.051518824
-0.11456703 -0.40093115 0.051559404
-0.11475122 -0.40104473 0.051572312
-0.11491206 -0.4011535 0.051519513
-0.11508384 -0.40126052 0.051524393
-0.11524688 -0.40136978 0.05147735
-0.11541781 -0.40148214 0.051442977
-0.1156147 -0.40160146 0.051470827
-0.11576395 -0.4017038 0.05141231
-0.11595093 -0.40181708 0.051439058
-0.11611013 -0.40192568 0.051380489
-0.11630359 -0.40204319 0.051406056
-0.11648386 -0.40216053 0.051377401
-0.11664864 -0.40226781 0.051351137
-0.11681323 -0.40237373 0.051332965
-0.11699997 -0.40249133 0.051329695
-0.11712755 -0.40258631 0.0512297
-0.11734158 -0.40270501 0.051333696
-0.11753324 -0.40282658 0.051324625
-0.11769815 -0.40293807 0.051270641
-0.11786582 -0.40304369 0.051267467
-0.11803637 -0.40315786 0.051219221
-0.11822832 -0.40327582 0.051235553
-0.033477802 -0.35286528 0.032856882
-0.033627938 -0.35296234 0.032837611
-0.033786807 -0.35305762 0.032866813
-0.033931483 -0.35314795 0.032869525
-0.03409192 -0.35324904 0.032866377
-0.034255479 -0.35334677 0.032899022
-0.034408346 -0.35344774 0.032864731
-0.034570493 -0.35353631 0.032952819
-0.034716181 -0.35362831 0.032948598
-0.034883842 -0.35373342 0.032948878
-0.035018787 -0.35381177 0.032990906
-0.035183825 -0.35391557 0.032988887
-0.035357375 -0.35402474 0.032986823
-0.035491664 -0.35410044 0.033043873
-0.035647869 -0.35419303 0.033080019
-0.035795718 -0.3542845 0.033088487
-0.035938352 -0.35437509 0.033080816
-0.036098629 -0.35447711 0.033070743
-0.036230862 -0.35455617 0.033096619
-0.03639676 -0.35465589 0.033125777
-0.036538824 -0.35474405 0.033131965
-0.036693979 -0.35484165 0.033130005
-0.036858879 -0.35494831 0.033108357
-0.037003845 -0.35502642 0.033194222
-0.037139319 -0.35511011 0.033202752
-0.037280604 -0.3551935 0.033237822
-0.037446678 -0.3553021 0.03320808
-0.037602317 -0.35540086 0.033200342
-0.037760414 -0.355501 0.033193745
-0.03791726 -0.35559535 0.033220645
-0.038067866 -0.35568544 0.033249881
-0.038218118 -0.3557772 0.033266429
-0.038353223 -0.35585672 0.033301529
-0.038503002 -0.35595009 0.033305362
-0.038656663 -0.35604674 0.03330341
-0.038814954 -0.35614562 0.033306051
-0.038956251 -0.35623178 0.033322632
-0.039103579 -0.35632205 0.033336882
-0.039257213 -0.35641903 0.033332616
-0.039414059 -0.3565096 0.033384927
-0.039575748 -0.35661149 0.033381771
-0.039721418 -0.3566952 0.033432987
-0.039876815 -0.35679278 0.033432178
-0.040027216 -0.35689464 0.03338173
-0.040168144 -0.35697624 0.033427194
-0.040326148 -0.35707787 0.033410195
-0.04049791 -0.35719264 0.033363104
-0.040635802 -0.35727233 0.033408582
-0.040780976 -0.35736263 0.033413604
-0.040959507 -0.35747835 0.033388421
-0.041109834 -0.35757172 0.033394564
-0.041259609 -0.35767147 0.033355664
-0.041424192 -0.35778138 0.033310913
-0.04158872 -0.35788658 0.033297356
-0.041748285 -0.3579942 0.033246852
-0.041908208 -0.35810256 0.033192895
-0.042066526 -0.35820872 0.033147026
-0.042223588 -0.35831562 0.033090759
-0.042385325 -0.35842735 0.033021778
-0.042560659 -0.35856006 0.032869559
-0.042728819 -0.35868222 0.0327578
-0.042899847 -0.35880908 0.032626394
-0.043062717 -0.35892379 0.032542381
-0.04322847 -0.35904321 0.032438722
-0.043401107 -0.35917369 0.032289982
-0.043569788 -0.35929841 0.03216321
-0.043733675 -0.35941598 0.032064177
-0.043899581 -0.35953707 0.031950127
-0.044074845 -0.35967335 0.031773653
-0.044236176 -0.35978794 0.03168387
-0.044405892 -0.35991624 0.031537458
-0.044574097 -0.36004254 0.03139798
-0.044734016 -0.36015591 0.031310525
-0.044905946 -0.36028904 0.031140998
-0.045068935 -0.36040813 0.031028112
-0.045232754 -0.36052895 0.030907135
-0.045539774 -0.36073759 0.030799277
-0.045721609 -0.36088938 0.030546539
-0.046152838 -0.36120155 0.03026709
-0.046192609 -0.36077562 0.033287194
-0.046332799 -0.36086434 0.033281848
-0.046475329 -0.36095417 0.033278789
-0.046622597 -0.36104631 0.033280335
-0.046769138 -0.3611342 0.033307292
-0.046915498 -0.36122489 0.033314615
-0.047066458 -0.36132383 0.033286102
-0.047214832 -0.3614215 0.033255294
-0.047363851 -0.36151731 0.033239502
-0.047514722 -0.36161342 0.033229478
-0.04766063 -0.36170712 0.033214863
-0.047807552 -0.36179957 0.033212937
-0.047951367 -0.36189297 0.033191394
-0.048088901 -0.36196831 0.033264603
-0.04822582 -0.36202568 0.033455618
-0.04837402 -0.36212736 0.033397093
-0.048512667 -0.36221132 0.033417162
-0.048661452 -0.36230424 0.033419851
-0.048811082 -0.36240232 0.033391353
-0.048959367 -0.36249804 0.033373252
-0.049115509 -0.36260557 0.033308912
-0.049271137 -0.36271244 0.033246879
-0.04940857 -0.36277306 0.033418261
-0.04953992 -0.36284673 0.033476483
-0.049694806 -0.36297089 0.03329549
-0.049859904 -0.3631013 0.033115603
-0.05000598 -0.36320147 0.033058252
-0.050154015 -0.36329082 0.033081736
-0.050301995 -0.3633877 0.033054397
-0.050451025 -0.36348701 0.033015501
-0.050596304 -0.36358649 0.032959305
-0.050747924 -0.36369172 0.032891527
-0.050898727 -0.36379555 0.032829527
-0.051022246 -0.36384156 0.03304024
-0.051149815 -0.36389562 0.033213984
-0.05128812 -0.36397663 0.033252534
-0.05143211 -0.36406583 0.033259861
-0.05187805 -0.36435673 0.03318477
-0.052068084 -0.36454642 0.032712542
-0.052487522 -0.36478999 0.032843184
-0.052610371 -0.36484954 0.032960352
-0.052786414 -0.36499786 0.032706484
-0.052930996 -0.3651095 0.032565974
-0.053076353 -0.36519992 0.032570992
-0.053221367 -0.36529443 0.032547142
-0.053366669 -0.36539966 0.032452825
-0.053504948 -0.36546803 0.032575693
-0.053653881 -0.36556295 0.032565668
-0.053794749 -0.36565778 0.032522198
-0.053937994 -0.36574876 0.032514524
-0.054080099 -0.36584213 0.032486062
-0.054228015 -0.36593521 0.03248414
-0.0543705 -0.36602467 0.032483395
-0.054514661 -0.36611882 0.032458387
-0.054658782 -0.36621311 0.032432221
-0.054802768 -0.36630166 0.032444183
-0.054945737 -0.36639315 0.032431886
-0.055087 -0.36648583 0.032404579
-0.055228222 -0.36657864 0.032376125
-0.055372693 -0.36666918 0.03237652
-0.055514701 -0.3667587 0.032373477
-0.055657372 -0.36685038 0.03235887
-0.05580008 -0.36694241 0.032341957
-0.055941928 -0.36703199 0.032337755
-0.056083445 -0.36712068 0.032338168
-0.056230541 -0.36721393 0.032331623
-0.056366578 -0.36730573 0.032288179
-0.056509897 -0.367394 0.032298982
-0.056651324 -0.36748317 0.032295931
-0.056791946 -0.36756974 0.032306749
-0.056932233 -0.36765525 0.032323346
-0.057075482 -0.36774367 0.03233299
-0.057217296 -0.36782703 0.03237037
-0.05735743 -0.36791208 0.032389268
-0.05749701 -0.36799508 0.032419734
-0.057636928 -0.36807933 0.032443259
-0.057776257 -0.36816129 0.032479487
-0.057912856 -0.36824104 0.032519199
-0.058054421 -0.36832288 0.032565817
-0.058195785 -0.3684037 0.032618206
-0.058334991 -0.36848459 0.032661375
-0.058473315 -0.36856145 0.032727644
-0.058611922 -0.36863917 0.032789283
-0.058750097 -0.36871457 0.03286479
-0.058889933 -0.36878669 0.032969173
-0.059027769 -0.36885926 0.033062011
-0.059170671 -0.36893365 0.03316405
-0.059308764 -0.36900607 0.033259202
-0.059446905 -0.36907798 0.033357814
-0.059585977 -0.36914152 0.033516474
-0.059726264 -0.3692103 0.033645097
-0.059864301 -0.36927837 0.033769116
-0.060006015 -0.3693389 0.033958957
-0.060151264 -0.36940458 0.034129135
-0.060290873 -0.36946243 0.034328226
-0.065058395 -0.36918598 0.056207851
-0.065208398 -0.36928087 0.056202445
-0.065380275 -0.36938381 0.056235045
-0.065538786 -0.36949095 0.056183398
-0.065716058 -0.36960435 0.056168616
-0.065884538 -0.36970806 0.056181595
-0.066028908 -0.36982027 0.056036472
-0.06617564 -0.36991191 0.056039169
-0.066359594 -0.37002224 0.056072861
-0.06651669 -0.37011141 0.056135558
-0.066693872 -0.37022302 0.056132328
-0.06685213 -0.37032655 0.056103785
-0.067014106 -0.37042758 0.056107558
-0.067169651 -0.37052646 0.056098662
-0.067327648 -0.37063015 0.056067806
-0.067488104 -0.37073815 0.056018461
-0.067648686 -0.37084487 0.055978354
-0.067809932 -0.37094802 0.055964813
-0.067976415 -0.37105843 0.055924665
-0.068144128 -0.37116322 0.055927262
-0.068301462 -0.3712672 0.055891793
-0.068465859 -0.37137076 0.055888627
-0.068630107 -0.37147477 0.055881985
-0.06879811 -0.37157804 0.055896126
-0.068960525 -0.37168813 0.055840999
-0.069126509 -0.37179789 0.055803165
-0.069291592 -0.37189844 0.055823099
-0.069453381 -0.37199798 0.055836111
-0.069621511 -0.37210062 0.055854868
-0.069783874 -0.37220931 0.055808976
-0.069948837 -0.37231031 0.05582545
-0.0701079 -0.37241727 0.055777259
-0.070269935 -0.3725259 0.05573022
-0.07043314 -0.37263116 0.055710882
-0.070601925 -0.37272233 0.055809326
-0.070763342 -0.37283197 0.055753052
-0.070922397 -0.37293771 0.055712953
-0.071085654 -0.37305126 0.055638179
-0.071256392 -0.37314761 0.055710055
-0.071421668 -0.37325624 0.055676855
-0.071596004 -0.37335381 0.055755641
-0.071743019 -0.37345096 0.055722535
-0.071903609 -0.37357664 0.055555373
-0.072082013 -0.37369782 0.055493232
-0.072261535 -0.37377813 0.055709429
-0.072434701 -0.37390152 0.055610359
-0.072577827 -0.37399003 0.055618849
-0.072726242 -0.37409097 0.055566102
-0.072893657 -0.37419456 0.055575624
-0.073054999 -0.3743014 0.055537812
-0.07321512 -0.37441006 0.055482693
-0.073371127 -0.37451148 0.055458788
-0.073536254 -0.37461844 0.055435978
-0.073699802 -0.37472114 0.055435125
-0.07386937 -0.37482125 0.055476978
-0.074027523 -0.37493831 0.055357181
-0.074196085 -0.37503985 0.055385176
-0.074358359 -0.37515038 0.055326581
-0.074525401 -0.37525406 0.055333804
-0.074683286 -0.37535217 0.05533991
-0.074838653 -0.37546545 0.055233989
-0.07501062 -0.37556842 0.055266593
-0.075170264 -0.37565851 0.055333901
-0.075342737 -0.37577251 0.055294886
-0.075492583 -0.37586367 0.055313736
-0.075652361 -0.37597609 0.055232052
-0.075822823 -0.37608656 0.055208061
-0.075980462 -0.37619555 0.055140249
-0.076160274 -0.37630591 0.055156633
-0.076307096 -0.37640032 0.055140853
-0.076460548 -0.37649789 0.055131979
-0.076627821 -0.37660122 0.055142649
-0.076778047 -0.3767021 0.055097982
-0.076951355 -0.37680921 0.055108622
-0.07711415 -0.37691215 0.055103153
-0.077261731 -0.37701049 0.055064272
-0.077432878 -0.37711969 0.055051822
-0.077601172 -0.37722212 0.055072889
-0.077775687 -0.3773329 0.055063896
-0.077926666 -0.37743255 0.055030763
-0.078082666 -0.37753221 0.05501841
-0.078250043 -0.3776401 0.054999053
-0.078409128 -0.37774602 0.054957803
-0.078559302 -0.37784603 0.0549189
-0.078724675 -0.37794659 0.054939985
-0.078879841 -0.37804678 0.054920696
-0.079046212 -0.37815523 0.054893263
-0.07920932 -0.37825766 0.054892406
-0.079371333 -0.37836096 0.05488117
-0.079527177 -0.37846881 0.05481337
-0.079687737 -0.37856895 0.054817151
-0.079850696 -0.37867147 0.054815143
-0.080015995 -0.37877232 0.054833911
-0.080179669 -0.37887442 0.054837689
-0.080341503 -0.37897778 0.054825291
-0.080502324 -0.37908962 0.054751679
-0.080664948 -0.37919623 0.054720804
-0.080831535 -0.37929258 0.054775376
-0.080996908 -0.37939745 0.05476759
-0.081165761 -0.37949643 0.054814063
-0.081335291 -0.37960631 0.054790076
-0.081489518 -0.37971419 0.054715347
-0.081640691 -0.37981638 0.05466605
-0.081811316 -0.37992179 0.054676715
-0.08197435 -0.38002798 0.054650448
-0.082127258 -0.38012898 0.054616157
-0.082306497 -0.38022983 0.054693758
-0.082458623 -0.38033828 0.054606348
-0.082621381 -0.38044101 0.054602027
-0.08277297 -0.38054258 0.054558501
-0.082933165 -0.38064319 0.05455767
-0.083087429 -0.38074332 0.054534923
-0.083255857 -0.38084668 0.054550216
-0.083427638 -0.38094851 0.054589745
-0.083584405 -0.38105747 0.054518465
-0.083733559 -0.38116321 0.054436844
-0.083895974 -0.38126934 0.054408271
-0.084065475 -0.38137233 0.054430492
-0.084227636 -0.38147539 0.054421563
-0.084395528 -0.38158235 0.054410286
-0.084549338 -0.38168257 0.05438523
-0.084706664 -0.38178447 0.054363623
-0.084872194 -0.38189238 0.054336194
-0.085026309 -0.38198933 0.054334231
-0.085193098 -0.38209063 0.054356456
-0.085353866 -0.38219124 0.054357931
-0.085518554 -0.38229343 0.054365154
-0.085692152 -0.38239849 0.054390822
-0.085847139 -0.38250425 0.054333415
-0.086015165 -0.38261133 0.054322142
-0.086159497 -0.38271472 0.05423592
-0.086321622 -0.38281497 0.054245468
-0.086487554 -0.38291693 0.054259621
-0.086648315 -0.38302633 0.054202184
-0.086804859 -0.38312843 0.054175965
-0.086952634 -0.38323039 0.054113969
-0.087115854 -0.38333324 0.05411081
-0.08729288 -0.38344043 0.054136455
-0.08745563 -0.38354072 0.054148305
-0.087611385 -0.38365129 0.054062024
-0.087766156 -0.38375106 0.054043889
-0.087930121 -0.38385111 0.054062679
-0.088088877 -0.38395527 0.054031819
-0.088252366 -0.38405553 0.054047137
-0.088419765 -0.38415757 0.054067049
-0.088581122 -0.38426113 0.054051194
-0.088743098 -0.38436455 0.0540388
-0.088907078 -0.38446754 0.054037947
-0.089072965 -0.38457534 0.05401282
-0.08921814 -0.38468769 0.053870004
-0.08936625 -0.3847864 0.053831112
-0.089533985 -0.38488346 0.053885676
-0.089701556 -0.38498574 0.053904437
-0.089875303 -0.38509193 0.053923167
-0.090026312 -0.3851926 0.053883109
-0.090182304 -0.3852973 0.053837251
-0.090355352 -0.38540372 0.053851366
-0.090517774 -0.3855097 0.053823955
-0.090679675 -0.38561085 0.053826574
-0.090844899 -0.38571391 0.053830333
-0.091012135 -0.38581911 0.053828303
-0.091156311 -0.38592327 0.053736303
-0.091317058 -0.3860223 0.053748172
-0.091491625 -0.38612881 0.053768046
-0.09164796 -0.38623339 0.053724498
-0.091822378 -0.38633531 0.053774405
-0.091978967 -0.38643986 0.053732015
-0.092126943 -0.38654089 0.053676959
-0.092293456 -0.38664407 0.053685334
-0.092457764 -0.3867476 0.053682156
-0.092619658 -0.38685372 0.053651284
-0.092771962 -0.38695645 0.053603142
-0.092936143 -0.38706231 0.053583801
-0.093092605 -0.38716453 0.053556416
-0.09326788 -0.38726702 0.053606328
-0.093436711 -0.38737026 0.053623922
-0.093595169 -0.3874746 0.053590763
-0.093752861 -0.38758123 0.05353912
-0.093915612 -0.38768515 0.053526722
-0.094083071 -0.38779306 0.053507362
-0.094238557 -0.38789329 0.053489223
-0.094405815 -0.38799694 0.053497594
-0.094557583 -0.38809535 0.053476013
-0.094717562 -0.3881996 0.053449772
-0.094879538 -0.38830373 0.053432755
-0.095032237 -0.38840634 0.053386912
-0.095194183 -0.38850838 0.053383756
-0.09537445 -0.38861364 0.053435944
-0.095524691 -0.38871852 0.053364709
-0.095679924 -0.38881895 0.053344261
-0.095859513 -0.38892448 0.05339184
-0.095999405 -0.38902766 0.053288311
-0.096173249 -0.38913149 0.053323209
-0.096339196 -0.38923571 0.053322345
-0.096494757 -0.38934028 0.053275339
-0.096651942 -0.38944277 0.053249102
-0.096811682 -0.38954723 0.053220551
-0.096968628 -0.38964975 0.053193167
-0.097128011 -0.38975623 0.053149603
-0.097291395 -0.38985863 0.053149905
-0.097471945 -0.38996288 0.053210173
-0.097628519 -0.39006552 0.053180486
-0.097791269 -0.39017203 0.053150758
-0.097941108 -0.39027664 0.053079527
-0.098110914 -0.39038122 0.053092498
-0.098278113 -0.39048776 0.053081229
-0.098439798 -0.3905924 0.053059597
-0.098593384 -0.39069316 0.053029917
-0.098770805 -0.390798 0.053072881
-0.09892872 -0.3909027 0.053035103
-0.099086352 -0.39100549 0.053008873
-0.099262156 -0.39111054 0.05304376
-0.099414453 -0.39121515 0.052982904
-0.099569157 -0.39132348 0.05290702
-0.099752277 -0.39142519 0.052995004
-0.099896759 -0.39152956 0.052903004
-0.10006668 -0.3916347 0.052912511
-0.10022048 -0.39173749 0.052870125
-0.10039619 -0.39184663 0.052877292
-0.10056461 -0.39195189 0.052879881
-0.10073285 -0.39205354 0.052905574
-0.10088499 -0.39215997 0.052832015
-0.10104499 -0.3922649 0.052801143
-0.1012212 -0.39237076 0.052832574
-0.1013727 -0.39247173 0.052792512
-0.10155841 -0.39258182 0.052835427
-0.1016992 -0.39268574 0.052730739
-0.10186181 -0.39279097 0.052709103
-0.10202872 -0.39289474 0.052715164
-0.1022032 -0.39300257 0.052725811
-0.10236754 -0.39310628 0.052721482
-0.10251833 -0.39321253 0.052643314
-0.10268901 -0.39332369 0.052615851
-0.10287075 -0.39342713 0.052686512
-0.10301591 -0.39352947 0.052610688
-0.10317057 -0.39362746 0.052604105
-0.10334412 -0.39373559 0.052608971
-0.10352294 -0.39384255 0.05264385
-0.10367218 -0.39394695 0.052571461
-0.10383534 -0.39405596 0.052526712
-0.10398596 -0.39415708 0.052482042
-0.10415192 -0.39426303 0.05246963
-0.10432088 -0.3943693 0.052467592
-0.104491 -0.39447907 0.052447066
-0.10467669 -0.39458552 0.052514244
-0.10483535 -0.39469582 0.052441806
-0.10498898 -0.39479575 0.052417897
-0.10513304 -0.39489466 0.052360557
-0.10531718 -0.39500287 0.052409265
-0.10549578 -0.39511383 0.052416418
-0.10566359 -0.39521715 0.0524294
-0.10581657 -0.395322 0.052369691
-0.10597869 -0.39542794 0.05234113
-0.10613812 -0.39553359 0.05230334
-0.10630441 -0.39564008 0.052288614
-0.10646275 -0.39574242 0.052268147
-0.10663262 -0.39584947 0.052264951
-0.10680147 -0.39595324 0.052279092
-0.10698025 -0.39606154 0.052304722
-0.107154 -0.39616928 0.05231306
-0.10730195 -0.396272 0.052246451
-0.10746498 -0.39637837 0.052219033
-0.10764852 -0.39648759 0.052258503
-0.10779689 -0.39659041 0.052193042
-0.10796296 -0.39669728 0.052174851
-0.10811841 -0.39680266 0.052122068
-0.10828208 -0.39690924 0.052095812
-0.10845625 -0.39701739 0.052102983
-0.10861033 -0.39712259 0.052045584
-0.10878766 -0.39722982 0.052072383
-0.10897528 -0.39734021 0.052121062
-0.10914634 -0.39744815 0.052116707
-0.109282 -0.39755058 0.0520005
-0.10946676 -0.39766076 0.052038804
-0.10962013 -0.39776447 0.051988341
-0.10981953 -0.39787865 0.052061215
-0.10996935 -0.39798188 0.051999222
-0.11015704 -0.39809284 0.052044448
-0.11030022 -0.39819792 0.051942054
-0.11045739 -0.39830387 0.051892728
-0.11065872 -0.39841735 0.051978305
-0.11080092 -0.3985208 0.051882852
-0.11099093 -0.39863253 0.051932681
-0.11112814 -0.39873508 0.051822241
-0.11130852 -0.39884526 0.051842086
-0.11147329 -0.39895269 0.05181466
-0.11165898 -0.39906394 0.051849496
-0.11180811 -0.39916864 0.0517748
-0.11200031 -0.39928123 0.051828083
-0.11214755 -0.39938557 0.05174762
-0.11232996 -0.3994965 0.051770922
-0.11247762 -0.39960095 0.051691618
-0.11266185 -0.39971232 0.051719535
-0.11283214 -0.39982256 0.051696695
-0.11301556 -0.39993393 0.051721152
-0.11317727 -0.40004116 0.051682189
-0.11334981 -0.40015057 0.051674359
-0.1135145 -0.40025985 0.05163423
-0.11369333 -0.40037197 0.051634453
-0.11386222 -0.40048355 0.051596619
-0.11404292 -0.40059477 0.051610686
-0.11420344 -0.40070471 0.051548637
-0.11440933 -0.40082261 0.051623791
-0.11455243 -0.40092629 0.051530637
-0.11474183 -0.40104505 0.051530808
-0.11488668 -0.40114498 0.051469989
-0.11509313 -0.40126064 0.051562469
-0.11523548 -0.40136418 0.051467016
-0.11541097 -0.40147749 0.051445313
-0.11559619 -0.40159294 0.051450118
-0.11575162 -0.40169796 0.051399648
-0.1159175 -0.40180662 0.051368754
-0.11609245 -0.40191597 0.051371299
-0.11626872 -0.40202698 0.051368073
-0.11646702 -0.40214565 0.051406309
-0.11663698 -0.40225807 0.051367305
-0.1168047 -0.40236339 0.051366434
-0.11697884 -0.40247551 0.051347047
-0.11714102 -0.40258494 0.051295381
-0.11731657 -0.40269482 0.051296774
-0.11748028 -0.4028073 0.051231235
-0.1176697 -0.40292573 0.051233716
-0.11780339 -0.40302211 0.05114986
-0.11801471 -0.40313926 0.051252708
-0.11820449 -0.4032619 0.05122862
-0.033466879 -0.35288811 0.03265819
-0.033648737 -0.35300869 0.032614522
-0.033803172 -0.3530986 0.032661069
-0.033946849 -0.35318416 0.032691501
-0.034097813 -0.35327345 0.032727662
-0.034246825 -0.35336772 0.032722272
-0.034379926 -0.35344371 0.032772388
-0.034530476 -0.35353446 0.032797012
-0.034715038 -0.35366121 0.032723319
-0.034861583 -0.35374326 0.032789525
-0.035013109 -0.35383925 0.032782968
-0.035180267 -0.35394025 0.032808658
-0.035324734 -0.35402924 0.032819457
-0.035479046 -0.35412529 0.032824427
-0.035602935 -0.35419154 0.032901153
-0.035798017 -0.35432336 0.032837786
-0.035937078 -0.35440361 0.032884408
-0.036092348 -0.35450318 0.032869745
-0.036236677 -0.35458848 0.032904789
-0.0363933 -0.35468802 0.032895897
-0.036548901 -0.35478437 0.032904327
-0.03668882 -0.35486394 0.032959033
-0.036828075 -0.3549507 0.032962929
-0.036984991 -0.35505304 0.032936707
-0.03712181 -0.35512656 0.03301914
-0.03726358 -0.35521075 0.033050735
-0.03742392 -0.35531384 0.033033744
-0.037596185 -0.35542083 0.033040926
-0.037740316 -0.35550839 0.033059806
-0.037889831 -0.35559916 0.033079818
-0.038035259 -0.35568655 0.033105627
-0.038175851 -0.35577154 0.033126839
-0.038351674 -0.3558923 0.033056639
-0.038516562 -0.35599396 0.033068486
-0.03866465 -0.35608315 0.033093121
-0.038807578 -0.3561717 0.033100463
-0.038957935 -0.35625768 0.033156272
-0.039099075 -0.35634163 0.033186715
-0.039237179 -0.35642576 0.033203315
-0.03938232 -0.35651106 0.033241827
-0.039530102 -0.35660231 0.033251449
-0.039699789 -0.356718 0.033189371
-0.039844915 -0.35680345 0.033226725
-0.039997343 -0.35689709 0.033239786
-0.04015182 -0.35699376 0.033241294
-0.040304907 -0.35708851 0.033249747
-0.040449098 -0.35717508 0.033275552
-0.040608536 -0.35727227 0.033294354
-0.040758979 -0.35737038 0.033269335
-0.040909618 -0.35745722 0.033320513
-0.041059155 -0.35754716 0.033346292
-0.041225683 -0.3576574 0.033307325
-0.041366223 -0.35774136 0.033335462
-0.041505974 -0.35782894 0.033335894
-0.041664395 -0.35792997 0.033324681
-0.041816093 -0.35802594 0.033319276
-0.041979358 -0.35813448 0.033278011
-0.042106636 -0.35820612 0.033332776
-0.042301275 -0.35834026 0.033252105
-0.042471834 -0.35845545 0.033196941
-0.042633496 -0.35856733 0.033126827
-0.042786129 -0.35866559 0.033109866
-0.042941827 -0.3587687 0.033073265
-0.043111905 -0.3588917 0.03296385
-0.043270655 -0.35900003 0.032905292
-0.043426592 -0.35910416 0.032862909
-0.043593489 -0.35922566 0.032750044
-0.04377111 -0.35936445 0.032566682
-0.043929603 -0.35947347 0.032502361
-0.044092014 -0.3595863 0.032428768
-0.044433977 -0.3598457 0.032127939
-0.044599116 -0.35996664 0.03201161
-0.044769429 -0.36009634 0.031858314
-0.044938251 -0.36022407 0.031711943
-0.045259986 -0.36045197 0.031537082
-0.045439065 -0.36059511 0.031330615
-0.045607343 -0.3607237 0.03117617
-0.045757953 -0.36082327 0.0311419
-0.045923814 -0.36094862 0.03099902
-0.046092097 -0.3610757 0.030854965
-0.046257906 -0.36120188 0.030706309
-0.046414942 -0.36131358 0.03061774
-0.046568982 -0.36142048 0.030548817
-0.046738662 -0.3615517 0.030382812
-0.047063179 -0.36179581 0.03011094
-0.047229119 -0.36192501 0.029942654
-0.04752782 -0.36215052 0.029687071
-0.04767162 -0.36172727 0.033126123
-0.047813095 -0.36181647 0.033123072
-0.047956191 -0.36190873 0.033106167
-0.048107158 -0.36200577 0.033090375
-0.048249692 -0.36209062 0.033120815
-0.048397623 -0.3621856 0.033106189
-0.048545662 -0.36227751 0.033112355
-0.048693895 -0.36236989 0.033116195
-0.048842452 -0.36246648 0.03309349
-0.048975311 -0.36252958 0.033229057
-0.049115136 -0.36259875 0.033353038
-0.049257956 -0.36269137 0.033332661
-0.049399599 -0.36277461 0.033370033
-0.04954163 -0.36285862 0.033403937
-0.049688764 -0.36294913 0.033415884
-0.049832515 -0.36303666 0.033433612
-0.049977586 -0.36312687 0.033438634
-0.050127126 -0.36321872 0.033451706
-0.050273158 -0.36331111 0.033446331
-0.050418451 -0.36340597 0.033421338
-0.050566882 -0.36350366 0.033390544
-0.050717972 -0.36359924 0.033385143
-0.05086568 -0.36369577 0.033358976
-0.051019527 -0.36379755 0.033323538
-0.051165286 -0.36389443 0.033286989
-0.051316462 -0.36399505 0.033248104
-0.051465787 -0.36409608 0.033198822
-0.051617172 -0.36419767 0.033154167
-0.051766768 -0.36429989 0.03309796
-0.051919267 -0.36440462 0.033037134
-0.052069098 -0.36450803 0.032973997
-0.05222933 -0.36461347 0.032940842
-0.05235808 -0.36466432 0.033141088
-0.052498326 -0.36476412 0.033061843
-0.052657247 -0.36489907 0.03282547
-0.052811626 -0.36501032 0.032728825
-0.052960426 -0.36511344 0.03266339
-0.053105053 -0.36520201 0.032677654
-0.053254746 -0.36530307 0.032629535
-0.05340407 -0.36540356 0.032583728
-0.053549647 -0.36549997 0.032549493
-0.053693347 -0.36559695 0.032503717
-0.053838953 -0.36568889 0.032499492
-0.053983256 -0.36577761 0.032511443
-0.054128554 -0.36586902 0.032509536
-0.054272249 -0.36596167 0.03249263
-0.054415222 -0.36605799 0.032448009
-0.05456534 -0.36615211 0.032448385
-0.054705437 -0.3662411 0.032440737
-0.054851752 -0.36633626 0.032418031
-0.054995164 -0.36642927 0.032397661
-0.055140786 -0.36652294 0.0323819
-0.055281971 -0.36661592 0.032352302
-0.055428892 -0.36670783 0.032353848
-0.055571392 -0.36680523 0.032299999
-0.055711955 -0.36689091 0.03231658
-0.05585539 -0.36697909 0.032328546
-0.055999845 -0.3670705 0.032323178
-0.056142002 -0.36716148 0.032310896
-0.056289047 -0.36725485 0.032303199
-0.056431115 -0.36734596 0.032289766
-0.05657386 -0.36743957 0.032262463
-0.056714855 -0.3675276 0.032265201
-0.056858838 -0.36761871 0.032259837
-0.057000935 -0.36771086 0.032239474
-0.057141509 -0.36779794 0.032246828
-0.057282913 -0.36788812 0.032236852
-0.05742662 -0.36797905 0.032231487
-0.057567276 -0.36806685 0.032234225
-0.057710059 -0.36815462 0.032246184
-0.057848752 -0.36823499 0.032290496
-0.057991821 -0.36832395 0.032295536
-0.058131404 -0.36840782 0.032320216
-0.058273755 -0.36850324 0.032279059
-0.058413904 -0.36858022 0.032352235
-0.058554083 -0.36865687 0.032427713
-0.058692709 -0.36873618 0.032478955
-0.058834221 -0.36881813 0.032524414
-0.058974907 -0.36889598 0.032594115
-0.05911611 -0.36897585 0.032652277
-0.059254982 -0.36905512 0.032704666
-0.059395708 -0.36913177 0.032782454
-0.059536595 -0.36920869 0.032859091
-0.059674755 -0.36928269 0.032943819
-0.059812456 -0.36935329 0.033049341
-0.059953146 -0.36942682 0.033147909
-0.060096189 -0.36949942 0.033262633
-0.06023429 -0.36956924 0.033375084
-0.060379304 -0.36963651 0.033533674
-0.06051711 -0.36970133 0.033678457
-0.060657345 -0.36976457 0.033843998
-0.060802627 -0.36982718 0.034034919
-0.060945496 -0.3698869 0.034235094
-0.066513307 -0.37011683 0.056085102
-0.066679657 -0.37021112 0.056152366
-0.066845842 -0.37032753 0.056070678
-0.066995144 -0.37042302 0.056058362
-0.067134112 -0.37051892 0.055999905
-0.06729918 -0.37062049 0.056012906
-0.067451835 -0.37073258 0.055903569
-0.067643739 -0.37085342 0.055900276
-0.06780719 -0.37094587 0.055967547
-0.067965135 -0.37104765 0.055949416
-0.068121031 -0.37114313 0.055964772
-0.068280384 -0.37125304 0.055898122
-0.068447284 -0.37136042 0.055879936
-0.068612099 -0.37146202 0.055891782
-0.06877882 -0.37156963 0.055871293
-0.068942562 -0.3716749 0.05585428
-0.069105037 -0.37177208 0.055885766
-0.069275461 -0.37189066 0.055807523
-0.069443583 -0.37199295 0.05582859
-0.069607124 -0.37209806 0.055811573
-0.069766402 -0.37220463 0.055766866
-0.069932304 -0.37230262 0.055807579
-0.070096232 -0.37240624 0.055802114
-0.070264071 -0.37250939 0.055816256
-0.070432529 -0.3726207 0.055778429
-0.070591062 -0.37272799 0.055725653
-0.07075195 -0.3728292 0.055723667
-0.070921808 -0.3729364 0.055719316
-0.071082301 -0.37303838 0.055710405
-0.071238801 -0.37314925 0.055625301
-0.071405344 -0.37325469 0.055618659
-0.071569517 -0.37335673 0.055624746
-0.071734861 -0.37346452 0.055597328
-0.071886837 -0.37356704 0.055549197
-0.072057292 -0.37368011 0.055507898
-0.072219655 -0.3737776 0.055537075
-0.072397649 -0.37388384 0.05557311
-0.07254865 -0.37399489 0.055463791
-0.072715871 -0.37409109 0.055521801
-0.072873935 -0.37420344 0.055433229
-0.073037885 -0.37430537 0.055439312
-0.073209718 -0.3744081 0.055473056
-0.073383123 -0.37451527 0.055483706
-0.073543191 -0.37463009 0.055387042
-0.073706396 -0.37472653 0.055426609
-0.073874675 -0.37481549 0.055537742
-0.074039482 -0.37492916 0.05546876
-0.074188888 -0.37502712 0.055440277
-0.074362867 -0.37513965 0.05541743
-0.074509777 -0.37524691 0.055316217
-0.074668229 -0.37535605 0.055250734
-0.074838176 -0.37546742 0.055218671
-0.074998036 -0.37556851 0.055213224
-0.075172119 -0.37566298 0.055311624
-0.075329289 -0.37576756 0.055271555
-0.075499132 -0.37586215 0.055351496
-0.075659372 -0.37597397 0.055275615
-0.0758247 -0.37607417 0.05529901
-0.075977005 -0.37617859 0.055239324
-0.076138169 -0.37628877 0.055178452
-0.076302245 -0.37638509 0.055222627
-0.076474361 -0.37649867 0.055184796
-0.076637931 -0.37660587 0.055153921
-0.076801538 -0.37670794 0.055157688
-0.076967135 -0.37681296 0.055149909
-0.077119932 -0.37691596 0.055101775
-0.077290103 -0.37702611 0.055078946
-0.077450447 -0.37712646 0.055080425
-0.077604353 -0.37722808 0.055046149
-0.077761769 -0.37732643 0.055048794
-0.077917583 -0.37743083 0.055004105
-0.078079022 -0.37753928 0.054955926
-0.078239672 -0.37764826 0.054900825
-0.078406066 -0.37774327 0.054963477
-0.078584701 -0.37784594 0.055026054
-0.078750201 -0.37795523 0.054989398
-0.07890708 -0.37807134 0.054870807
-0.079065733 -0.37817284 0.054857288
-0.079223268 -0.37827522 0.054833375
-0.079390377 -0.37837446 0.054870617
-0.079557464 -0.37847802 0.054878987
-0.079720296 -0.3785806 0.054875836
-0.079877362 -0.37868735 0.054820754
-0.080035806 -0.37878495 0.05483263
-0.080193892 -0.37888283 0.054841049
-0.080349706 -0.3789981 0.054723617
-0.080508262 -0.37909558 0.054736655
-0.080672905 -0.37919691 0.054749653
-0.080838002 -0.379298 0.054766122
-0.081007145 -0.37940422 0.054765247
-0.081170633 -0.37951395 0.054717056
-0.081331261 -0.37961411 0.054720845
-0.081500083 -0.37971687 0.0547419
-0.081660561 -0.37982455 0.054694887
-0.081823558 -0.37992707 0.054692887
-0.081983536 -0.38002771 0.054690905
-0.082145497 -0.3801344 0.054656576
-0.082301497 -0.38023719 0.05462344
-0.082471184 -0.38034669 0.054602928
-0.082629837 -0.38045147 0.054567467
-0.082789794 -0.38055554 0.054542389
-0.082948074 -0.38065702 0.054527711
-0.083107524 -0.38076127 0.054499172
-0.083267562 -0.38086522 0.054475248
-0.083430819 -0.38096428 0.054497503
-0.083595768 -0.38106924 0.054487403
-0.083762005 -0.38117364 0.054486539
-0.083919346 -0.38127553 0.05446494
-0.084073588 -0.38137877 0.054421421
-0.084246114 -0.38148367 0.05444362
-0.084407434 -0.38158706 0.054428928
-0.084568046 -0.38168755 0.054430403
-0.084732242 -0.3817929 0.054414544
-0.084887534 -0.3818987 0.054358318
-0.085060626 -0.38200361 0.054382823
-0.08521843 -0.38210529 0.054364685
-0.085375428 -0.3822042 0.054361556
-0.085533574 -0.38231179 0.054305315
-0.085691743 -0.38241628 0.054269854
-0.0858595 -0.38251439 0.054317482
-0.086029574 -0.38262069 0.054320063
-0.086199716 -0.38271236 0.054420795
-0.086333521 -0.38283086 0.054189164
-0.086504713 -0.38293388 0.054218296
-0.086662419 -0.38303843 0.054180529
-0.086830631 -0.3831425 0.054190055
-0.08699359 -0.38324261 0.054204222
-0.08715494 -0.38334322 0.054207999
-0.087311342 -0.38345093 0.05414369
-0.087468952 -0.38355541 0.054105919
-0.08763089 -0.38365865 0.054094687
-0.087794229 -0.38375881 0.054110002
-0.087959513 -0.38386121 0.054118384
-0.088119484 -0.38397047 0.054058671
-0.088280618 -0.38407132 0.054060146
-0.088443153 -0.38417718 0.054033902
-0.088600002 -0.3842791 0.054009989
-0.0887658 -0.38437891 0.054037999
-0.088930167 -0.38448438 0.054022141
-0.089088097 -0.38459131 0.053969353
-0.089251444 -0.3846918 0.05398237
-0.089415446 -0.38479739 0.053964198
-0.089565754 -0.38490075 0.053903371
-0.089719236 -0.38500592 0.053843692
-0.089884922 -0.38510856 0.05385207
-0.090046987 -0.38520449 0.053890489
-0.090204611 -0.3853088 0.053853877
-0.090363212 -0.38541788 0.053789549
-0.0905279 -0.38551596 0.053824488
-0.090699084 -0.38562277 0.053828213
-0.090870783 -0.38572955 0.05383426
-0.091026664 -0.38582933 0.053820744
-0.09118101 -0.38593659 0.053750668
-0.091348685 -0.38603932 0.053767115
-0.091510326 -0.38614064 0.053767435
-0.091682106 -0.38624525 0.053788487
-0.091840804 -0.38635179 0.05374147
-0.091977149 -0.38645673 0.053611446
-0.092141777 -0.38655767 0.053626753
-0.092312738 -0.38666022 0.053658202
-0.092468582 -0.38676015 0.053643536
-0.092645392 -0.38686669 0.053672642
-0.092796229 -0.38696727 0.053632602
-0.092960879 -0.38707533 0.053600572
-0.093126208 -0.38717881 0.053602025
-0.093293257 -0.38728213 0.05361155
-0.093446642 -0.38738692 0.053554181
-0.093606122 -0.38749325 0.053511776
-0.093769275 -0.38759485 0.053516705
-0.093925454 -0.38769931 0.053473178
-0.094081834 -0.3878037 0.053430799
-0.094238751 -0.38790157 0.053434599
-0.094419464 -0.38800627 0.053492554
-0.094569042 -0.3881112 0.053417876
-0.094727322 -0.38821337 0.053398579
-0.094899952 -0.38831884 0.053417318
-0.095066704 -0.38842475 0.053408369
-0.095227122 -0.38852689 0.053398307
-0.095391162 -0.38863093 0.053390525
-0.095548674 -0.38873741 0.053338904
-0.095707662 -0.38883966 0.053321909
-0.095876679 -0.38894355 0.053336047
-0.096041918 -0.38904768 0.053332888
-0.096184187 -0.38915271 0.053227074
-0.096352369 -0.38925469 0.053250443
-0.096524268 -0.38935867 0.05327611
-0.096683085 -0.38946512 0.053230256
-0.096858449 -0.38956714 0.053283624
-0.097001217 -0.38967195 0.053181272
-0.097172156 -0.38978016 0.053174607
-0.097333513 -0.38988063 0.053179543
-0.09749493 -0.38998511 0.053157922
-0.097666584 -0.39009342 0.053153567
-0.097820193 -0.39019796 0.0530985
-0.097975224 -0.3902986 0.053075761
-0.09815076 -0.39040315 0.053112958
-0.098307952 -0.39050773 0.053072881
-0.098468736 -0.3906123 0.053047799
-0.098642983 -0.39072084 0.053052671
-0.098802164 -0.3908217 0.053046074
-0.098971799 -0.39093027 0.05303134
-0.099131629 -0.39103496 0.05300165
-0.099285297 -0.39113575 0.052971978
-0.099456869 -0.39124075 0.052989565
-0.099614739 -0.39134729 0.052939091
-0.099783383 -0.39145043 0.052956693
-0.09994822 -0.39155722 0.052933905
-0.10010865 -0.39166021 0.052918065
-0.10027007 -0.39176691 0.052881427
-0.10044482 -0.39187235 0.052909389
-0.10059159 -0.39197847 0.052815095
-0.10076074 -0.39208195 0.052832697
-0.10094415 -0.39218795 0.052892949
-0.10109551 -0.3922925 0.052828655
-0.10124921 -0.39239711 0.052773587
-0.10142408 -0.39250469 0.052787695
-0.10157074 -0.39260712 0.052717648
-0.10174692 -0.3927131 0.052747916
-0.10190543 -0.39281455 0.05273439
-0.10207942 -0.39292052 0.052755427
-0.10224162 -0.39302927 0.052708406
-0.10239075 -0.39313361 0.052636035
-0.10255506 -0.39323902 0.052620173
-0.10272723 -0.39334509 0.052633144
-0.10289389 -0.39344904 0.052636892
-0.10306537 -0.39355516 0.052646402
-0.10321952 -0.39366165 0.05258093
-0.10339185 -0.39376622 0.052604292
-0.10357664 -0.39387536 0.052649524
-0.1037223 -0.39397943 0.052564476
-0.10388718 -0.3940852 0.05254861
-0.10405707 -0.3941898 0.052561585
-0.10424114 -0.39429921 0.052602202
-0.104393 -0.39439887 0.052572541
-0.10454893 -0.39450559 0.052512847
-0.10472947 -0.39461482 0.052539632
-0.10488594 -0.39471996 0.052492626
-0.10502202 -0.39482129 0.052385695
-0.10521214 -0.3949317 0.052444752
-0.10536817 -0.39503521 0.052406993
-0.10554065 -0.39514059 0.052425727
-0.10570398 -0.3952466 0.052401781
-0.10588132 -0.39535588 0.05241473
-0.10603902 -0.39546129 0.052371182
-0.10619257 -0.39556462 0.052324206
-0.10635918 -0.39567113 0.052310634
-0.10653447 -0.39577881 0.052325889
-0.10668088 -0.39588127 0.052254692
-0.10686713 -0.39599201 0.052295301
-0.10702754 -0.39609945 0.052249439
-0.10719208 -0.39620277 0.052248586
-0.10738157 -0.39630952 0.052329589
-0.1074937 -0.39640892 0.052135017
-0.10765877 -0.39651239 0.052135319
-0.10782464 -0.39661914 0.052117139
-0.10798098 -0.39672455 0.052067835
-0.10818945 -0.39683753 0.052186839
-0.10834922 -0.39694357 0.052147903
-0.10851118 -0.3970499 0.052115887
-0.10866199 -0.39715463 0.052048139
-0.10882944 -0.39726183 0.052033413
-0.1090138 -0.39737019 0.05208211
-0.1091625 -0.39747462 0.052007437
-0.10934745 -0.39758471 0.052046891
-0.10952133 -0.39769167 0.052061003
-0.10970582 -0.39780337 0.052087758
-0.10985617 -0.39790812 0.0520177
-0.11000551 -0.39801121 0.051954575
-0.11018118 -0.39812016 0.051962893
-0.11037254 -0.39823031 0.052028872
-0.11050907 -0.39833277 0.051916163
-0.11069492 -0.39844364 0.051954459
-0.1108738 -0.39855337 0.051970862
-0.11100531 -0.39865491 0.051843159
-0.11119337 -0.39876491 0.051896453
-0.11136305 -0.39887318 0.051884025
-0.11153862 -0.39898258 0.051888891
-0.11169053 -0.39908916 0.051813051
-0.11186694 -0.39919737 0.051829454
-0.11203364 -0.39930671 0.051797416
-0.11220732 -0.39941594 0.051795363
-0.1123787 -0.39952338 0.051795624
-0.11254558 -0.39963147 0.051772822
-0.11270466 -0.39973807 0.051726967
-0.11287286 -0.39984646 0.051707625
-0.11303839 -0.39995438 0.051680207
-0.1131992 -0.40006137 0.051638957
-0.11336521 -0.40016806 0.051621929
-0.11355545 -0.40028095 0.051664829
-0.11369435 -0.40038371 0.051560182
-0.11387561 -0.40049493 0.051576562
-0.11405015 -0.40060487 0.051573351
-0.11424191 -0.40072116 0.051600069
-0.11440165 -0.40082821 0.05155421
-0.11456881 -0.40093678 0.051529095
-0.11474672 -0.40104902 0.05152471
-0.11491375 -0.40115494 0.051516913
-0.1151038 -0.40127394 0.051518239
-0.11527032 -0.40137851 0.051517375
-0.11543087 -0.40148726 0.051463425
-0.11559537 -0.40159419 0.051438324
-0.11579193 -0.40171349 0.051465023
-0.11594549 -0.40181541 0.051427275
-0.11611537 -0.40192899 0.051380206
-0.11630316 -0.40204123 0.051417343
-0.11646692 -0.40214822 0.051388782
-0.11662907 -0.40225485 0.051355604
-0.11680971 -0.40236571 0.051371984
-0.11696963 -0.40247062 0.051341143
-0.11714338 -0.40258265 0.051320609
-0.11732788 -0.40269852 0.051319651
-0.11751388 -0.40281481 0.051322151
-0.11765405 -0.40291917 0.051211733
-0.11783685 -0.40302828 0.051248886
-0.11801867 -0.40314505 0.051230624
-0.11817066 -0.40324706 0.051185958
-0.033584829 -0.35299891 0.032411434
-0.033728365 -0.35308442 0.032441899
-0.03388162 -0.35317665 0.032467689
-0.034028821 -0.35326687 0.032481968
-0.034189396 -0.35336664 0.0324881
-0.034345981 -0.35346705 0.032473467
-0.034497272 -0.35355896 0.032493502
-0.034654967 -0.35365158 0.032535437
-0.034802932 -0.35374123 0.032556638
-0.034954265 -0.35383901 0.032537419
-0.03512584 -0.35394779 0.032529641
-0.035270881 -0.35403195 0.032575101
-0.035428979 -0.35412347 0.032626264
-0.03560818 -0.35424048 0.032595363
-0.035760242 -0.354332 0.032621168
-0.035883434 -0.35440144 0.032673657
-0.036027379 -0.35449216 0.032670632
-0.036191821 -0.35459024 0.032704454
-0.036340378 -0.35468128 0.032718726
-0.036497425 -0.35477766 0.032732956
-0.036665309 -0.35489446 0.032655932
-0.036810584 -0.3549774 0.032710623
-0.036949579 -0.35505399 0.032781512
-0.037093651 -0.35514343 0.032787725
-0.037243094 -0.35523605 0.032795064
-0.03740247 -0.35534009 0.032767728
-0.037547782 -0.35542324 0.032821268
-0.037696429 -0.35551298 0.032844778
-0.037853952 -0.35561687 0.032810513
-0.0380123 -0.35571373 0.032827046
-0.038155951 -0.35579893 0.03285981
-0.038323741 -0.35590464 0.032856677
-0.038446534 -0.35596123 0.032993447
-0.038590621 -0.35605136 0.032995049
-0.038753591 -0.35616559 0.032914575
-0.038920999 -0.35627329 0.032896429
-0.039055377 -0.35634372 0.032989275
-0.039199006 -0.35642701 0.033034742
-0.039368276 -0.35654414 0.032961175
-0.039523885 -0.35663566 0.033001959
-0.039665848 -0.35672119 0.033025503
-0.039822061 -0.35682032 0.033017803
-0.039973814 -0.35691318 0.033033207
-0.040120717 -0.35700369 0.033044036
-0.04027617 -0.35709977 0.033053648
-0.040405512 -0.35716513 0.033159219
-0.040551912 -0.35725275 0.03318736
-0.040691778 -0.35733092 0.033251315
-0.040884729 -0.35747948 0.033066802
-0.041022073 -0.35755882 0.033112295
-0.041180987 -0.35766515 0.03306764
-0.041334838 -0.35775712 0.033098049
-0.041471202 -0.35783276 0.03316433
-0.041617818 -0.35791877 0.033204015
-0.041768987 -0.35801646 0.033184789
-0.041930377 -0.35811988 0.033170134
-0.042079933 -0.3582105 0.033191327
-0.04223052 -0.35829782 0.033239074
-0.042385377 -0.35840401 0.033178274
-0.042534877 -0.35849479 0.033198316
-0.042685844 -0.35858786 0.033209112
-0.042837098 -0.35868147 0.033217594
-0.043002792 -0.35878983 0.033187911
-0.043169796 -0.35890296 0.033131666
-0.043317333 -0.3589963 0.033126321
-0.043482456 -0.35910428 0.033096641
-0.043655809 -0.35922021 0.033048451
-0.043822311 -0.35933077 0.033007216
-0.043970563 -0.35942319 0.033011094
-0.044136956 -0.35954198 0.032914452
-0.044296741 -0.35965317 0.032840934
-0.044456534 -0.35976195 0.032783572
-0.044622522 -0.35988101 0.032683466
-0.04479041 -0.3600035 0.032568332
-0.044957906 -0.36012849 0.032434743
-0.045128927 -0.36025691 0.032293044
-0.045295797 -0.36037892 0.032176767
-0.045456268 -0.36049071 0.032102086
-0.045633785 -0.36063406 0.031887628
-0.045795683 -0.36074901 0.031797934
-0.045957804 -0.36086753 0.031685144
-0.046123896 -0.36099026 0.03156079
-0.046290547 -0.36111438 0.031429507
-0.046458054 -0.36124042 0.031288989
-0.046614572 -0.36135092 0.031206246
-0.047598228 -0.36208495 0.030422095
-0.047764976 -0.36221343 0.030261949
-0.047922738 -0.36232939 0.030148029
-0.048076712 -0.36243573 0.030082621
-0.048243515 -0.36256582 0.029912075
-0.048409257 -0.36269453 0.029746169
-0.048560321 -0.36279988 0.029674999
-0.048725359 -0.36292833 0.029507935
-0.049001172 -0.36314738 0.029199474
-0.04913684 -0.36322516 0.029248446
-0.049275838 -0.3633059 0.029291626
-0.049602062 -0.36296245 0.032962412
-0.049749143 -0.36305362 0.032969762
-0.049890839 -0.36313775 0.033001386
-0.050027426 -0.36320785 0.033105772
-0.050160751 -0.36326346 0.033293292
-0.050307043 -0.36335671 0.033283331
