# .PCD v0.7 - Point Cloud Data file format
VERSION 0.7
FIELDS x y z
SIZE 4 4 4
TYPE F F F
COUNT 1 1 1
WIDTH 1298
HEIGHT 1
VIEWPOINT 0 0 0 1 0 0 0
POINTS 1298
DATA ascii
-0.24601246 -0.16970472 0.05656499
-0.24624929 -0.16964607 0.056560855
-0.24644519 -0.16959667 0.056563757
-0.24664299 -0.16955048 0.056540124
-0.24681537 -0.16950807 0.056535009
-0.24701005 -0.16947271 0.056438737
-0.24722999 -0.16940981 0.056495767
-0.24740557 -0.169369 0.056473352
-0.24762622 -0.16932349 0.056403529
-0.24780783 -0.16927573 0.056420311
-0.24801019 -0.16922489 0.056422036
-0.24821106 -0.1691784 0.056394935
-0.24840321 -0.16913058 0.056393228
-0.24858794 -0.16908444 0.056392699
-0.24879235 -0.16903484 0.056381743
-0.24899378 -0.16899157 0.05633042
-0.24917796 -0.16895053 0.056294139
-0.2493958 -0.16890508 0.056228928
-0.24957608 -0.16885208 0.056286082
-0.2497656 -0.16880874 0.056256711
-0.24995914 -0.16876489 0.056223862
-0.25014228 -0.16871597 0.0562464
-0.25033939 -0.16866611 0.056250457
-0.25053409 -0.16862579 0.056189928
-0.2507399 -0.1685752 0.056183565
-0.25092733 -0.16852599 0.056200333
-0.25112486 -0.16848211 0.056160558
-0.25131688 -0.16843544 0.056150783
-0.25150025 -0.16838421 0.056189474
-0.25169674 -0.1683401 0.05615316
-0.25189129 -0.16829504 0.056127224
-0.25208744 -0.16825101 0.05609091
-0.2522805 -0.16820535 0.056071907
-0.25246912 -0.16815729 0.056078285
-0.25262845 -0.16811559 0.056091674
-0.25285009 -0.16806345 0.056067973
-0.253032 -0.16801162 0.056113586
-0.25323683 -0.16797629 0.055998821
-0.25342464 -0.16793403 0.055964839
-0.25361896 -0.16788086 0.055997729
-0.25380799 -0.16783351 0.05599834
-0.25399694 -0.16778617 0.055998959
-0.25419804 -0.1677465 0.055922262
-0.25438279 -0.16769668 0.055948261
-0.25457504 -0.16765171 0.055925801
-0.25476709 -0.16760983 0.055881426
-0.25496557 -0.16756602 0.055839337
-0.2551555 -0.16751987 0.05582957
-0.2553443 -0.16747303 0.05582672
-0.2555387 -0.16743009 0.055785805
-0.25572929 -0.16738138 0.055793326
-0.25589356 -0.16733748 0.055813614
-0.25610548 -0.16728728 0.055793401
-0.25629956 -0.16724457 0.055751335
-0.25649345 -0.16720191 0.055709261
-0.25667775 -0.16715236 0.055734105
-0.25683624 -0.16710784 0.055769403
-0.25704277 -0.16707145 0.055659249
-0.25725645 -0.16702335 0.055620581
-0.25741938 -0.16698235 0.055622421
-0.25761881 -0.16693415 0.055610318
-0.2578207 -0.16688438 0.055605125
-0.25800318 -0.1668337 0.05564151
-0.2581884 -0.16678521 0.055657133
-0.25838527 -0.16674259 0.055609282
-0.25857705 -0.16669966 0.055572979
-0.25877175 -0.16665936 0.055512451
-0.25892949 -0.16663353 0.055413965
-0.25913131 -0.16657676 0.055459522
-0.25933045 -0.16651759 0.055526998
-0.25952017 -0.16646957 0.055531077
-0.25971252 -0.16642794 0.055484384
-0.25989756 -0.16637982 0.055497702
-0.26007667 -0.16633844 0.05547297
-0.26026881 -0.16631347 0.055306338
-0.26046771 -0.1662499 0.055406112
-0.26065686 -0.16620187 0.055411339
-0.26084816 -0.16616018 0.055366963
-0.26101348 -0.16612288 0.05533766
-0.2612026 -0.16607071 0.055372875
-0.26140857 -0.16601816 0.055380359
-0.26159608 -0.16597757 0.05533484
-0.26174533 -0.16593726 0.055356327
-0.26192674 -0.16588588 0.055399634
-0.26216203 -0.16583768 0.055322841
-0.26235253 -0.16579634 0.055277325
-0.26253819 -0.16574982 0.055277944
-0.26272705 -0.16570696 0.055246267
-0.26291573 -0.16565922 0.055250339
-0.26310226 -0.16561392 0.055240579
-0.26328608 -0.16557041 0.05522275
-0.26347381 -0.16552673 0.055199154
-0.26365003 -0.16547921 0.055224016
-0.26385149 -0.16543226 0.055199228
-0.26404506 -0.16539638 0.055108711
-0.26423413 -0.16535509 0.055065498
-0.26442069 -0.1653053 0.055088036
-0.26460513 -0.16526356 0.055056363
-0.2647939 -0.16521131 0.05509273
-0.26495707 -0.16516832 0.055108413
-0.26512131 -0.16512683 0.055111401
-0.2653017 -0.16509122 0.055042841
-0.26549795 -0.16504396 0.055029597
-0.26568538 -0.16499557 0.05504059
-0.26589391 -0.16496107 0.054913126
-0.26609188 -0.16490476 0.054962154
-0.26627091 -0.16486837 0.054901674
-0.26647717 -0.16481255 0.054932229
-0.26666343 -0.16476268 0.054955915
-0.26684889 -0.16472451 0.05489656
-0.26703498 -0.16468108 0.054874118
-0.26722911 -0.16464506 0.054783601
-0.26741102 -0.16458766 0.054869585
-0.26758811 -0.16454232 0.054877147
-0.26777562 -0.16450204 0.054829329
-0.26797014 -0.16445331 0.054829925
-0.2681112 -0.16442049 0.054812223
-0.26832408 -0.16436253 0.054846216
-0.26852816 -0.1643178 0.054800652
-0.26871467 -0.16428465 0.054703239
-0.26889056 -0.16423738 0.054726958
-0.26908615 -0.16418326 0.054764453
-0.26927283 -0.16414303 0.05471779
-0.26945701 -0.16409735 0.054714955
-0.26964599 -0.16405417 0.054685585
-0.26982796 -0.1640033 0.054724272
-0.27001804 -0.16396318 0.05467068
-0.27018869 -0.16391177 0.054733627
-0.27034572 -0.16386345 0.054798916
-0.2705735 -0.16382527 0.054663327
-0.27076185 -0.16378143 0.054639719
-0.2709465 -0.16373788 0.054620739
-0.2711314 -0.16369523 0.054594841
-0.27131546 -0.16365023 0.054587398
-0.27149209 -0.16359317 0.054680303
-0.2716876 -0.16356176 0.054554038
-0.27185208 -0.16352516 0.054521278
-0.27203524 -0.16347751 0.054534588
-0.27220491 -0.16343355 0.054545637
-0.27242434 -0.16338611 0.054491956
-0.27260926 -0.16334568 0.054449908
-0.27280393 -0.16330138 0.054418214
-0.27298713 -0.1632542 0.054428067
-0.27316996 -0.16320519 0.054451764
-0.27335873 -0.16316764 0.054382034
-0.27354214 -0.16312167 0.054382659
-0.27372727 -0.16308519 0.054311778
-0.27389377 -0.16304441 0.054305531
-0.27405721 -0.16300648 0.054284312
-0.2742635 -0.1629497 0.054321781
-0.27444327 -0.16290352 0.054330491
-0.274654 -0.1628525 0.054318357
-0.27483398 -0.16280772 0.054316685
-0.27502435 -0.16276225 0.05430115
-0.27517995 -0.1627178 0.05434107
-0.27536768 -0.162681 0.054267876
-0.2755473 -0.16263263 0.054292742
-0.27572063 -0.16259158 0.05427609
-0.27590016 -0.16254084 0.054318249
-0.27608138 -0.16251731 0.054160886
-0.27629513 -0.16246442 0.05415681
-0.27645141 -0.16243146 0.054112539
-0.27662382 -0.16236876 0.054253906
-0.2768141 -0.16233084 0.054184161
-0.27703819 -0.16228653 0.054099333
-0.27720439 -0.16226245 0.053973146
-0.2773909 -0.1622047 0.05405334
-0.27760461 -0.16214733 0.054081563
-0.27775735 -0.16210535 0.05410881
-0.27793372 -0.16206259 0.054099079
-0.27811041 -0.16201271 0.054140095
-0.2783336 -0.16197152 0.054034509
-0.27850622 -0.16193402 0.05399365
-0.27870649 -0.16188128 0.054012679
-0.27885532 -0.16184939 0.053974196
-0.27905914 -0.16179483 0.054000136
-0.27925205 -0.16175081 0.053969599
-0.27940559 -0.16170432 0.054027982
-0.2796073 -0.16166978 0.053913221
-0.27977666 -0.16162892 0.053902362
-0.27996263 -0.16158646 0.053873003
-0.28015187 -0.16154353 0.053841315
-0.28035411 -0.16150053 0.053786531
-0.28055316 -0.16145642 0.053745601
-0.28073719 -0.16140471 0.053786591
-0.28089485 -0.16137461 0.053719252
-0.28107482 -0.16132791 0.053731419
-0.28126222 -0.16127633 0.053765483
-0.28146511 -0.16122837 0.053745292
-0.28163123 -0.16118722 0.053742517
-0.28183854 -0.16113369 0.053754613
-0.28198731 -0.16111268 0.053637698
-0.28217399 -0.16105151 0.053742114
-0.28237021 -0.16100475 0.053725414
-0.28257939 -0.16095699 0.05369252
-0.2827628 -0.16091056 0.053696606
-0.28292537 -0.16088291 0.053602725
-0.28312436 -0.16082555 0.053657517
-0.28330755 -0.16078012 0.053654686
-0.28348851 -0.16074228 0.05360112
-0.28364956 -0.16069727 0.053635251
-0.28384101 -0.16065569 0.053589731
-0.28403661 -0.16061053 0.053562649
-0.28420612 -0.16056883 0.053557541
-0.28439111 -0.16052744 0.053522419
-0.28455871 -0.16048223 0.053546157
-0.2847445 -0.16043839 0.053527176
-0.28494871 -0.16039507 0.053471237
-0.28511345 -0.16036655 0.053379647
-0.28529966 -0.16030456 0.053490993
-0.28548652 -0.16026604 0.05343163
-0.28569031 -0.16021515 0.053431053
-0.28588632 -0.1601686 0.05341319
-0.28606531 -0.16013397 0.053340018
-0.28625253 -0.16008642 0.053345252
-0.2864078 -0.16004254 0.053381719
-0.28662315 -0.1599934 0.053347655
-0.28678656 -0.15995212 0.05335065
-0.28696433 -0.15991268 0.053314388
-0.28715706 -0.15985991 0.053347286
-0.28735879 -0.15981418 0.053313255
-0.28752598 -0.15977801 0.053272411
-0.28771171 -0.15973419 0.053253427
-0.28789142 -0.15969044 0.053244848
-0.28807107 -0.15964685 0.053235106
-0.28824651 -0.15960576 0.053214993
-0.28844965 -0.15955696 0.05320058
-0.28862715 -0.15951775 0.053163167
-0.28881392 -0.1594719 0.053156868
-0.28898644 -0.15943074 0.053142525
-0.28916565 -0.15938248 0.053167395
-0.2893472 -0.15934114 0.053138036
-0.28954697 -0.15929876 0.05308326
-0.28973323 -0.1592433 0.053147312
-0.28990817 -0.15920857 0.053082228
-0.29007894 -0.15917072 0.053047143
-0.29025656 -0.15913099 0.053013187
-0.29044253 -0.15909702 0.052922703
-0.29064721 -0.15902561 0.053068578
-0.29082543 -0.15897009 0.053147648
-0.29100758 -0.15893771 0.053052556
-0.29119954 -0.1588984 0.052989736
-0.29138666 -0.15886205 0.052914232
-0.29153576 -0.15883106 0.052868828
-0.2917321 -0.15877964 0.052885562
-0.29191372 -0.15872884 0.052924257
-0.29210714 -0.15867783 0.052943319
-0.29228953 -0.15863962 0.052889738
-0.29246187 -0.15860362 0.052838504
-0.29267389 -0.15854621 0.052870188
-0.29284757 -0.15850811 0.052831635
-0.29303557 -0.15844855 0.052922204
-0.29320431 -0.15841791 0.052838683
-0.29339364 -0.1583735 0.052817382
-0.2935892 -0.1583242 0.052820284
-0.29376841 -0.15828632 0.052770179
-0.29394633 -0.15823805 0.052797347
-0.29412264 -0.15820026 0.052751873
-0.29431355 -0.15815769 0.052714415
-0.29449874 -0.1581153 0.052686207
-0.29467288 -0.15807644 0.052652262
-0.29486135 -0.1580257 0.052678254
-0.29505071 -0.15798146 0.052655801
-0.29523879 -0.15793145 0.052677173
-0.29542789 -0.15788023 0.052705463
-0.29561418 -0.15783659 0.052684169
-0.29580611 -0.15779281 0.052653637
-0.29598036 -0.15775761 0.052593172
-0.29616982 -0.15770631 0.052621458
-0.29636237 -0.1576547 0.052646279
-0.2965169 -0.1576305 0.052542046
-0.29672903 -0.15758216 0.052507989
-0.29689729 -0.15754047 0.052505203
-0.29708979 -0.15748586 0.052551936
-0.29727143 -0.15745151 0.052471839
-0.29746446 -0.15740986 0.052423999
-0.29764739 -0.15736051 0.052450005
-0.29783729 -0.15731277 0.052451774
-0.29802662 -0.15726581 0.052448925
-0.29821026 -0.1572289 0.052383814
-0.29837859 -0.15718751 0.052378714
-0.29857847 -0.15712832 0.052445039
-0.29876229 -0.15709122 0.05238108
-0.29894429 -0.15704672 0.05237364
-0.29914126 -0.15700378 0.052328099
-0.29931712 -0.15695713 0.052347206
-0.29949099 -0.15692203 0.052286733
-0.29969755 -0.15687732 0.052236546
-0.2998403 -0.15686484 0.052068911
-0.30000663 -0.1568289 0.052028067
-0.30019164 -0.15677232 0.05210251
-0.30040658 -0.15670075 0.052231066
-0.30061132 -0.15664354 0.052274309
-0.30078572 -0.15660207 0.052258812
-0.30098191 -0.15656012 0.052207507
-0.30115649 -0.15652131 0.052172408
-0.30134183 -0.15647392 0.052179947
-0.30154118 -0.15642861 0.052147083
-0.30171704 -0.15638854 0.052118901
-0.30191103 -0.15634057 0.052114889
-0.30210838 -0.1562892 0.052129321
-0.30230829 -0.15623529 0.052157581
-0.30247125 -0.15620595 0.052075226
-0.30265233 -0.15616871 0.052017052
-0.30284265 -0.15611944 0.052029192
-0.30305824 -0.15606593 0.052026264
-0.30324668 -0.15602398 0.051988821
-0.30340946 -0.15599196 0.051926076
-0.30359802 -0.15593432 0.052001659
-0.30380177 -0.15588248 0.052007996
-0.303976 -0.15583929 0.052005187
-0.304162 -0.15580499 0.051917013
-0.30433398 -0.15576908 0.051865771
-0.30451781 -0.15572669 0.051839873
-0.30471337 -0.15567306 0.051873915
-0.30490866 -0.15562972 0.051834144
-0.30509245 -0.1555752 0.051895894
-0.30529317 -0.15553419 0.05182958
-0.30546266 -0.15549827 0.051782962
-0.30565661 -0.15544663 0.051805481
-0.30586195 -0.15539168 0.051831417
-0.30604282 -0.15535483 0.051770926
-0.30624601 -0.1553044 0.051768035
-0.30640641 -0.15527457 0.051693775
-0.30657297 -0.15523906 0.051649466
-0.30678749 -0.15518309 0.051666159
-0.30697724 -0.1551266 0.051731352
-0.30717045 -0.15508555 0.051678903
-0.30738139 -0.15502855 0.051709443
-0.30756932 -0.15498546 0.051681217
-0.30774239 -0.1549421 0.05168188
-0.30792433 -0.15489089 0.051722884
-0.30811375 -0.15485781 0.051619694
-0.30828846 -0.15482426 0.051546533
-0.30850381 -0.15476394 0.051593203
-0.30869243 -0.15471826 0.051582288
-0.30887172 -0.15468293 0.051513724
-0.30905074 -0.15463695 0.051522437
-0.30925545 -0.15458839 0.051503405
-0.30946067 -0.15453731 0.051501662
-0.30964142 -0.15449648 0.051470004
-0.30983335 -0.15445255 0.051440619
-0.30999616 -0.15441637 0.051407866
-0.31022033 -0.15434536 0.051515639
-0.31040722 -0.15430796 0.051448211
-0.31059211 -0.15426594 0.051417697
-0.31076807 -0.15422313 0.051409125
-0.31097159 -0.15416783 0.051440835
-0.31116307 -0.15412465 0.051406842
-0.31136388 -0.15407994 0.051367056
-0.3115572 -0.15403326 0.051354971
-0.31173426 -0.15399384 0.051319856
-0.31191036 -0.15395322 0.051295143
-0.3121168 -0.15390407 0.051277254
-0.3123194 -0.15385412 0.051272061
-0.3125115 -0.15380871 0.051253051
-0.31270078 -0.15375967 0.051265202
-0.31288624 -0.15371577 0.051247373
-0.31308466 -0.15367132 0.051209893
-0.31328517 -0.15362142 0.051208172
-0.31348494 -0.15357217 0.051202986
-0.31368724 -0.15351911 0.051220864
-0.3138456 -0.15348515 0.051180042
-0.31403098 -0.15344541 0.051132225
-0.31424898 -0.15338793 0.051153518
-0.31442744 -0.1533536 0.051079199
-0.31461459 -0.15330878 0.051064819
-0.31480816 -0.15325725 0.051087335
-0.31498963 -0.1532132 0.051077589
-0.31523067 -0.15315159 0.051087279
-0.31540552 -0.15312007 0.050999124
-0.3155736 -0.15308081 0.050979037
-0.31579673 -0.15301102 0.051079895
-0.31598762 -0.15297295 0.051010147
-0.31617489 -0.15293033 0.050979625
-0.31633741 -0.15289183 0.050964165
-0.31652871 -0.15284631 0.050947476
-0.3167474 -0.15279122 0.050950315
-0.3169539 -0.15274525 0.050909355
-0.31714317 -0.15269606 0.050922651
-0.31734458 -0.1526504 0.050888631
-0.31752124 -0.15261236 0.050844304
-0.31772292 -0.15255432 0.050899088
-0.31791425 -0.15251788 0.050816655
-0.31809321 -0.15247481 0.050804608
-0.31829682 -0.15242603 0.050789036
-0.31849387 -0.15238035 0.050763093
-0.31869417 -0.15233065 0.050760217
-0.31887922 -0.15228684 0.050742384
-0.3190766 -0.15224107 0.050716452
-0.31927598 -0.15219223 0.050708957
-0.31947038 -0.15214193 0.05072109
-0.31965661 -0.15209749 0.050705563
-0.31986135 -0.1520451 0.05071421
-0.32007349 -0.15200092 0.050650172
-0.32026872 -0.151952 0.050650768
-0.32045722 -0.15190621 0.050641
-0.32065442 -0.15185936 0.050623138
-0.32085094 -0.15181141 0.050614502
-0.32104319 -0.15176484 0.050603569
-0.32123542 -0.15172324 0.050556891
-0.3214485 -0.15166889 0.050564352
-0.32163647 -0.15162708 0.05052691
-0.32182255 -0.15158013 0.050529838
-0.322027 -0.15153354 0.050496958
-0.32224086 -0.15147424 0.050539024
-0.32244265 -0.151428 0.050508466
-0.32263362 -0.15139069 0.05043295
-0.32281113 -0.15134829 0.050418597
-0.32298636 -0.15131061 0.050374273
-0.22888406 -0.1769667 0.035071265
-0.22905344 -0.17692041 0.035099607
-0.22923113 -0.17687508 0.035106018
-0.22939438 -0.17682697 0.035158586
-0.22955233 -0.17677826 0.035225004
-0.22970656 -0.17673032 0.035292581
-0.22986716 -0.17668191 0.035352074
-0.23002446 -0.17663433 0.035411574
-0.23018062 -0.17658415 0.035491832
-0.23032805 -0.17653535 0.035577878
-0.23048103 -0.17648597 0.035658155
-0.23064516 -0.17643794 0.035708413
-0.23079142 -0.1763877 0.035807148
-0.23093438 -0.17633697 0.035915118
-0.23107666 -0.17628612 0.03602539
-0.23121913 -0.17623648 0.036126446
-0.23136254 -0.17618565 0.036234416
-0.23150025 -0.17613401 0.036358535
-0.23163524 -0.17608193 0.036490738
-0.23176713 -0.17602935 0.036632173
-0.23189682 -0.17597635 0.036780544
-0.23202382 -0.1759242 0.036927752
-0.23214707 -0.17587009 0.037095733
-0.23225604 -0.17581253 0.037314489
-0.23236376 -0.17575592 0.037528634
-0.22678976 -0.17426817 0.058328383
-0.22700687 -0.1742162 0.058311611
-0.22722146 -0.17416549 0.058290243
-0.22743233 -0.17411268 0.058290787
-0.22763535 -0.17406341 0.05827982
-0.22788079 -0.17401491 0.058186881
-0.22808219 -0.17395918 0.058225498
-0.22829685 -0.17390734 0.058212206
-0.22852831 -0.17386009 0.058135435
-0.22873187 -0.17380653 0.058154456
-0.22892156 -0.17375709 0.058168888
-0.22911665 -0.1737119 0.058142968
-0.22932936 -0.17366341 0.058108915
-0.22956216 -0.17360719 0.058094412
-0.22975606 -0.17355877 0.058093853
-0.22998695 -0.17350735 0.058048218
-0.23020083 -0.17345122 0.058067203
-0.2304087 -0.1734073 0.058008958
-0.23057495 -0.17336227 0.05803385
-0.23083961 -0.17329937 0.058010027
-0.23103267 -0.17325293 0.05799678
-0.23128109 -0.17319888 0.057938416
-0.23149383 -0.17314975 0.057908982
-0.23167229 -0.17309897 0.057953432
-0.23190844 -0.17304622 0.057907786
-0.23209198 -0.17300166 0.057898037
-0.23227493 -0.17295535 0.05790212
-0.23252203 -0.17289317 0.057904862
-0.23268516 -0.17284971 0.057923995
-0.23293003 -0.17281668 0.057720371
-0.23310435 -0.17275319 0.057863992
-0.23333302 -0.17270136 0.057825278
-0.23352975 -0.17265494 0.057805106
-0.23374981 -0.17259616 0.057832152
-0.23398207 -0.17255254 0.057727709
-0.23419507 -0.17250654 0.057675216
-0.23441195 -0.17244375 0.057736848
-0.23460123 -0.17240144 0.057700563
-0.23479179 -0.17235593 0.057685025
-0.23499635 -0.17230117 0.057710953
-0.23524971 -0.17225261 0.057604153
-0.23546208 -0.1721999 0.057601232
-0.2356396 -0.17215525 0.057603031
-0.23584342 -0.17209876 0.057642799
-0.23605555 -0.1720517 0.057599522
-0.23625229 -0.17200832 0.057557449
-0.23650053 -0.17195576 0.05748871
-0.2366827 -0.17190148 0.057551604
-0.2368563 -0.17185622 0.057564929
-0.23709053 -0.17181355 0.057450116
-0.23727477 -0.17176178 0.05749109
-0.23750149 -0.17171748 0.057401657
-0.2377024 -0.17166267 0.05743451
-0.2378628 -0.17161798 0.057467487
-0.23810162 -0.17156969 0.057384938
-0.23827535 -0.17151529 0.057463996
-0.23850212 -0.17146586 0.057411455
-0.23871952 -0.17141396 0.057393536
-0.23890959 -0.17136809 0.057381459
-0.2391592 -0.17131774 0.057294264
-0.23931512 -0.1712721 0.057342242
-0.23950917 -0.17122763 0.057312861
-0.2397349 -0.1711767 0.057273008
-0.23994771 -0.17111605 0.057326585
-0.24013847 -0.1710729 0.057293754
-0.24033006 -0.17102201 0.057315107
-0.24055196 -0.17097235 0.057272956
-0.24075377 -0.17092884 0.057222802
-0.24095154 -0.17088008 0.057217624
-0.24118227 -0.17082742 0.057181217
-0.24138482 -0.17078452 0.057125282
-0.24155638 -0.170738 0.05715131
-0.24178651 -0.17068133 0.05714488
-0.24196541 -0.17063729 0.057139754
-0.2421371 -0.17058884 0.057179615
-0.24240151 -0.17054597 0.057011668
-0.24259883 -0.17049143 0.057049152
-0.24279608 -0.17044328 0.057040513
-0.24299094 -0.17039655 0.057026114
-0.24313188 -0.17035273 0.057087969
-0.24335974 -0.17031117 0.056976631
-0.24357739 -0.17025314 0.057002515
-0.24379955 -0.17020118 0.056976516
-0.24397752 -0.17015977 0.056954093
-0.24420345 -0.17010719 0.056925766
-0.24439396 -0.17006169 0.056910232
-0.24459128 -0.17000763 0.056944255
-0.24478921 -0.16996507 0.056894101
-0.24500209 -0.16991703 0.056856591
-0.24518889 -0.16986591 0.056888346
-0.24534196 -0.16982003 0.056943242
-0.24553408 -0.1697917 0.056800872
-0.24574167 -0.16973969 0.056801431
-0.24595115 -0.16968387 0.056826185
-0.24611337 -0.16963473 0.056887984
-0.24640281 -0.16959041 0.056685377
-0.24657635 -0.16954133 0.056726381
-0.24676181 -0.16948767 0.056778893
-0.24691063 -0.16944492 0.056818813
-0.24717519 -0.16939595 0.056694679
-0.24736521 -0.16934435 0.056724116
-0.2475764 -0.16930439 0.056631267
-0.24775888 -0.16925451 0.056661874
-0.24796103 -0.16920595 0.056647453
-0.24815558 -0.16915657 0.056652658
-0.24835309 -0.16911109 0.056624416
-0.24855202 -0.16906635 0.056588106
-0.24872887 -0.1690166 0.056627952
-0.24893755 -0.16896898 0.056595061
-0.24914134 -0.16892686 0.056531057
-0.24933217 -0.16887619 0.056552418
-0.24950282 -0.16883133 0.056568071
-0.24967594 -0.16879034 0.05655143
-0.24989477 -0.16873249 0.05657386
-0.25010222 -0.16868757 0.056523681
-0.2502673 -0.16864809 0.056510523
-0.25051025 -0.16860005 0.056418736
-0.25069618 -0.16854995 0.056444723
-0.2508871 -0.16850244 0.056443021
-0.25108078 -0.16845647 0.056425165
-0.25127238 -0.16840671 0.056438453
-0.25147054 -0.16836329 0.056394067
-0.25166318 -0.16831423 0.056400426
-0.25186142 -0.16827112 0.05635374
-0.2520577 -0.16822706 0.056317434
-0.25225201 -0.16818205 0.056291502
-0.25243896 -0.16813298 0.056308262
-0.2526274 -0.16808768 0.056295037
-0.25282726 -0.16804032 0.056276008
-0.25301692 -0.16799296 0.056275468
-0.25320676 -0.16794875 0.056251854
-0.25339586 -0.16790122 0.056253623
-0.25359601 -0.16785443 0.056229986
-0.25379142 -0.1678109 0.056191374
-0.25398278 -0.16776504 0.056176983
-0.25417334 -0.16771872 0.056167215
-0.25436291 -0.16767187 0.056163207
-0.25454342 -0.16761929 0.056216877
-0.25473961 -0.16757366 0.0561921
-0.25494006 -0.16753414 0.05611543
-0.25514027 -0.16749468 0.056038748
-0.25532708 -0.16744645 0.056049742
-0.25551251 -0.16740382 0.056022692
-0.25569171 -0.16735044 0.056084435
-0.25588906 -0.16729973 0.056094252
-0.25609159 -0.16726273 0.055995654
-0.25627279 -0.16721077 0.056043565
-0.25646701 -0.16716819 0.056000341
-0.25666556 -0.16712548 0.055950195
-0.25685716 -0.1670813 0.055923119
-0.25704083 -0.16703129 0.055952571
-0.25721505 -0.16697404 0.056051224
-0.25742301 -0.16693905 0.055928413
-0.25761595 -0.1668963 0.055888649
-0.25780243 -0.16684861 0.055896185
-0.25799069 -0.16680241 0.055889878
-0.25817966 -0.16676049 0.055851284
-0.25831649 -0.16672425 0.05586588
-0.25853068 -0.1666698 0.05587218
-0.25875401 -0.16662313 0.055805814
-0.25892079 -0.16658197 0.055801876
-0.25913411 -0.16653478 0.055757448
-0.25932264 -0.16648945 0.055744227
-0.25951022 -0.16644341 0.055737913
-0.25970566 -0.16640052 0.055694696
-0.25989282 -0.16635425 0.055690702
-0.2600776 -0.16630588 0.055706307
-0.26026788 -0.16626267 0.055674627
-0.26045886 -0.16622026 0.05563603
-0.26064074 -0.16616926 0.055675864
-0.26082915 -0.1661246 0.05565802
-0.26101544 -0.16607362 0.055689767
-0.26121327 -0.16603859 0.055585437
-0.26139724 -0.16598977 0.05560565
-0.26158026 -0.16593993 0.055635106
-0.2617754 -0.16590285 0.055550374
-0.26196793 -0.16585876 0.055520996
-0.26215082 -0.16580895 0.055550445
-0.26231542 -0.16577151 0.055523451
-0.26252544 -0.16571908 0.055522844
-0.26271293 -0.16567449 0.055506166
-0.26290053 -0.16563021 0.055487178
-0.26308173 -0.16558336 0.055498186
-0.26326579 -0.1655449 0.055443473
-0.26345938 -0.16549817 0.055431373
-0.2636542 -0.16545303 0.055405449
-0.26383632 -0.16541281 0.055366877
-0.26402622 -0.16536173 0.055392854
-0.26420486 -0.16531728 0.055391181
-0.26439905 -0.16527182 0.055368718
-0.26456973 -0.16523319 0.0553394
-0.26475391 -0.16518545 0.055351559
-0.26490366 -0.16514054 0.055405311
-0.26513705 -0.16509376 0.055321626
-0.2653363 -0.16505632 0.055232279
-0.26552129 -0.16500421 0.055274401
-0.26570413 -0.16495472 0.055301547
-0.2658903 -0.1649103 0.05528602
-0.26608562 -0.16487399 0.055195522
-0.26627299 -0.16483183 0.055161551
-0.26645723 -0.16478486 0.055167932
-0.26664099 -0.16473708 0.055181243
-0.26682916 -0.16469008 0.055180695
-0.26701695 -0.16464926 0.055136345
-0.26720119 -0.16460246 0.055141576
-0.2673851 -0.16455509 0.055151429
-0.26757583 -0.16451305 0.055110522
-0.26772109 -0.16448045 0.055083588
-0.26794747 -0.16442585 0.055069096
-0.26812333 -0.16437809 0.055096261
-0.2682811 -0.16434014 0.055085428
-0.2685017 -0.16429752 0.054994863
-0.26868707 -0.16424578 0.055033527
-0.26887408 -0.16419734 0.055045679
-0.2690593 -0.16416164 0.054969039
-0.26924926 -0.16412011 0.054925837
-0.26943401 -0.16407557 0.054913774
-0.26960066 -0.16403283 0.05492137
-0.2697823 -0.16398093 0.054968111
-0.269979 -0.16393819 0.05492143
-0.27017817 -0.16389263 0.054890878
-0.27035943 -0.16384926 0.054876521
-0.27055082 -0.16380323 0.054863282
-0.27073386 -0.16375466 0.05488351
-0.27091026 -0.16370821 0.0549003
-0.27109209 -0.16367799 0.054790244
-0.27127266 -0.16363338 0.054786257
-0.27147266 -0.16358055 0.054806441
-0.27166423 -0.16353607 0.054781675
-0.27184936 -0.1634948 0.054745402
-0.27203637 -0.16344762 0.054748315
-0.2722109 -0.16340788 0.054720145
-0.27240321 -0.16335329 0.05476686
-0.2725876 -0.16330998 0.054746732
-0.27275217 -0.16327463 0.054704756
-0.27294016 -0.163232 0.054673079
-0.27310857 -0.16318211 0.054729093
-0.27331337 -0.16313449 0.054703131
-0.27351502 -0.16308956 0.054663353
-0.27370277 -0.16304684 0.054632831
-0.27388647 -0.16300192 0.054625388
-0.27406657 -0.16295663 0.054627173
-0.27425385 -0.16291195 0.054611646
-0.27444109 -0.16286743 0.054594968
-0.27463156 -0.16282129 0.054584038
-0.27481535 -0.16277765 0.054567367
-0.27498236 -0.16274057 0.054533452
-0.27516532 -0.16269009 0.054567516
-0.27536327 -0.16265009 0.054498918
-0.27552643 -0.1626111 0.054485764
-0.2757307 -0.1625668 0.054436743
-0.27592424 -0.16251878 0.054433882
-0.27611077 -0.16246854 0.05445987
-0.27628019 -0.16241808 0.054518182
-0.27645367 -0.16238004 0.054479629
-0.27663404 -0.1623473 0.05439033
-0.27683103 -0.1623029 0.054355174
-0.27701092 -0.16225782 0.054355808
-0.2771942 -0.16220695 0.054392181
-0.27739111 -0.16216049 0.054372005
-0.27756083 -0.16211922 0.054363452
-0.2777575 -0.16207938 0.054296009
-0.27795422 -0.16203265 0.054278146
-0.27811676 -0.16200021 0.054218881
-0.27832058 -0.16194421 0.054255188
-0.27850702 -0.16190068 0.054232746
-0.27867043 -0.16185285 0.054283004
-0.27887991 -0.16181237 0.054197084
-0.27905929 -0.16177221 0.054163124
-0.27923566 -0.16172864 0.054159161
-0.27941284 -0.16167769 0.054207075
-0.27959323 -0.16162834 0.054237686
-0.27979991 -0.16158007 0.054212879
-0.27997938 -0.16153862 0.054188147
-0.28017524 -0.16149658 0.054138009
-0.28034106 -0.16145836 0.054114468
-0.2805382 -0.16140722 0.054127734
-0.28071693 -0.16136929 0.054078791
-0.28088987 -0.16132692 0.054072537
-0.28108454 -0.16127206 0.054116935
-0.28126085 -0.16122933 0.054107204
-0.2814588 -0.16119124 0.054024775
-0.28164941 -0.16114125 0.054041523
-0.28182009 -0.16109464 0.054069854
-0.28200001 -0.16105002 0.054067031
-0.2821641 -0.16101846 0.053998534
-0.28235355 -0.16098697 0.053883839
-0.28256339 -0.16093665 0.053868249
-0.28272972 -0.16089496 0.053868923
-0.28292847 -0.16083878 0.053915616
-0.28312474 -0.16079201 0.053898916
-0.28329992 -0.16075289 0.053864978
-0.28348449 -0.16070297 0.053892106
-0.28366658 -0.16066165 0.053861611
-0.28383377 -0.16062789 0.053803481
-0.28402898 -0.16057435 0.053837501
-0.28421167 -0.16053097 0.053820837
-0.28439128 -0.16047798 0.053879119
-0.28458616 -0.16044465 0.053767879
-0.28474319 -0.16041246 0.053716689
-0.28495458 -0.16035776 0.053729922
-0.28511256 -0.16032262 0.053698331
-0.28529796 -0.16028 0.053671278
-0.28549552 -0.16022955 0.053678785
-0.28567359 -0.16018206 0.053700175
-0.28585419 -0.16013598 0.053706579
-0.2860319 -0.16009736 0.053664554
-0.28622314 -0.16004786 0.053676683
-0.28642491 -0.16000259 0.053639207
-0.28662258 -0.15995242 0.0536444
-0.28677866 -0.1599144 0.053637035
-0.28697941 -0.15987131 0.053585723
-0.28716245 -0.15982704 0.053574823
-0.28736851 -0.15976536 0.053648017
-0.2875551 -0.15972677 0.053589828
-0.28772804 -0.15969141 0.053532839
-0.28790605 -0.1596452 0.053545013
-0.28810465 -0.15959992 0.053513311
-0.28827232 -0.15956891 0.05343442
-0.28842914 -0.15952943 0.053436276
-0.28864476 -0.15946792 0.053491004
-0.28882137 -0.15942493 0.053482421
-0.28901356 -0.1593862 0.053414989
-0.28917751 -0.15935038 0.053377625
-0.28936696 -0.15929988 0.053400144
-0.28955784 -0.1592578 0.053359237
-0.2897495 -0.15921426 0.053327553
-0.28992569 -0.15916675 0.053352408
-0.29009825 -0.15912589 0.053335767
-0.29028618 -0.15908375 0.053300638
-0.29045767 -0.15904477 0.053272475
-0.29066539 -0.1589886 0.053303003
-0.29085475 -0.15893906 0.053318609
-0.29103106 -0.15889695 0.053304259
-0.29123038 -0.15885037 0.053280629
-0.29140329 -0.15881391 0.053231701
-0.2916019 -0.15876384 0.053234588
-0.29178861 -0.15871897 0.053221371
-0.29195663 -0.15868101 0.053192057
-0.29213452 -0.15863195 0.053224985
-0.29233399 -0.15858981 0.05316906
-0.29250604 -0.15854557 0.053177793
-0.29268727 -0.15850495 0.053143837
-0.29285425 -0.15846851 0.053105302
-0.29306361 -0.1584156 0.053109318
-0.29323176 -0.15837745 0.053081159
-0.29342949 -0.15832503 0.053102493
-0.29363221 -0.15827793 0.05307655
-0.2938104 -0.15822944 0.053104859
-0.29399782 -0.15818408 0.053093936
-0.29417828 -0.15813662 0.053110711
-0.29434106 -0.1581022 0.053065285
-0.29453421 -0.15805686 0.053043973
-0.29471323 -0.15801933 0.052991569
-0.29490864 -0.15797469 0.052961025
-0.29508623 -0.15792763 0.052980117
-0.29526863 -0.15788928 0.05292771
-0.29545054 -0.15784033 0.05295255
-0.29564485 -0.15778255 0.053018868
-0.29582411 -0.15775199 0.052915737
-0.29601073 -0.15771531 0.052843712
-0.29620391 -0.15766291 0.052873131
-0.29638758 -0.15761928 0.05285646
-0.29658741 -0.15757275 0.052831672
-0.2967591 -0.15753034 0.052827723
-0.29695153 -0.15748964 0.052774124
-0.29713699 -0.1574371 0.052818559
-0.29732698 -0.15739605 0.052771896
-0.29751891 -0.15734924 0.052763268
-0.29767543 -0.15731224 0.052747823
-0.29787165 -0.15726036 0.052768018
-0.29806831 -0.1572146 0.052743237
-0.29824534 -0.1571728 0.052725438
-0.2984376 -0.15712909 0.052693754
-0.29863521 -0.1570823 0.052674729
-0.29878393 -0.1570514 0.052629337
-0.29899779 -0.15699528 0.052648321
-0.29918456 -0.15694864 0.052647788
-0.29936475 -0.15690653 0.052626513
-0.29953563 -0.15686274 0.052634086
-0.29971224 -0.15682775 0.052567858
-0.29991317 -0.1567715 0.052611098
-0.30010065 -0.1567274 0.052590951
-0.30029398 -0.15668871 0.052521221
-0.30046004 -0.15665635 0.052455019
-0.30065218 -0.15660134 0.052505199
-0.30085 -0.15655482 0.052483875
-0.30103555 -0.15650144 0.052534077
-0.30122229 -0.15646408 0.052466661
-0.30141267 -0.15642278 0.052421145
-0.30159974 -0.15637654 0.052417152
-0.30180067 -0.15632142 0.052452318
-0.30197725 -0.15628356 0.05240684
-0.30215663 -0.15624276 0.0523775
-0.30235118 -0.15618907 0.052413829
-0.30253252 -0.15614633 0.052394859
-0.30272472 -0.15610601 0.052338962
-0.30290204 -0.15606476 0.052316543
-0.30308339 -0.15601948 0.052316025
-0.30326724 -0.15597437 0.052309733
-0.30345705 -0.15593384 0.052259602
-0.30361712 -0.15589947 0.052218787
-0.30382809 -0.155838 0.052281592
-0.30401355 -0.15578641 0.052319106
-0.30421555 -0.15574427 0.052258577
-0.30437726 -0.15571348 0.052188929
-0.30456117 -0.15566868 0.052180327
-0.30476278 -0.15560938 0.052244317
-0.30494007 -0.15557852 0.052146949
-0.30513975 -0.15552628 0.052163675
-0.30533162 -0.1554766 0.052175801
-0.30551916 -0.15543601 0.052130297
-0.30570745 -0.1553826 0.052175868
-0.30590963 -0.15533802 0.052132633
-0.30605996 -0.15531294 0.052042264
-0.30625084 -0.15526927 0.052012891
-0.30644414 -0.15521398 0.052063059
-0.30663601 -0.15516718 0.052054435
-0.30683312 -0.15511332 0.052087314
-0.30700994 -0.15508036 0.052006088
-0.30721346 -0.15503241 0.05198475
-0.30740565 -0.15498555 0.051976122
-0.30758426 -0.1549395 0.051985987
-0.30775502 -0.15490054 0.051958978
-0.30796769 -0.15484919 0.051945679
-0.30816457 -0.15479842 0.051956646
-0.30833477 -0.15476231 0.051910035
-0.30852142 -0.15471841 0.051889904
-0.30870539 -0.15467472 0.051873222
-0.30889151 -0.1546292 0.051865775
-0.30907062 -0.15458544 0.051858336
-0.30925393 -0.15454462 0.051822066
-0.30945909 -0.1544937 0.051819175
-0.30964759 -0.15444423 0.051835917
-0.30984956 -0.15439619 0.05181805
-0.31002235 -0.15436232 0.051750675
-0.3102015 -0.15432093 0.05172595
-0.31040272 -0.15426525 0.05176457
-0.31058976 -0.15422367 0.051727131
-0.3107782 -0.15417884 0.051710453
-0.31095898 -0.15414041 0.051661506
-0.31116819 -0.15408672 0.051671274
-0.31135824 -0.15403256 0.051719155
-0.31152624 -0.15400068 0.051646031
-0.31172094 -0.15395302 0.051638551
-0.31191379 -0.15390694 0.051623005
-0.31208813 -0.15387186 0.0515614
-0.31228286 -0.15381637 0.051610418
-0.31247699 -0.15377142 0.051584493
-0.31267235 -0.1537255 0.051563177
-0.3128511 -0.15369093 0.051490024
-0.3130354 -0.15364411 0.051495254
-0.31323683 -0.15359157 0.051510815
-0.31342953 -0.1535441 0.051505648
-0.31362778 -0.15349619 0.051493548
-0.31378898 -0.1534601 0.051463109
-0.31396934 -0.1534224 0.051409554
-0.31419864 -0.15335427 0.051487293
-0.31439769 -0.15330601 0.051476341
-0.31458253 -0.15326688 0.051425084
-0.31475782 -0.1532295 0.051378459
-0.3149564 -0.15317801 0.051391721
-0.31514513 -0.15313038 0.051394641
-0.31534573 -0.15308493 0.051360622
-0.31555346 -0.15303594 0.051339272
-0.31573343 -0.15299515 0.05130877
-0.31591865 -0.15294315 0.051349744
-0.31613433 -0.15289201 0.05132952
-0.31630972 -0.152853 0.051294431
-0.31651029 -0.15280244 0.051297311
-0.31670633 -0.15275893 0.051257547
-0.31686893 -0.15272056 0.051240936
-0.31707796 -0.15267283 0.051208045
-0.317256 -0.1526338 0.051168334
-0.31743968 -0.15258889 0.051160891
-0.3176606 -0.15253085 0.051181007
-0.31785947 -0.15248375 0.05116199
-0.31805086 -0.15243867 0.051141832
-0.31822273 -0.15239911 0.05111713
-0.3184253 -0.15234086 0.05117188
-0.31860971 -0.15230615 0.051089495
-0.31880736 -0.15226191 0.05105203
-0.31902018 -0.15220173 0.051102147
-0.31920594 -0.15216269 0.051048577
-0.31939256 -0.15212137 0.05100999
-0.3196114 -0.15206736 0.051004741
-0.31978789 -0.15202153 0.051016919
-0.31999198 -0.15197472 0.050986353
-0.32018751 -0.15192398 0.05099963
-0.3203603 -0.15189089 0.050926495
-0.32054698 -0.15184811 0.050898284
-0.32075053 -0.15179856 0.050888468
-0.32094884 -0.15174617 0.050908655
-0.32112959 -0.15170439 0.050883919
-0.32134268 -0.15164846 0.050902907
-0.32153589 -0.15160309 0.050881594
-0.32174855 -0.15155734 0.050827943
-0.32193559 -0.15150984 0.050833177
-0.32212839 -0.15146329 0.050821092
-0.32233617 -0.1514098 0.050832018
-0.32251772 -0.15137261 0.050772693
-0.32269973 -0.15133035 0.050749112
-0.3229163 -0.15127116 0.050785381
-0.22876132 -0.17695186 0.035399996
-0.2289373 -0.17690614 0.035412207
-0.22911738 -0.17685974 0.035422094
-0.22929071 -0.17681262 0.035449296
-0.22946279 -0.1767666 0.035470735
-0.22962864 -0.17671992 0.035508331
-0.2297895 -0.17667145 0.035567846
-0.22995424 -0.17662343 0.035616972
-0.2301112 -0.17657448 0.03568688
-0.23027465 -0.17652632 0.035739467
-0.23042735 -0.17647684 0.035820913
-0.23058234 -0.17642887 0.035887357
-0.23073772 -0.17637968 0.035961878
-0.23089319 -0.17633176 0.036027174
-0.23104273 -0.17628179 0.036117844
-0.23119274 -0.17623059 0.036216587
-0.23133914 -0.17618012 0.036316492
-0.23147899 -0.17613003 0.036425631
-0.23162815 -0.17607984 0.036518611
-0.23175874 -0.17602839 0.036654305
-0.23189583 -0.17597514 0.03679112
-0.23202899 -0.17592256 0.036930267
-0.23215871 -0.17586939 0.037079785
-0.23228619 -0.17581712 0.037227012
-0.23240961 -0.17576154 0.037405375
-0.23253089 -0.1757068 0.037581436
-0.23264325 -0.17565063 0.037784044
-0.22713308 -0.17414734 0.058580749
-0.22735086 -0.17409711 0.058550179
-0.22756761 -0.17404522 0.058533464
-0.22777568 -0.17399357 0.058530591
-0.22797211 -0.17393845 0.058573864
-0.22822446 -0.17389284 0.058447525
-0.22841753 -0.17383727 0.058500037
-0.22863312 -0.17378886 0.058460258
-0.22881962 -0.17374197 0.058462054
-0.22907613 -0.17368796 0.058388732
-0.22928402 -0.17363526 0.058393933
-0.22947696 -0.17359139 0.058362283
-0.22968245 -0.17354167 0.058350205
-0.22992796 -0.17348291 0.058331087
-0.23010468 -0.17342967 0.058396325
-0.23034884 -0.17338578 0.05827231
-0.23055576 -0.17332835 0.058313258
-0.23075974 -0.17328045 0.058290802
-0.2309493 -0.17323488 0.058277607
-0.23121671 -0.17318103 0.058183506
-0.23142725 -0.17312798 0.058186386
-0.23162937 -0.17307669 0.058191609
-0.23182912 -0.1730233 0.05821643
-0.23204798 -0.17297727 0.058153585
-0.23222739 -0.17293182 0.058157708
-0.23245931 -0.17288013 0.058112122
-0.23268941 -0.17282474 0.058096517
-0.23288788 -0.17277662 0.058085598
-0.23306695 -0.17272615 0.058126621
-0.23325464 -0.17268631 0.058075394
-0.23346148 -0.17263146 0.058097884
-0.23370528 -0.172576 0.058058035
-0.2339005 -0.17253284 0.058017153
-0.2341211 -0.17247775 0.058016561
-0.23432346 -0.17242929 0.058001019
-0.23457386 -0.17237586 0.057934631
-0.23479334 -0.1723244 0.057909831
-0.23498954 -0.17227301 0.057926595
-0.23517123 -0.17222364 0.057954922
-0.23535678 -0.17217523 0.057969406
-0.23557775 -0.17212994 0.057897329
-0.23578854 -0.17207682 0.05790022
-0.2360101 -0.17202644 0.057863887
-0.23621684 -0.17197433 0.057866778
-0.2363992 -0.17193103 0.057850152
-0.2365873 -0.17187431 0.057919968
-0.23684862 -0.17182326 0.057816654
-0.23705336 -0.17177661 0.057783827
-0.23725215 -0.17173415 0.057731401
-0.23745568 -0.17167981 0.057756223
-0.23767589 -0.17163567 0.057677232
-0.23787886 -0.17158514 0.057675526
-0.2380639 -0.1715375 0.057685401
-0.2382479 -0.17149155 0.057684906
-0.23843406 -0.17144042 0.057717837
-0.23864672 -0.17139675 0.057649244
-0.23887193 -0.17134896 0.057587534
-0.2390655 -0.17130014 0.05759047
-0.23929624 -0.17124635 0.05756218
-0.2394782 -0.17119628 0.057595115
-0.23973189 -0.17113948 0.057547159
-0.23991349 -0.17109141 0.05756627
-0.24011953 -0.17104267 0.057546113
-0.24032223 -0.17099907 0.057494838
-0.2405086 -0.17095061 0.057508171
-0.24072249 -0.17090662 0.057439573
-0.2409229 -0.17085449 0.057454016
-0.24114177 -0.17080207 0.057437293
-0.24132188 -0.17076428 0.057384916
-0.24153338 -0.1707097 0.05739703
-0.24173671 -0.1706567 0.057412628
-0.24192899 -0.17060851 0.057413258
-0.24210903 -0.17055844 0.057449657
-0.24235551 -0.17051366 0.057327941
-0.24250913 -0.17046331 0.057413992
-0.24274413 -0.17042139 0.057292309
-0.24295528 -0.1703629 0.057333242
-0.2431626 -0.17031609 0.057296939
-0.24334393 -0.17027113 0.057294149
-0.24357186 -0.17022091 0.057245106
-0.24376179 -0.17016821 0.057282638
-0.24395767 -0.17012872 0.057214089
-0.24415596 -0.17007472 0.057245839
-0.24436247 -0.17002378 0.057240665
-0.24454619 -0.16998237 0.057207894
-0.24477136 -0.16993189 0.057165772
-0.24495354 -0.1698765 0.057236765
-0.24514906 -0.16983533 0.0571809
-0.24537875 -0.16979155 0.057082281
-0.24557295 -0.16974097 0.05709675
-0.24570513 -0.16969599 0.057182856
-0.24594668 -0.16966905 0.056941256
-0.24616539 -0.16960053 0.057040952
-0.24631673 -0.16956098 0.057053231
-0.24656081 -0.16951232 0.056963798
-0.24675605 -0.16945542 0.057022069
-0.24695173 -0.16941071 0.056991562
-0.24711673 -0.16935784 0.057075284
-0.24732815 -0.16932245 0.056949049
-0.24754971 -0.16926488 0.056964591
-0.24770121 -0.16922082 0.057009134
-0.24795364 -0.16917455 0.056887403
-0.24814682 -0.16912439 0.056900717
-0.24834175 -0.16907507 0.0569048
-0.24852715 -0.16903403 0.056866258
-0.24874237 -0.16898413 0.056838006
-0.24893387 -0.16893598 0.056839801
-0.24912906 -0.16888708 0.056840423
-0.24931207 -0.16884792 0.056792662
-0.24952607 -0.16879527 0.056786314
-0.24971522 -0.16874628 0.056798488
-0.24991453 -0.16869971 0.056774892
-0.25011268 -0.16865532 0.056737464
-0.25030032 -0.16860576 0.05675656
-0.25048882 -0.16856475 0.05671224
-0.25070089 -0.16851705 0.056673624
-0.25089219 -0.16846959 0.0566708
-0.25107473 -0.16842034 0.056696814
-0.25124472 -0.1683782 0.056694057
-0.25145653 -0.16832803 0.056673884
-0.25167108 -0.16828227 0.056616809
-0.2518661 -0.16823725 0.056589775
-0.252049 -0.16819413 0.056570828
-0.25225294 -0.16814575 0.056551836
-0.25244716 -0.16809772 0.056547843
-0.2526421 -0.16805017 0.056539252
-0.25281683 -0.16800557 0.056545697
-0.25298923 -0.16796555 0.056523323
-0.25323036 -0.16791603 0.056445435
-0.25342563 -0.16787206 0.05641032
-0.25361344 -0.16782372 0.056420192
-0.2538088 -0.167777 0.056404673
-0.25399503 -0.16772778 0.056423768
-0.25418925 -0.16768359 0.056392107
-0.25438368 -0.16763967 0.056358159
-0.25457582 -0.1675944 0.056338038
-0.25476307 -0.16754605 0.056349058
-0.2549597 -0.16750076 0.056320861
-0.25514421 -0.1674507 0.056349181
-0.25533596 -0.16740552 0.056329064
-0.25553018 -0.16736212 0.056291655
-0.25572422 -0.16731878 0.056254234
-0.25590989 -0.16726971 0.056273326
-0.25611883 -0.16723381 0.056155171
-0.25629488 -0.16717802 0.056240015
-0.25648582 -0.1671329 0.056221046
-0.25667211 -0.16708446 0.056234375
-0.25686222 -0.1670389 0.056220032
-0.25704634 -0.16698892 0.056248352
-0.25724944 -0.16694987 0.05616365
-0.25743705 -0.16690269 0.056165442
-0.25763205 -0.16686134 0.056111887
-0.2578184 -0.16681336 0.056121763
-0.25799978 -0.16677238 0.056090146
-0.25818437 -0.16672309 0.056112699
-0.25838616 -0.16667302 0.056109846
-0.25857472 -0.16662703 0.05610127
-0.25876802 -0.16658516 0.056054629
-0.2589561 -0.16653898 0.056048352
-0.25915056 -0.16649458 0.056017861
-0.25933963 -0.16644944 0.056002356
-0.25952831 -0.16640408 0.055989165
-0.25973517 -0.16637526 0.055823743
-0.25990856 -0.1663163 0.055936262
-0.26009625 -0.16627039 0.055928838
-0.26029155 -0.16622753 0.055885646
-0.26047668 -0.16617937 0.055898983
-0.26066402 -0.16613755 0.055862743
-0.26085049 -0.16608651 0.055894516
-0.26103941 -0.16604219 0.055873256
-0.26123318 -0.16600291 0.055807021
-0.26140869 -0.16595396 0.055843432
-0.261603 -0.16590671 0.055833694
-0.2617721 -0.16586895 0.055800948
-0.26197782 -0.16582046 0.055779643
-0.26217511 -0.16577677 0.055738758
-0.26236218 -0.16573134 0.055729028
-0.26255161 -0.16568388 0.055729676
-0.2627404 -0.16564056 0.055701487
-0.26292762 -0.16559556 0.05568831
-0.26311511 -0.16555592 0.055635914
-0.26327786 -0.16550681 0.055696581
-0.26348835 -0.16545504 0.055690248
-0.26368243 -0.16541888 0.055600949
-0.26385227 -0.16536815 0.055660449
-0.26405102 -0.16532268 0.055629931
-0.26423386 -0.1652727 0.055660568
-0.2644287 -0.16523315 0.055594329
-0.26461354 -0.16518587 0.055601899
-0.26479226 -0.1651414 0.055600256
-0.26498926 -0.16509987 0.055544388
-0.26517132 -0.16507182 0.055418238
-0.26532763 -0.16504778 0.055309441
-0.26555738 -0.16497301 0.05543448
-0.26572865 -0.16490595 0.055609256
-0.265917 -0.16487649 0.055481933
-0.26610872 -0.16482812 0.055484872
-0.26631087 -0.16480272 0.05530332
-0.26649028 -0.16474769 0.055376627
-0.26667321 -0.16469818 0.055403803
-0.266855 -0.1646467 0.055447116
-0.26704404 -0.16460077 0.05543739
-0.26723176 -0.16455948 0.055396531
-0.26741737 -0.16451472 0.055384494
-0.2676045 -0.16447279 0.055349402
-0.26779276 -0.16442594 0.055347748
-0.2679663 -0.16438803 0.055308074
-0.26814643 -0.16434816 0.055270694
-0.2683503 -0.16430219 0.05523441
-0.26853842 -0.16424771 0.05528808
-0.26871544 -0.16420989 0.055241492
-0.26885995 -0.1641762 0.055223808
-0.2690503 -0.1641515 0.055058435
-0.26928109 -0.1640822 0.055141967
-0.26947188 -0.16403359 0.055148371
-0.26964676 -0.16398305 0.05519747
-0.26984331 -0.16393924 0.055158895
-0.27003166 -0.16389395 0.0551457
-0.27021691 -0.16385056 0.05512445
-0.27038699 -0.16380665 0.055134367
-0.27057144 -0.16376123 0.05512926
-0.2707746 -0.16371641 0.055086054
-0.2709592 -0.16367175 0.05507518
-0.27114666 -0.16362461 0.055076983
-0.27133095 -0.16357923 0.055071868
-0.2715196 -0.1635361 0.055042539
-0.27170336 -0.16348925 0.055048961
-0.27189237 -0.16344781 0.05500694
-0.27207547 -0.16339871 0.055030655
-0.27224931 -0.16335547 0.055029038
-0.27242801 -0.16331707 0.054983594
-0.27261755 -0.16327932 0.054913901
-0.27282426 -0.16322322 0.054945633
-0.27300906 -0.16318154 0.054912847
-0.27319747 -0.16314024 0.054870836
-0.273384 -0.1630903 0.054894544
-0.27356711 -0.16304074 0.054921716
-0.27374041 -0.16299555 0.054935083
-0.27392629 -0.16296127 0.054846961
-0.27412722 -0.1629122 0.054838352
-0.27430764 -0.16286778 0.054833248
-0.27449563 -0.16282722 0.05478663
-0.27466339 -0.1627938 0.054725073
-0.27482554 -0.16274467 0.054786887
-0.2750186 -0.16268912 0.054839395
-0.27524102 -0.16264603 0.054748874
-0.27542791 -0.1625976 0.054761056
-0.27560395 -0.16254358 0.054833211
-0.2757757 -0.16252288 0.054672495
-0.27598992 -0.16247067 0.05466269
-0.27616632 -0.1624199 0.054710634
-0.2763432 -0.16237749 0.054697473
-0.2765474 -0.1623324 0.05465427
-0.27673453 -0.16229221 0.054606494
-0.27690107 -0.16225126 0.054601427
-0.277071 -0.16221106 0.054584835
-0.27728847 -0.16215803 0.054575022
-0.27747196 -0.16211268 0.05457107
-0.27762833 -0.16207124 0.054587938
-0.27783251 -0.1620121 0.054646187
-0.27803281 -0.16196959 0.054591458
-0.27821627 -0.16192633 0.054572511
-0.27839994 -0.16187854 0.054585852
-0.27858344 -0.161834 0.054576129
-0.2787801 -0.16179143 0.054528337
-0.27896711 -0.16174425 0.054531295
-0.27912936 -0.16171332 0.054461673
-0.27932936 -0.16166784 0.054428857
-0.27951649 -0.16161887 0.054444488
-0.27969623 -0.16157702 0.054422103
-0.27987519 -0.16154096 0.054359362
-0.28008023 -0.16148111 0.054421067
-0.28026369 -0.16143578 0.054417115
-0.28043726 -0.16139115 0.054425862
-0.28062034 -0.16134848 0.054403469
-0.28082082 -0.16129889 0.054399468
-0.28098893 -0.16126697 0.054326374
-0.28118497 -0.16122344 0.054286651
-0.28137589 -0.16117272 0.054308038
-0.28153524 -0.16113484 0.054293774
-0.28174132 -0.16108897 0.054252863
-0.28192133 -0.16104466 0.05424777
-0.28208429 -0.16100477 0.054241564
-0.28229719 -0.16094312 0.054302096
-0.28248876 -0.16090406 0.054238163
-0.28267583 -0.16085719 0.054238811
-0.2828519 -0.16081592 0.054218732
-0.2830393 -0.16077968 0.05414214
-0.28322527 -0.16073659 0.054117426
-0.28341296 -0.16068748 0.054133065
-0.28359506 -0.1606468 0.05409798
-0.2837657 -0.16061264 0.054036424
-0.28394848 -0.1605694 0.054018639
-0.28414968 -0.16051739 0.054030769
-0.28432238 -0.16047634 0.05401532
-0.284484 -0.16044971 0.053915735
-0.28465217 -0.1604034 0.053946409
-0.28484598 -0.16034621 0.054009292
-0.28503931 -0.16029091 0.054059498
-0.28523678 -0.16024159 0.054058958
-0.28543258 -0.16019684 0.054028459
-0.28562438 -0.16015437 0.05398874
-0.28580919 -0.16011398 0.053946741
-0.2859925 -0.16006948 0.053937018
-0.28616104 -0.16003121 0.053908896
-0.28634465 -0.159986 0.053903792
-0.28651589 -0.15994851 0.053865276
-0.28671157 -0.15989645 0.053887811
-0.28690222 -0.15984915 0.053884987
-0.28707081 -0.15981072 0.053858012
-0.28726274 -0.15977414 0.05377565
-0.28745344 -0.15972666 0.053773977
-0.2876282 -0.15967472 0.053833451
-0.28780672 -0.15964706 0.053710766
-0.28800702 -0.15959226 0.053744815
-0.28819627 -0.15954803 0.053722393
-0.28839684 -0.15950513 0.053669974
-0.28857711 -0.1594609 0.053663719
-0.28876239 -0.15941271 0.053677052
-0.28892997 -0.15937023 0.05368121
-0.28913662 -0.15932117 0.053662211
-0.28931323 -0.1592841 0.053611003
-0.28947726 -0.15924281 0.053612873
-0.28964546 -0.15919937 0.053622793
-0.28984368 -0.15914428 0.053662606
-0.29002997 -0.15910031 0.053643659
-0.29022408 -0.15905295 0.053635061
-0.2904028 -0.1590171 0.053571172
-0.29060078 -0.15897821 0.053494539
-0.29077911 -0.15892775 0.053536721
-0.29096937 -0.15888199 0.053523526
-0.2911607 -0.15883455 0.053520698
-0.29133129 -0.15879737 0.053481046
