# .PCD v0.7 - Point Cloud Data file format
VERSION 0.7
FIELDS x y z
SIZE 4 4 4
TYPE F F F
COUNT 1 1 1
WIDTH 993
HEIGHT 1
VIEWPOINT 0 0 0 1 0 0 0
POINTS 993
DATA ascii
-0.11325412 -0.35024366 0.063173205
-0.113484 -0.35034215 0.063053489
-0.11368631 -0.35041049 0.063075699
-0.11389424 -0.35048711 0.0630541
-0.11411366 -0.35057312 0.062995531
-0.11431891 -0.35064733 0.062984303
-0.11453165 -0.35072681 0.06295459
-0.11474235 -0.35080692 0.062915668
-0.11494835 -0.3508797 0.062915966
-0.1151567 -0.35095763 0.062886283
-0.11536857 -0.35103682 0.062856577
-0.11557244 -0.35111037 0.062846504
-0.11577258 -0.35117742 0.062872201
-0.11597476 -0.35124937 0.062869057
-0.11618772 -0.35133028 0.06283012
-0.1163921 -0.35140482 0.062814288
-0.11659314 -0.35147321 0.062833063
-0.11680746 -0.35155872 0.062765285
-0.1170229 -0.351643 0.062709048
-0.11721952 -0.35170963 0.062728986
-0.11741954 -0.35177734 0.062750079
-0.11762724 -0.35185355 0.062730759
-0.1178385 -0.35193384 0.062691838
-0.11804274 -0.35200936 0.062669083
-0.11823422 -0.35206789 0.062732868
-0.11844683 -0.35215294 0.062663957
-0.11864976 -0.3522245 0.062665418
-0.11885396 -0.35230047 0.062639207
-0.11906483 -0.35238129 0.062595665
-0.11927532 -0.3524648 0.062532537
-0.11948672 -0.35254663 0.062483229
-0.11966825 -0.35262072 0.062414441
-0.11988312 -0.35268322 0.062508106
-0.12008616 -0.35275578 0.062502652
-0.12029432 -0.35283449 0.062467203
-0.12049939 -0.35291275 0.062427152
-0.12069438 -0.3529762 0.062465545
-0.12087996 -0.35303146 0.062537417
-0.12109824 -0.35312289 0.06243851
-0.12129695 -0.35319409 0.06243192
-0.12149763 -0.35326466 0.062434547
-0.12170642 -0.35334525 0.062387556
-0.12192369 -0.35343647 0.062287498
-0.1221102 -0.35349324 0.062351294
-0.12231348 -0.35356754 0.062334307
-0.12251575 -0.35364401 0.062300038
-0.12271391 -0.3537122 0.062313057
-0.12290853 -0.35377932 0.062324926
-0.12312514 -0.35387111 0.062219106
-0.1233182 -0.35393649 0.062239062
-0.12350108 -0.35399565 0.062277511
-0.1236904 -0.3540836 0.062131438
-0.12391979 -0.35415539 0.062196214
-0.12411647 -0.35422587 0.062189631
-0.12432162 -0.35430068 0.062173788
-0.12451683 -0.35436949 0.062175289
-0.12471978 -0.35444519 0.062147927
-0.12490585 -0.35450912 0.062160999
-0.12510037 -0.35459176 0.062064491
-0.12532344 -0.35467359 0.062043957
-0.12551409 -0.35473314 0.062098518
-0.12571891 -0.35481596 0.062026177
-0.12592034 -0.35489064 0.062002286
-0.12611151 -0.35495487 0.062025703
-0.12631312 -0.35503009 0.061998356
-0.12651765 -0.35511348 0.061921403
-0.12671056 -0.35517666 0.061956346
-0.1268921 -0.35522735 0.062050149
-0.12709986 -0.35531205 0.061972033
-0.12728278 -0.35537666 0.061972432
-0.12750261 -0.35546365 0.061908104
-0.12768187 -0.35553527 0.061850861
-0.12790352 -0.3556174 0.061824575
-0.12809724 -0.35568652 0.061820306
-0.12829541 -0.35575837 0.06180796
-0.12849858 -0.35584226 0.0617241
-0.12868626 -0.35589829 0.061795969
-0.12887405 -0.35595867 0.061837852
-0.12906991 -0.35602736 0.061841652
-0.12926628 -0.35610139 0.061809711
-0.12946337 -0.35617238 0.061800815
-0.12966102 -0.35624883 0.061755031
-0.12985824 -0.35632035 0.061742678
-0.1300559 -0.35639733 0.061693437
-0.13025755 -0.35647655 0.061638407
-0.13045189 -0.35654852 0.061615691
-0.13064715 -0.35661751 0.061616033
-0.13084075 -0.35668856 0.061597936
-0.13102917 -0.35676062 0.061560262
-0.13120957 -0.35682383 0.061564129
-0.13138354 -0.35689077 0.061526507
-0.13160406 -0.35696507 0.061552122
-0.13178656 -0.35703233 0.061532915
-0.13198137 -0.35711178 0.061459459
-0.1321919 -0.35718387 0.061475884
-0.13237683 -0.35724571 0.061500493
-0.13258888 -0.35732612 0.061462715
-0.1327654 -0.35738847 0.06146314
-0.13297564 -0.35746592 0.061441511
-0.13313329 -0.35751995 0.061453536
-0.13336146 -0.35761586 0.061347663
-0.13355412 -0.35767645 0.061399907
-0.13374792 -0.35774508 0.061399106
-0.13391969 -0.35781041 0.061367262
-0.13412103 -0.35788289 0.061358359
-0.13432546 -0.35796192 0.061311387
-0.13450605 -0.35802802 0.061295647
-0.1347 -0.35809788 0.061286777
-0.1348999 -0.35816804 0.061290562
-0.13506937 -0.35822323 0.0613233
-0.1352523 -0.35829514 0.06127296
-0.13545522 -0.35837913 0.061187938
-0.1356439 -0.35843801 0.06124251
-0.13582845 -0.35850087 0.061259046
-0.13605084 -0.35858977 0.061187789
-0.13623394 -0.35866374 0.06112361
-0.13642436 -0.35873416 0.061102062
-0.13661483 -0.35880494 0.061078213
-0.13678879 -0.35885727 0.061142072
-0.13697889 -0.3589274 0.061121672
-0.13718346 -0.35900402 0.061092004
-0.13735186 -0.35906529 0.061079778
-0.13753396 -0.35913908 0.061014444
-0.13773376 -0.35921201 0.060998634
-0.13792482 -0.35927784 0.061010525
-0.13809007 -0.35933125 0.061045587
-0.13831618 -0.35941881 0.060992762
-0.13850562 -0.3594892 0.060968913
-0.13871394 -0.35956132 0.06097959
-0.1389033 -0.35963205 0.060953435
-0.13908048 -0.35969397 0.060958467
-0.13925543 -0.35975876 0.060938142
-0.13945913 -0.35982659 0.060967274
-0.13965423 -0.35990715 0.060886908
-0.13985142 -0.35997432 0.06090454
-0.14000885 -0.36003357 0.06087967
-0.1402033 -0.36011353 0.06080161
-0.14039031 -0.36017862 0.060808908
-0.14056674 -0.36023945 0.060819712
-0.14077261 -0.36031666 0.060788877
-0.14094926 -0.36037874 0.0607916
-0.14113131 -0.36045003 0.060743574
-0.14132148 -0.36051604 0.060752008
-0.14151224 -0.36058477 0.060743153
-0.14170034 -0.36065602 0.060710087
-0.14187928 -0.36071509 0.060739323
-0.14208585 -0.36079904 0.060663518
-0.14226808 -0.36085877 0.060696211
-0.14246845 -0.36092892 0.060701139
-0.14265996 -0.3610037 0.060651921
-0.14283086 -0.36107269 0.060592409
-0.14304647 -0.36115751 0.060532708
-0.14323904 -0.36122173 0.060559586
-0.14340094 -0.36127743 0.060570441
-0.14359514 -0.36135268 0.060524672
-0.14379472 -0.36142036 0.060544603
-0.14398474 -0.36149049 0.06052421
-0.14417388 -0.361554 0.060547639
-0.14431357 -0.36159021 0.060639311
-0.14452304 -0.36168745 0.060478166
-0.14470141 -0.36174366 0.060525861
-0.14488649 -0.36183608 0.060338289
-0.14506742 -0.36188442 0.060447082
-0.14524695 -0.36195546 0.060394451
-0.14544325 -0.36202863 0.060368277
-0.14564684 -0.36211318 0.060280945
-0.14583828 -0.36216223 0.060410451
-0.14602813 -0.36224821 0.060279377
-0.14621355 -0.36231256 0.060287826
-0.14638875 -0.36237794 0.060264044
-0.14657751 -0.36244181 0.060284011
-0.14676975 -0.36250955 0.060285524
-0.14695165 -0.36257729 0.060261704
-0.14711976 -0.36263901 0.060246021
-0.14731178 -0.36271116 0.060216412
-0.1475106 -0.36278406 0.060198281
-0.14769933 -0.36284593 0.060232092
-0.1478672 -0.36290836 0.060210645
-0.14806545 -0.36298904 0.060137182
-0.14826444 -0.36305422 0.060173258
-0.14847028 -0.36312312 0.06020008
-0.14863808 -0.36318338 0.060193613
-0.1488055 -0.36324766 0.060158331
-0.14898282 -0.36331809 0.060104556
-0.14918 -0.36340085 0.060013793
-0.14936575 -0.36345702 0.06007991
-0.1495522 -0.36353734 0.059979971
-0.1497376 -0.36359686 0.060021866
-0.14992282 -0.36365831 0.060049929
-0.15011401 -0.36372802 0.0600353
-0.15029515 -0.36379251 0.060032248
-0.1504728 -0.36385611 0.060026899
-0.15065362 -0.36392212 0.060012311
-0.15083763 -0.36399028 0.059990801
-0.15102808 -0.36406237 0.05995772
-0.15122241 -0.36413303 0.059944231
-0.15141065 -0.3641977 0.059957292
-0.15160045 -0.36427158 0.059910383
-0.15177567 -0.36432865 0.059944242
-0.15196082 -0.36440551 0.059865072
-0.1521329 -0.3644605 0.059905868
-0.15230444 -0.36453137 0.059834823
-0.15250359 -0.36461002 0.059777495
-0.15269117 -0.3646763 0.059777871
-0.15287359 -0.36473477 0.05981978
-0.15307578 -0.36481485 0.059760138
-0.15324964 -0.36487642 0.059759416
-0.15342726 -0.36493814 0.059766755
-0.1536186 -0.36499348 0.059852444
-0.15379636 -0.3650659 0.059785981
-0.15398514 -0.36513922 0.059740238
-0.15416889 -0.36521524 0.05966337
-0.15435785 -0.36528733 0.05962684
-0.15453139 -0.36533949 0.059690692
-0.15472102 -0.36540982 0.059668005
-0.15489715 -0.36547485 0.059648819
-0.15508157 -0.36554781 0.059595011
-0.15527016 -0.36560231 0.05967956
-0.15544438 -0.36567995 0.059568144
-0.15563367 -0.3657586 0.05948665
-0.155821 -0.36582443 0.059489336
-0.15601304 -0.3658888 0.059513904
-0.156194 -0.36595938 0.059468187
-0.15638357 -0.36602089 0.059506603
-0.15658656 -0.36608779 0.059540354
-0.15675552 -0.36614284 0.059573092
-0.15693408 -0.36622465 0.059443213
-0.15712185 -0.36628252 0.059502393
-0.15730664 -0.36635992 0.059418604
-0.1574869 -0.36642376 0.059417866
-0.15767851 -0.36649612 0.059385933
-0.15786852 -0.36656421 0.059379384
-0.15804943 -0.36662698 0.059387855
-0.15824118 -0.36669886 0.059359394
-0.15842348 -0.36676592 0.059341349
-0.15859292 -0.36683324 0.059289906
-0.15879017 -0.36689678 0.059332907
-0.15896605 -0.36696073 0.059320644
-0.15915743 -0.36702687 0.059331387
-0.15933575 -0.36709335 0.059307583
-0.15951355 -0.36716047 0.059278022
-0.15969333 -0.36723626 0.059193105
-0.15987533 -0.36730883 0.059135854
-0.16006711 -0.36737427 0.059152342
-0.16024874 -0.36744705 0.059092797
-0.16043575 -0.36750764 0.059131224
-0.16062212 -0.36757979 0.059087791
-0.16081592 -0.36763251 0.059197679
-0.16100609 -0.36768994 0.059266075
-0.16119015 -0.36775461 0.05926878
-0.16136874 -0.36783561 0.059144657
-0.16154964 -0.36789867 0.05915083
-0.16172296 -0.367975 0.059046328
-0.16191265 -0.36803338 0.059106663
-0.16209814 -0.36810607 0.059057459
-0.16228133 -0.36817625 0.059019804
-0.16245224 -0.36824954 0.058930311
-0.16263568 -0.3683238 0.058864981
-0.16281739 -0.36839047 0.05884809
-0.16300231 -0.36845398 0.058861159
-0.16318995 -0.36852393 0.05883617
-0.16337362 -0.36859313 0.058806583
-0.16356581 -0.36865872 0.058823083
-0.16374266 -0.3687298 0.058763541
-0.16392981 -0.36879575 0.058765072
-0.16411637 -0.36885801 0.058790818
-0.16429399 -0.36892822 0.058739349
-0.16447206 -0.36900207 0.058663659
-0.16467302 -0.36906445 0.058723941
-0.16486356 -0.36912364 0.058780812
-0.16505109 -0.36919355 0.058755815
-0.16522709 -0.36926085 0.058720499
-0.16542259 -0.36931252 0.05884191
-0.16560155 -0.36939317 0.058721259
-0.16579103 -0.3694576 0.058738921
-0.16596831 -0.36952388 0.058713973
-0.1661523 -0.36958507 0.058740884
-0.16632931 -0.36965904 0.05866174
-0.16652098 -0.36972576 0.058669016
-0.16671102 -0.36979008 0.058688991
-0.16690642 -0.36985433 0.058722772
-0.16708544 -0.36991939 0.058710501
-0.1672823 -0.36998993 0.058703914
-0.1674466 -0.37006158 0.058609843
-0.16762559 -0.37013009 0.058573358
-0.16781914 -0.37019584 0.058592152
-0.16800578 -0.37026277 0.058585614
-0.16819294 -0.37032938 0.058582537
-0.16838758 -0.37038788 0.058654372
-0.16856286 -0.37045541 0.058615595
-0.16873556 -0.37052786 0.058536466
-0.16892008 -0.3705962 0.058514953
-0.16910335 -0.37066859 0.058462299
-0.16929311 -0.37073049 0.05849842
-0.16947205 -0.3707957 0.058484986
-0.16966356 -0.37086317 0.058486506
-0.16984153 -0.37093532 0.058422353
-0.17001703 -0.37100878 0.058343217
-0.17018776 -0.37107852 0.058277935
-0.17037286 -0.37114641 0.058261026
-0.170559 -0.37121066 0.058271784
-0.17074081 -0.37128037 0.05823414
-0.17093942 -0.37133813 0.058320943
-0.17110716 -0.37141526 0.058196872
-0.17130509 -0.37147659 0.058257166
-0.17149231 -0.37154058 0.058272529
-0.17167732 -0.37160575 0.058274079
-0.17185357 -0.37167829 0.058203004
-0.17204116 -0.37174225 0.058219526
-0.1725352 -0.37187347 0.058521897
-0.17275441 -0.37192309 0.058715854
-0.17298022 -0.37197286 0.058924787
-0.17320418 -0.372024 0.05911988
-0.17342708 -0.37207609 0.059305754
-0.17364807 -0.37212667 0.059497401
-0.10116746 -0.34582049 0.064212851
-0.10139842 -0.34590974 0.064160004
-0.10163048 -0.34600204 0.064088695
-0.10185532 -0.3460865 0.064054325
-0.10205968 -0.34615374 0.064089231
-0.1022713 -0.3462272 0.064098738
-0.10248444 -0.346304 0.064088635
-0.10271791 -0.34639633 0.064020783
-0.10294373 -0.34648228 0.063978329
-0.10316827 -0.34656727 0.063939348
-0.10336603 -0.34662935 0.063993901
-0.10360309 -0.34672543 0.063908726
-0.10382348 -0.3468093 0.06386745
-0.10405686 -0.34690255 0.063792676
-0.10423794 -0.34695044 0.063904956
-0.10448034 -0.34705189 0.063795552
-0.10468122 -0.34711921 0.063821241
-0.10489631 -0.34719706 0.063808821
-0.10510932 -0.34727317 0.06380333
-0.10533274 -0.34735858 0.063758589
-0.10554311 -0.34743261 0.063761175
-0.10576691 -0.34751868 0.063712969
-0.10598178 -0.34759694 0.0636971
-0.10616887 -0.34765041 0.063785121
-0.10639873 -0.34774444 0.063696526
-0.10662419 -0.34783259 0.063637935
-0.10682216 -0.34789607 0.063683242
-0.1070306 -0.34796906 0.063688144
-0.10725467 -0.34805638 0.06363187
-0.10746773 -0.34813383 0.063617155
-0.10768852 -0.34822065 0.063556276
-0.10789786 -0.34829497 0.063554257
-0.10812221 -0.34838322 0.063492209
-0.1083349 -0.34846085 0.063475192
-0.10854505 -0.34853628 0.063467398
-0.108778 -0.34863305 0.063367262
-0.10896365 -0.34868589 0.063456446
-0.10917409 -0.34876192 0.063445196
-0.10939676 -0.34884956 0.063383155
-0.10959072 -0.3489103 0.063437715
-0.10980701 -0.3489922 0.063399911
-0.11001499 -0.34906638 0.063395604
-0.11021698 -0.34913492 0.063415527
-0.11040154 -0.34918687 0.063508175
-0.11064878 -0.34929898 0.063336477
-0.11085898 -0.34937572 0.063319474
-0.11106277 -0.34944642 0.063328996
-0.11127957 -0.34952983 0.063281976
-0.11149342 -0.34961057 0.063246496
-0.11169241 -0.34967691 0.063274503
-0.11186624 -0.34971857 0.063412182
-0.11209935 -0.34981853 0.063290119
-0.1123411 -0.34992737 0.063127682
-0.11254127 -0.34999529 0.063147604
-0.1127411 -0.35006291 0.06316869
-0.11293466 -0.35012433 0.063217491
-0.11316334 -0.35021859 0.063124284
-0.11336807 -0.35029143 0.063121133
-0.11359026 -0.35038209 0.063037179
-0.11379057 -0.35045069 0.063052498
-0.11397684 -0.35050505 0.063132457
-0.11418493 -0.35058174 0.063110843
-0.11441122 -0.35067731 0.063002661
-0.11460342 -0.35073793 0.063053757
-0.11481863 -0.35082245 0.06299521
-0.11503451 -0.35090786 0.062932044
-0.11522822 -0.35096768 0.062992364
-0.11543982 -0.35104892 0.062947668
-0.11564811 -0.35112685 0.062917978
-0.11585405 -0.35120243 0.062898681
-0.11606004 -0.35127822 0.062878214
-0.11626562 -0.35135368 0.062858917
-0.1164749 -0.35143328 0.062820002
-0.11667434 -0.35150242 0.062829554
-0.11686491 -0.35155931 0.062902577
-0.11707188 -0.35163674 0.062872902
-0.11729142 -0.35172811 0.062777422
-0.11749343 -0.35180047 0.062770829
-0.11769573 -0.35187331 0.06276191
-0.11789986 -0.35194823 0.062742621
-0.1181038 -0.35202032 0.062742934
-0.11830196 -0.35208884 0.062753648
-0.11850795 -0.35216627 0.062721655
-0.1187176 -0.35224798 0.062668905
-0.11890894 -0.35230914 0.062714241
-0.11911165 -0.35238323 0.062697254
-0.11930917 -0.35245153 0.062707976
-0.11952713 -0.3525435 0.062604435
-0.11971851 -0.35260201 0.062668227
-0.11994202 -0.35270089 0.062530071
-0.12013727 -0.35276705 0.062550023
-0.12033564 -0.352837 0.062551513
-0.1205373 -0.35291091 0.062533386
-0.1207388 -0.35298476 0.062515251
-0.12094367 -0.35306278 0.062476344
-0.12114109 -0.35313204 0.062480148
-0.12133567 -0.35319483 0.062522016
-0.12154639 -0.3532804 0.06244503
-0.12174113 -0.35334671 0.06246268
-0.12194376 -0.35342279 0.062431857
-0.12213737 -0.35348788 0.062455274
-0.12234825 -0.35357451 0.062371373
-0.12254696 -0.35364622 0.06236133
-0.12275306 -0.35372734 0.062303975
-0.12294979 -0.35380018 0.062281244
-0.12315039 -0.35387141 0.062279265
-0.12335375 -0.35394624 0.062258821
-0.12354441 -0.35400829 0.062296093
-0.12374023 -0.35408047 0.062275678
-0.12394024 -0.35415828 0.062226415
-0.12414609 -0.3542335 0.062209412
-0.12434657 -0.35430881 0.062178604
-0.12453082 -0.35436627 0.062232055
-0.12475202 -0.35446602 0.062082373
-0.12493587 -0.35451952 0.062162343
-0.12514348 -0.35460517 0.062077295
-0.12534291 -0.35467994 0.062047638
-0.12553662 -0.35474706 0.062057227
-0.12573315 -0.35481817 0.062046025
-0.12593067 -0.35489076 0.062026765
-0.12611935 -0.35495111 0.062070966
-0.12632354 -0.3550334 0.062000927
-0.12651457 -0.35509723 0.062026665
-0.12671465 -0.35517406 0.061984316
-0.12691557 -0.35525236 0.061933897
-0.12708521 -0.35530913 0.061956264
-0.12728763 -0.35537401 0.062002718
-0.1274939 -0.35545671 0.06193497
-0.12769371 -0.35552597 0.061944529
-0.12789379 -0.35560396 0.061894119
-0.12808689 -0.35567585 0.061869096
-0.12828562 -0.35574806 0.061855596
-0.12847717 -0.35581788 0.061840959
-0.12863497 -0.35588688 0.061749205
-0.12886375 -0.35596344 0.061779402
-0.12906504 -0.35604036 0.061739359
-0.12926473 -0.3561106 0.061741993
-0.12944679 -0.35616165 0.061834656
-0.12964639 -0.35624078 0.061775018
-0.12983766 -0.3563067 0.061786916
-0.13001862 -0.35637411 0.0617631
-0.1302319 -0.35645813 0.061703406
-0.13042992 -0.35653573 0.061650693
-0.1306235 -0.3566061 0.061637208
-0.13081107 -0.35666639 0.061679102
-0.13099825 -0.35673088 0.06169102
-0.13119431 -0.35680097 0.061685599
-0.13138884 -0.35687351 0.061659425
-0.13158146 -0.35694289 0.061650552
-0.1317801 -0.35702321 0.061580539
-0.13196835 -0.35708508 0.061613217
-0.1321415 -0.3571507 0.061582513
-0.13236038 -0.35723752 0.061517019
-0.13255577 -0.35731304 0.061472394
-0.13274077 -0.35738003 0.061461255
-0.13293809 -0.35744876 0.061468508
-0.13312913 -0.35751659 0.061466567
-0.1333203 -0.3575848 0.06146232
-0.13350371 -0.35764927 0.061465025
-0.13370217 -0.35772651 0.061415769
-0.13386934 -0.35778788 0.061400089
-0.1340666 -0.35785726 0.061402731
-0.13427192 -0.35793743 0.061349988
-0.13447315 -0.35800937 0.061344545
-0.13465324 -0.35807398 0.061338037
-0.13483639 -0.35815161 0.061248478
-0.13504995 -0.35822544 0.061260287
-0.13522393 -0.35829666 0.061192684
-0.1354097 -0.35835499 0.06124381
-0.1356031 -0.35842383 0.061240703
-0.13579883 -0.35849133 0.061252583
-0.13598067 -0.35856122 0.061213776
-0.13618127 -0.3586334 0.06120488
-0.13635808 -0.35869902 0.061183386
-0.13654694 -0.35876492 0.061189525
-0.13673986 -0.35883358 0.061186422
-0.13693212 -0.3589083 0.061139502
-0.13711941 -0.35897845 0.061112206
-0.13732262 -0.35905093 0.061107904
-0.13750683 -0.35912147 0.061070248
-0.13769427 -0.35919285 0.061034873
-0.13787112 -0.35924387 0.061114866
-0.13806587 -0.35931897 0.061071396
-0.13824917 -0.35938805 0.06104181
-0.13844767 -0.35945702 0.061050214
-0.13863356 -0.35952517 0.061033305
-0.13884202 -0.35960597 0.060984001
-0.13901782 -0.35967222 0.060955599
-0.13921599 -0.35974109 0.060964007
-0.13940983 -0.35981604 0.060919389
-0.13961421 -0.35989556 0.060868956
-0.13979967 -0.35995379 0.060920089
-0.13996705 -0.36001408 0.060912475
-0.14016615 -0.36008707 0.060894355
-0.14036413 -0.36015636 0.060899306
-0.14053015 -0.36022395 0.060837492
-0.14070536 -0.36029115 0.060801025
-0.14089958 -0.36035895 0.060807139
-0.14108877 -0.3604193 0.06085249
-0.14128572 -0.3604987 0.060784794
-0.14148773 -0.36057323 0.060763191
-0.14167866 -0.36064151 0.060757797
-0.14185148 -0.36071515 0.060670592
-0.14205301 -0.36078903 0.060652461
-0.1422326 -0.3608503 0.060667872
-0.14241663 -0.36091781 0.06065096
-0.14260429 -0.36098793 0.060624812
-0.14278959 -0.36104542 0.060680561
-0.1429818 -0.36112362 0.060609419
-0.14317217 -0.36119205 0.060601715
-0.1433499 -0.36126328 0.060543321
-0.14353566 -0.36132377 0.060579456
-0.14371964 -0.36139455 0.060539491
-0.14391743 -0.36147109 0.060493693
-0.14410299 -0.36153033 0.060537905
-0.14428671 -0.36160138 0.060495634
-0.14448747 -0.36167794 0.060456745
-0.14466602 -0.36173341 0.060510203
-0.14485212 -0.36179748 0.060522124
-0.14502881 -0.36186886 0.060460277
-0.14521183 -0.36193749 0.060433
-0.14539826 -0.36200815 0.060399935
-0.14558779 -0.36207646 0.060391083
-0.14577422 -0.36215094 0.060331501
-0.14596301 -0.36220637 0.060410291
-0.14613847 -0.36226469 0.060436092
-0.14632103 -0.36233151 0.060420349
-0.1465209 -0.36241341 0.060342252
-0.14670673 -0.36248702 0.060287282
-0.14691304 -0.36256707 0.060238
-0.14710891 -0.36263412 0.060253333
-0.14729452 -0.36269718 0.060271025
-0.14747329 -0.36275703 0.060294505
-0.14765538 -0.36282235 0.060287986
-0.14784048 -0.36289787 0.060218025
-0.14801574 -0.36295727 0.06023575
-0.148201 -0.36302504 0.060220003
-0.1483864 -0.36309022 0.060222685
-0.14857447 -0.36316612 0.06015734
-0.14876688 -0.36323094 0.06017961
-0.1489446 -0.36330086 0.060130432
-0.14913693 -0.36336598 0.060150407
-0.14932069 -0.36344367 0.060061999
-0.14950602 -0.363507 0.060077377
-0.14968689 -0.36357686 0.060036272
-0.14986561 -0.36363569 0.06006667
-0.15007192 -0.36370346 0.060102724
-0.15023443 -0.36377376 0.060013246
-0.15042697 -0.36385804 0.059900589
-0.15062051 -0.36391515 0.059979372
-0.15079805 -0.36398035 0.059962489
-0.15099715 -0.36406565 0.05985903
-0.1511818 -0.36411363 0.059979357
-0.15134317 -0.36416811 0.059997145
-0.15151896 -0.36425641 0.059815362
-0.15173218 -0.36434123 0.059749894
-0.15191609 -0.36439392 0.059835635
-0.15212953 -0.36446306 0.059879728
-0.15230767 -0.36453825 0.059794806
-0.15247549 -0.36459604 0.059805647
-0.15265068 -0.36465442 0.059830293
-0.15283526 -0.36473191 0.059745345
-0.15300472 -0.3647843 0.059797697
-0.15319246 -0.36486292 0.059712738
-0.15337908 -0.36492136 0.059765015
-0.15357941 -0.36499599 0.059738811
-0.15376213 -0.36505505 0.059777267
-0.15396251 -0.36512932 0.059753373
-0.15413381 -0.36518818 0.059765361
-0.15430191 -0.36525536 0.05971162
-0.15450014 -0.36532474 0.059716567
-0.15467934 -0.36539283 0.059683532
-0.15485123 -0.36545953 0.059642456
-0.15504096 -0.36552107 0.059680887
-0.15521906 -0.36560008 0.059569445
-0.15541433 -0.36566693 0.059584782
-0.15558721 -0.36573064 0.059566766
-0.15576853 -0.36580166 0.059518736
-0.15595242 -0.36586714 0.05951567
-0.1561352 -0.36593485 0.059494164
-0.15632278 -0.36600095 0.059495687
-0.15650636 -0.36606696 0.059488017
-0.15669289 -0.36613503 0.05947341
-0.15687735 -0.36619937 0.059479572
-0.15706663 -0.36626971 0.059455719
-0.15724546 -0.3663367 0.059429608
-0.15742083 -0.36640248 0.059403516
-0.15760362 -0.36646953 0.059386618
-0.15779264 -0.36653316 0.059408903
-0.157979 -0.36660114 0.059394289
-0.15815774 -0.36667439 0.059324365
-0.15835162 -0.3667371 0.059365083
-0.15853305 -0.36679971 0.059375864
-0.1587092 -0.36686391 0.059362456
-0.15888724 -0.36693758 0.059287906
-0.15906142 -0.36701038 0.05920992
-0.15925384 -0.36707538 0.059231039
-0.159437 -0.36714143 0.05922221
-0.15962073 -0.36720666 0.059220307
-0.15981257 -0.36726698 0.059272557
-0.15999644 -0.36732662 0.059309851
-0.16016962 -0.36739445 0.059264164
-0.16035116 -0.367468 0.059198834
-0.16053838 -0.36753979 0.059160002
-0.16072126 -0.36760607 0.05914887
-0.16091146 -0.36766896 0.05917922
-0.16109252 -0.36773226 0.059184246
-0.16126943 -0.36779523 0.05918121
-0.16145296 -0.36786589 0.059141234
-0.16163336 -0.36793491 0.059104744
-0.16181254 -0.36800519 0.059056722
-0.16200693 -0.3680591 0.059159711
-0.1621841 -0.36812666 0.059125543
-0.16236787 -0.36819208 0.059122473
-0.1625433 -0.36827064 0.059007578
-0.16271776 -0.3683452 0.058918055
-0.16289821 -0.36841357 0.05888617
-0.16307563 -0.36848488 0.058826629
-0.16325304 -0.36855599 0.058768228
-0.16344206 -0.36862046 0.058784753
-0.16362546 -0.36869022 0.058750547
-0.16380291 -0.36876103 0.058694463
-0.16398641 -0.3688305 0.058662571
-0.16416815 -0.36890152 0.058615685
-0.16436687 -0.36896178 0.058685213
-0.16456231 -0.36901689 0.058782436
-0.16474918 -0.36908773 0.058749378
-0.16492306 -0.36915314 0.058722131
-0.16511334 -0.36921304 0.058773242
-0.16529903 -0.36928481 0.05873096
-0.1654854 -0.36934417 0.058776319
-0.16566476 -0.36940917 0.058765203
-0.1658362 -0.36948034 0.058691844
-0.16601461 -0.36954984 0.058647282
-0.16620673 -0.36960894 0.058708765
-0.16640149 -0.36967376 0.058736794
-0.16658559 -0.36974278 0.05870951
-0.16675174 -0.36981374 0.058624633
-0.16694273 -0.36987773 0.05864922
-0.16712418 -0.36995211 0.058578122
-0.16729487 -0.37001956 0.058528975
-0.16749643 -0.37007999 0.058604263
-0.1676833 -0.3701435 0.058621947
-0.16786925 -0.37021816 0.058560047
-0.1680387 -0.37028632 0.058502842
-0.16821292 -0.37034786 0.058503278
-0.16840133 -0.3704139 0.058507118
-0.16858067 -0.37048241 0.05847178
-0.16875142 -0.3705495 0.058424942
-0.16893372 -0.37061608 0.058410347
-0.1691291 -0.37068129 0.058437221
-0.16931717 -0.37074775 0.058437597
-0.16949157 -0.37082228 0.058348075
-0.16966654 -0.37088674 0.058330067
-0.16988058 -0.37094149 0.058475643
-0.17005557 -0.37101555 0.058390729
-0.17023522 -0.37107754 0.058401518
-0.17041969 -0.3711462 0.058377694
-0.1706028 -0.37121254 0.058366567
-0.17080395 -0.37126917 0.058467217
-0.17097278 -0.37134326 0.058367342
-0.17115507 -0.37141311 0.058329683
-0.17133445 -0.37148145 0.058295503
-0.17151549 -0.37155187 0.05825093
-0.17170143 -0.37161392 0.058276687
-0.17187859 -0.37169209 0.058168702
-0.17205903 -0.37175399 0.058181792
-0.17223255 -0.37181646 0.058174167
-0.17243484 -0.37188229 0.058213696
-0.17261563 -0.37195843 0.058128759
-0.17279267 -0.37202215 0.058121111
-0.17297824 -0.37208754 0.05812265
-0.173163 -0.37215611 0.05809997
-0.17333862 -0.37222329 0.058064651
-0.17349792 -0.37229496 0.057957903
-0.17370273 -0.3723574 0.058027405
-0.17388043 -0.37242365 0.058003601
-0.17405583 -0.37249357 0.057948679
-0.17423137 -0.37256071 0.057913356
-0.17442922 -0.37262383 0.057960972
-0.17463782 -0.37268791 0.058028162
-0.17627667 -0.3730672 0.059420288
-0.10103372 -0.3457638 0.06427823
-0.10124793 -0.34583884 0.064283088
-0.10146117 -0.3459112 0.064304098
-0.10167266 -0.34598413 0.064317048
-0.10188767 -0.34606013 0.064317286
-0.10212062 -0.34615141 0.064255171
-0.10233416 -0.34622639 0.064258873
-0.10257708 -0.34632653 0.064159796
-0.1027977 -0.34640783 0.064136937
-0.10300294 -0.34647605 0.064167216
-0.10324014 -0.34657183 0.064084314
-0.10343651 -0.3466326 0.064144611
-0.103664 -0.34672031 0.064094052
-0.10388599 -0.34680343 0.06406197
-0.10411187 -0.34689006 0.064014867
-0.10433328 -0.34697297 0.063982777
-0.10452491 -0.34703404 0.064029261
-0.10474046 -0.34710789 0.064045653
-0.10497884 -0.34720609 0.063948892
-0.10520707 -0.34729555 0.063887954
-0.10539722 -0.34735146 0.063966736
-0.10561316 -0.34743026 0.063949674
-0.10583255 -0.34751227 0.063918747
-0.10605475 -0.34759697 0.063876271
-0.1062604 -0.34766483 0.063910007
-0.10647056 -0.34773892 0.063911423
-0.10667723 -0.34780997 0.063925534
-0.10690299 -0.34789839 0.063865751
-0.10711825 -0.34797746 0.063845232
-0.10734755 -0.34806946 0.063769281
-0.10754362 -0.34813127 0.063821509
-0.10775203 -0.34820443 0.063825242
-0.10798778 -0.34830287 0.063720427
-0.10819891 -0.34837881 0.063711464
-0.10840984 -0.34845468 0.063702494
-0.10862519 -0.34853476 0.063675046
-0.10884202 -0.34861636 0.063640669
-0.10904859 -0.34868854 0.063646711
-0.10926042 -0.34876573 0.063630827
-0.10946807 -0.34883913 0.063631095
-0.1096657 -0.34890082 0.063687935
-0.10989985 -0.34899953 0.063577354
-0.11010279 -0.34906873 0.063594952
-0.11030699 -0.34913924 0.063606769
-0.11051187 -0.3492105 0.063615128
-0.11074031 -0.3493045 0.063523039
-0.1109475 -0.34937823 0.06351985
-0.11113324 -0.34943125 0.063607879
-0.11135118 -0.34951556 0.063557357
-0.11159013 -0.34962061 0.063414469
-0.11180562 -0.34970057 0.063388169
-0.11200838 -0.34977058 0.0634
-0.11221731 -0.34984672 0.063384116
-0.11242758 -0.34992436 0.063361302
-0.11263429 -0.34999856 0.063353509
-0.11280614 -0.35003802 0.063501582
-0.11304079 -0.35014039 0.063366786
-0.11327113 -0.35023874 0.063249297
-0.11348157 -0.35031477 0.063238025
-0.11369081 -0.35039219 0.063214079
-0.11388887 -0.35045835 0.063240908
-0.1140985 -0.35053644 0.063213497
-0.1142887 -0.35059467 0.063276127
-0.11449385 -0.35066831 0.063268334
-0.11472435 -0.35076839 0.063139319
-0.11493359 -0.35084665 0.063109599
-0.11512525 -0.35090408 0.063181445
-0.11532703 -0.35097471 0.063186362
-0.11553815 -0.35105529 0.063145101
-0.1157462 -0.35113281 0.063117683
-0.11594936 -0.35120526 0.063113362
-0.11614507 -0.35127789 0.06308946
-0.1162897 -0.35131469 0.063189201
-0.11655869 -0.35142043 0.063115388
-0.11678745 -0.35152102 0.062978305
-0.11700486 -0.35160965 0.062896639
-0.11719541 -0.35166916 0.0629512
-0.11739467 -0.35173824 0.062960729
-0.11759931 -0.35181057 0.06296102
-0.11779922 -0.35188055 0.062965937
-0.11800447 -0.35195655 0.062941998
-0.11821646 -0.35204026 0.06288112
-0.11840513 -0.35209799 0.062943757
-0.11862078 -0.35218614 0.062860943
-0.11882597 -0.35225981 0.062853158
-0.11903026 -0.35233548 0.062829219
-0.11923333 -0.3524099 0.062811047
-0.11943308 -0.35248065 0.062810197
-0.11963417 -0.35255304 0.062801272
-0.11984064 -0.35263181 0.06276118
-0.12004016 -0.35270265 0.062759183
-0.12025873 -0.35279599 0.062647514
-0.12046275 -0.35286939 0.062638581
-0.12065755 -0.35293508 0.062660821
-0.12084599 -0.35299319 0.062720008
-0.12104639 -0.35306567 0.062708773
-0.12125385 -0.35314679 0.062654838
-0.12145912 -0.35322547 0.062612444
-0.12165136 -0.35328525 0.0626693
-0.12185611 -0.3533636 0.062628053
-0.12206328 -0.35344508 0.062570646
-0.12226681 -0.35352233 0.062534034
-0.12247199 -0.35360181 0.062485866
-0.12267416 -0.35367772 0.062455021
-0.12287105 -0.35374382 0.062479563
-0.12307689 -0.35382468 0.062423322
-0.12326006 -0.3538768 0.06251137
-0.12346735 -0.35395983 0.062443584
-0.12366377 -0.35402906 0.062445052
-0.12386447 -0.35410398 0.062417671
-0.12405665 -0.35416788 0.0624457
-0.12425637 -0.35424179 0.062422931
-0.12445189 -0.35430673 0.062452093
-0.12465691 -0.35438797 0.062391236
-0.1248615 -0.35446888 0.062331542
-0.1250592 -0.35454074 0.062318016
-0.12525496 -0.35461009 0.062317185
-0.12545663 -0.35468766 0.062273655
-0.12566316 -0.35476843 0.062219713
-0.12585574 -0.35483381 0.0622385
-0.12605463 -0.35490808 0.062211141
-0.12624392 -0.35496899 0.062253006
-0.12643756 -0.35503608 0.062262572
-0.12664084 -0.35511705 0.062199421
-0.12684152 -0.3551906 0.062181264
-0.12703405 -0.3552565 0.062196594
-0.12722234 -0.35531619 0.062244248
-0.12743066 -0.35540542 0.062136084
-0.12762423 -0.35547316 0.062141031
-0.12783079 -0.35556042 0.062042102
-0.12801789 -0.35561872 0.062096678
-0.1282164 -0.35569435 0.062058926
-0.12841551 -0.35576686 0.062044248
-0.12861815 -0.35584924 0.061969556
-0.12880312 -0.35590449 0.062040284
-0.12899525 -0.35597518 0.062021021
-0.12918311 -0.35604373 0.06200638
-0.12938347 -0.35611898 0.061975539
-0.12958512 -0.35619208 0.061963148
-0.12977441 -0.35625431 0.061995797
-0.12997578 -0.35633177 0.061952267
-0.13017872 -0.35641676 0.061860271
-0.13036723 -0.35647807 0.061897542
-0.13056573 -0.35655615 0.061842486
-0.13076203 -0.35663083 0.061805896
-0.13094367 -0.35668057 0.061906632
-0.13114387 -0.35676226 0.061830804
-0.131338 -0.35683367 0.061811529
-0.13153963 -0.35691354 0.061751839
-0.13173494 -0.35698754 0.061717562
-0.13192186 -0.3570466 0.061766371
-0.13211671 -0.3571201 0.061734393
-0.13230872 -0.35718861 0.061730124
-0.13250054 -0.35725689 0.061727002
-0.13267404 -0.35732332 0.06169166
-0.13288768 -0.35740048 0.061680369
-0.13308442 -0.35747313 0.06165877
-0.13326146 -0.35753021 0.061697245
-0.13346362 -0.35760811 0.061652549
-0.13365327 -0.35768458 0.061587151
-0.13386074 -0.35776803 0.061517064
-0.1340238 -0.35782081 0.061550975
-0.13424179 -0.35790846 0.061477378
-0.13443413 -0.35797361 0.061497323
-0.13462256 -0.3580367 0.06152191
-0.13481262 -0.35810333 0.061525714
-0.13500816 -0.35817561 0.061504122
-0.1351963 -0.35823825 0.061531
-0.13539042 -0.35831431 0.061479423
-0.13558218 -0.35838538 0.061456695
-0.13575776 -0.35845369 0.061413266
-0.13596702 -0.3585313 0.061388157
-0.13615403 -0.35859904 0.061376989
-0.13633753 -0.3586657 0.061364677
-0.13651887 -0.35873458 0.0613316
-0.13671607 -0.35879827 0.061373442
-0.13688965 -0.35886323 0.06134849
-0.13707516 -0.35893574 0.061300408
-0.13726316 -0.35899934 0.061320372
-0.13748072 -0.35908502 0.061259471
-0.13766973 -0.35915166 0.061260968
-0.13785018 -0.35922003 0.061229058
-0.13805795 -0.3592968 0.061206263
-0.13823833 -0.35935685 0.061232038
-0.13841748 -0.3594223 0.06121742
-0.13861187 -0.35949662 0.061178543
-0.13881916 -0.35956374 0.061221488
-0.13901226 -0.35964426 0.061136466
-0.13917843 -0.35970891 0.061095387
-0.13937117 -0.35976955 0.06114763
-0.13956951 -0.35983813 0.061158326
-0.13975538 -0.35990697 0.061136775
-0.139935 -0.35997605 0.06109795
-0.14011894 -0.36003873 0.061114468
-0.14031759 -0.36012053 0.061034039
-0.14051984 -0.36019316 0.061026253
-0.14069416 -0.3602559 0.06101859
-0.14088671 -0.36032826 0.06098894
-0.14105462 -0.3603912 0.060964003
-0.14123115 -0.36045074 0.060984023
-0.14145494 -0.36053514 0.060947314
-0.14164194 -0.36059889 0.060963817
-0.14183319 -0.36066729 0.0609584
-0.14199801 -0.36073264 0.060909249
-0.14217089 -0.36079073 0.060930435
-0.14235888 -0.36085996 0.060911179
-0.14254345 -0.36092865 0.060887322
-0.14273489 -0.36099994 0.060862288
-0.14292283 -0.36107048 0.060833812
-0.1430995 -0.36113256 0.060836516
-0.14329386 -0.3612034 0.06082185
-0.14349613 -0.36128366 0.06076102
-0.14370324 -0.36135304 0.060787819
-0.14386337 -0.36141607 0.06074331
-0.14403987 -0.36147907 0.0607391
-0.14422235 -0.36153692 0.060785614
-0.14443761 -0.36161995 0.060737416
-0.14461805 -0.36168984 0.060695112
-0.14480209 -0.36176398 0.060632043
-0.14498504 -0.36182761 0.060639352
-0.14519584 -0.36190411 0.060625769
-0.14535873 -0.36197042 0.060565092
-0.1455375 -0.3620238 0.060633548
-0.14571674 -0.36208314 0.060661621
-0.14588942 -0.36214647 0.060645893
-0.14606911 -0.36221674 0.060598984
-0.14626932 -0.3622933 0.060558926
-0.14645912 -0.36236897 0.060499288
-0.14665896 -0.36244091 0.06049037
-0.146814 -0.362501 0.060453948
-0.14702751 -0.36257312 0.060477264
-0.14719291 -0.3626211 0.060550384
-0.14739574 -0.36271101 0.060423791
-0.14756791 -0.3627685 0.060447291
-0.14774331 -0.36283296 0.060430393
-0.14794973 -0.36290658 0.060426064
-0.14813553 -0.36297122 0.060433343
-0.14832474 -0.36303759 0.060437161
-0.14852063 -0.36310878 0.060423639
-0.14869218 -0.36317417 0.060390614
-0.14888085 -0.36324501 0.060362123
-0.14904134 -0.3633123 0.060288779
-0.14924309 -0.36339188 0.060231399
-0.14941831 -0.36345243 0.060241036
-0.14961442 -0.36351809 0.060266733
-0.14980868 -0.36359733 0.060193241
-0.14996794 -0.3636677 0.060095668
-0.1501523 -0.36371508 0.060219467
-0.15033466 -0.36377618 0.060242921
-0.15051208 -0.36384484 0.06020179
-0.1506888 -0.36391672 0.060136445
-0.15087923 -0.36399245 0.060077965
-0.15106294 -0.36404642 0.060154468
-0.15124552 -0.36412352 0.060067181
-0.15142907 -0.36417893 0.060133308
-0.15161407 -0.36424461 0.060131367
-0.1518008 -0.36431837 0.060077511
-0.15198113 -0.36438721 0.06004215
-0.15216453 -0.36444423 0.06009673
-0.15235005 -0.36450762 0.060112096
-0.15253207 -0.36458337 0.060032886
-0.15271941 -0.3646532 0.06000787
-0.15290147 -0.36471519 0.060024396
-0.15309799 -0.36477983 0.060058169
-0.15328301 -0.3648563 0.059981257
-0.15346405 -0.36492142 0.059973564
-0.15365075 -0.3649922 0.059940472
-0.1538256 -0.36505279 0.059948966
-0.15401512 -0.36511561 0.059978142
-0.1541906 -0.36517477 0.05999817
-0.15437999 -0.36524817 0.059953529
-0.15456079 -0.36531353 0.059943531
-0.15474461 -0.36538097 0.059926607
-0.15492888 -0.36544722 0.059918903
-0.15510316 -0.36551824 0.059853561
-0.15527913 -0.36559385 0.059760541
-0.15545686 -0.36566508 0.059702113
-0.15564969 -0.36572096 0.059787806
-0.15584733 -0.36577567 0.05989309
-0.1560203 -0.36585635 0.059757397
-0.1561892 -0.36592847 0.05967132
-0.15636925 -0.36599422 0.059656717
-0.15656209 -0.36606634 0.059629366
-0.15675625 -0.36612847 0.05967468
-0.15694566 -0.36619937 0.059647352
-0.15712187 -0.36625731 0.059677746
-0.15730545 -0.36631685 0.059715033
-0.1574928 -0.36638421 0.059707314
-0.1576699 -0.36645475 0.059652351
-0.15784426 -0.36652943 0.05956164
-0.15802319 -0.36660311 0.059489362
-0.15822187 -0.36665887 0.059590027
-0.15839878 -0.36672899 0.059537373
-0.15858394 -0.36678663 0.059591949
-0.15876931 -0.36685658 0.059561171
-0.15894945 -0.36692172 0.059551187
