# .PCD v0.7 - Point Cloud Data file format
VERSION 0.7
FIELDS x y z
SIZE 4 4 4
TYPE F F F
COUNT 1 1 1
WIDTH 1312
HEIGHT 1
VIEWPOINT 0 0 0 1 0 0 0
POINTS 1312
DATA ascii
-0.18980815 -0.43498644 0.051216856
-0.1899697 -0.43505895 0.051227525
-0.1901527 -0.43514836 0.051190797
-0.19030167 -0.43521747 0.051185384
-0.19048788 -0.43530318 0.051183239
-0.19065839 -0.43538359 0.051168483
-0.19083178 -0.4354679 0.051136419
-0.19098376 -0.43553719 0.051139057
-0.19116053 -0.43561789 0.051141575
-0.19133082 -0.43569836 0.051125664
-0.19150101 -0.43577912 0.051107462
-0.19166659 -0.4358702 0.051006243
-0.19183502 -0.43593737 0.051073384
-0.19202381 -0.43602481 0.051067751
-0.19219109 -0.43610114 0.051070321
-0.19235946 -0.43619126 0.050984073
-0.19252321 -0.43626785 0.050973974
-0.1926918 -0.43633562 0.051037654
-0.19284548 -0.43641227 0.050996464
-0.19300659 -0.43650198 0.050890662
-0.19317074 -0.43657532 0.050903626
-0.19333871 -0.43664679 0.050940774
-0.1935156 -0.43672442 0.050964046
-0.19368798 -0.43680689 0.050941214
-0.19385196 -0.43688118 0.050947249
-0.19404496 -0.43697709 0.050897785
-0.19420691 -0.43705875 0.050848484
-0.194351 -0.43712908 0.050820034
-0.19455694 -0.4372147 0.050878897
-0.19470948 -0.43729168 0.050831944
-0.19486381 -0.4373624 0.050832272
-0.19502155 -0.43743348 0.05084065
-0.19520119 -0.43752447 0.050783187
-0.19535556 -0.43758413 0.05085732
-0.19552667 -0.43767864 0.050750304
-0.19568719 -0.43775168 0.050754059
-0.19585122 -0.43782496 0.050767023
-0.19602421 -0.43791288 0.050709583
-0.19619219 -0.43800387 0.050616425
-0.19636305 -0.43808702 0.050584372
-0.19654568 -0.43815917 0.050661813
-0.19670521 -0.43823418 0.050649427
-0.19688575 -0.43832022 0.050627701
-0.19705951 -0.43839642 0.050650991
-0.1972153 -0.43847126 0.050628245
-0.19737239 -0.43855119 0.050575513
-0.19752906 -0.43861607 0.050621945
-0.19768776 -0.43870002 0.050547291
-0.19785526 -0.43878111 0.050518725
-0.19802372 -0.43886024 0.050506283
-0.1981816 -0.43893033 0.050521586
-0.19834545 -0.4390108 0.050486114
-0.19852772 -0.43909261 0.050497822
-0.19870836 -0.4391706 0.050530292
-0.19886482 -0.43925005 0.050478712
-0.19904301 -0.43933225 0.050475456
-0.1992195 -0.43941075 0.050491802
-0.19937824 -0.43948609 0.050474811
-0.19955112 -0.43956411 0.050483108
-0.19971383 -0.43965787 0.050355382
-0.19989388 -0.43973693 0.050378639
-0.20005219 -0.43980655 0.050398543
-0.2002074 -0.43989253 0.050299689
-0.20035914 -0.4399541 0.05035308
-0.20053519 -0.44003326 0.050363667
-0.20070492 -0.44011554 0.050333932
-0.20086844 -0.44018945 0.050341122
-0.20103483 -0.44025415 0.050418645
-0.20121017 -0.44033453 0.050418865
-0.20138484 -0.44043168 0.050304912
-0.20154679 -0.44051281 0.050259072
-0.20169654 -0.44059834 0.050146408
-0.20186572 -0.44067037 0.050183561
-0.20203139 -0.44074163 0.050214961
-0.20220084 -0.44081861 0.050219819
-0.20236327 -0.44090357 0.050149761
-0.20252609 -0.4409782 0.050150033
-0.20268683 -0.44105515 0.050128423
-0.20285228 -0.44113168 0.050124072
-0.20302956 -0.44120964 0.050146185
-0.20320207 -0.4412927 0.050119892
-0.20335919 -0.44136867 0.050093681
-0.20352972 -0.44144458 0.05010891
-0.20370196 -0.44151887 0.050140277
-0.2038697 -0.44160646 0.05006903
-0.20403723 -0.441681 0.050084278
-0.20420299 -0.441753 0.050111067
-0.20437449 -0.4418368 0.050076704
-0.20453915 -0.44191831 0.050036617
-0.20470309 -0.44199622 0.050018437
-0.20487824 -0.44208479 0.049963299
-0.20502511 -0.44215295 0.049957898
-0.20520265 -0.44223121 0.04997886
-0.20536825 -0.44230762 0.049975667
-0.20553523 -0.44238296 0.049983997
-0.20568752 -0.44246241 0.049919751
-0.2058554 -0.44253314 0.049961518
-0.2060214 -0.44262078 0.049884524
-0.20617709 -0.44269353 0.049875617
-0.2063435 -0.44278431 0.049779013
-0.20652245 -0.44286546 0.04978497
-0.20669642 -0.44293934 0.049824394
-0.20686334 -0.4430148 0.049831577
-0.20701654 -0.44308934 0.049803074
-0.20716716 -0.4431656 0.049754992
-0.20734252 -0.44324234 0.049779426
-0.20751956 -0.44332507 0.049769245
-0.20768777 -0.4434137 0.049692228
-0.20783877 -0.44348603 0.049671821
-0.20799252 -0.44355994 0.049649086
-0.20815714 -0.44364038 0.04961592
-0.20833683 -0.44370791 0.049715281
-0.20850538 -0.4437893 0.049687847
-0.20868322 -0.44386169 0.049749169
-0.20884438 -0.44393778 0.049734473
-0.20900652 -0.4440133 0.04972668
-0.20918623 -0.44408497 0.049798369
-0.20935389 -0.44416699 0.049764026
-0.20951295 -0.44425389 0.04967092
-0.20968415 -0.44433063 0.049682684
-0.20984125 -0.44441521 0.049598821
-0.21000022 -0.44450173 0.049508013
-0.21017022 -0.44457603 0.049532473
-0.21032867 -0.44465345 0.049500488
-0.21049343 -0.4447276 0.049509987
-0.21065533 -0.44480923 0.049460679
-0.2108098 -0.44489157 0.049383745
-0.21098036 -0.44496578 0.049410511
-0.21116918 -0.4450399 0.049493678
-0.21134374 -0.44510958 0.049563091
-0.2114999 -0.44519392 0.049478069
-0.21164966 -0.44527823 0.049373478
-0.21183144 -0.44535327 0.049429007
-0.21199924 -0.44543487 0.049398132
-0.21216694 -0.44551083 0.049404148
-0.21232778 -0.44558993 0.049368691
-0.21250036 -0.44567212 0.049348168
-0.21265495 -0.4457511 0.049294285
-0.21281239 -0.44582877 0.049257696
-0.21297866 -0.44591084 0.049218751
-0.21314886 -0.44598591 0.049238589
-0.21331987 -0.44605809 0.049280342
-0.21349883 -0.44613251 0.049331278
-0.21365672 -0.44622058 0.049226649
-0.21382189 -0.44629526 0.049233828
-0.21396963 -0.44637659 0.049143095
-0.21415384 -0.44644931 0.049221676
-0.21432102 -0.44652593 0.049221937
-0.21447891 -0.44661105 0.049136903
-0.21465567 -0.44668931 0.049155559
-0.21482708 -0.44676203 0.049194999
-0.21499519 -0.44684097 0.049182568
-0.21516059 -0.44692335 0.049139015
-0.21532221 -0.4470045 0.049092017
-0.21547779 -0.4470827 0.049046211
-0.2156443 -0.44715485 0.049074147
-0.21580452 -0.44723639 0.049020246
-0.21597537 -0.44731212 0.049037784
-0.21614583 -0.44739044 0.049036868
-0.21631077 -0.4474681 0.0490233
-0.21648672 -0.4475472 0.049033884
-0.21664156 -0.44762558 0.048984621
-0.21680877 -0.44770497 0.048966434
-0.2169745 -0.44778249 0.048956316
-0.21715462 -0.44786057 0.048986491
-0.21731961 -0.44794068 0.04895677
-0.21749675 -0.44801289 0.049016941
-0.21765527 -0.44809934 0.04892499
-0.21780595 -0.44817877 0.048856143
-0.21798553 -0.44825503 0.0488967
-0.21814676 -0.44833168 0.048878536
-0.21831426 -0.44840899 0.048875332
-0.21847934 -0.44848913 0.048845612
-0.21863809 -0.44856861 0.048800949
-0.21880907 -0.44864732 0.048798878
-0.21897589 -0.44872707 0.048777226
-0.21914884 -0.44880325 0.048798211
-0.21932304 -0.44888136 0.04880996
-0.21949919 -0.44896126 0.048815932
-0.21965986 -0.44904247 0.048765488
-0.21982528 -0.44912055 0.048750762
-0.22000055 -0.44919863 0.048765965
-0.22014931 -0.44928235 0.04866254
-0.22032258 -0.44936091 0.048668526
-0.22048655 -0.44943932 0.048646886
-0.22064972 -0.44951999 0.048607957
-0.22081617 -0.44959384 0.048624367
-0.22098845 -0.44967076 0.048638437
-0.22118559 -0.44974509 0.048745774
-0.22134393 -0.44983283 0.048644606
-0.22149543 -0.44990969 0.048595361
-0.22166741 -0.44998887 0.048593286
-0.2218501 -0.45006621 0.048636124
-0.2220123 -0.45014521 0.048605267
-0.22216512 -0.45023561 0.048469525
-0.22234181 -0.45031023 0.048512407
-0.22249882 -0.45038614 0.048486188
-0.22266567 -0.45047021 0.04843571
-0.2228191 -0.45054865 0.048381846
-0.22300582 -0.45062199 0.048463874
-0.22319914 -0.45070216 0.048520494
-0.2233433 -0.45078582 0.048403252
-0.22351857 -0.45085925 0.048449591
-0.22368646 -0.45093948 0.048427932
-0.22383331 -0.45101887 0.048347577
-0.22402881 -0.45109725 0.048422642
-0.22419329 -0.45117989 0.048374474
-0.22434364 -0.4512569 0.048320629
-0.22454894 -0.45133257 0.04844407
-0.22469085 -0.45141986 0.048295695
-0.22484848 -0.45149416 0.048282169
-0.22502251 -0.45157203 0.048295073
-0.22520104 -0.45165128 0.048312567
-0.22538874 -0.45173681 0.048316181
-0.22554123 -0.45181724 0.048246164
-0.22571345 -0.45189375 0.048262544
-0.22587432 -0.45196971 0.04824784
-0.22604258 -0.4520503 0.04822503
-0.22621715 -0.45213205 0.048213713
-0.22637482 -0.45221019 0.048174813
-0.22656852 -0.45228672 0.048256803
-0.22673209 -0.45236963 0.048204038
-0.22690508 -0.45244822 0.048208874
-0.22704135 -0.45252654 0.048103202
-0.22723158 -0.45261064 0.048124097
-0.22739485 -0.45269012 0.048093237
-0.22756788 -0.45276546 0.048119988
-0.22775051 -0.45284867 0.048123617
-0.22791697 -0.45292637 0.048114654
-0.22807284 -0.45300987 0.048034251
-0.2282337 -0.45308962 0.047994185
-0.22840464 -0.45316541 0.048011713
-0.22857276 -0.45324641 0.047985442
-0.22874953 -0.45332694 0.047989111
-0.22892189 -0.45340613 0.047988184
-0.22908865 -0.45348236 0.047989596
-0.22925097 -0.45356384 0.047942605
-0.22944672 -0.45364359 0.048009589
-0.22959217 -0.45372921 0.047883112
-0.22976775 -0.45380521 0.047913313
-0.22993977 -0.4538863 0.04789855
-0.23009859 -0.45396477 0.047860794
-0.23028053 -0.45404232 0.047900185
-0.2304478 -0.45412692 0.047847386
-0.23061283 -0.45420843 0.04780845
-0.23078123 -0.45428666 0.047801785
-0.23096657 -0.45436436 0.047850378
-0.2311454 -0.4544408 0.047887478
-0.23129874 -0.4545244 0.047799014
-0.23146757 -0.45460436 0.047781959
-0.23162399 -0.45468622 0.047714241
-0.23182622 -0.45476705 0.047793876
-0.23198995 -0.45484725 0.047759555
-0.23215222 -0.45492905 0.047710251
-0.23232974 -0.45501059 0.047709297
-0.23249178 -0.45509091 0.047669224
-0.23265608 -0.45516965 0.047646437
-0.23284526 -0.45525122 0.047681171
-0.23300362 -0.45533466 0.047608826
-0.23315822 -0.45541206 0.047565322
-0.23336309 -0.4554877 0.047687616
-0.23352817 -0.45557269 0.047625609
-0.23369685 -0.45565465 0.04759473
-0.23385666 -0.45573515 0.047546592
-0.2340261 -0.45581418 0.04753761
-0.23418848 -0.4558962 0.047487151
-0.23438187 -0.45597693 0.047540318
-0.23454916 -0.45606053 0.047494449
-0.2347213 -0.45613977 0.047492374
-0.2349105 -0.45621926 0.047540948
-0.23506396 -0.4563013 0.047462858
-0.23523596 -0.45638362 0.04744003
-0.23542076 -0.45646471 0.047464401
-0.23558804 -0.45654845 0.04741738
-0.23574071 -0.45662618 0.047365818
-0.23594025 -0.45670488 0.047451239
-0.23612131 -0.45679048 0.047434129
-0.23626962 -0.45687103 0.047350299
-0.23644416 -0.45695224 0.047342442
-0.2366116 -0.45703334 0.047313869
-0.23680115 -0.45711365 0.047357831
-0.2369729 -0.45719635 0.047331542
-0.23713782 -0.45727748 0.047294904
-0.23732156 -0.45736203 0.047292769
-0.23749761 -0.45744359 0.047287215
-0.23765743 -0.45752463 0.047235616
-0.23784396 -0.4576053 0.047268063
-0.23801173 -0.45768943 0.047219884
-0.23816924 -0.45777044 0.047161378
-0.23833667 -0.45785183 0.047130495
-0.23851468 -0.45793101 0.047146846
-0.23871113 -0.45801523 0.047186151
-0.23887432 -0.45809656 0.047142603
-0.23906986 -0.45818225 0.047169238
-0.23920749 -0.45826101 0.047064707
-0.2394051 -0.45834556 0.047105167
-0.23958899 -0.45842814 0.047116868
-0.23974837 -0.4585081 0.04707104
-0.23994662 -0.45859295 0.047111489
-0.24009345 -0.45867491 0.047013838
-0.24027546 -0.45875627 0.047027849
-0.240463 -0.4588407 0.047038376
-0.24063608 -0.45892295 0.047019001
-0.24082369 -0.45900622 0.047037601
-0.24097338 -0.45908707 0.04695607
-0.24113646 -0.4591701 0.046900995
-0.24133551 -0.45925426 0.046948366
-0.24149965 -0.45933744 0.046895597
-0.24168779 -0.45941973 0.046922259
-0.24182843 -0.45949864 0.046825793
-0.24202514 -0.45958558 0.046847802
-0.24224633 -0.4596718 0.046949252
-0.24240288 -0.45975202 0.046893053
-0.24252845 -0.45983112 0.046749387
-0.24270187 -0.45991388 0.046727698
-0.24288633 -0.45999759 0.046733636
-0.14998005 -0.41618115 0.054833394
-0.15018059 -0.41627672 0.054809295
-0.15037714 -0.41636837 0.054799061
-0.15057567 -0.41646215 0.05478074
-0.15079597 -0.4165763 0.054693133
-0.15096568 -0.41664493 0.054754522
-0.15118042 -0.41675168 0.054699227
-0.15137041 -0.41683722 0.054709785
-0.15157713 -0.41694012 0.054655679
-0.15175956 -0.41701806 0.054693937
-0.15195562 -0.41710809 0.054692939
-0.15216929 -0.41721869 0.054608814
-0.15235658 -0.41730195 0.054626301
-0.152547 -0.41738856 0.054631088
-0.15274547 -0.4174816 0.054617375
-0.15294339 -0.41757631 0.054591
-0.15313153 -0.41766083 0.054602709
-0.15334195 -0.41776904 0.054524377
-0.15353379 -0.41785562 0.054533765
-0.15373448 -0.41795385 0.05449238
-0.15393318 -0.41805014 0.054457922
-0.15411168 -0.41812488 0.054505423
-0.15431379 -0.41822287 0.054469798
-0.15451546 -0.41832277 0.054420326
-0.15471214 -0.41841742 0.054390498
-0.15489234 -0.41849434 0.054428771
-0.15505263 -0.41856727 0.054432556
-0.15528899 -0.41868567 0.054365616
-0.15547694 -0.41877133 0.054369256
-0.1556704 -0.41886312 0.054348662
-0.15586689 -0.41895613 0.054329202
-0.15605992 -0.41904774 0.054308612
-0.15625361 -0.4191379 0.054299545
-0.15644729 -0.41923049 0.054274328
-0.15663657 -0.41931832 0.054267596
-0.15682386 -0.419404 0.054268941
-0.15702739 -0.41950577 0.05421254
-0.15721278 -0.41958955 0.054220814
-0.15741274 -0.4196876 0.054178283
-0.15760286 -0.41977701 0.054163463
-0.15779558 -0.41986951 0.054135956
-0.15798005 -0.41995269 0.054145381
-0.15817386 -0.4200443 0.05412709
-0.15836573 -0.42013621 0.054100733
-0.1585532 -0.42022079 0.054110143
-0.15874177 -0.42030913 0.054097645
-0.1589185 -0.42039841 0.054042548
-0.15912566 -0.42049167 0.054054163
-0.15931132 -0.42057455 0.054069344
-0.15950754 -0.42067245 0.054016452
-0.15971261 -0.42077854 0.053935841
-0.15988891 -0.42085314 0.053977594
-0.16006188 -0.4209238 0.0540355
-0.16025808 -0.42101979 0.053995296
-0.16042849 -0.42110273 0.053963289
-0.16059855 -0.42118791 0.053915136
-0.16083887 -0.42130452 0.053872388
-0.16102025 -0.42138577 0.053885289
-0.16119713 -0.42147461 0.053833652
-0.16140178 -0.42156896 0.053830296
-0.16159527 -0.42166284 0.053795855
-0.16177896 -0.42174739 0.053793758
-0.1619613 -0.42182767 0.053815883
-0.16214865 -0.42191702 0.053793013
-0.1623507 -0.42202225 0.053708956
-0.16252971 -0.42210415 0.053710334
-0.16270769 -0.42217934 0.053753238
-0.16289644 -0.42227104 0.053718831
-0.16308649 -0.42236179 0.053694788
-0.16326272 -0.42243773 0.053727321
-0.16346885 -0.42254952 0.053612113
-0.16364399 -0.42262426 0.053649265
-0.1638294 -0.42270958 0.053647149
-0.16401316 -0.42279574 0.053634673
-0.16420436 -0.4228889 0.053597946
-0.16437978 -0.4229643 0.053631634
-0.16457222 -0.42305943 0.053585671
-0.16475417 -0.42314368 0.053580128
-0.16493657 -0.42322868 0.05357112
-0.16512154 -0.42331728 0.053545952
-0.16530912 -0.42340654 0.053524241
-0.16548875 -0.4234882 0.053529073
-0.16567905 -0.42358148 0.053488888
-0.1658622 -0.42366821 0.05347066
-0.16604945 -0.42375767 0.053446628
-0.16623357 -0.42384604 0.053420316
-0.16641253 -0.42392737 0.053425163
-0.16659486 -0.42401356 0.053408079
-0.16678345 -0.42410553 0.053371362
-0.16693059 -0.42416757 0.053407509
-0.16714668 -0.4242734 0.053362582
-0.16732682 -0.424357 0.053355888
-0.16750771 -0.42444181 0.053343426
-0.16769037 -0.42452934 0.05331827
-0.16787754 -0.42462033 0.053283874
-0.16805129 -0.42469513 0.053316411
-0.16823086 -0.42477521 0.053331632
-0.16841699 -0.42486846 0.053278785
-0.16857317 -0.42493433 0.053317185
-0.16879033 -0.42505392 0.053183474
-0.16896461 -0.42513001 0.0532091
-0.16913755 -0.4252041 0.05324395
-0.16932343 -0.42529449 0.053209562
-0.16950662 -0.42538452 0.053169414
-0.16968599 -0.4254688 0.053155806
-0.16986631 -0.42555472 0.053134121
-0.17005271 -0.42564675 0.053090498
-0.17022884 -0.42572644 0.053097673
-0.17041184 -0.42581344 0.053077124
-0.1705896 -0.42589593 0.053070448
-0.17076889 -0.42598104 0.053051077
-0.17094758 -0.42606539 0.053035162
-0.17112574 -0.42614514 0.053048082
-0.17130087 -0.42622387 0.053058717
-0.17147303 -0.4263095 0.05301401
-0.17166458 -0.42640406 0.052969214
-0.17184502 -0.42648813 0.052960217
-0.17202097 -0.42656881 0.052960459
-0.17220396 -0.4266575 0.052928384
-0.17237805 -0.42673522 0.052942485
-0.17255992 -0.42682654 0.05288966
-0.1727393 -0.42691377 0.052856453
-0.17291711 -0.42699423 0.052863605
-0.17309214 -0.4270741 0.052866165
-0.17327371 -0.42716148 0.052838713
-0.17344879 -0.42724174 0.052838963
-0.17361534 -0.42731979 0.052827727
-0.17380422 -0.42741224 0.052788712
-0.1739842 -0.42749751 0.052770488
-0.17412947 -0.42755458 0.05283431
-0.17430381 -0.42763862 0.052806888
-0.17450733 -0.42774108 0.052745882
-0.17466819 -0.42781395 0.052751973
-0.17485859 -0.42790589 0.05272102
-0.17503969 -0.42798957 0.052716628
-0.17520629 -0.4280692 0.052695014
-0.17536795 -0.42814416 0.052689575
-0.17555577 -0.42823181 0.052679379
-0.17573954 -0.42832157 0.052642688
-0.17589864 -0.42839172 0.052661479
-0.17610228 -0.42849717 0.052580863
-0.17627627 -0.42857778 0.052575361
-0.17645535 -0.42866403 0.052547924
-0.17662345 -0.42874312 0.052534372
-0.17680033 -0.42881954 0.052565742
-0.176943 -0.42888215 0.052584607
-0.17712553 -0.42897668 0.052512184
-0.17730176 -0.42905763 0.052511275
-0.17747207 -0.42914259 0.052465431
-0.17765424 -0.42922574 0.052467961
-0.17785023 -0.42931733 0.052456573
-0.17801706 -0.42939502 0.052448794
-0.17817333 -0.4294661 0.052452601
-0.17832972 -0.42953759 0.052454099
-0.17851335 -0.42962503 0.052432407
-0.17865908 -0.42968336 0.052489307
-0.17882475 -0.42975876 0.052493066
-0.17901289 -0.42987797 0.052273028
-0.17919992 -0.42995524 0.052329708
-0.17938784 -0.43004158 0.052328747
-0.17958188 -0.43013036 0.052330054
-0.17975876 -0.43021575 0.052301474
-0.17991611 -0.43029147 0.052277602
-0.18008311 -0.43036473 0.052299805
-0.18024305 -0.4304406 0.052282836
-0.18041587 -0.4305307 0.052210454
-0.18060257 -0.43062285 0.052166834
-0.18075845 -0.43067977 0.052264038
-0.18095835 -0.4307797 0.052208818
-0.18113014 -0.43087676 0.052086875
-0.18130888 -0.43094572 0.052173585
-0.18147074 -0.43102095 0.052166983
-0.18165058 -0.43111062 0.052118786
-0.18179351 -0.43116885 0.052167624
-0.18199313 -0.43127057 0.052099727
-0.18215287 -0.43134895 0.052065466
-0.18232356 -0.43141785 0.052128002
-0.1824798 -0.43148407 0.052164093
-0.1826472 -0.43158102 0.052029483
-0.18282208 -0.43166566 0.051999759
-0.18301031 -0.43174866 0.052021854
-0.18318564 -0.43182471 0.052050922
-0.18336987 -0.43191418 0.052017689
-0.18355076 -0.43200192 0.051985636
-0.18370037 -0.43206459 0.052025218
-0.18387403 -0.43215835 0.051930927
-0.18402825 -0.43222937 0.051928986
-0.18420532 -0.43231452 0.0519027
-0.18437155 -0.43238896 0.051914532
-0.18455619 -0.43246996 0.051938944
-0.18471606 -0.43254134 0.05195196
-0.18488112 -0.43264028 0.051796608
-0.18503682 -0.43270558 0.051837318
-0.18522556 -0.43279451 0.051821359
-0.18538944 -0.43287376 0.051793993
-0.18556213 -0.43295431 0.051785037
-0.18574202 -0.4330442 0.051735677
-0.18590139 -0.4331148 0.051752158
-0.18607529 -0.43318447 0.051819287
-0.18624568 -0.43327123 0.05176191
-0.18642497 -0.43335962 0.051720638
-0.1866124 -0.43344295 0.051738117
-0.1867829 -0.43353438 0.051649608
-0.1869259 -0.43359283 0.051697306
-0.18713279 -0.43369302 0.051661648
-0.18730181 -0.43377361 0.051641181
-0.18745176 -0.43384248 0.051640403
-0.18760473 -0.43391171 0.051646534
-0.18778634 -0.43400237 0.051597171
-0.18796746 -0.43408731 0.051584709
-0.18812375 -0.43416443 0.051548164
-0.18827644 -0.434232 0.051564667
-0.18844488 -0.43431091 0.051553424
-0.18862867 -0.43439066 0.05158361
-0.18879989 -0.43445757 0.051661141
-0.18896839 -0.43454275 0.051608387
-0.18913676 -0.43463424 0.051512972
-0.18930176 -0.43472436 0.051416427
-0.18949784 -0.43480787 0.051459223
-0.18963753 -0.43489102 0.051331677
-0.18981816 -0.43496037 0.051421836
-0.18998919 -0.43503875 0.051422104
-0.19015726 -0.43511179 0.051448915
-0.19032827 -0.43519035 0.051448036
-0.1904958 -0.43527299 0.051409122
-0.19065443 -0.43534362 0.051423293
-0.19080982 -0.43541431 0.051427104
-0.19099261 -0.43550447 0.051384661
-0.19117238 -0.43559068 0.051359523
-0.19131565 -0.43565166 0.051391073
-0.19149651 -0.43575633 0.051246013
-0.19167422 -0.43582949 0.051301595
-0.19183397 -0.43591529 0.051217753
-0.19199681 -0.43597713 0.051303394
-0.19217685 -0.43605846 0.051311687
-0.19234025 -0.43613991 0.051268186
-0.19251323 -0.43622297 0.051243082
-0.19267228 -0.43627048 0.051412914
-0.19284084 -0.43637797 0.051211424
-0.19300559 -0.43646762 0.051117178
-0.1931867 -0.436542 0.05117505
-0.19336532 -0.43661281 0.051249076
-0.19353172 -0.43670842 0.051120237
-0.19370823 -0.43678865 0.051125087
-0.19385247 -0.43686008 0.051089756
-0.19403525 -0.43694249 0.051099192
-0.19419278 -0.43701553 0.051093776
-0.19437717 -0.4371047 0.051062841
-0.1945468 -0.43718401 0.051052749
-0.19472545 -0.43726832 0.051036842
-0.19488333 -0.43733963 0.051044099
-0.19502388 -0.43740988 0.05100533
-0.195187 -0.43747583 0.051064439
-0.19538803 -0.43757802 0.050997686
-0.19556268 -0.43766272 0.050966814
-0.19570825 -0.43773806 0.05090956
-0.19586539 -0.43780109 0.050969861
-0.19604613 -0.43787876 0.051004678
-0.1962098 -0.43795377 0.051004987
-0.19636036 -0.438025 0.05099038
-0.1965348 -0.43810943 0.05096066
-0.19671638 -0.43820286 0.050892849
-0.19687255 -0.43827769 0.05087129
-0.19702731 -0.43835551 0.050825529
-0.19720516 -0.43843961 0.050808467
-0.19736971 -0.43852004 0.050775334
-0.19754395 -0.43859577 0.050803263
-0.19770014 -0.43866992 0.050786316
-0.19786637 -0.43876165 0.050682843
-0.19804654 -0.4388406 0.050707281
-0.1982165 -0.43891004 0.050764062
-0.1983978 -0.43900141 0.050708931
-0.19856769 -0.43907824 0.050716136
-0.19873011 -0.4391546 0.050703764
-0.19888684 -0.43922055 0.050743308
-0.19906679 -0.43930697 0.050717019
-0.19923052 -0.43938756 0.050680436
-0.19938029 -0.43945858 0.050664678
-0.19954339 -0.43953991 0.050621171
-0.19973724 -0.43963516 0.050578669
-0.19989185 -0.43970463 0.050588254
-0.20005518 -0.43977913 0.050590865
-0.20021644 -0.43985078 0.05060618
-0.20037788 -0.43991646 0.050661847
-0.20054853 -0.44000953 0.050562963
-0.20068875 -0.44010448 0.050358161
-0.2008644 -0.44016758 0.05047486
-0.20103787 -0.440245 0.050488956
-0.20120201 -0.44031298 0.050537691
-0.20137912 -0.44038069 0.050627865
-0.20153399 -0.44046599 0.050532524
-0.20169252 -0.44056714 0.050342612
-0.2018636 -0.44064227 0.050364796
-0.20203546 -0.44070652 0.050461918
-0.20221052 -0.4407973 0.050391834
-0.20239046 -0.44087735 0.050408203
-0.20256092 -0.44096324 0.050356597
-0.20271684 -0.44103143 0.050378852
-0.20288105 -0.44110495 0.050390683
-0.20303801 -0.44117686 0.050391037
-0.20320675 -0.44126421 0.050324447
-0.20337087 -0.44133788 0.050335132
-0.20355238 -0.44140762 0.050425284
-0.20370784 -0.44149008 0.050350692
-0.20388189 -0.44158503 0.05024948
-0.20404935 -0.4416599 0.050262455
-0.20422164 -0.44174317 0.050233897
-0.20438208 -0.44182032 0.050210014
-0.20454517 -0.44189921 0.050182655
-0.20472601 -0.44197467 0.050232451
-0.20488165 -0.442056 0.050165936
-0.20503773 -0.44213271 0.050131693
-0.20520878 -0.44220868 0.050148107
-0.20537254 -0.44228685 0.050127663
-0.20552997 -0.44236624 0.050079584
-0.20569254 -0.44243744 0.050101802
-0.20585306 -0.44252586 0.05000297
-0.20602416 -0.44260186 0.050019387
-0.20620275 -0.44267595 0.050071504
-0.20636278 -0.44275308 0.050046466
-0.20653394 -0.44282928 0.050061733
-0.20669764 -0.44291106 0.050017074
-0.2068636 -0.44298744 0.05001507
-0.20702282 -0.44306868 0.049960054
-0.2071867 -0.44314295 0.04996613
-0.20735882 -0.44322217 0.049964093
-0.20752637 -0.44330102 0.049950548
-0.20768763 -0.44337717 0.049935881
-0.20785224 -0.44345796 0.049900442
-0.20801654 -0.44353551 0.049885761
-0.20818146 -0.44361264 0.049875684
-0.20834637 -0.4436965 0.04982065
-0.20850869 -0.44377521 0.049792141
-0.20867147 -0.44385359 0.049767092
-0.20882513 -0.44393748 0.049677514
-0.20900394 -0.44400942 0.049744625
-0.20918082 -0.44408274 0.049796753
-0.20934728 -0.44415903 0.049797047
-0.20952491 -0.44423217 0.049852628
-0.20969829 -0.4443047 0.049899016
-0.20986329 -0.44438517 0.049867034
-0.21003293 -0.44445997 0.049886916
-0.2101927 -0.44454321 0.049820371
-0.21034554 -0.44463 0.049708892
-0.21051507 -0.44470787 0.04970802
-0.21068767 -0.44478419 0.049726736
-0.21085982 -0.44486088 0.049741987
-0.21101651 -0.44494233 0.049677767
-0.21118125 -0.44502267 0.049645789
-0.21134943 -0.44510424 0.049616098
-0.21150678 -0.44518515 0.049557634
-0.21167044 -0.44526014 0.049557943
-0.21183601 -0.44534001 0.049531728
-0.21199684 -0.44542199 0.049476713
-0.21216765 -0.44549942 0.049482755
-0.21233124 -0.44557732 0.049463458
-0.21249676 -0.44565713 0.049437243
-0.2126755 -0.44572854 0.049507804
-0.21284223 -0.44581065 0.049470056
-0.21300952 -0.44588438 0.049489949
-0.21318129 -0.44596171 0.049499445
-0.21333995 -0.44603911 0.049468644
-0.21350518 -0.44611913 0.049440123
-0.21367073 -0.44619638 0.049431194
-0.21384455 -0.44627571 0.049433768
-0.21401186 -0.44636017 0.049382169
-0.21417418 -0.44643611 0.049372107
-0.2143527 -0.44651377 0.04940002
-0.2145043 -0.4465988 0.049296618
-0.2146703 -0.44667089 0.049323436
-0.21484116 -0.44675145 0.049308721
-0.21501738 -0.44683015 0.049322799
-0.21518376 -0.44690484 0.049333472
-0.21535186 -0.44698396 0.04931993
-0.21551685 -0.44705921 0.049322542
-0.21567975 -0.4471401 0.049281344
-0.21583353 -0.44722143 0.049209069
-0.2160041 -0.44729978 0.049208194
-0.21616778 -0.4473803 0.0491716
-0.21634547 -0.44745415 0.049222574
-0.21650732 -0.44753766 0.049160637
-0.21667707 -0.44761875 0.049139008
-0.21684636 -0.44769529 0.049146205
-0.2170133 -0.44777492 0.049125738
-0.21717179 -0.44785461 0.049078807
-0.21734387 -0.44793281 0.049083691
-0.21751885 -0.44801024 0.049102385
-0.21768518 -0.44809011 0.049078472
-0.21784244 -0.44816786 0.049040765
-0.21800829 -0.44824335 0.04904452
-0.21816771 -0.44832277 0.049002193
-0.21833843 -0.44840154 0.048999015
-0.21851191 -0.44847968 0.0490085
-0.21868137 -0.44855666 0.049013384
-0.21885073 -0.44863808 0.048988298
-0.21901952 -0.44872183 0.048945922
-0.2191653 -0.44880226 0.048855245
-0.21934327 -0.44887951 0.048884302
-0.21953136 -0.44896314 0.048901789
-0.2196725 -0.44904023 0.048819192
-0.21984638 -0.44911647 0.048842512
-0.22002822 -0.44919741 0.048858874
-0.22019583 -0.44927093 0.048881065
-0.22036439 -0.44935268 0.048851375
-0.22051732 -0.44943139 0.048794094
-0.22069585 -0.44950908 0.048821997
-0.22086617 -0.44958439 0.048840724
-0.22102381 -0.44966424 0.048790328
-0.22119221 -0.44974607 0.048759487
-0.22135578 -0.44982275 0.04874827
-0.22153042 -0.44990349 0.048743911
-0.22170094 -0.44998699 0.048708443
-0.22188154 -0.45006078 0.048768617
-0.22205769 -0.45013946 0.048782706
-0.22219637 -0.45022249 0.048652858
-0.22235116 -0.45030275 0.048590947
-0.22252314 -0.45038021 0.048600439
-0.22269723 -0.4504593 0.048605312
-0.22288699 -0.45053989 0.048648141
-0.22304548 -0.45061961 0.04860121
-0.22320761 -0.45069683 0.048581932
-0.22338149 -0.45077428 0.048597172
-0.22355348 -0.45085397 0.048591677
-0.22371143 -0.45093378 0.048542436
-0.22390567 -0.45101801 0.048574876
-0.22406045 -0.45109826 0.048512965
-0.22423954 -0.45117342 0.048559323
-0.22440939 -0.45125732 0.048519239
-0.22457114 -0.45133853 0.048472289
-0.22473517 -0.45141578 0.04845877
-0.22489728 -0.45149145 0.048449859
-0.22507448 -0.45156905 0.048474308
-0.22522849 -0.45165479 0.048373211
-0.22541095 -0.4517355 0.048393026
-0.22558543 -0.45181358 0.048405964
-0.22575065 -0.45189446 0.048371673
-0.2259112 -0.45197409 0.048331648
-0.22607303 -0.45205534 0.048284698
-0.22624744 -0.45213181 0.048308004
-0.22643676 -0.45221049 0.048362374
-0.22659975 -0.45229349 0.048307348
-0.22676103 -0.45236963 0.048292682
-0.22695181 -0.45245191 0.048327442
-0.22711517 -0.45253661 0.048262037
-0.22727439 -0.45261475 0.048227776
-0.22745505 -0.4526929 0.048259128
-0.22763135 -0.45277318 0.048262838
-0.22779091 -0.45285648 0.048195146
-0.22792967 -0.45293111 0.048121791
-0.22811355 -0.45301265 0.04814044
-0.22828662 -0.45309162 0.048143007
-0.22845849 -0.45317075 0.048140973
-0.22864313 -0.45324743 0.048194207
-0.22880229 -0.45333245 0.048113838
-0.22897911 -0.45341143 0.048127916
-0.22913983 -0.45349303 0.048075203
-0.22931114 -0.45357239 0.048069712
-0.22948575 -0.45365331 0.048064195
-0.22965501 -0.45373452 0.048040271
-0.22981249 -0.45381305 0.047997952
-0.22998787 -0.45389241 0.048005115
-0.23015285 -0.45397389 0.047966216
-0.23033531 -0.45405787 0.047964126
-0.23050183 -0.45413452 0.047962118
-0.23067808 -0.45421565 0.04796005
-0.23085138 -0.45429856 0.047937255
-0.23101446 -0.45437863 0.047901824
-0.2311912 -0.45445514 0.047932047
-0.23135628 -0.45453995 0.047871243
-0.23152873 -0.45461985 0.047865745
-0.23170626 -0.45469812 0.047886737
-0.23187608 -0.45478129 0.047851272
-0.23205173 -0.45485973 0.047865354
-0.23222965 -0.4549413 0.047865596
-0.23239645 -0.45502308 0.047830146
-0.23256838 -0.45510483 0.047810815
-0.23272836 -0.45518523 0.047763865
-0.23290306 -0.45526546 0.047762968
-0.23307632 -0.4553473 0.047747087
-0.23326254 -0.4554306 0.047761124
-0.23342672 -0.45551255 0.047716461
-0.23360796 -0.455596 0.047714375
-0.23377562 -0.45567352 0.047710054
-0.23394059 -0.45575258 0.047687292
-0.2341333 -0.45583469 0.047728967
-0.23428679 -0.45591676 0.04765093
-0.23446743 -0.4559975 0.047664985
-0.23464406 -0.45608121 0.04764678
-0.23480964 -0.456159 0.0476344
-0.23499705 -0.45624146 0.047657646
-0.235162 -0.45632517 0.047603764
-0.23533487 -0.45641047 0.047563672
-0.23549613 -0.45648831 0.047537468
-0.23564363 -0.45656452 0.047480218
-0.23585969 -0.45664927 0.047575958
-0.23602185 -0.45673448 0.047503628
-0.23619671 -0.45681566 0.047496971
-0.23636882 -0.45689538 0.047491465
-0.2365472 -0.4569782 0.047484789
-0.23672169 -0.45706093 0.047466595
-0.23690112 -0.45714387 0.04746221
-0.23707145 -0.45722798 0.047422133
-0.23724052 -0.45730928 0.047397051
-0.23739864 -0.45738879 0.047350116
-0.2375809 -0.45747063 0.047361858
-0.23775472 -0.45755219 0.047349434
-0.23794718 -0.45763731 0.047370356
-0.23811673 -0.45772019 0.047336042
-0.23829508 -0.45779935 0.047353569
-0.2384519 -0.45788312 0.047274362
-0.23864207 -0.45796841 0.047287218
-0.23882118 -0.45805052 0.047287446
-0.2389815 -0.45813313 0.047226664
-0.23916477 -0.45821282 0.047255702
-0.23933744 -0.45829612 0.047228292
-0.23952255 -0.4583801 0.047234267
-0.23968981 -0.45846453 0.047182668
-0.2398787 -0.4585475 0.047207057
-0.24005333 -0.45862839 0.047201548
-0.24022168 -0.45871297 0.047152255
-0.24041227 -0.45879757 0.047170877
-0.24058411 -0.4588798 0.047148086
-0.2407604 -0.45896232 0.047136802
-0.24091916 -0.45904508 0.047070261
-0.24109536 -0.45912638 0.047067054
-0.24127682 -0.45920938 0.047068421
-0.24147265 -0.45929605 0.047089323
-0.24164736 -0.45937872 0.047072276
-0.24181798 -0.45946246 0.047035657
-0.24197215 -0.45954239 0.04697375
-0.24217333 -0.45963103 0.046998087
-0.24233612 -0.45971426 0.046940751
-0.24251883 -0.45979646 0.046951339
-0.24269921 -0.45987982 0.04694695
-0.24288011 -0.45996585 0.046926424
-0.14980371 -0.41608173 0.054957278
-0.15000181 -0.41617253 0.054957435
-0.15020297 -0.41626856 0.054932218
-0.1503952 -0.41635564 0.054939326
-0.15059529 -0.41645083 0.054916408
-0.15078869 -0.41653931 0.054917749
-0.15098834 -0.41663429 0.054894842
-0.15118678 -0.41672614 0.054889239
-0.15139291 -0.41682807 0.054839775
-0.15158792 -0.41691867 0.054831881
-0.15178123 -0.41700765 0.054829754
-0.15198031 -0.41710269 0.054804541
-0.15216583 -0.41718379 0.054831289
-0.15236424 -0.41727629 0.054821067
-0.15256973 -0.41737843 0.054768156
-0.15277402 -0.41747952 0.054718703
-0.15295888 -0.41756031 0.054745443
-0.15315786 -0.41765395 0.054729458
-0.15335338 -0.41774616 0.054712333
-0.15355182 -0.41784161 0.054682516
-0.15373921 -0.41792545 0.054696567
-0.15392931 -0.41801223 0.054699074
-0.15413104 -0.41811162 0.054653093
-0.15433323 -0.41820952 0.054618634
-0.15450482 -0.41829419 0.054578573
-0.15469663 -0.41837454 0.054629501
-0.15491557 -0.41848442 0.054566141
-0.15510426 -0.4185704 0.054569807
-0.1553053 -0.41867 0.054520372
-0.15550041 -0.41876996 0.05445021
-0.15569285 -0.41885144 0.054495364
-0.15587415 -0.41892973 0.054527905
-0.15607399 -0.41902858 0.054479621
-0.1562672 -0.41912025 0.05445905
-0.1564441 -0.41919616 0.054493912
-0.15665255 -0.41930053 0.054435208
-0.15684308 -0.41938961 0.054423876
-0.1570399 -0.41948587 0.054383691
-0.15723746 -0.41958317 0.05433888
-0.15741462 -0.41965747 0.054385267
-0.15759408 -0.4197439 0.054357849
-0.15778591 -0.41983268 0.05435228
-0.15798876 -0.41992947 0.054327048
-0.15817823 -0.42001581 0.05433071
-0.15836433 -0.42010078 0.05433324
-0.15856113 -0.42019823 0.054284975
-0.15875301 -0.42029017 0.054258652
-0.15894492 -0.42038229 0.054231167
-0.15912962 -0.4204661 0.054237161
-0.15932164 -0.4205586 0.05420737
-0.15950936 -0.42064622 0.054197203
-0.1596794 -0.42072794 0.054172132
-0.15990143 -0.42083907 0.054109909
-0.1600842 -0.42092371 0.054104377
-0.16025895 -0.42100897 0.054070067
-0.16044506 -0.42109534 0.054063369
-0.16063619 -0.421175 0.054116607
-0.16083667 -0.42127642 0.054053336
-0.16101575 -0.42135453 0.054080117
-0.16119416 -0.42144233 0.054040018
-0.16139561 -0.42153764 0.054020554
-0.161567 -0.42161447 0.054032378
-0.16173801 -0.4216935 0.054028068
-0.16192448 -0.42177588 0.054049041
-0.16213252 -0.42187455 0.054027241
-0.16232882 -0.4219749 0.053958222
-0.16252461 -0.42207485 0.05389037
-0.16270772 -0.42215896 0.053889453
-0.16286995 -0.4222331 0.05389094
-0.16306062 -0.42232433 0.053865772
-0.16323572 -0.42240405 0.053869508
-0.16342729 -0.42249671 0.053837419
-0.16362154 -0.42259303 0.053789165
-0.16382259 -0.42268413 0.053796224
-0.16399941 -0.42276087 0.05382533
-0.16418445 -0.42284846 0.053807098
-0.1643683 -0.42293462 0.053794652
-0.1645548 -0.42302445 0.053766038
-0.16473106 -0.42310074 0.053796291
-0.1649182 -0.42319462 0.053742312
-0.16508472 -0.4232699 0.053749554
-0.16529387 -0.42337599 0.053681627
-0.16547677 -0.42346174 0.053669177
-0.16566497 -0.4235518 0.053644024
-0.16583775 -0.42362389 0.053691581
-0.16602495 -0.42371592 0.053650286
-0.16621286 -0.42380914 0.053603217
-0.16639501 -0.42389452 0.053590782
-0.16657498 -0.42397702 0.053591035
-0.16675651 -0.42406178 0.053580899
-0.16694525 -0.42415693 0.053523451
-0.16710432 -0.42422932 0.053527258
-0.16728798 -0.42431107 0.053543642
-0.16746756 -0.42439684 0.053520828
-0.16766778 -0.42448968 0.053514067
-0.16785753 -0.42459393 0.053398956
-0.16800395 -0.42465168 0.053461649
-0.16820924 -0.42474908 0.053439863
-0.16838919 -0.42483622 0.053408973
-0.16857752 -0.42492238 0.05341034
-0.16876096 -0.42501163 0.053375982
-0.16894601 -0.42510009 0.053351995
-0.1691189 -0.4251807 0.053343058
-0.16928264 -0.42525455 0.053351462
-0.16948362 -0.42535013 0.053328551
-0.1696648 -0.42543679 0.053304572
-0.16984549 -0.42552289 0.053282917
-0.17002603 -0.42560893 0.053261261
-0.1702055 -0.42569345 0.05324652
-0.17038743 -0.42578202 0.05321217
-0.17054996 -0.42585096 0.053249404
-0.17073967 -0.42594105 0.053228851
-0.17091744 -0.42602718 0.05319798
-0.17107096 -0.42609701 0.053201824
-0.17127442 -0.42619857 0.053146616
-0.17145136 -0.42628002 0.053144574
-0.1716359 -0.42637029 0.053106751
-0.17181548 -0.42644846 0.05313468
-0.17199114 -0.42652813 0.053140711
-0.17217293 -0.42661837 0.053094834
-0.17234081 -0.42670134 0.053054791
-0.17251898 -0.42678162 0.053064272
-0.17270681 -0.4268705 0.053046037
-0.17288825 -0.42695674 0.053025525
-0.17306839 -0.4270452 0.052986566
-0.17321348 -0.42711875 0.052939724
-0.17338279 -0.42719686 0.052936561
-0.17357951 -0.42727634 0.053008229
-0.17375833 -0.42735863 0.05300618
-0.17394616 -0.42744872 0.052979864
-0.17412665 -0.42753905 0.052929379
-0.17430235 -0.42762059 0.052922733
-0.17447735 -0.42770097 0.052921861
-0.17465629 -0.42778903 0.052881762
-0.1748157 -0.42786348 0.052872881
-0.17499074 -0.42795405 0.052803978
-0.1751741 -0.42803207 0.052844573
-0.17531899 -0.42808789 0.052915342
-0.17553291 -0.42819721 0.052840464
-0.1757119 -0.42828166 0.052824587
-0.17588677 -0.42836303 0.052816786
-0.17606251 -0.42844632 0.052798606
-0.17623511 -0.42853907 0.052707799
-0.17641498 -0.42862099 0.052711509
-0.17654726 -0.42867693 0.052743137
-0.17673716 -0.42879161 0.052558839
-0.17694139 -0.42886642 0.052684665
-0.17711313 -0.4289422 0.052704558
-0.17728406 -0.42902192 0.052695628
-0.17743546 -0.42909232 0.052689113
-0.17763811 -0.42919213 0.052643117
-0.17781064 -0.42927018 0.052650325
-0.1779801 -0.42934713 0.052655242
-0.17814682 -0.4294239 0.052653257
-0.17832805 -0.42951697 0.052586626
-0.17849812 -0.42957696 0.052706853
-0.17867634 -0.42966953 0.052634463
-0.17885533 -0.42976451 0.052548241
-0.17902648 -0.42984018 0.052566983
-0.17920218 -0.42992762 0.052521128
-0.17937699 -0.43001309 0.05248566
-0.17954385 -0.4300918 0.052470993
-0.17972276 -0.43017468 0.052465484
-0.17989413 -0.43025893 0.05242772
-0.18006654 -0.43033898 0.052421093
-0.18023835 -0.43041754 0.052422538
-0.18040416 -0.430502 0.052366357
-0.18058285 -0.43057767 0.052408129
-0.18075095 -0.43064573 0.052468408
-0.18092434 -0.43073764 0.052385665
-0.18109813 -0.43082315 0.05234674
-0.18125804 -0.43089953 0.052326344
-0.18143098 -0.43098313 0.052297797
-0.18161531 -0.43106866 0.05229111
-0.1817859 -0.4311451 0.052302938
-0.18194549 -0.43122151 0.05228138
-0.18212804 -0.43131107 0.052242421
-0.18229896 -0.43138921 0.05224387
-0.18246751 -0.43145904 0.052293763
-0.18263988 -0.43154269 0.052262921
-0.1828126 -0.43162808 0.052221693
-0.18297248 -0.43170738 0.052181687
-0.18315318 -0.43179229 0.052168101
-0.18329872 -0.43184859 0.052237708
-0.18343914 -0.43190652 0.052280817
-0.18361011 -0.43202183 0.052034356
-0.18380658 -0.4321157 0.052009158
-0.18395264 -0.43216172 0.052149106
-0.18414246 -0.43226427 0.052045532
-0.18433045 -0.43234596 0.052075714
-0.18451382 -0.43243295 0.052056354
-0.1846839 -0.43251106 0.052055497
-0.18483937 -0.43258819 0.052016668
-0.18500534 -0.43266028 0.052043509
-0.18515231 -0.43272293 0.052075066
-0.18532996 -0.4328123 0.052022286
-0.18548614 -0.43289578 0.05194309
-0.18565907 -0.43297592 0.05193761
-0.18585023 -0.43306094 0.0519551
-0.18602645 -0.43314412 0.051939227
-0.18620466 -0.4332208 0.051972929
-0.18637714 -0.43329865 0.051981289
-0.18655188 -0.43339548 0.051869716
-0.18671182 -0.43346912 0.051867764
-0.18685892 -0.43353462 0.051880866
-0.18701902 -0.43361041 0.051865079
-0.18719533 -0.43370003 0.051806532
-0.18736094 -0.43377212 0.051832225
-0.18751974 -0.43383417 0.051904082
-0.187712 -0.43393889 0.051793568
-0.18787216 -0.43402141 0.051732808
-0.18804421 -0.43410164 0.051723871
-0.18820664 -0.43417385 0.051739205
-0.18839489 -0.43427774 0.051621791
-0.18855089 -0.43434525 0.051648684
-0.18873194 -0.43442687 0.051658157
-0.1888852 -0.43451348 0.051548995
-0.18904725 -0.4345741 0.05164044
-0.18920951 -0.43464071 0.051692665
-0.18938738 -0.43472618 0.051666405
-0.1895557 -0.43481299 0.051602144
-0.18974283 -0.43489689 0.051615044
-0.18990487 -0.43497321 0.051601544
-0.190054 -0.43505448 0.051515471
-0.19023176 -0.4351306 0.051551484
-0.19040674 -0.43520078 0.051618636
-0.19056174 -0.43528423 0.05153599
-0.190708 -0.43535244 0.051528342
-0.19088224 -0.43543318 0.051522858
-0.19104354 -0.43551347 0.051480539
-0.19121201 -0.43558535 0.051516593
-0.19142035 -0.43568188 0.051509786
-0.19159083 -0.43576539 0.051474337
-0.19175208 -0.4358429 0.051450465
-0.19189875 -0.43590543 0.051482014
-0.19204569 -0.43596652 0.05152395
-0.19220823 -0.43605706 0.051417053
-0.19238397 -0.43614659 0.051357359
-0.19254865 -0.43622121 0.05136345
-0.19272217 -0.43630281 0.051349901
-0.19287799 -0.43637058 0.051374484
-0.19305192 -0.43644977 0.051378228
-0.19321212 -0.43652958 0.051335916
-0.19337904 -0.43660918 0.051315479
-0.19355272 -0.43668896 0.051314607
-0.19372818 -0.43677559 0.051273372
-0.19388646 -0.43684742 0.051278338
-0.19404759 -0.4369216 0.051276378
-0.19422232 -0.43700996 0.051221311
-0.19438125 -0.43709177 0.05116171
-0.19454759 -0.43715921 0.051220831
-0.19471882 -0.4372344 0.051243044
-0.19488303 -0.43732122 0.051166117
-0.19503881 -0.43740037 0.051114596
-0.19518888 -0.43748569 0.051004294
-0.1953624 -0.43755332 0.051084153
-0.19553916 -0.43762261 0.051162824
-0.19571951 -0.43771267 0.051113494
-0.19587216 -0.43778917 0.051070061
-0.19603112 -0.43785822 0.051095787
-0.19621128 -0.43793857 0.051111028
-0.19637285 -0.43801051 0.051125214
-0.19655359 -0.43809855 0.051090866
-0.19670562 -0.43816683 0.051100485
-0.19686766 -0.43825489 0.051008575
-0.19703864 -0.43833894 0.050970823
-0.19721895 -0.43841866 0.050990667
-0.19738592 -0.43850294 0.050939102
-0.19754148 -0.43857145 0.050957918
-0.19771604 -0.43865526 0.050932836
-0.19788277 -0.43873185 0.050931998
-0.19805841 -0.43881339 0.050925352
-0.19820453 -0.43888533 0.050892331
-0.19837543 -0.43896833 0.0508615
-0.1985383 -0.43904468 0.050850306
-0.1987171 -0.43912715 0.050847106
-0.19887035 -0.43919307 0.050876319
-0.19903676 -0.43927002 0.050872024
-0.19922279 -0.43936011 0.050839953
-0.19938216 -0.43943557 0.050824169
-0.19953628 -0.43951291 0.050779577
-0.19969331 -0.43959177 0.05073382
-0.19985509 -0.43967542 0.050670743
-0.2000389 -0.43974999 0.050735552
-0.20019306 -0.4398208 0.050734781
-0.20034111 -0.43990037 0.050656777
-0.2005145 -0.43997276 0.050704345
-0.20067847 -0.44004703 0.05071044
-0.2008405 -0.44013509 0.050618529
-0.201015 -0.4402118 0.050640725
-0.20118961 -0.44028303 0.050699811
-0.20133401 -0.44037163 0.050550334
-0.20150998 -0.44044122 0.0506244
-0.2016916 -0.44051462 0.050690379
-0.20184459 -0.44059715 0.050607733
-0.20201476 -0.44067928 0.050580364
-0.20216756 -0.44075656 0.050532322
-0.20234263 -0.44083783 0.05052568
-0.2025236 -0.44091731 0.050548993
-0.20268311 -0.44098213 0.05060469
-0.20284757 -0.44106078 0.050583109
-0.20300871 -0.44114292 0.050528113
-0.20317481 -0.44121507 0.050554954
-0.20333563 -0.44128355 0.050589897
-0.20350376 -0.44137201 0.050514102
-0.20367186 -0.44145578 0.050469436
-0.20383984 -0.4415307 0.050483588
-0.20399816 -0.44161931 0.05037671
-0.204156 -0.44169077 0.050382838
-0.2043366 -0.44176251 0.050456889
-0.20449854 -0.44184309 0.050414566
-0.20465437 -0.4419207 0.050373424
-0.20481704 -0.44200045 0.050339166
-0.20498933 -0.4420799 0.050336
-0.20515606 -0.44215199 0.050365146
-0.20532185 -0.44222903 0.050358552
-0.20548028 -0.44230819 0.05031509
-0.20563981 -0.44239026 0.050255485
-0.20580368 -0.44246483 0.050259281
-0.20597686 -0.4425475 0.050237652
-0.20614132 -0.44262543 0.050220683
-0.20629987 -0.44270414 0.050180685
-0.2064738 -0.44277489 0.050240926
-0.20664504 -0.44285527 0.050228536
-0.20681082 -0.44293228 0.050221946
-0.20698145 -0.44300944 0.050229166
-0.20714195 -0.44309023 0.050181083
-0.20731029 -0.44317618 0.050122581
-0.20747836 -0.4432551 0.050110206
-0.20763798 -0.44333273 0.050080586
-0.20780291 -0.4434033 0.050114349
-0.20795944 -0.44347954 0.05008474
-0.20811976 -0.44356006 0.050037809
-0.20828018 -0.44364047 0.049992032
-0.20845374 -0.4437159 0.050019994
-0.20861873 -0.44379339 0.050007638
-0.20879522 -0.44387048 0.050033271
-0.20895684 -0.44395009 0.049996719
-0.20912527 -0.44402882 0.049986646
-0.20929691 -0.4441025 0.050020386
-0.20946451 -0.44418499 0.049982652
-0.20963782 -0.44425786 0.050026748
-0.20979752 -0.44433847 0.049977519
-0.20995232 -0.44441855 0.049916778
-0.21010858 -0.44450083 0.049845662
-0.21026486 -0.444583 0.049775697
-0.21043544 -0.44466358 0.04975985
-0.21061338 -0.44473132 0.049852353
-0.21078131 -0.44480741 0.049858436
-0.21095055 -0.44488293 0.049872581
-0.21112187 -0.44496042 0.049879789
-0.2112816 -0.44504067 0.049832869
-0.21144286 -0.44512302 0.049776711
-0.21160606 -0.44520438 0.049733225
-0.21178091 -0.44528311 0.049742728
-0.21194828 -0.44536537 0.049706146
-0.21212876 -0.445436 0.049787108
-0.21229498 -0.44551322 0.049780514
-0.21245179 -0.44559455 0.049717464
-0.21260792 -0.44567335 0.049669404
-0.21277915 -0.44575113 0.04967431
-0.21296157 -0.44582975 0.049707994
-0.21311674 -0.44590619 0.049672626
-0.21327578 -0.44598374 0.049641844
-0.21344459 -0.44606265 0.049631767
-0.21361174 -0.4461396 0.049629778
-0.21377844 -0.44622204 0.049589738
-0.21395451 -0.44630083 0.049602699
-0.21410774 -0.44638056 0.049539655
-0.21427478 -0.44645762 0.049536519
-0.21445233 -0.44653088 0.049590982
-0.21462142 -0.44660732 0.049598198
-0.21479581 -0.44668451 0.049616937
-0.21494289 -0.44676879 0.049504347
-0.21512818 -0.44683975 0.049597971
-0.2152959 -0.44691938 0.049579833
-0.21542184 -0.44701296 0.049340516
-0.21560352 -0.44708535 0.049413402
-0.21577199 -0.44716465 0.049399879
-0.2159314 -0.44724685 0.049339112
-0.21611395 -0.44732171 0.049398158
-0.21628326 -0.44739845 0.049404234
-0.21644829 -0.44747889 0.049372274
-0.21661747 -0.44755575 0.049377192
-0.21678618 -0.44763514 0.049363658
-0.21693061 -0.44771928 0.049244165
-0.21711141 -0.44779748 0.049275544
-0.21729049 -0.44787627 0.049297716
-0.21746133 -0.44795284 0.049309544
-0.21761996 -0.44803053 0.049276456
-0.21779597 -0.44810811 0.049297486
-0.21797498 -0.44818947 0.049302362
-0.21813487 -0.44826686 0.049275037
-0.21830052 -0.44834727 0.04924538
-0.21846138 -0.44842443 0.049222659
-0.21862873 -0.44850442 0.049201071
-0.21880767 -0.44858161 0.049233612
-0.21898612 -0.44865683 0.049277693
-0.21912965 -0.44874036 0.049159355
-0.21928899 -0.44882011 0.049114738
-0.2194626 -0.44890088 0.049106956
-0.21963067 -0.44898292 0.049073819
-0.21980745 -0.44905668 0.049122527
-0.21996476 -0.44913688 0.049068689
-0.22012827 -0.44921994 0.049014833
-0.22031087 -0.44929689 0.049060039
-0.22046731 -0.44937307 0.049030423
-0.22063632 -0.44945088 0.049028423
-0.22080117 -0.44953161 0.048994161
-0.2209639 -0.44961274 0.048950676
-0.22115478 -0.44968849 0.049029294
-0.22132462 -0.44977444 0.048975393
-0.22148694 -0.44985366 0.048943453
-0.2216581 -0.44993332 0.048935674
-0.22182713 -0.45001337 0.048918679
-0.22199185 -0.45009422 0.04888327
-0.22216919 -0.4501729 0.048900831
-0.22232689 -0.45024705 0.048888505
-0.22250584 -0.45032564 0.048911829
-0.22267476 -0.45040977 0.048867159
-0.22285469 -0.45048639 0.048906621
-0.22300903 -0.45056313 0.048866637
-0.22317162 -0.45064059 0.048847377
-0.22333458 -0.45072183 0.048803899
-0.22349235 -0.45080188 0.048752371
-0.22367136 -0.45088273 0.048760697
-0.22384442 -0.45096257 0.048757527
-0.22400716 -0.45104197 0.048725575
-0.22417071 -0.45112315 0.048684396
-0.22436172 -0.45120448 0.048726108
-0.22452338 -0.45128408 0.048689548
-0.2246803 -0.45136428 0.048634563
-0.22483264 -0.45144135 0.048586521
-0.22501415 -0.45151675 0.048638664
-0.22519481 -0.4515942 0.048674654
-0.22537114 -0.45167589 0.048669159
-0.22552617 -0.45175815 0.04859459
-0.22569275 -0.45183554 0.048587985
-0.22586209 -0.45191625 0.048567537
-0.22602645 -0.4519957 0.04854019
-0.22618726 -0.45207199 0.048523247
-0.22637427 -0.45215461 0.048544217
-0.22653317 -0.45223469 0.048496142
-0.22670136 -0.45231038 0.048505671
-0.22686411 -0.45239186 0.048459888
-0.22705211 -0.45246768 0.04852929
-0.22719081 -0.45254952 0.048407517
-0.2273906 -0.45262626 0.048506834
-0.22757021 -0.45270652 0.048520923
-0.22772732 -0.45279196 0.048431348
-0.22791971 -0.45287135 0.048490353
-0.22806109 -0.45295113 0.04839047
-0.22823982 -0.45302996 0.048411485
-0.22842927 -0.45310643 0.04848088
-0.22857697 -0.45318913 0.048380978
-0.22874703 -0.45327035 0.048359368
-0.22891094 -0.45335031 0.048327409
-0.22909172 -0.45343593 0.048309214
-0.22926275 -0.45351553 0.048301436
-0.22944061 -0.45359153 0.0483386
-0.22960579 -0.45367151 0.048310097
