# .PCD v0.7 - Point Cloud Data file format
VERSION 0.7
FIELDS x y z
SIZE 4 4 4
TYPE F F F
COUNT 1 1 1
WIDTH 1312
HEIGHT 1
VIEWPOINT 0 0 0 1 0 0 0
POINTS 1312
DATA ascii
-0.11761686 -0.48570734 0.052558936
-0.11775924 -0.48582292 0.052514218
-0.11791046 -0.48593852 0.052508686
-0.11805852 -0.48605624 0.052476633
-0.11821814 -0.48617408 0.052495275
-0.11837637 -0.48628986 0.05251969
-0.11851634 -0.48640755 0.052451916
-0.11866832 -0.48652333 0.052448694
-0.11880992 -0.4866389 0.052400522
-0.11895862 -0.48675671 0.052370772
-0.11912541 -0.4868792 0.05239398
-0.1192752 -0.48699096 0.052404609
-0.11942484 -0.48710889 0.052378319
-0.11956207 -0.48722428 0.052311711
-0.11971949 -0.48734459 0.052306134
-0.11985846 -0.48745599 0.052270673
-0.12002146 -0.48757464 0.052299682
-0.12016727 -0.48769045 0.052268796
-0.1203232 -0.48780882 0.052267846
-0.12046765 -0.48792461 0.052231196
-0.12061719 -0.48804265 0.052203745
-0.120773 -0.48815918 0.052213188
-0.12093403 -0.48827809 0.052231818
-0.12108834 -0.48839465 0.05223434
-0.12124211 -0.48851314 0.052223023
-0.12138008 -0.48862854 0.052159872
-0.12152636 -0.48874646 0.052118603
-0.12167707 -0.48886287 0.052106142
-0.12181906 -0.48897853 0.052059129
-0.12197219 -0.48909518 0.052055888
-0.122125 -0.48921373 0.052039955
-0.12227412 -0.48933011 0.052020587
-0.12243031 -0.48944908 0.052017327
-0.12257444 -0.48956499 0.051978379
-0.12273044 -0.48968402 0.051973972
-0.12288004 -0.48980054 0.051955752
-0.12303631 -0.48992154 0.051940948
-0.12319107 -0.49003688 0.051952697
-0.1233492 -0.49015632 0.051955193
-0.12349506 -0.49027258 0.051922008
-0.12364912 -0.49039349 0.051897991
-0.12379772 -0.49050826 0.051885545
-0.12395336 -0.49062762 0.051877677
-0.12410839 -0.4907451 0.051877886
-0.12424821 -0.49086249 0.05181127
-0.12439171 -0.49097851 0.051768858
-0.12456714 -0.49110067 0.051832404
-0.12470154 -0.4912155 0.051756591
-0.12484641 -0.49133354 0.0517084
-0.12501203 -0.49145278 0.051745463
-0.12516208 -0.49157164 0.051715709
-0.12531124 -0.49168861 0.051692881
-0.12547302 -0.49180928 0.051704589
-0.12562001 -0.49192598 0.051673695
-0.12575726 -0.4920412 0.051608246
-0.12593827 -0.49216503 0.051686749
-0.12608832 -0.49228409 0.051655836
-0.12623149 -0.49240202 0.051600743
-0.12638399 -0.49251977 0.051588275
-0.12655085 -0.49263996 0.05162533
-0.12668844 -0.49275699 0.051550653
-0.12685789 -0.49287778 0.05159577
-0.12700556 -0.49299657 0.051555641
-0.12716047 -0.49311498 0.051550079
-0.12731126 -0.49323437 0.051520322
-0.12746242 -0.49335384 0.051491704
-0.12761192 -0.49347305 0.051457331
-0.127775 -0.49359313 0.051478259
-0.12793046 -0.49371353 0.051463477
-0.12806618 -0.49382856 0.051392268
-0.12822415 -0.49394947 0.051385537
-0.12838106 -0.49406859 0.051384572
-0.12854309 -0.49419042 0.051390518
-0.12869787 -0.49431089 0.051372267
-0.12884533 -0.49442995 0.051329829
-0.12900129 -0.4945507 0.051315032
-0.12916149 -0.49467075 0.051323287
-0.12931941 -0.49479201 0.051314246
-0.12946993 -0.49491179 0.051281027
-0.12961361 -0.49502856 0.051235154
-0.12977138 -0.49514991 0.051224966
-0.1299184 -0.495269 0.051180221
-0.13008104 -0.49539149 0.051185001
-0.13023905 -0.49551147 0.05118404
-0.13040414 -0.49563462 0.051195726
-0.13053527 -0.49574873 0.051109549
-0.1307009 -0.49587214 0.051122382
-0.13086374 -0.49599338 0.051135242
-0.13099074 -0.49610811 0.051027168
-0.13115148 -0.49623054 0.051023878
-0.13132796 -0.49635822 0.051059719
-0.13147666 -0.49647641 0.051027663
-0.13163736 -0.49659902 0.051023226
-0.13181299 -0.49672368 0.051072918
-0.13195422 -0.49684331 0.050999369
-0.13210121 -0.49696279 0.050952327
-0.13225347 -0.49707898 0.050947938
-0.13241814 -0.49720281 0.050953858
-0.13257116 -0.49732232 0.050933309
-0.13271296 -0.49744061 0.050870143
-0.13287306 -0.49756196 0.050870322
-0.13303196 -0.49768457 0.050857812
-0.13320225 -0.49781013 0.0508787
-0.13335305 -0.49793229 0.050832782
-0.13351659 -0.49805623 0.050832938
-0.13367926 -0.49817854 0.050838869
-0.13381779 -0.49829316 0.050782647
-0.13397691 -0.49841613 0.050768986
-0.13415401 -0.49854684 0.050789826
-0.13431977 -0.49866876 0.050811894
-0.13446307 -0.49878916 0.050742947
-0.13463026 -0.49891451 0.050751157
-0.13478632 -0.49903694 0.050727129
-0.1349403 -0.49915737 0.050705425
-0.13509926 -0.49928358 0.050672159
-0.13523929 -0.49939734 0.050627455
-0.13540667 -0.49952304 0.050634518
-0.13556044 -0.49964216 0.050619733
-0.13570254 -0.49975947 0.050563484
-0.13587235 -0.49988604 0.050576296
-0.1360319 -0.50000834 0.050568406
-0.13619497 -0.50013316 0.050561637
-0.13635728 -0.50025636 0.050560649
-0.13650352 -0.5003764 0.050506689
-0.13666946 -0.50050223 0.05050683
-0.13682911 -0.5006234 0.050505862
-0.1369857 -0.50074804 0.050471436
-0.13713381 -0.50086737 0.050430156
-0.13730964 -0.50099766 0.05044755
-0.1374464 -0.50111371 0.050375178
-0.1376358 -0.50124961 0.05042018
-0.13777515 -0.50136232 0.050378948
-0.13793185 -0.5014872 0.050343376
-0.13810499 -0.50161427 0.050367706
-0.13826708 -0.5017395 0.05035403
-0.13841107 -0.50185651 0.050308153
-0.13855988 -0.50197911 0.050250709
-0.13875109 -0.50211209 0.05032108
-0.055203129 -0.43730778 0.058892019
-0.055384234 -0.43744704 0.058880534
-0.055573847 -0.43760008 0.058826305
-0.055748403 -0.43772924 0.058844846
-0.05592005 -0.43785384 0.058877252
-0.056105018 -0.43799996 0.058842666
-0.05629136 -0.43814853 0.058799997
-0.056471713 -0.43828762 0.058786217
-0.056668472 -0.43845353 0.058688119
-0.056827694 -0.43856141 0.058763273
-0.057013076 -0.43870926 0.058720611
-0.057204451 -0.43886712 0.058645621
-0.057385053 -0.43900758 0.058624908
-0.057551108 -0.43912423 0.05867926
-0.057735328 -0.43927097 0.058637757
-0.057924081 -0.43942547 0.058570854
-0.058091074 -0.43954399 0.058618277
-0.058268152 -0.43967941 0.058611427
-0.058453593 -0.43982905 0.058558386
-0.05863132 -0.43996596 0.058545768
-0.058814559 -0.44011235 0.05850197
-0.059000481 -0.44026354 0.058442008
-0.059173815 -0.44039357 0.058450177
-0.059358597 -0.44054329 0.05839368
-0.059522964 -0.44065824 0.058450349
-0.059696905 -0.4407897 0.058452744
-0.059882656 -0.44094175 0.058387011
-0.060049579 -0.44106138 0.058427516
-0.060226258 -0.44119808 0.058411434
-0.06040851 -0.44134471 0.058361873
-0.060575701 -0.44147775 0.058325097
-0.060686983 -0.44154412 0.05843053
-0.06089269 -0.44173589 0.058220506
-0.061071161 -0.44187042 0.058225174
-0.061286002 -0.44202486 0.058274616
-0.061460774 -0.44215953 0.058262005
-0.06164163 -0.4423053 0.058211301
-0.061820343 -0.44244745 0.058172151
-0.062019918 -0.4426277 0.058002517
-0.062167063 -0.44271305 0.058156185
-0.06234074 -0.44284669 0.058144733
-0.062512964 -0.44297782 0.058141381
-0.062692121 -0.44312191 0.058092996
-0.062867798 -0.44325981 0.058065392
-0.063041113 -0.44339356 0.058051638
-0.063206203 -0.44351554 0.058070235
-0.063375711 -0.44364247 0.058079578
-0.063561 -0.44379926 0.05798386
-0.063733295 -0.44393185 0.057972424
-0.063901797 -0.4440574 0.057985239
-0.064070895 -0.44418421 0.057993434
-0.064244911 -0.4443242 0.057946227
-0.064413726 -0.44445077 0.057954423
-0.064591765 -0.4445954 0.057897966
-0.064761922 -0.44472498 0.057894614
-0.064930655 -0.44485188 0.057900511
-0.065108702 -0.44499728 0.057839442
-0.065279372 -0.44512844 0.057829168
-0.065448135 -0.44525596 0.057831593
-0.06561546 -0.44538459 0.057821337
-0.065788224 -0.44552046 0.0577926
-0.065962046 -0.44565874 0.057754628
-0.066130102 -0.44578552 0.05775822
-0.066296339 -0.44590878 0.057774499
-0.066475436 -0.44605851 0.057692662
-0.066641703 -0.44618219 0.057706632
-0.066812217 -0.44631481 0.057687141
-0.06698256 -0.44644728 0.057667647
-0.067153625 -0.44658148 0.057641219
-0.067316949 -0.44669956 0.057674825
-0.067490906 -0.44684029 0.057623014
-0.067658857 -0.44697273 0.057593144
-0.067828551 -0.4471049 0.057572495
-0.067998365 -0.44723755 0.057549544
-0.06816411 -0.44736162 0.057558909
-0.068335831 -0.44749889 0.057517488
-0.068502836 -0.44762605 0.057514165
-0.068676755 -0.44776872 0.057450809
-0.068839446 -0.44788674 0.057482108
-0.069007784 -0.44801748 0.05746378
-0.069175065 -0.44814605 0.057453524
-0.069342986 -0.44827631 0.057436354
-0.069512948 -0.44841143 0.057399556
-0.069684118 -0.44854966 0.057350058
-0.069837801 -0.44864762 0.057458699
-0.070011459 -0.44879207 0.057383817
-0.070179164 -0.44892293 0.057362027
-0.07034725 -0.44905978 0.057306781
-0.070509538 -0.44917828 0.057333473
-0.070675246 -0.44930506 0.057326697
-0.070846871 -0.44944638 0.05726105
-0.071016364 -0.44958293 0.057213873
-0.071184963 -0.44971761 0.057173628
-0.071337186 -0.44982749 0.057206143
-0.071508914 -0.4499549 0.0572224
-0.071679443 -0.45009518 0.057157915
-0.071849942 -0.45023584 0.057091124
-0.072010681 -0.45035198 0.057124745
-0.072170854 -0.45046669 0.057164129
-0.072337642 -0.45059863 0.057131968
-0.072507963 -0.45074013 0.057059415
-0.072670922 -0.45086268 0.057065338
-0.072835974 -0.45099095 0.057047024
-0.073008709 -0.45114017 0.056939851
-0.073163152 -0.4512403 0.057039257
-0.073329315 -0.45137236 0.05700364
-0.073496476 -0.45150754 0.056954164
-0.073638916 -0.45161018 0.056985594
-0.073807284 -0.4517616 0.056846146
-0.07399261 -0.45190033 0.056856547
-0.074159212 -0.45203549 0.056804776
-0.07431291 -0.45213348 0.056913413
-0.074480273 -0.45227134 0.056848951
-0.074640013 -0.45239362 0.056842212
-0.074802518 -0.45251778 0.056836605
-0.074964747 -0.45264134 0.056833297
-0.075127989 -0.45276821 0.056814995
-0.07528244 -0.45288882 0.056794446
-0.075455002 -0.45302454 0.056765709
-0.075616792 -0.45314777 0.056762405
-0.075780094 -0.45327607 0.056736037
-0.075941369 -0.45339814 0.056737356
-0.076104417 -0.45352623 0.056710977
-0.07626272 -0.45364642 0.056710012
-0.076418318 -0.45376533 0.056704447
-0.076564766 -0.45388439 0.056657415
-0.076717734 -0.45400271 0.056643784
-0.076901481 -0.45414889 0.056603439
-0.077072486 -0.45427477 0.056625474
-0.077231601 -0.4543995 0.056601427
-0.077395916 -0.45453528 0.056535833
-0.077545263 -0.45464179 0.05657528
-0.077717878 -0.45478344 0.056511942
-0.077877022 -0.45490092 0.056530576
-0.078039557 -0.45503181 0.05648575
-0.078199983 -0.45516422 0.056422487
-0.078338005 -0.45527354 0.056395102
-0.078493655 -0.45537773 0.056476057
-0.078655884 -0.45550916 0.056426607
-0.078794301 -0.4556109 0.056445371
-0.078958176 -0.45574003 0.05641669
-0.079136297 -0.4558796 0.056390218
-0.079290003 -0.45599648 0.056388132
-0.079447679 -0.4561097 0.056425225
-0.07961525 -0.45624655 0.056367688
-0.079791531 -0.4563792 0.056373529
-0.079939276 -0.45650417 0.056297652
-0.080093995 -0.45662811 0.056258641
-0.0802375 -0.45673293 0.056281984
-0.080399662 -0.45685801 0.056269459
-0.080550283 -0.45697471 0.056254692
-0.080709748 -0.45709953 0.056231804
-0.080877632 -0.45723015 0.056212313
-0.081042275 -0.45735711 0.056199774
-0.081180245 -0.45746028 0.05620816
-0.08134222 -0.45758718 0.056184098
-0.081510395 -0.45772195 0.056141548
-0.081671685 -0.45784578 0.056132488
-0.081810609 -0.45795694 0.056098182
-0.081977144 -0.4580828 0.056100629
-0.082126841 -0.45819882 0.056085866
-0.082291692 -0.45833242 0.056035258
-0.082446687 -0.45845088 0.056029703
-0.082600996 -0.4585641 0.056051824
-0.082756892 -0.45869112 0.056000117
-0.082914464 -0.45881093 0.055997998
-0.083075404 -0.45893824 0.055967033
-0.083226763 -0.45905018 0.055983402
-0.083382428 -0.45917979 0.055915546
-0.083536617 -0.45929489 0.055926144
-0.083690837 -0.45941079 0.055932116
-0.083851136 -0.45953602 0.055910371
-0.084002882 -0.45965633 0.055879459
-0.084163509 -0.45978951 0.055812724
-0.084311277 -0.45989344 0.055860262
-0.084474042 -0.46002054 0.055838514
-0.084631518 -0.46015367 0.055757958
-0.08478488 -0.46026066 0.055812381
-0.084941655 -0.46038264 0.05579412
-0.085098356 -0.46050534 0.055771247
-0.085249148 -0.46061924 0.055773787
-0.085411355 -0.46074492 0.055757806
-0.085565068 -0.46087325 0.05568881
-0.08572413 -0.4609873 0.05572705
-0.08587189 -0.46110579 0.055689231
-0.086019516 -0.46122575 0.055642195
-0.086181268 -0.46134934 0.055636592
-0.086340107 -0.46147168 0.055625234
-0.086487427 -0.46159002 0.055586267
-0.086649209 -0.46170536 0.055629112
-0.086796477 -0.46182051 0.055608608
-0.086949453 -0.46193725 0.055604205
-0.087104455 -0.46207106 0.055508673
-0.087260343 -0.46218488 0.055534255
-0.087413065 -0.46230203 0.055526398
-0.08756873 -0.46241882 0.055533517
-0.08772929 -0.46254939 0.055481784
-0.087879084 -0.46266308 0.055480871
-0.08803153 -0.46278042 0.055470701
-0.088186383 -0.46290347 0.055437461
-0.088335805 -0.46301907 0.05542386
-0.088490322 -0.46314329 0.055382542
-0.088643037 -0.46325567 0.055402372
-0.08879824 -0.46337292 0.055404879
-0.088952616 -0.46349603 0.055369329
-0.089106426 -0.46362224 0.055313025
-0.089258753 -0.46373633 0.055321325
-0.089412823 -0.46385917 0.055285778
-0.089565538 -0.46397039 0.055312529
-0.089720041 -0.46408987 0.055298887
-0.089874975 -0.46420652 0.055303708
-0.090027966 -0.4643333 0.055240486
-0.09018036 -0.46444583 0.055258006
-0.09033756 -0.46456656 0.055248972
-0.090483919 -0.46469185 0.05516503
-0.090638518 -0.46480861 0.055167541
-0.09078978 -0.46492544 0.05515508
-0.090944476 -0.46504149 0.055162206
-0.091097467 -0.46516433 0.055122059
-0.091251485 -0.46528265 0.05511304
-0.091402359 -0.46539995 0.055095971
-0.091557994 -0.46551201 0.055130772
-0.091703221 -0.46563682 0.055044532
-0.091861345 -0.46575195 0.055072397
-0.092007689 -0.4658719 0.055019598
-0.092164248 -0.46599194 0.055011716
-0.092315525 -0.46610659 0.055011943
-0.092473269 -0.46622279 0.055031743
-0.092622541 -0.46634322 0.054989304
-0.09277264 -0.46647096 0.054907642
-0.092923887 -0.46658498 0.05491133
-0.093078777 -0.46669886 0.054932296
-0.093232758 -0.46681514 0.054934822
-0.093382321 -0.46693343 0.054906219
-0.093533203 -0.46704817 0.054904141
-0.09368661 -0.46717447 0.054845538
-0.093834087 -0.4672882 0.05483425
-0.093989909 -0.46740827 0.054822914
-0.094134152 -0.467529 0.054756284
-0.094296165 -0.46764335 0.05480605
-0.094448254 -0.46776295 0.054780893
-0.094600692 -0.46788162 0.054762665
-0.094751105 -0.46798873 0.054803267
-0.094897605 -0.46811906 0.05469048
-0.095053941 -0.46822965 0.054736815
-0.095207646 -0.46835285 0.054697812
-0.095354483 -0.4684667 0.054683074
-0.095506616 -0.46858513 0.054664843
-0.095658101 -0.46869761 0.054678909
-0.095820516 -0.46881893 0.054689452
-0.095975325 -0.46894631 0.054630831
-0.096120812 -0.46906188 0.054599952
-0.096268684 -0.46918005 0.054564442
-0.096420586 -0.46928513 0.054623496
-0.096566938 -0.46940547 0.054568384
-0.096721575 -0.46951935 0.054588202
-0.096876137 -0.46963963 0.054569952
-0.097015165 -0.46975777 0.054495275
-0.09716697 -0.46987557 0.054479353
-0.097320423 -0.46999702 0.054449581
-0.097473346 -0.4701131 0.054448649
-0.09763369 -0.47023091 0.054470733
-0.097777069 -0.47034803 0.05442141
-0.097925246 -0.47045875 0.054430887
-0.098077394 -0.47058135 0.05438843
-0.098225944 -0.47069156 0.054402515
-0.098377988 -0.47080857 0.05439236
-0.098526672 -0.4709295 0.054344155
-0.098679662 -0.47105059 0.054314382
-0.098831058 -0.47116807 0.054298464
-0.098980695 -0.47128227 0.054294091
-0.09913554 -0.47140101 0.054286219
-0.099283241 -0.47151217 0.054291077
-0.099432588 -0.47163165 0.054254409
-0.099588484 -0.47174922 0.054258071
-0.099737614 -0.47186872 0.054220252
-0.09988524 -0.47198474 0.054196276
-0.10003418 -0.47209939 0.054186136
-0.10019014 -0.47221681 0.054190949
-0.10033743 -0.47233769 0.054136992
-0.10049497 -0.47245827 0.054130264
-0.10063891 -0.47257268 0.054099385
-0.10078605 -0.4726887 0.05407311
-0.1009341 -0.47280386 0.054056056
-0.1010906 -0.47292072 0.054066636
-0.10124725 -0.47304633 0.054026462
-0.10139501 -0.47316599 0.053981725
-0.10154959 -0.47327566 0.054025762
-0.10169639 -0.47339165 0.053998336
-0.10185546 -0.47351083 0.054006591
-0.1019982 -0.47362983 0.053943433
-0.1021587 -0.47373533 0.054038182
-0.10230942 -0.47385666 0.053996895
-0.10245899 -0.47397867 0.053946376
-0.10259552 -0.47409353 0.053879794
-0.10275213 -0.47420633 0.053914588
-0.10290262 -0.47433141 0.053850234
-0.10306337 -0.47445738 0.053826179
-0.10320955 -0.47456542 0.053842586
-0.10335212 -0.47467583 0.053829029
-0.10349669 -0.47479266 0.053786613
-0.10365706 -0.47491106 0.053805251
-0.10381152 -0.47502559 0.05382045
-0.10395598 -0.4751386 0.053799957
-0.10410173 -0.47525084 0.053789839
-0.10425964 -0.47536716 0.053809628
-0.10441012 -0.47548044 0.053814482
-0.10457158 -0.47559494 0.05386078
-0.10470679 -0.47572023 0.053727306
-0.10484996 -0.47584093 0.053656075
-0.10499161 -0.47595516 0.053615991
-0.10514228 -0.47607878 0.053560857
-0.10530058 -0.47619149 0.053603712
-0.10546181 -0.47631329 0.05360619
-0.10559404 -0.47642845 0.053518876
-0.10575517 -0.4765366 0.053600933
-0.10589584 -0.47665107 0.053555086
-0.10604832 -0.47677019 0.053534549
-0.10620633 -0.47689351 0.053513967
-0.10634799 -0.47700733 0.053476192
-0.10650782 -0.47711667 0.053545579
-0.10664873 -0.4772341 0.053483583
-0.10679225 -0.47735032 0.053440027
-0.10694701 -0.47746843 0.053435616
-0.10709248 -0.4775838 0.053405888
-0.10723554 -0.47770321 0.053341579
-0.10739773 -0.47781533 0.053405181
-0.1075517 -0.47793064 0.053413462
-0.1077005 -0.47804478 0.053405635
-0.10783825 -0.47816589 0.053307898
-0.10800019 -0.47828156 0.053349584
-0.10814743 -0.47839925 0.053314086
-0.10829838 -0.47851267 0.053320076
-0.10844873 -0.47863233 0.053286862
-0.10860802 -0.47874913 0.053310111
-0.10875539 -0.47886375 0.053293064
-0.1088996 -0.4789764 0.053273726
-0.10905175 -0.47909841 0.05323473
-0.10920543 -0.4792141 0.053239554
-0.10935942 -0.47933552 0.053212076
-0.1095103 -0.47945204 0.05319963
-0.10965756 -0.47956955 0.053165272
-0.10980883 -0.47968596 0.05315512
-0.10994485 -0.47980064 0.053087391
-0.11010904 -0.47991663 0.053137131
-0.11025764 -0.48003653 0.0530947
-0.11040755 -0.48014781 0.053108774
-0.11056031 -0.48026395 0.053106695
-0.11070309 -0.48037964 0.053063132
-0.11084982 -0.48049715 0.053026482
-0.11100638 -0.48060715 0.053077426
-0.11114977 -0.480728 0.053006195
-0.11131044 -0.48084801 0.053016745
-0.11145911 -0.48096246 0.053006612
-0.1116124 -0.48108396 0.052975677
-0.11175468 -0.48119435 0.05296097
-0.11190968 -0.48131812 0.05292426
-0.11204398 -0.48143503 0.052835781
-0.11221055 -0.48155165 0.052892439
-0.11235307 -0.48166457 0.052863877
-0.11251194 -0.48177752 0.052907892
-0.11266245 -0.48189688 0.052876975
-0.112805 -0.48200983 0.052848425
-0.11296132 -0.48213089 0.052833624
-0.11310753 -0.48224583 0.052809663
-0.11326072 -0.48235738 0.052836411
-0.11340732 -0.48247972 0.05277092
-0.11356004 -0.48259389 0.052780367
-0.11369615 -0.48271 0.052704558
-0.11384712 -0.48282444 0.052704789
-0.11399101 -0.48293722 0.052683141
-0.11415061 -0.48305562 0.05269831
-0.11429314 -0.48316619 0.052683599
-0.11446286 -0.4832862 0.052734468
-0.11461388 -0.48340085 0.052733541
-0.11475744 -0.48352087 0.052668076
-0.11490422 -0.48364055 0.052618735
-0.11505216 -0.48375779 0.052588992
-0.11520016 -0.48387271 0.052573092
-0.11535634 -0.48399404 0.052555978
-0.11548772 -0.48410538 0.052487127
-0.1156521 -0.48422626 0.052509189
-0.11580335 -0.48434108 0.052508269
-0.11595182 -0.48445833 0.052480824
-0.116088 -0.48456484 0.052461542
-0.11624733 -0.4846817 0.052484781
-0.11639266 -0.48479912 0.052442368
-0.11654734 -0.48491398 0.052456416
-0.11668466 -0.4850316 0.052377149
-0.1168523 -0.48514846 0.05243725
-0.11699487 -0.48526594 0.052382171
-0.11714678 -0.48538542 0.052357018
-0.11729743 -0.4854984 0.052364171
-0.11744711 -0.48561576 0.052341335
-0.11759603 -0.48573315 0.052315049
-0.11774811 -0.48584843 0.052315272
-0.11790228 -0.48596588 0.052312024
-0.11804482 -0.48608115 0.052269626
-0.1182059 -0.48619875 0.052296326
-0.11834916 -0.48631614 0.052244693
-0.11850645 -0.4864338 0.052254107
-0.11865944 -0.48655349 0.052232418
-0.11880614 -0.48666683 0.052219983
-0.11895058 -0.48678634 0.052161425
-0.11909635 -0.48690173 0.052132856
-0.11925479 -0.48701552 0.052169941
-0.11940184 -0.48713306 0.052134447
-0.11955272 -0.48725075 0.052115068
-0.11971279 -0.48737091 0.052122153
-0.1198382 -0.48748344 0.052019887
-0.12000274 -0.48760185 0.052056946
-0.12016432 -0.48771822 0.052092865
-0.12030391 -0.48783344 0.052037805
-0.12046233 -0.48795176 0.05204837
-0.1206203 -0.4880701 0.052056629
-0.12075819 -0.48818523 0.051994648
-0.12091053 -0.48830521 0.05196834
-0.12105694 -0.4884209 0.051940918
-0.12121312 -0.48853928 0.051941108
-0.12136395 -0.48865536 0.05193096
-0.12151513 -0.4887715 0.05192196
-0.12165497 -0.48888671 0.051868048
-0.1217984 -0.48900604 0.051806044
-0.12197546 -0.4891265 0.051886849
-0.12212492 -0.48924074 0.051881328
-0.12225738 -0.4893553 0.051798619
-0.12241347 -0.489474 0.051796511
-0.12255661 -0.48958954 0.051755257
-0.12271224 -0.48970455 0.051772758
-0.12286644 -0.48982319 0.051762592
-0.12301524 -0.48994127 0.051731694
-0.12316079 -0.49005532 0.051710039
-0.12332219 -0.49017489 0.051726356
-0.12346518 -0.49029055 0.051683955
-0.12361774 -0.49040735 0.051677257
-0.12377694 -0.49052683 0.051684357
-0.12392877 -0.49064547 0.051663816
-0.12407682 -0.49076003 0.051650222
-0.12423377 -0.49087939 0.05164811
-0.12435964 -0.49099284 0.051542379
-0.12451853 -0.49111071 0.051557552
-0.12468008 -0.49122903 0.051581942
-0.12481534 -0.49134549 0.051500365
-0.12496972 -0.49146289 0.051498264
-0.12512097 -0.49157989 0.051484656
-0.12528971 -0.49169952 0.051533218
-0.12543242 -0.49181536 0.051488519
-0.12556499 -0.49193135 0.051397741
-0.12572756 -0.49205023 0.051423274
-0.12588018 -0.49216592 0.051423494
-0.126038 -0.49228594 0.051421374
-0.12619172 -0.49240363 0.051414669
-0.12633823 -0.49252015 0.051382624
-0.12649375 -0.49263823 0.05138167
-0.12664089 -0.49275663 0.051341556
-0.12678684 -0.49287313 0.051307216
-0.12695906 -0.49299425 0.051362678
-0.1271065 -0.4931111 0.051332939
-0.12726501 -0.49323165 0.051330816
-0.12740269 -0.49334681 0.051267687
-0.12756152 -0.49346581 0.051275939
-0.12771121 -0.49358317 0.05125311
-0.1278692 -0.49370214 0.051257908
-0.12800418 -0.49381682 0.051185574
-0.12817112 -0.49393922 0.05120993
-0.12832454 -0.49405748 0.051198609
-0.12846895 -0.494174 0.051157355
-0.12860847 -0.49428958 0.051099978
-0.12877551 -0.49441224 0.051123179
-0.12894015 -0.49453291 0.05114755
-0.1290773 -0.49464807 0.051082116
-0.12923756 -0.49476796 0.051091522
-0.1293983 -0.49488801 0.051102065
-0.12954555 -0.49500534 0.051068865
-0.12968928 -0.49512351 0.05101493
-0.1298438 -0.49524239 0.05100476
-0.1300115 -0.49536577 0.051026803
-0.13013823 -0.49547869 0.050927989
-0.13030429 -0.49560183 0.050944269
-0.1304782 -0.49572518 0.050993953
-0.13062403 -0.4958424 0.050954994
-0.13076988 -0.49595964 0.050916046
-0.13090947 -0.49607545 0.050857514
-0.13107762 -0.49619937 0.050878406
-0.13123512 -0.4963209 0.050865907
-0.13137631 -0.49643713 0.050811987
-0.13155542 -0.4965623 0.05087433
-0.13169673 -0.49667865 0.05082041
-0.13184506 -0.49679971 0.050769895
-0.13200241 -0.49691838 0.050773546
-0.1321575 -0.4970381 0.050761066
-0.13232377 -0.49716058 0.050781965
-0.13248384 -0.49728468 0.050765991
-0.13262039 -0.49739996 0.050697099
-0.13278665 -0.49752262 0.05071684
-0.13292533 -0.49763697 0.050662935
-0.13308679 -0.49775857 0.050667711
-0.133255 -0.49788195 0.050692059
-0.13341799 -0.49800706 0.050682992
-0.13354278 -0.4981209 0.050570339
-0.13371512 -0.49824405 0.050614271
-0.13387659 -0.49836743 0.050608668
-0.13401619 -0.49848363 0.050547838
-0.13418403 -0.49860734 0.05056873
-0.13431531 -0.49872136 0.050483719
-0.13448477 -0.49884707 0.050499991
-0.13463455 -0.4989661 0.050467927
-0.13480873 -0.4990932 0.05049685
-0.13494816 -0.49920949 0.050434861
-0.13510966 -0.49933329 0.05042696
-0.13525431 -0.49944961 0.050388008
-0.13543032 -0.49957752 0.050420381
-0.13559701 -0.4997015 0.050434358
-0.13573381 -0.49981716 0.050364316
-0.13588794 -0.49993771 0.050342605
-0.13605414 -0.50006175 0.050354276
-0.13619329 -0.50018096 0.050273839
-0.13637926 -0.50030935 0.050347671
-0.13652009 -0.50042772 0.050279912
-0.13667303 -0.50054812 0.050253604
-0.13683656 -0.50067168 0.050256059
-0.13701169 -0.50080013 0.050281517
-0.13715687 -0.50091702 0.050241411
-0.13730638 -0.50103664 0.050204743
-0.13746962 -0.50116175 0.050196819
-0.13764033 -0.50129193 0.050192315
-0.13777032 -0.50140303 0.050118849
-0.13794465 -0.50153166 0.050139703
-0.13810192 -0.50165516 0.050114516
-0.13826275 -0.50177842 0.050106611
-0.13842675 -0.50190276 0.050106764
-0.13858087 -0.50202411 0.050080445
-0.13873293 -0.5021435 0.050056439
-0.055289268 -0.4374063 0.058697321
-0.055476643 -0.43755585 0.058653548
-0.05565244 -0.43768713 0.05866519
-0.055836324 -0.4378342 0.058620278
-0.056017358 -0.43797421 0.058604222
-0.056200504 -0.43812051 0.058560465
-0.05637145 -0.43824458 0.058592908
-0.056543451 -0.43837044 0.058619574
-0.056725111 -0.43851209 0.058596581
-0.056916427 -0.43867248 0.058506645
-0.057086352 -0.43879539 0.058541402
-0.057264358 -0.43893445 0.058517285
-0.057446253 -0.43907726 0.058488533
-0.057626154 -0.43921697 0.058469012
-0.057809349 -0.43936235 0.058431026
-0.057983231 -0.43949533 0.058424242
-0.058165111 -0.43963891 0.058390871
-0.058349319 -0.43978664 0.058343645
-0.058516193 -0.43990546 0.058388799
-0.058700614 -0.44005686 0.058320813
-0.058868103 -0.44017693 0.058361348
-0.059045132 -0.44031626 0.058331475
-0.059225939 -0.44045922 0.058296956
-0.059410036 -0.44060802 0.058242816
-0.059582144 -0.4407365 0.058254488
-0.059749946 -0.44086075 0.058271952
-0.059925057 -0.44099468 0.05826515
-0.060103033 -0.44113374 0.058241032
-0.060276598 -0.44126529 0.058241166
-0.06045242 -0.44140407 0.058208983
-0.060637686 -0.44155654 0.058138691
-0.06081285 -0.44169149 0.058126129
-0.060995236 -0.44183937 0.058069699
-0.061159905 -0.44195926 0.058098704
-0.061340868 -0.44210511 0.058048051
-0.061525401 -0.44225761 0.057974294
-0.061688229 -0.44237137 0.058031004
-0.061861068 -0.44250652 0.058006912
-0.062034044 -0.44263881 0.058000125
-0.062163897 -0.44271931 0.058105469
-0.062326659 -0.44286314 0.057985712
-0.062514603 -0.44301662 0.057921175
-0.062737435 -0.44319424 0.057870265
-0.062907189 -0.44332156 0.057878491
-0.063076645 -0.44344842 0.057887875
-0.063244298 -0.4435755 0.057888035
-0.063427418 -0.4437283 0.057806216
-0.06359835 -0.44385844 0.057802908
-0.063771732 -0.44399342 0.057782277
-0.063942537 -0.44412723 0.057757054
-0.064112999 -0.44425702 0.057753738
-0.064285696 -0.44439128 0.057734262
-0.06445016 -0.44450983 0.0577702
-0.064622074 -0.4446429 0.057754189
-0.064798608 -0.44478518 0.057704709
-0.064967409 -0.44491628 0.057686415
-0.06513764 -0.44504669 0.057678491
-0.065310642 -0.44518274 0.057649791
-0.065476418 -0.44530466 0.057671875
-0.065648556 -0.44544321 0.057624731
-0.065825909 -0.44558868 0.057560246
-0.065991752 -0.44571123 0.057578877
-0.066162772 -0.44584441 0.057558261
-0.066327021 -0.44596398 0.057587285
-0.066510394 -0.44612288 0.057470866
-0.066666946 -0.44623089 0.057533368
-0.066841826 -0.4463729 0.05747813
-0.067004159 -0.44648907 0.057518695
-0.067175575 -0.44662431 0.057487704
-0.067350596 -0.44676742 0.057426695
-0.067521304 -0.44690174 0.057398006
-0.067684799 -0.44702506 0.057401657
-0.0678569 -0.44716281 0.057359122
-0.068027243 -0.44729704 0.057329278
-0.06819392 -0.44742358 0.057328299
-0.068361588 -0.44755244 0.057318076
-0.068527758 -0.44767818 0.05731941
-0.068691202 -0.44780245 0.057317294
-0.068863973 -0.44794327 0.057259761
-0.069024183 -0.44805622 0.057309564
-0.069198176 -0.44820032 0.05723818
-0.069366567 -0.4483321 0.057214119
-0.069530547 -0.44845402 0.057228141
-0.069698073 -0.44858888 0.057182174
-0.069866002 -0.44872031 0.057158127
-0.070032276 -0.4488481 0.057147916
-0.070192851 -0.44896272 0.057189636
-0.070363209 -0.44910049 0.057139035
-0.07053563 -0.44924361 0.057066523
-0.07069882 -0.44936985 0.057051711
-0.070865929 -0.44950083 0.057026505
-0.071028084 -0.44962001 0.057048619
-0.071194351 -0.44974938 0.05702918
-0.07135807 -0.44987267 0.057033986
-0.071526788 -0.45000863 0.056986853
-0.071683787 -0.45013118 0.056966327
-0.071835235 -0.45023984 0.057002332
-0.072022416 -0.4503971 0.056912422
-0.072187588 -0.45052525 0.056895301
-0.072352201 -0.45065218 0.056882799
-0.072512999 -0.45076934 0.056910682
-0.072680742 -0.45090494 0.056861255
-0.072845086 -0.45103186 0.056847595
-0.073013783 -0.45117074 0.056783173
-0.073174506 -0.45128843 0.056807593
-0.073337682 -0.45141292 0.056803171
-0.073503092 -0.45154381 0.056771059
-0.073664427 -0.4516696 0.056750499
-0.073829234 -0.45179945 0.056721848
-0.073990427 -0.45191926 0.056735888
-0.074155897 -0.45205158 0.056695692
-0.074316919 -0.45217127 0.056709744
-0.074481741 -0.45230228 0.056674175
-0.074646667 -0.45243397 0.056635134
-0.074802548 -0.45256531 0.056558095
-0.074958444 -0.45268387 0.056556027
-0.075129896 -0.45280281 0.056620754
-0.075290561 -0.45292261 0.056632485
-0.075433165 -0.45303482 0.056608576
-0.07557486 -0.45314434 0.056596212
-0.075783469 -0.45331806 0.056505024
-0.075938903 -0.45342916 0.056544468
-0.076104924 -0.45356032 0.056513499
-0.076269314 -0.45369396 0.056460634
-0.076429464 -0.45381379 0.05647007
-0.076588459 -0.45393762 0.05645068
-0.076750629 -0.45406488 0.056425508
-0.076911949 -0.45418951 0.056411866
-0.077072948 -0.45431331 0.056401689
-0.07723619 -0.45444548 0.056352288
-0.077395722 -0.45457309 0.056313287
-0.07753399 -0.45467374 0.056337841
-0.077710032 -0.45481172 0.056311425
-0.077847451 -0.45490935 0.056349836
-0.078007415 -0.45504004 0.056294683
-0.078197949 -0.45519018 0.05626126
-0.078354456 -0.45529857 0.056321464
-0.078515589 -0.45543566 0.056234017
-0.078674071 -0.45556244 0.056195017
-0.078834116 -0.45568633 0.056180231
-0.079000391 -0.45581686 0.056153886
-0.079154164 -0.455935 0.056144897
-0.079316549 -0.45604882 0.056199297
-0.079477876 -0.45617995 0.056147598
-0.079635449 -0.45629406 0.056178968
-0.079794109 -0.45642513 0.056115746
-0.079951763 -0.45654011 0.056142498
-0.080110624 -0.4566735 0.056066602
-0.080250695 -0.45678711 0.056023099
-0.080397844 -0.45689961 0.056017622
-0.08055988 -0.45702595 0.055997055
-0.080721587 -0.45715109 0.055982262
-0.080873489 -0.45727763 0.05591562
-0.081025988 -0.45737943 0.055996608
-0.081188023 -0.45750773 0.055964515
-0.081349045 -0.45763057 0.055960108
-0.081492946 -0.45774138 0.055950027
-0.081660382 -0.45787382 0.055917904
-0.081815258 -0.457991 0.05591929
-0.08197289 -0.45810989 0.055922978
-0.082129337 -0.45823926 0.055859767
-0.082287416 -0.45836282 0.055838078
-0.082441688 -0.45847738 0.055852167
-0.082603432 -0.45861098 0.055787776
-0.082755074 -0.4587265 0.055784572
-0.082910284 -0.45885101 0.055744451
-0.083070412 -0.45897356 0.055737734
-0.083221741 -0.45908806 0.055739146
-0.083382152 -0.45921496 0.055708218
-0.083552748 -0.45933795 0.055745274
-0.083707519 -0.45946333 0.055698223
-0.08384981 -0.45956799 0.055716991
-0.083998658 -0.45968887 0.055669978
-0.08416453 -0.45982385 0.05561595
-0.084315173 -0.45993447 0.055636972
-0.084471807 -0.46005476 0.055627968
-0.084628224 -0.46017233 0.055633966
-0.084779441 -0.46029696 0.055575408
-0.084938921 -0.46042591 0.055528339
-0.085095122 -0.46054369 0.055532027
-0.08525981 -0.46066815 0.055534519
-0.085401818 -0.4607791 0.05551523
-0.085557982 -0.46090394 0.055477403
-0.085705407 -0.46101016 0.05550997
-0.085864231 -0.46113741 0.055469826
-0.086020075 -0.46126437 0.05541816
-0.086173102 -0.46137309 0.055461086
-0.086331472 -0.46150786 0.055374805
-0.086481735 -0.46160993 0.055444267
-0.086634248 -0.46173713 0.055376481
-0.086792566 -0.46185911 0.055365156
-0.086947978 -0.46197942 0.055350401
-0.08709769 -0.46209466 0.05534029
-0.087258361 -0.46222353 0.055298984
-0.08741089 -0.46233854 0.055302694
-0.08756306 -0.46245819 0.055277579
-0.0877207 -0.46258318 0.055245511
-0.087873481 -0.46269307 0.055280358
-0.088025242 -0.46281475 0.055241406
-0.088177048 -0.46293452 0.05521398
-0.088331074 -0.4630613 0.055155404
-0.088487089 -0.46316871 0.055219073
-0.088641085 -0.46329388 0.055169716
-0.08879067 -0.46340409 0.055188447
-0.08894778 -0.4635275 0.055163298
-0.089101702 -0.46365064 0.055125482
-0.089262053 -0.463772 0.05512685
-0.089406885 -0.4638916 0.055069476
-0.089561746 -0.46400699 0.055081252
-0.089715324 -0.46412969 0.055044591
-0.08986932 -0.46424934 0.05502753
-0.090019993 -0.46436924 0.054994356
-0.090171382 -0.46448496 0.054988842
-0.090325527 -0.46460277 0.054983325
-0.090483718 -0.46471676 0.055018142
-0.090629891 -0.46484071 0.054941162
-0.09078446 -0.46495587 0.054952942
-0.090937234 -0.46507856 0.05491282
-0.09109389 -0.46519846 0.05490613
-0.09124206 -0.46531212 0.054898333
-0.091389537 -0.4654282 0.054873243
-0.091541544 -0.46555206 0.054822762
-0.091697313 -0.46567407 0.054799922
-0.091848515 -0.46578807 0.054803643
-0.092003569 -0.46590066 0.054832719
-0.092158265 -0.46602559 0.054787979
-0.092307605 -0.46614504 0.054751348
-0.092460297 -0.46625409 0.054790806
-0.092614032 -0.46638083 0.054731082
-0.092766859 -0.4664996 0.054714032
-0.092916228 -0.46660808 0.054741979
-0.093069494 -0.46672541 0.054735318
-0.093221262 -0.46685597 0.054644454
-0.093378782 -0.46697122 0.054668903
-0.093529284 -0.46708587 0.054665707
-0.093673378 -0.46720707 0.05459566
-0.093833327 -0.46732515 0.05461432
-0.09398476 -0.46744582 0.054579977
-0.094136283 -0.4675577 0.054597542
-0.094290063 -0.46767288 0.054605857
-0.094438061 -0.4677923 0.054563466
-0.094592713 -0.46791345 0.054540645
-0.094741769 -0.46802247 0.054563984
-0.094893485 -0.46814159 0.054540023
-0.095041037 -0.46826857 0.054451495
-0.095200941 -0.46838641 0.05447131
-0.095352627 -0.46851948 0.05436546
-0.095498562 -0.46862671 0.05438536
-0.095648751 -0.46874052 0.054385632
-0.095803447 -0.46885344 0.05441124
-0.095962234 -0.46897322 0.054414917
-0.096110381 -0.4690904 0.054386362
-0.096255802 -0.46921182 0.054320917
-0.096405968 -0.46933192 0.054284282
-0.096558131 -0.46944231 0.054313369
-0.096711658 -0.46956339 0.054285944
-0.096865185 -0.46967188 0.054332316
-0.097018391 -0.46979329 0.054301433
-0.097158484 -0.46992111 0.054174893
-0.097313307 -0.4700278 0.054237407
-0.097464904 -0.47014508 0.054223824
-0.097618073 -0.47026017 0.054229841
-0.097772919 -0.47039032 0.054155119
-0.097918659 -0.47049779 0.05417271
-0.098069787 -0.47060978 0.054187968
-0.098221153 -0.47073257 0.05414094
-0.098367952 -0.47085521 0.054074336
-0.098525539 -0.47096482 0.054132227
-0.098673619 -0.471091 0.054050617
-0.098832414 -0.47120467 0.054090049
-0.09898825 -0.47132179 0.054096051
-0.099140696 -0.47144264 0.05406516
-0.099277705 -0.47155964 0.053988237
-0.099433176 -0.47167197 0.054020759
-0.099585541 -0.47178763 0.054019861
-0.09974134 -0.47190472 0.054025862
-0.099885061 -0.47202897 0.053936206
-0.1000387 -0.47214326 0.05394914
-0.10019411 -0.47226065 0.053951684
-0.1003494 -0.47238287 0.053925402
-0.10049801 -0.47249255 0.053942975
-0.10064545 -0.47261253 0.053894818
-0.10079508 -0.47273046 0.053868555
-0.10094743 -0.47284591 0.053868815
-0.10110077 -0.47296056 0.053878292
-0.10125086 -0.47308236 0.053831272
-0.10139433 -0.47320071 0.053775065
-0.10155328 -0.47331077 0.053836405
-0.10170574 -0.47343045 0.05381244
-0.10184789 -0.47354957 0.053745862
-0.10199516 -0.47367299 0.053676948
-0.10214554 -0.47378558 0.053685293
-0.102302 -0.47389787 0.053722419
-0.10245784 -0.47401893 0.053705357
-0.10260373 -0.4741348 0.053674512
-0.10276013 -0.47425136 0.053686269
-0.10290585 -0.47437122 0.053631209
-0.10306046 -0.47448507 0.05365105
-0.10321552 -0.47460258 0.053651296
-0.10335939 -0.4747234 0.0535824
-0.10349903 -0.47483906 0.053525057
-0.10365928 -0.47495323 0.053567942
-0.10381287 -0.47507161 0.053556658
-0.10395394 -0.47518992 0.053490087
-0.1041038 -0.47531039 0.053449985
-0.10426047 -0.47541946 0.053506728
-0.1044091 -0.47554058 0.053457417
-0.104561 -0.47566336 0.053412691
-0.10470872 -0.47577038 0.0534418
-0.10486468 -0.47589096 0.053428203
-0.10501801 -0.47601289 0.053394999
-0.10515959 -0.47613019 0.053336494
-0.10531703 -0.4762499 0.053334415
-0.10549241 -0.47635746 0.053483307
-0.10562386 -0.47647616 0.053371817
-0.10577451 -0.47659919 0.053320181
-0.10592563 -0.47670838 0.053351581
-0.10607831 -0.47683039 0.053314932
-0.10622478 -0.47694513 0.05329331
-0.10638928 -0.47706196 0.053339615
-0.10652594 -0.47718084 0.053250004
-0.10668526 -0.47729668 0.053279053
-0.10683011 -0.4774088 0.053265508
-0.10697798 -0.47752935 0.0532162
-0.10712485 -0.47764063 0.053216483
-0.1072652 -0.47776389 0.053117629
-0.10741546 -0.47788328 0.053085607
-0.10757005 -0.47800103 0.053082384
-0.10771403 -0.47811645 0.053045776
-0.1078639 -0.47823277 0.053029902
-0.10801934 -0.47834724 0.053049747
-0.1081806 -0.47845984 0.053106453
-0.10833409 -0.47857812 0.053095169
-0.1084788 -0.47869623 0.05304588
-0.10863061 -0.47881502 0.053024225
-0.10878409 -0.47893035 0.053030238
-0.10892683 -0.47904602 0.052986719
-0.10906708 -0.47916231 0.052928235
-0.10922303 -0.47927696 0.052949227
-0.10937835 -0.47939762 0.052932158
-0.10951778 -0.47951117 0.052886359
-0.10966913 -0.47962999 0.052862398
-0.10981537 -0.4797473 0.052824628
-0.10997444 -0.47986138 0.052862898
-0.110125 -0.47997764 0.052850481
-0.11027457 -0.48009413 0.052832298
-0.11042058 -0.48020872 0.052809522
-0.11056976 -0.48032531 0.052789044
-0.11072014 -0.48044166 0.052775465
-0.11088231 -0.48056358 0.052781429
-0.11103526 -0.48067674 0.052797817
-0.11118717 -0.48079285 0.052792311
-0.11133005 -0.48091075 0.052736111
-0.1114752 -0.48103079 0.052677587
-0.11162244 -0.48114514 0.052661732
-0.111787 -0.48126161 0.052710351
-0.11194252 -0.48138753 0.052663296
-0.1120935 -0.48150903 0.052622046
-0.11223887 -0.48161861 0.052625798
-0.11238258 -0.48172849 0.052620333
-0.11252888 -0.48184055 0.052613698
-0.11267847 -0.48195213 0.052624356
-0.11283898 -0.48207477 0.05261879
-0.11298496 -0.48219445 0.052566033
-0.11311443 -0.48230633 0.05248569
-0.11327113 -0.48241958 0.052518204
-0.11342815 -0.48253781 0.05252305
-0.11358309 -0.48265877 0.052502528
-0.11372688 -0.48277128 0.052482072
-0.11387591 -0.48289287 0.052431606
-0.11402358 -0.48300499 0.052430734
-0.1141746 -0.48312396 0.052404463
-0.11433205 -0.48323756 0.052438136
-0.11449893 -0.48335758 0.052476369
-0.11465312 -0.4834764 0.052465074
-0.11478835 -0.48359442 0.052374318
-0.11494103 -0.48370403 0.052410327
-0.11510448 -0.48382455 0.052430123
-0.11523835 -0.48394254 0.052333608
-0.11539295 -0.4840591 0.052337304
-0.11555815 -0.48418197 0.052351322
-0.11570172 -0.48429468 0.052328564
-0.1158498 -0.48440945 0.052313853
-0.11598661 -0.48452926 0.052219622
-0.11614023 -0.48464155 0.052244093
-0.11629717 -0.48475382 0.052283525
-0.11644743 -0.48487085 0.052265342
-0.11658823 -0.48498815 0.052203383
-0.11673772 -0.48510519 0.052181743
-0.11688271 -0.48522234 0.052139372
-0.11703578 -0.48533931 0.052133858
-0.11718049 -0.48545647 0.052090324
-0.1173362 -0.48557132 0.052109018
-0.11748785 -0.48569059 0.052083895
-0.11763514 -0.48580772 0.052051887
-0.11778556 -0.48592487 0.0520337
-0.11793521 -0.48604202 0.05201206
-0.11810327 -0.48615935 0.052071039
-0.11824884 -0.48627657 0.052030973
-0.11840038 -0.48639593 0.052004699
-0.11854258 -0.48651096 0.051962338
-0.11870176 -0.48662847 0.051981013
-0.118846 -0.48674566 0.051935181
-0.11899788 -0.48686507 0.051910058
-0.11914578 -0.48698032 0.051891886
-0.11930244 -0.48709589 0.051910575
-0.11945278 -0.48721534 0.051878549
-0.11959674 -0.48733249 0.051831562
-0.11976306 -0.48745069 0.051877871
-0.11991405 -0.48757026 0.05184814
-0.12007529 -0.48768437 0.05189563
-0.12021571 -0.4878014 0.051833674
-0.12036679 -0.48791906 0.051815484
-0.12050942 -0.48803619 0.051762745
-0.12067018 -0.4881545 0.051783707
-0.12081823 -0.48827201 0.051752854
-0.12097403 -0.48839009 0.051753085
-0.12112157 -0.4885076 0.051719919
-0.12126773 -0.48862308 0.051692534
-0.12142486 -0.4887414 0.05169737
-0.12155877 -0.48885781 0.051610082
-0.12172858 -0.48897725 0.051664442
-0.12188448 -0.48909563 0.051663522
-0.12202226 -0.48921046 0.051602732
-0.12218656 -0.48932967 0.051634051
-0.12232405 -0.48944446 0.051572122
-0.12247419 -0.48956239 0.051548168
-0.12262918 -0.48968083 0.051542636
-0.12277307 -0.48979813 0.051494509
-0.12292381 -0.48991436 0.051483229
-0.12308393 -0.49003533 0.051485747
-0.12324235 -0.49015066 0.051513642
-0.12338367 -0.49026954 0.051444769
-0.12354582 -0.49038911 0.051464573
-0.12369045 -0.49050659 0.051418733
-0.12385025 -0.49062416 0.05143971
-0.12399993 -0.49074233 0.051412299
-0.12414902 -0.4908604 0.051382583
-0.12429027 -0.4909775 0.051324092
-0.12445547 -0.49109602 0.051363476
-0.12460183 -0.49121204 0.051333785
-0.12473547 -0.49132627 0.051258028
-0.12488884 -0.49144506 0.051243283
-0.1250381 -0.49156332 0.051213566
-0.1252006 -0.49168354 0.051231056
-0.12535036 -0.49180016 0.051212877
-0.12549886 -0.49191663 0.051190093
-0.12565359 -0.49203411 0.05118918
-0.12581162 -0.49215388 0.051189397
-0.12595177 -0.49226913 0.051136672
-0.12612611 -0.49239165 0.051193304
-0.12628865 -0.49251404 0.051198117
-0.12642747 -0.49263084 0.051130399
-0.12657873 -0.49274805 0.051115669
-0.12674379 -0.49286765 0.051148146
-0.12687741 -0.49298188 0.051072389
-0.12704186 -0.49310318 0.051092178
-0.12719002 -0.49321997 0.051065926
-0.12734656 -0.49333999 0.051058084
-0.12749429 -0.49345845 0.051020306
-0.12764274 -0.49357703 0.05098483
-0.12781876 -0.49370083 0.051041462
-0.1279541 -0.49381539 0.050971463
-0.12811887 -0.49393556 0.050999321
-0.12826583 -0.49405402 0.05095809
-0.12841524 -0.49417293 0.05092492
-0.12857662 -0.49429429 0.05093088
-0.12873065 -0.49441257 0.050921898
-0.12888199 -0.49453202 0.050894476
-0.12902802 -0.49464875 0.050859019
-0.12918803 -0.49477005 0.050859224
-0.12935278 -0.49489236 0.050874405
-0.1294944 -0.49501148 0.05080552
-0.1296539 -0.49512962 0.050821882
-0.12980314 -0.49525037 0.050777175
-0.12995635 -0.49536887 0.050763581
-0.13009763 -0.49548635 0.05070278
-0.13028201 -0.49561334 0.050777808
-0.13043623 -0.49573532 0.050748061
-0.13058871 -0.49585384 0.050731014
-0.13075083 -0.49597612 0.050734676
-0.13089971 -0.49609703 0.050687663
-0.13103196 -0.49621099 0.050607305
-0.1311985 -0.49633288 0.050632853
-0.13135989 -0.49645522 0.050633051
-0.13150682 -0.49657267 0.050597586
-0.13165447 -0.49669185 0.050555184
-0.13181368 -0.49681073 0.050565787
-0.13196827 -0.49693164 0.050544117
-0.1321096 -0.49704936 0.050482154
-0.13227233 -0.4971723 0.050484657
-0.13245553 -0.49730039 0.050548155
-0.13259766 -0.49741989 0.050479271
-0.13274996 -0.49754041 0.050449543
-0.13290341 -0.49765828 0.050440557
-0.13307321 -0.49778482 0.050453398
-0.13320775 -0.49789798 0.050388016
-0.1333864 -0.49802691 0.050426181
-0.13353832 -0.49814758 0.050394136
-0.13368459 -0.4982653 0.050354067
-0.13385427 -0.49838918 0.050381895
-0.13400383 -0.49851081 0.050333723
-0.1341401 -0.49862742 0.050255653
-0.13431534 -0.49875298 0.050298441
-0.13447894 -0.49887699 0.050298635
-0.13463946 -0.49900022 0.050289609
-0.13480076 -0.49912229 0.050290968
-0.13495626 -0.49924427 0.050266981
-0.1351102 -0.49936587 0.050238397
-0.13526492 -0.49948627 0.050220184
-0.13541645 -0.49960583 0.050192762
-0.13556653 -0.49972644 0.050152659
-0.13572612 -0.4998498 0.05013904
-0.13589825 -0.49997669 0.050159935
-0.13604733 -0.50009716 0.050116375
-0.13621068 -0.50022316 0.050103884
-0.13637094 -0.50034267 0.050115619
-0.13651285 -0.50046396 0.050035205
-0.13668646 -0.50059026 0.050066471
-0.13684735 -0.50071573 0.050045922
-0.13700101 -0.50083494 0.050030015
-0.13717782 -0.50096661 0.050043963
-0.13732973 -0.501091 0.049990021
-0.13747042 -0.50120372 0.049954593
-0.13764253 -0.50133413 0.049954727
-0.1377791 -0.50144845 0.049891643
-0.13793722 -0.50157201 0.049869955
-0.13811493 -0.50170022 0.049908116
-0.1382781 -0.50182414 0.049907155
-0.13844535 -0.50194931 0.049916547
-0.13859095 -0.50206792 0.049868401
-0.055290397 -0.43743563 0.058530536
-0.055465098 -0.43756807 0.058530658
-0.055659428 -0.43773192 0.058433764
-0.055827133 -0.43785352 0.058466215
-0.056010813 -0.43800083 0.058418993
-0.056174312 -0.43811589 0.058471076
-0.056355957 -0.43826032 0.058431938
-0.05653758 -0.43840486 0.058391649
-0.056712128 -0.43853816 0.058385998
-0.05688877 -0.43867502 0.058368798
-0.057063416 -0.4388088 0.058360841
-0.057245705 -0.43895525 0.058312468
-0.057420388 -0.43908945 0.058302209
-0.057609476 -0.43924755 0.058215726
-0.057769675 -0.43935814 0.058279369
-0.057948846 -0.43950027 0.058242556
-0.058131028 -0.43964761 0.058188412
-0.058301523 -0.43977568 0.058195479
-0.058482368 -0.43992123 0.058145963
-0.05864976 -0.44004437 0.058168035
-0.058826558 -0.44018352 0.058138154
-0.059005469 -0.44032642 0.058095559
-0.059179939 -0.44046202 0.058076072
-0.059354439 -0.44059783 0.058055434
-0.059519675 -0.44071797 0.058085602
-0.059703253 -0.44086972 0.058011841
-0.05988317 -0.44101241 0.057975013
-0.060048997 -0.44113398 0.057999402
-0.06022035 -0.44126526 0.057991475
-0.060390551 -0.44139466 0.05798931
-0.060568918 -0.44153851 0.05793865
-0.060736407 -0.4416635 0.057950344
-0.06090945 -0.44179842 0.057928555
-0.06109298 -0.44195211 0.057843264
-0.061254974 -0.4420678 0.057884987
-0.061427064 -0.44220161 0.057865504
-0.061606281 -0.44234514 0.057820611
-0.061766278 -0.44245756 0.057872728
-0.061941445 -0.44259742 0.057831317
-0.062114894 -0.44273442 0.057799146
-0.062292378 -0.44287899 0.05774042
-0.062461525 -0.44300857 0.057732493
-0.062635645 -0.44314411 0.057711855
-0.062799044 -0.44326344 0.057738572
-0.062976018 -0.44340801 0.057677541
-0.063144356 -0.44353679 0.057670768
-0.063316882 -0.44367012 0.057655916
-0.063489132 -0.44380662 0.057621438
-0.063665316 -0.44394726 0.05758002
-0.063837826 -0.4440847 0.057540927
-0.063969329 -0.44418317 0.057548232
-0.064128816 -0.44431743 0.057469994
-0.064309061 -0.44444895 0.057500072
-0.064508364 -0.44459572 0.057525426
-0.064678468 -0.44472957 0.057496734
-0.064843602 -0.44485396 0.057501517
-0.065018073 -0.44499311 0.057461273
-0.065188788 -0.4451288 0.057424497
-0.06535542 -0.44525668 0.057415433
-0.065523192 -0.44538701 0.057397135
-0.065695442 -0.4455227 0.05736728
-0.065857373 -0.4456417 0.057389386
-0.066032112 -0.44578281 0.057338759
-0.06620048 -0.44591513 0.057311226
-0.066365592 -0.44604108 0.057306785
-0.066527233 -0.44616005 0.05732774
-0.066697277 -0.44629249 0.057307132
-0.066860974 -0.44641599 0.057310775
-0.067031085 -0.44655299 0.05726362
-0.067199074 -0.44668585 0.057231482
-0.067367867 -0.44681653 0.057215489
-0.067531317 -0.44694024 0.057216827
-0.067698255 -0.44706735 0.057213534
-0.06786333 -0.44719484 0.057199858
-0.068029933 -0.44732586 0.057172347
-0.068204306 -0.44747397 0.057079032
-0.068367325 -0.44759339 0.05710344
-0.068534218 -0.4477258 0.057069
-0.068698265 -0.44784778 0.057083022
-0.068866193 -0.44798294 0.057037044
-0.069027677 -0.44810396 0.057045311
-0.069191173 -0.44822964 0.057035118
-0.069358058 -0.44835871 0.057020284
-0.069527104 -0.44849747 0.05695815
-0.069685876 -0.44860837 0.057013735
-0.069849879 -0.44873601 0.056994304
-0.070020489 -0.44887459 0.056940235
-0.070187017 -0.44900867 0.056894265
-0.07035064 -0.44913626 0.056873679
-0.070512295 -0.44925937 0.056870416
-0.070676595 -0.44938409 0.05686944
-0.070839107 -0.44950962 0.05685579
-0.071007654 -0.44964507 0.05681096
-0.071162447 -0.44975215 0.056871176
-0.071331955 -0.44989046 0.056813646
-0.071498051 -0.45002583 0.056758448
-0.071655326 -0.45013419 0.05682211
-0.071819782 -0.45026594 0.056780763
-0.071988985 -0.45040482 0.056718625
-0.072146535 -0.4505195 0.056746528
-0.072315164 -0.45065755 0.056686707
-0.072478905 -0.45078877 0.05664536
-0.072644167 -0.45091873 0.056617849
-0.072812214 -0.45106205 0.056524571
-0.072964631 -0.45115829 0.056637868
-0.073125951 -0.45128411 0.056617297
-0.073288202 -0.45140687 0.056618653
-0.073453903 -0.45153937 0.056578446
-0.073618934 -0.45167035 0.056544013
-0.073779128 -0.45179415 0.056530382
