# .PCD v0.7 - Point Cloud Data file format
VERSION 0.7
FIELDS x y z
SIZE 4 4 4
TYPE F F F
COUNT 1 1 1
WIDTH 1309
HEIGHT 1
VIEWPOINT 0 0 0 1 0 0 0
POINTS 1309
DATA ascii
-0.26616573 -0.42514911 0.049803291
-0.26635107 -0.42521217 0.04980462
-0.26653591 -0.42527956 0.049774826
-0.26669782 -0.42533693 0.049760137
-0.26688874 -0.42539656 0.04979834
-0.26707369 -0.42545187 0.049852714
-0.26725197 -0.42551914 0.049807955
-0.26743102 -0.4255842 0.049780495
-0.26761174 -0.42564884 0.049759947
-0.26777118 -0.42571101 0.049706064
-0.26795664 -0.42577642 0.049691249
-0.26813874 -0.42583489 0.049716808
-0.26829392 -0.42590004 0.049631819
-0.2684668 -0.42595503 0.049659733
-0.2686584 -0.42601526 0.04969563
-0.26881722 -0.42607954 0.049625605
-0.26900274 -0.42614514 0.049609642
-0.26918098 -0.42620677 0.049604092
-0.26936537 -0.42627081 0.049596198
-0.26953033 -0.42633554 0.049537681
-0.26970765 -0.42639369 0.049554046
-0.26988736 -0.42645517 0.049553096
-0.27006516 -0.42651895 0.049531411
-0.27026564 -0.42658901 0.049519978
-0.2704314 -0.4266462 0.04951565
-0.27060962 -0.4267045 0.049533162
-0.27076432 -0.42676952 0.049448162
-0.27095118 -0.42682979 0.049472548
-0.2711387 -0.42689723 0.049448505
-0.27132192 -0.42695478 0.049483284
-0.27148855 -0.42701921 0.049430519
-0.27164209 -0.42708614 0.049329389
-0.2717976 -0.4271473 0.04927323
-0.2720255 -0.42721611 0.049335446
-0.27220625 -0.42727795 0.0493345
-0.27236339 -0.42733535 0.0493083
-0.27252361 -0.42739743 0.049256723
-0.2727319 -0.4274632 0.049293678
-0.27289921 -0.42752755 0.049243215
-0.27306759 -0.4275848 0.049244642
-0.27324465 -0.42764753 0.04922872
-0.27343696 -0.42771113 0.049242701
-0.27363831 -0.42776826 0.049323514
-0.27379784 -0.4278374 0.049221199
-0.27397192 -0.42790073 0.049193762
-0.27414572 -0.42796418 0.049165171
-0.2743426 -0.42802572 0.049204491
-0.27449715 -0.42809048 0.049120653
-0.27468723 -0.42815152 0.049147334
-0.27485961 -0.42821363 0.049124517
-0.275051 -0.42827627 0.049143109
-0.27522653 -0.4283413 0.0491076
-0.27542844 -0.42840421 0.049149204
-0.27560243 -0.42846954 0.049107924
-0.27576801 -0.42853114 0.049072467
-0.27595428 -0.42859319 0.049083021
-0.27615023 -0.42865723 0.049102742
-0.27630144 -0.42872402 0.048997015
-0.27648062 -0.42878711 0.048983384
-0.27667183 -0.42885351 0.048975468
-0.27682704 -0.42891654 0.048905462
-0.27702689 -0.42897561 0.048968978
-0.27719164 -0.42903909 0.04891853
-0.27737433 -0.42910042 0.048925642
-0.27757034 -0.42916963 0.048909623
-0.27773264 -0.4292334 0.048851117
-0.27791491 -0.42929491 0.048855923
-0.27810317 -0.42936048 0.048846859
-0.27827933 -0.42942587 0.048810188
-0.27846879 -0.42948371 0.048857626
-0.27864492 -0.42955223 0.048799038
-0.27879727 -0.42961562 0.048719823
-0.27898765 -0.42967659 0.048747648
-0.27916032 -0.42974094 0.048709843
-0.27936125 -0.42980254 0.048758373
-0.27956823 -0.42987117 0.048772279
-0.27976206 -0.42993215 0.048808157
-0.27993131 -0.42999852 0.048748456
-0.28009942 -0.43006495 0.048685301
-0.28028938 -0.43013093 0.048677381
-0.28044879 -0.43019223 0.048629269
-0.28064287 -0.43025646 0.048643239
-0.28082284 -0.43031901 0.048635371
-0.28102025 -0.43038604 0.0486378
-0.28118175 -0.43044871 0.048585057
-0.28136569 -0.43050966 0.048597932
-0.28154653 -0.43057233 0.048591208
-0.28173387 -0.43063891 0.048572935
-0.2819171 -0.43070439 0.04855236
-0.28209504 -0.43077171 0.048506454
-0.28228384 -0.43083113 0.048541203
-0.28247285 -0.43089777 0.048526384
-0.28265291 -0.4309665 0.048475843
-0.28282806 -0.43102986 0.048450716
-0.2829884 -0.43109 0.048412975
-0.28319821 -0.43116111 0.04841648
-0.28338942 -0.43122503 0.048425846
-0.28357109 -0.43129095 0.048398376
-0.28375626 -0.43135396 0.048399705
-0.28391105 -0.43141735 0.048326243
-0.28412464 -0.43147749 0.048415065
-0.28431025 -0.43154892 0.048358742
-0.28450054 -0.43161601 0.048343901
-0.28469974 -0.43168131 0.048362456
-0.28485942 -0.43174452 0.048301656
-0.28505021 -0.43180764 0.048315644
-0.28523573 -0.43187922 0.04825817
-0.28540912 -0.4319405 0.048243418
-0.28560653 -0.43200621 0.048255064
-0.2857863 -0.43206868 0.048247203
-0.28596985 -0.43213776 0.048202418
-0.28616863 -0.43220225 0.048225582
-0.28633177 -0.43226552 0.048172843
-0.28653398 -0.43233535 0.048167158
-0.28672978 -0.43240279 0.048162676
-0.28693727 -0.43246597 0.04821578
-0.2871007 -0.43253067 0.048153799
-0.28727037 -0.43259647 0.048098717
-0.28747794 -0.43266252 0.048132215
-0.28765842 -0.4327307 0.048086293
-0.28785968 -0.43279704 0.048102539
-0.28803146 -0.43286294 0.048052054
-0.28818429 -0.4329215 0.048007421
-0.28839868 -0.43298903 0.048046656
-0.28858757 -0.43305463 0.048038751
-0.2887677 -0.43312302 0.04799052
-0.19071268 -0.39849603 0.056087844
-0.1909298 -0.39857444 0.056057923
-0.19113572 -0.3986437 0.056064945
-0.19136083 -0.39872897 0.056006152
-0.19158761 -0.39881581 0.055940431
-0.19177796 -0.39887246 0.055998269
-0.19198941 -0.39894676 0.055983365
-0.19220662 -0.39902604 0.055947673
-0.19241491 -0.39909792 0.055941999
-0.19261472 -0.39916277 0.055965196
-0.19283512 -0.39924511 0.055915654
-0.19303001 -0.39930597 0.055955026
-0.19325216 -0.39939007 0.055897396
-0.19346666 -0.39946973 0.055852491
-0.19367942 -0.39954615 0.055826053
-0.19389033 -0.39962107 0.055805378
-0.19408442 -0.39968166 0.055844754
-0.19429684 -0.3997581 0.055817157
-0.19450614 -0.39983201 0.05579995
-0.19470736 -0.39989901 0.055811614
-0.1949247 -0.39998013 0.055763237
-0.19514668 -0.40006548 0.055696391
-0.19534324 -0.40012875 0.055723056
-0.1955511 -0.40020198 0.055707019
-0.19576362 -0.40027946 0.055672504
-0.19597617 -0.40035713 0.055636834
-0.19617604 -0.40042368 0.055648498
-0.19637947 -0.40049142 0.055660155
-0.19659582 -0.40057287 0.055607174
-0.19679993 -0.4006435 0.055600371
-0.19699852 -0.40070927 0.055614349
-0.19721113 -0.40078777 0.055572912
-0.1973979 -0.40085548 0.055545457
-0.19761421 -0.40092513 0.055574328
-0.19781449 -0.40099281 0.055579081
-0.19802296 -0.40106809 0.055550355
-0.19823694 -0.40114856 0.055498533
-0.19845374 -0.4012318 0.055434015
-0.1986461 -0.40129262 0.055467632
-0.19886884 -0.40138173 0.055376567
-0.199062 -0.40144348 0.055405561
-0.19927183 -0.40152088 0.055365298
-0.19946833 -0.40158594 0.05537929
-0.19967298 -0.40165874 0.055358648
-0.19987305 -0.40172732 0.055356484
-0.20005196 -0.40177593 0.055443201
-0.20026861 -0.40186045 0.055369467
-0.20048867 -0.40194845 0.055279568
-0.20068786 -0.40201443 0.055293541
-0.20085703 -0.4020718 0.055296145
-0.20103055 -0.40213794 0.055247989
-0.20129149 -0.40223461 0.05519478
-0.2014935 -0.40229693 0.055241033
-0.20168601 -0.40235913 0.055265419
-0.20184295 -0.40241179 0.055271544
-0.20209515 -0.40250748 0.055204544
-0.20229898 -0.40258119 0.05517583
-0.2025107 -0.40266287 0.055110186
-0.20270801 -0.40273035 0.055109188
-0.20289938 -0.40279198 0.05513474
-0.2031081 -0.40287116 0.055079486
-0.20329899 -0.40293247 0.055106193
-0.20350417 -0.40300596 0.055082086
-0.20369825 -0.40307066 0.055092633
-0.20387667 -0.40312672 0.055126317
-0.20410945 -0.40322405 0.055001765
-0.20429683 -0.40328217 0.055042323
-0.20450082 -0.40336007 0.054984793
-0.20470266 -0.40343091 0.054971084
-0.20489584 -0.40349531 0.054981634
-0.20510593 -0.4035776 0.054907929
-0.20530033 -0.40364608 0.05489311
-0.20546556 -0.40369645 0.05493493
-0.20568234 -0.40376845 0.054948814
-0.20588873 -0.40384749 0.054888967
-0.20609911 -0.40393102 0.054807194
-0.20627633 -0.40398419 0.054858182
-0.20645045 -0.404055 0.054778893
-0.20667318 -0.40412089 0.054849245
-0.20687377 -0.40419447 0.054813638
-0.20705783 -0.40424997 0.054864589
-0.20726264 -0.40432847 0.054804746
-0.20745179 -0.40438703 0.054846447
-0.2075952 -0.4044354 0.054850329
-0.20778781 -0.40450889 0.054796319
-0.20803422 -0.40458804 0.054830808
-0.20825607 -0.40468678 0.054670572
-0.20844367 -0.4047468 0.054698441
-0.20863327 -0.40480915 0.054714777
-0.20883623 -0.40488702 0.054654945
-0.20902598 -0.40494975 0.05466897
-0.20922007 -0.40501761 0.054657608
-0.20941797 -0.40509009 0.054623164
-0.20961529 -0.40516207 0.054591037
-0.20979397 -0.40521207 0.054667376
-0.20993941 -0.40525204 0.05473467
-0.21008532 -0.4052895 0.054820403
-0.21030341 -0.40538681 0.054661334
-0.21056765 -0.40548298 0.05461964
-0.21074319 -0.40555361 0.054544952
-0.21094398 -0.40563089 0.05448398
-0.21115729 -0.40570217 0.054494426
-0.21135081 -0.40577087 0.054476149
-0.21154638 -0.40584221 0.05444403
-0.21174046 -0.40591189 0.054419983
-0.21193582 -0.40598336 0.054386701
-0.21213506 -0.40605995 0.054326888
-0.21231924 -0.40611747 0.054364003
-0.21250603 -0.40617836 0.054383811
-0.21270281 -0.40625229 0.054336697
-0.21289901 -0.4063257 0.054291889
-0.21307279 -0.40637651 0.054350957
-0.21327122 -0.40644637 0.054336116
-0.21346359 -0.40651512 0.05431439
-0.21365663 -0.40658498 0.05428689
-0.21384868 -0.40665364 0.054265164
-0.21404415 -0.40672711 0.054218046
-0.2142299 -0.40678748 0.054239005
-0.21442047 -0.40685812 0.054199994
-0.21460968 -0.4069235 0.054194424
-0.21479753 -0.40698707 0.054198083
-0.21498421 -0.40704909 0.054209821
-0.21517773 -0.40712091 0.054169632
-0.21537516 -0.40719855 0.054098301
-0.21555839 -0.40726355 0.054081228
-0.21573989 -0.40733373 0.054023806
-0.21591793 -0.40739527 0.054018296
-0.21609665 -0.40745407 0.054033525
-0.21631378 -0.40752321 0.054068174
-0.21650122 -0.40758732 0.054067224
-0.21669129 -0.40765545 0.054044347
-0.21687908 -0.40772036 0.054038785
-0.21706739 -0.40779021 0.053999774
-0.2172486 -0.40786165 0.053933136
-0.21744984 -0.40793145 0.053925198
-0.2176321 -0.40799245 0.053933501
-0.21782255 -0.40805811 0.053929076
-0.21800846 -0.40812084 0.053933892
-0.21819246 -0.40818495 0.053924892
-0.21835679 -0.4082433 0.053909063
-0.2185035 -0.40828601 0.053960204
-0.21872729 -0.40837631 0.053863369
-0.21894465 -0.4084518 0.053854201
-0.21913208 -0.40851787 0.053839415
-0.21929865 -0.40859008 0.053732492
-0.21947363 -0.40863982 0.053801935
-0.21968183 -0.40870473 0.053844698
-0.21986872 -0.40877527 0.053797625
-0.22005628 -0.40884241 0.053775918
-0.22024404 -0.4089101 0.053750753
-0.22042707 -0.40897435 0.053738289
-0.22060263 -0.40903008 0.053767383
-0.22079821 -0.40910262 0.05372718
-0.22098461 -0.40916851 0.05371125
-0.22116227 -0.40922844 0.053716108
-0.2213213 -0.4092792 0.053740676
-0.22152606 -0.40935966 0.053667001
-0.22170071 -0.40943047 0.05358886
-0.22190037 -0.40949613 0.05360629
-0.22208795 -0.4095543 0.053646848
-0.22227463 -0.40962777 0.053579032
-0.22244307 -0.40968701 0.053566642
-0.22264887 -0.40976602 0.053505648
-0.22282879 -0.40982622 0.053513952
-0.22299823 -0.40988815 0.05348542
-0.22316918 -0.40994132 0.053521454
-0.2233488 -0.4100011 0.053532071
-0.22353141 -0.41006768 0.053502314
-0.22371569 -0.41013834 0.053448346
-0.22387524 -0.41019821 0.053410638
-0.22407906 -0.41028199 0.053311594
-0.22426558 -0.41033202 0.05340635
-0.22443552 -0.41041085 0.053261362
-0.22465344 -0.41046751 0.053384781
-0.22481152 -0.41051775 0.0534105
-0.22500244 -0.41058552 0.053392239
-0.22519775 -0.41065747 0.0533555
-0.22535747 -0.41071224 0.053353541
-0.22554284 -0.41079703 0.053203855
-0.22573455 -0.41086838 0.053162538
-0.22591868 -0.41091096 0.053303421
-0.22607967 -0.41096172 0.053332575
-0.22626373 -0.41102833 0.053306282
-0.22645576 -0.41110146 0.053253423
-0.22664419 -0.41116422 0.053263992
-0.22680123 -0.41122127 0.053240135
-0.22701111 -0.41129601 0.05321832
-0.22719578 -0.41136631 0.053167798
-0.22737332 -0.41142339 0.053192269
-0.22755231 -0.41148525 0.053186744
-0.22773382 -0.41155612 0.053124711
-0.2279093 -0.4116168 0.053119212
-0.22808686 -0.41167438 0.053140216
-0.22827217 -0.4117384 0.053134672
-0.2284448 -0.41180027 0.053114191
-0.22863038 -0.41186589 0.053098254
-0.2288111 -0.41192439 0.053120404
-0.22898683 -0.4119873 0.053099908
-0.22917363 -0.41205913 0.053043619
-0.22935319 -0.41211292 0.053095743
-0.22953333 -0.41218314 0.053034876
-0.22971055 -0.41224027 0.053058192
-0.22985885 -0.41229081 0.053058591
-0.23004796 -0.41236162 0.053014964
-0.23025055 -0.41243938 0.052955136
-0.23042813 -0.41249928 0.052960001
-0.23060665 -0.41256478 0.052927967
-0.23078845 -0.41263211 0.052891295
-0.23096219 -0.41268837 0.052912321
-0.23113333 -0.41274807 0.052903384
-0.23130475 -0.41281018 0.052878305
-0.23149204 -0.4128744 0.052876193
-0.23168029 -0.41294655 0.052821055
-0.23185726 -0.41300461 0.052837446
-0.23203443 -0.41306436 0.052842315
-0.23221584 -0.4131352 0.052780285
-0.23237371 -0.41319382 0.052747205
-0.23254442 -0.41325468 0.052729044
-0.2327476 -0.41332385 0.052730314
-0.23292808 -0.41338921 0.052704036
-0.23308223 -0.41344509 0.052681342
-0.23327853 -0.41350824 0.052708019
-0.23344581 -0.41357192 0.052662205
-0.23363248 -0.41363856 0.052641653
-0.23378952 -0.41369063 0.052652385
-0.23397267 -0.41374961 0.052676827
-0.23415592 -0.41381478 0.052658595
-0.2343064 -0.41386706 0.052652076
-0.23449937 -0.41393173 0.052660313
-0.23465951 -0.41399232 0.052619144
-0.2348261 -0.4140541 0.052584868
-0.23502186 -0.41412964 0.052523915
-0.23523074 -0.41420358 0.05250556
-0.235401 -0.4142527 0.052568108
-0.23556718 -0.41431549 0.052525759
-0.23575619 -0.41438493 0.052491363
-0.23593916 -0.41444454 0.052511189
-0.23611195 -0.41450545 0.052497625
-0.23626202 -0.41455677 0.052496865
-0.2364313 -0.41461813 0.052471798
-0.23661646 -0.41468793 0.052425891
-0.23680229 -0.41475132 0.0524261
-0.23698546 -0.41480917 0.05245861
-0.23715355 -0.41487691 0.052386269
-0.23733881 -0.41494325 0.052364577
-0.23751608 -0.4149951 0.052424781
-0.2377041 -0.4150652 0.052383479
-0.23788239 -0.41513097 0.052349135
-0.23804732 -0.41519353 0.052305631
-0.23821458 -0.4152441 0.052350901
-0.23840925 -0.41531399 0.052326862
-0.23859027 -0.41536629 0.052392814
-0.23876345 -0.41543761 0.052307762
-0.23894072 -0.41550568 0.052254982
-0.23911662 -0.41556469 0.052262157
-0.23929155 -0.41562733 0.052241676
-0.2394554 -0.41567838 0.052275434
-0.23961847 -0.41574493 0.052199662
-0.23980607 -0.41580048 0.052258663
-0.23996553 -0.41585451 0.052261312
-0.24013847 -0.41592294 0.052195866
-0.24030888 -0.41597641 0.052228443
-0.24048774 -0.41604802 0.052154899
-0.24065429 -0.4161126 0.052101009
-0.24082747 -0.41617864 0.052052855
-0.24103084 -0.41625166 0.052027613
-0.24120544 -0.41631335 0.052012891
-0.24138507 -0.41637149 0.052035045
-0.24155745 -0.41642034 0.052104499
-0.24172881 -0.41648987 0.052027535
-0.24188882 -0.41654193 0.052045166
-0.24208485 -0.41661412 0.052008424
-0.24225786 -0.41667065 0.052026004
-0.24243331 -0.41674638 0.051915575
-0.24261492 -0.41680053 0.051969998
-0.24278279 -0.41685992 0.051955312
-0.24296428 -0.41692996 0.051899038
-0.24313664 -0.41698775 0.051906243
-0.24331589 -0.41704705 0.05191917
-0.24348912 -0.41710332 0.051939037
-0.2436592 -0.41716549 0.051910505
-0.24384975 -0.4172323 0.05189801
-0.24401294 -0.41729954 0.051817626
-0.24419348 -0.4173699 0.051756751
-0.24437955 -0.41743073 0.051775411
-0.24454623 -0.41748491 0.05179416
-0.2447174 -0.41753203 0.051872849
-0.24490272 -0.41761312 0.051748537
-0.24505991 -0.41766986 0.051726986
-0.24523199 -0.41772807 0.051730722
-0.24542011 -0.41779205 0.051732078
-0.24562001 -0.41786227 0.05171838
-0.2457848 -0.41791943 0.051711775
-0.24593444 -0.41797525 0.051678739
-0.24610317 -0.4180381 0.051642135
-0.24629018 -0.41810355 0.05163081
-0.24648166 -0.41817382 0.051596399
-0.24665704 -0.41822767 0.051638175
-0.24683774 -0.41828021 0.051701821
-0.24700625 -0.41834828 0.051628329
-0.24718603 -0.41841242 0.051608972
-0.24736607 -0.41847116 0.051627655
-0.24753892 -0.41852862 0.051638305
-0.24771042 -0.41859755 0.051565956
-0.24790049 -0.41866422 0.051553458
-0.24807452 -0.4187108 0.051642511
-0.24823239 -0.41875684 0.051697053
-0.2484037 -0.41883034 0.051592417
-0.24856581 -0.41889042 0.051559303
-0.24872182 -0.418966 0.051404007
-0.24889351 -0.41903812 0.051309746
-0.24906415 -0.41911107 0.051207423
-0.24927348 -0.41917521 0.051258244
-0.24945782 -0.41922548 0.051346086
-0.24963392 -0.41929698 0.051266786
-0.249808 -0.41934061 0.051376592
-0.24997447 -0.41940019 0.051357303
-0.25015518 -0.41946298 0.051349469
-0.25034678 -0.41953215 0.051323123
-0.25051644 -0.41959283 0.051303819
-0.25068015 -0.41965479 0.051261485
-0.25085938 -0.41970697 0.051323988
-0.25103655 -0.41976508 0.051340386
-0.25121292 -0.41983169 0.051295672
-0.25139105 -0.41989675 0.051265948
-0.25157294 -0.41995862 0.051267326
-0.2517516 -0.42003447 0.0511638
-0.25191832 -0.42008621 0.051199853
-0.25208458 -0.42013842 0.051231295
-0.2522589 -0.4201954 0.051248856
-0.25242805 -0.42026368 0.05117536
-0.25260878 -0.42032298 0.05119174
-0.25280002 -0.42039222 0.051164247
-0.25297219 -0.42044744 0.051188745
-0.25315493 -0.42051592 0.051146302
-0.25332391 -0.42057353 0.051146604
-0.25349498 -0.42063999 0.051090386
-0.25366968 -0.4207004 0.051084891
-0.25385106 -0.42076293 0.051080514
-0.25402421 -0.42083111 0.051017374
-0.25419796 -0.42088887 0.051028021
-0.2543788 -0.42095834 0.05097406
-0.2545456 -0.42101422 0.050981291
-0.25471562 -0.42107451 0.050965436
-0.25488245 -0.42112729 0.050994568
-0.25506228 -0.42118779 0.051000576
-0.25524458 -0.42124367 0.051044621
-0.25541094 -0.42130637 0.051003419
-0.25556225 -0.42138427 0.050820477
-0.25574574 -0.42144871 0.050808009
-0.25593615 -0.42150602 0.050861239
-0.2561093 -0.42157054 0.050823461
-0.25627789 -0.42162871 0.050819151
-0.2564663 -0.42168453 0.050878145
-0.2566568 -0.42174819 0.050887555
-0.25681219 -0.42181674 0.05077954
-0.25698939 -0.42187318 0.050807465
-0.25714734 -0.42194015 0.050716732
-0.2573247 -0.42200229 0.050705455
-0.25749996 -0.42205989 0.050720703
-0.25767606 -0.42211714 0.050740562
-0.25787699 -0.42217013 0.050849084
-0.25805107 -0.42224807 0.050720219
-0.258203 -0.42231211 0.050635274
-0.2583794 -0.42237759 0.05059864
-0.25852773 -0.42244586 0.050475664
-0.2587218 -0.42249998 0.050560005
-0.25888956 -0.42255619 0.050567225
-0.25908285 -0.42261103 0.050644651
-0.25926286 -0.42266962 0.050664492
-0.25946707 -0.42272502 0.050763767
-0.25964347 -0.42279333 0.050707519
-0.2598165 -0.42286044 0.050651301
-0.25998205 -0.42292568 0.050590508
-0.26015663 -0.42298439 0.050596543
-0.26034164 -0.4230538 0.050552938
-0.26050788 -0.42311612 0.050514046
-0.2606819 -0.42317265 0.050533917
-0.26086497 -0.42323792 0.050514534
-0.26104343 -0.42330259 0.050488271
-0.26120707 -0.42336106 0.050470144
-0.26138109 -0.42342022 0.050471563
-0.26155308 -0.42348269 0.050445329
-0.26174098 -0.42354614 0.050450146
-0.26191697 -0.42360947 0.05042734
-0.26208416 -0.42367378 0.050376914
-0.26227027 -0.42373326 0.050404795
-0.2624526 -0.42379662 0.050396953
-0.26262799 -0.42386258 0.050354548
-0.26277024 -0.42392895 0.050230462
-0.26294062 -0.42398506 0.050244585
-0.26314995 -0.42404804 0.050303474
-0.26330641 -0.42411149 0.050233502
-0.26349366 -0.42417553 0.050232556
-0.26366913 -0.42423239 0.05025357
-0.26384926 -0.4242945 0.050249197
-0.26402643 -0.42435095 0.050277121
-0.26421601 -0.42441446 0.050285384
-0.26440144 -0.42447722 0.050289057
-0.26457438 -0.42454183 0.050250128
-0.26475188 -0.42460933 0.050201956
-0.26491061 -0.42467621 0.050113518
-0.26508322 -0.42473441 0.050118409
-0.26526302 -0.42479473 0.050125565
-0.26544729 -0.42485377 0.050152306
-0.26564303 -0.42492008 0.050155923
-0.26581916 -0.4249838 0.050130814
-0.2659665 -0.42504543 0.050051663
-0.26615858 -0.42511079 0.050052997
-0.26631609 -0.42516533 0.05004758
-0.26649177 -0.42522922 0.050020181
-0.26668423 -0.42529255 0.050036497
-0.26685652 -0.42535132 0.050036773
-0.26705149 -0.42541617 0.050048463
-0.26724088 -0.4254846 0.05002214
-0.26741076 -0.42554817 0.049983229
-0.26755491 -0.42560244 0.04994791
-0.26773304 -0.42566583 0.049929705
-0.26789546 -0.42572337 0.049915045
-0.26810154 -0.42578572 0.049970504
-0.26827672 -0.42585391 0.049911961
-0.26843917 -0.42591545 0.04986963
-0.26861498 -0.42597374 0.049881417
-0.26880655 -0.42603993 0.049875837
-0.26897901 -0.42610106 0.049859967
-0.26916581 -0.42616463 0.049861331
-0.26930878 -0.42623258 0.049728006
-0.26949772 -0.42628244 0.049829666
-0.26970339 -0.42634946 0.049851678
-0.26987684 -0.42641807 0.04978624
-0.27004638 -0.42647257 0.049809594
-0.27023274 -0.42653283 0.049832851
-0.2703965 -0.42659795 0.049768608
-0.27059257 -0.42666733 0.049751472
-0.27076229 -0.42672935 0.04972294
-0.27092019 -0.42678833 0.049687549
-0.27111042 -0.42684627 0.049736161
-0.27127197 -0.42691359 0.049651176
-0.27145597 -0.42697471 0.049662918
-0.2716397 -0.42703772 0.049660839
-0.27183127 -0.42710108 0.049674854
-0.27200088 -0.42716685 0.049619801
-0.27218375 -0.42722839 0.049625792
-0.27235106 -0.4272911 0.049586896
-0.27251381 -0.4273476 0.049580302
-0.27267769 -0.42741093 0.049528737
-0.27288389 -0.42747897 0.049544986
-0.27306533 -0.42754102 0.049544066
-0.27321723 -0.42760125 0.049485642
-0.27339768 -0.42766693 0.049457058
-0.27357838 -0.42772409 0.049488422
-0.27377418 -0.42778906 0.049501266
-0.27394465 -0.42785484 0.049448516
-0.27413723 -0.42791703 0.049472906
-0.27429762 -0.42797935 0.049420208
-0.27447706 -0.42804039 0.049421608
-0.2746695 -0.42810953 0.049397569
-0.27482414 -0.4281677 0.049359884
-0.27500048 -0.42822933 0.049349762
-0.27519521 -0.42829162 0.04937876
-0.27537787 -0.42835411 0.049377833
-0.27555043 -0.42841643 0.049353898
-0.27575442 -0.42848256 0.049378224
-0.2759099 -0.42854565 0.049308255
-0.27607253 -0.4286094 0.049250931
-0.27626675 -0.42866573 0.049320284
-0.27643415 -0.4287321 0.049256016
-0.27662298 -0.42880046 0.049228534
-0.27679199 -0.42886025 0.049213842
-0.2769987 -0.4289265 0.049243927
-0.27716082 -0.42899039 0.049184304
-0.27733687 -0.42904943 0.049191479
-0.27750674 -0.42911085 0.049167555
-0.27769956 -0.4291743 0.049183872
-0.2778846 -0.42924339 0.049142584
-0.27808109 -0.42930347 0.049191166
-0.27823317 -0.42936856 0.049099304
-0.27841282 -0.4294275 0.049115688
-0.27860221 -0.42949626 0.049087055
-0.2787827 -0.42955831 0.049083829
-0.27895296 -0.42962301 0.049038
-0.27912605 -0.42968288 0.049032517
-0.27931911 -0.42975137 0.049014233
-0.27948752 -0.4298133 0.048983406
-0.27970836 -0.42987621 0.049069911
-0.27986032 -0.4299413 0.048978049
-0.28004313 -0.43000346 0.048979431
-0.28021836 -0.43006638 0.048957791
-0.28040636 -0.43013117 0.048953377
-0.2805956 -0.43019739 0.048942041
-0.28077647 -0.43026289 0.048915755
-0.28096515 -0.43032923 0.048902109
-0.28109977 -0.43038836 0.048810344
-0.28132993 -0.4304558 0.048887577
-0.28149253 -0.43051857 0.048837177
-0.28169003 -0.43058294 0.04885808
-0.28187013 -0.43064585 0.04884794
-0.28204244 -0.43070796 0.048825163
-0.282231 -0.43077177 0.048828814
-0.28240111 -0.43083408 0.048799131
-0.28257471 -0.43089479 0.048789024
-0.28276473 -0.43096292 0.048766147
-0.28295186 -0.43103272 0.048724841
-0.28311798 -0.43109402 0.048692871
-0.28333288 -0.43116352 0.048719451
-0.28351146 -0.43122974 0.048682809
-0.28368378 -0.43129215 0.048657723
-0.28384757 -0.43135232 0.048628062
-0.28403926 -0.43141785 0.04862709
-0.28424445 -0.43148273 0.048662949
-0.284419 -0.43155074 0.04860441
-0.28460777 -0.4316166 0.048594229
-0.2847977 -0.43167976 0.048605941
-0.28497288 -0.43174231 0.048586607
-0.28514397 -0.43180645 0.048546541
-0.28533256 -0.43187526 0.048515607
-0.28552681 -0.43193573 0.04855613
-0.28573567 -0.43200782 0.048550453
-0.28588536 -0.43206894 0.048480514
-0.28604996 -0.43213487 0.0484128
-0.28626111 -0.43219894 0.048468232
-0.28646645 -0.43226337 0.048507541
-0.28665283 -0.43233126 0.048477776
-0.28682783 -0.43240088 0.048408858
-0.28699008 -0.43246299 0.04836192
-0.28721613 -0.43252838 0.048443779
-0.28737855 -0.4325932 0.048378397
-0.28757572 -0.43265966 0.048384313
-0.28775388 -0.43272406 0.048359189
-0.28794375 -0.43279082 0.048345551
-0.28812736 -0.43285909 0.048306562
-0.28831869 -0.43292069 0.048332114
-0.28848854 -0.43298808 0.048266679
-0.28866223 -0.43305278 0.048228901
-0.28889173 -0.43311769 0.04832229
-0.19077434 -0.3984926 0.056258231
-0.19097722 -0.39855933 0.056275643
-0.19118536 -0.39863235 0.056261905
-0.19140753 -0.39871711 0.056199655
-0.19160402 -0.39878067 0.056224026
-0.19181584 -0.39885709 0.056195267
-0.19202739 -0.39893341 0.056166515
-0.19223812 -0.39900729 0.05615275
-0.1924455 -0.3990804 0.056136705
-0.19264278 -0.39914504 0.056155309
-0.1928629 -0.39922911 0.056093063
-0.19307058 -0.39930278 0.056073554
-0.19327933 -0.3993775 0.056049425
-0.19346957 -0.3994346 0.056103814
-0.1936509 -0.39948601 0.056176692
-0.19389851 -0.3995944 0.056010526
-0.19407383 -0.39964077 0.056104191
-0.1941894 -0.39965492 0.056280039
-0.19445173 -0.39978442 0.056001946
-0.19466089 -0.39986226 0.055957049
-0.19494317 -0.39997056 0.05587374
-0.1950973 -0.40000257 0.056017097
-0.19533384 -0.40009886 0.05590865
-0.1955339 -0.40016529 0.055921473
-0.1957283 -0.4002288 0.055941232
-0.19589999 -0.40028834 0.055934593
-0.19614187 -0.40037805 0.055884931
-0.19636506 -0.40046546 0.055806525
-0.19655605 -0.40052631 0.055836685
-0.19676779 -0.40060586 0.055786029
-0.19697331 -0.40067995 0.055758454
-0.19718137 -0.40075442 0.055734329
-0.19738641 -0.40082836 0.055706766
-0.19757956 -0.4008916 0.055725381
-0.19777897 -0.40096062 0.055718601
-0.19798531 -0.40103403 0.055697944
-0.1981898 -0.40110794 0.055669226
-0.1983909 -0.40117887 0.055653211
-0.19857648 -0.40123552 0.055699546
-0.19878684 -0.40131313 0.055659272
-0.19898993 -0.4013862 0.055632859
-0.19920032 -0.40146413 0.055590276
-0.19940236 -0.40153655 0.05556618
-0.19960837 -0.40161064 0.055539764
-0.19979927 -0.40167278 0.055560701
-0.20002198 -0.4017652 0.055446554
-0.2002136 -0.40182826 0.055462878
-0.20041332 -0.40189689 0.055459559
-0.20060226 -0.40195754 0.055486262
-0.20080489 -0.40202916 0.055469088
-0.20100079 -0.40209663 0.055464625
-0.20120962 -0.40217453 0.055418592
-0.20140201 -0.40223882 0.055427995
-0.20160493 -0.40231353 0.055390056
-0.20179209 -0.40237057 0.055437535
-0.20199952 -0.40244764 0.055393815
-0.20220028 -0.40252063 0.055362806
-0.20239979 -0.40259251 0.055336416
-0.20259507 -0.40266028 0.055328507
-0.20279276 -0.40272823 0.055325195
-0.20299718 -0.40280542 0.055273414
-0.20320021 -0.402879 0.055243544
-0.20335421 -0.40292224 0.055308495
-0.20358855 -0.40301099 0.055247337
-0.20376834 -0.40307581 0.055223349
-0.20398189 -0.4031485 0.055224568
-0.20417917 -0.40321928 0.055200502
-0.20436819 -0.40328658 0.055181094
-0.20455916 -0.40336102 0.055116694
-0.20473266 -0.40341738 0.055136569
-0.2049576 -0.40349761 0.055112354
-0.20517352 -0.40357611 0.055078961
-0.20536615 -0.4036428 0.055072218
-0.20556265 -0.40371117 0.055063143
-0.2057486 -0.40377095 0.055088721
-0.2059398 -0.40383899 0.055069298
-0.20607653 -0.40388227 0.055092819
-0.20630521 -0.40396231 0.055078965
-0.20652686 -0.4040454 0.055027097
-0.20672572 -0.40412501 0.054945361
-0.20691675 -0.40418288 0.054996278
-0.207112 -0.40425083 0.054987211
-0.20729822 -0.40431154 0.055007022
-0.20749919 -0.40438607 0.054965634
-0.20769876 -0.40446195 0.054911569
-0.20789674 -0.40453348 0.054884043
-0.20809472 -0.40460515 0.054855362
-0.20828381 -0.40466964 0.05485554
-0.20848143 -0.40474123 0.054826856
-0.20866761 -0.40479976 0.054861665
-0.20885122 -0.40486106 0.054871108
-0.20902994 -0.40493396 0.054788318
-0.2092413 -0.40500191 0.05481723
-0.20940867 -0.40506479 0.05477716
-0.20961279 -0.40513611 0.054765739
-0.20982175 -0.4052074 0.054765832
-0.21001199 -0.40527129 0.054772936
-0.2101998 -0.40533537 0.054773133
-0.2103935 -0.40540361 0.054758303
-0.21059385 -0.40548009 0.054701935
-0.21077929 -0.40555078 0.054650251
-0.21096633 -0.40561444 0.054651603
-0.21119133 -0.40570962 0.054523602
-0.21135722 -0.40578473 0.054394759
-0.21153322 -0.40581942 0.054571453
-0.21172212 -0.40588269 0.054579712
-0.2119371 -0.4059791 0.05441948
-0.21214044 -0.40603536 0.054510694
-0.21232422 -0.40609241 0.054550119
-0.21252425 -0.40617377 0.054459155
-0.21271199 -0.40623614 0.054470889
-0.21289414 -0.40629464 0.054496478
-0.21308993 -0.40636772 0.054452818
-0.21327992 -0.40643334 0.054447237
-0.21347964 -0.40651211 0.054373566
-0.2136586 -0.40656668 0.054418784
-0.21384676 -0.40663019 0.054423589
-0.21404082 -0.40670186 0.054385696
-0.21423131 -0.40676886 0.054372035
-0.21442191 -0.40683967 0.054331861
-0.21461116 -0.4069052 0.054325134
-0.21479546 -0.40696758 0.05432881
-0.21498665 -0.40703613 0.054305919
-0.21516344 -0.40708432 0.054390356
-0.21534802 -0.40716967 0.054234885
-0.2155299 -0.4072516 0.054096736
-0.2157456 -0.4073073 0.054221336
-0.21592984 -0.40736648 0.054246914
-0.2161231 -0.40743905 0.054200955
-0.21630712 -0.407502 0.054200016
-0.21649489 -0.4075667 0.054195605
-0.21668637 -0.40763715 0.054160036
-0.21687053 -0.40769666 0.054183312
-0.2170604 -0.40776905 0.05413045
-0.21724796 -0.40783402 0.054123729
-0.21743909 -0.40790468 0.054085851
-0.21762654 -0.4079698 0.054077975
-0.21780159 -0.40802801 0.054088622
-0.2179929 -0.40809527 0.054074958
-0.21818109 -0.40816194 0.054057859
-0.2183671 -0.40822524 0.054059215
-0.21852304 -0.40828767 0.053994995
-0.2187092 -0.40835151 0.05399289
-0.21891229 -0.40842131 0.053989552
-0.21910955 -0.40849507 0.053944726
-0.21926872 -0.40854087 0.054003879
-0.21948947 -0.40862283 0.053957786
-0.21966676 -0.4086813 0.053971872
-0.21985935 -0.40875247 0.053933989
-0.22004737 -0.4088206 0.0539065
-0.2202314 -0.4088867 0.053883657
-0.22038843 -0.40892863 0.053964734
-0.22059806 -0.40901175 0.053884096
-0.220777 -0.40907907 0.053840514
-0.22096685 -0.40914649 0.053822245
-0.22113943 -0.40920222 0.053844437
-0.22130916 -0.40926307 0.053823963
-0.22148435 -0.40933475 0.053741198
-0.22168162 -0.40940669 0.053709056
-0.22187363 -0.40946838 0.053735755
-0.22207893 -0.40953445 0.053763539
-0.22223547 -0.40958071 0.05381348
-0.22243525 -0.40965268 0.053787094
-0.2226294 -0.40972486 0.053745743
-0.22280246 -0.40978241 0.053756393
-0.22296101 -0.40984508 0.053696774
-0.22314674 -0.40991822 0.053628944
-0.2233445 -0.40998718 0.053618707
-0.22354433 -0.41006097 0.053579636
-0.2237085 -0.41011846 0.053569574
-0.22388954 -0.41016909 0.053647064
-0.22410387 -0.41025087 0.053587165
-0.22425582 -0.41030002 0.053605989
-0.22443657 -0.41037044 0.05354511
-0.22462477 -0.41043845 0.053518776
-0.22483206 -0.41050422 0.053553473
-0.2250191 -0.41056967 0.053542137
-0.22520393 -0.4106372 0.05351121
-0.22538787 -0.41070259 0.053492974
-0.22556886 -0.41076812 0.053466685
-0.2257496 -0.41083324 0.053442705
-0.22593692 -0.4109008 0.053417534
-0.22612134 -0.41096869 0.053383149
-0.22630224 -0.41102675 0.053408746
-0.22648354 -0.41108593 0.053427428
-0.22666314 -0.41115779 0.053353861
-0.22684732 -0.41121712 0.053378299
-0.22702122 -0.41128126 0.053345118
-0.2272134 -0.41134748 0.053340685
-0.22739266 -0.41141045 0.053328242
-0.22757712 -0.41148114 0.053274252
-0.22775954 -0.41154537 0.053260639
-0.22793825 -0.4116073 0.053253956
-0.2281225 -0.41166782 0.053270318
-0.22830549 -0.41173488 0.05323825
-0.22848788 -0.41181168 0.053136997
-0.22866862 -0.41187102 0.053153373
-0.22882576 -0.41192046 0.05318255
-0.22901845 -0.4119918 0.053143516
-0.2291941 -0.4120557 0.053116102
-0.22935168 -0.41210729 0.053131439
-0.22953546 -0.41216713 0.053151261
-0.22972399 -0.41222036 0.053228721
-0.22991127 -0.41228193 0.05324506
-0.23011442 -0.41236201 0.053170223
-0.23028339 -0.41242543 0.053130157
-0.23046821 -0.41249162 0.053108457
-0.23065548 -0.4125545 0.053115577
-0.23083386 -0.41262016 0.053082369
-0.23098533 -0.41267362 0.053070065
-0.231186 -0.41274372 0.053058673
-0.23134822 -0.41280782 0.05299788
-0.23154615 -0.41288266 0.052947279
-0.231719 -0.41293347 0.053004056
-0.23190959 -0.41300064 0.052989256
-0.23207733 -0.41306201 0.052960724
-0.23227449 -0.41313323 0.052933194
-0.23244476 -0.41318932 0.052947316
-0.2326324 -0.41326308 0.052879475
-0.23280968 -0.41332904 0.052841667
-0.23298943 -0.41338554 0.052875347
-0.23314972 -0.41343737 0.052895285
-0.23334329 -0.41351137 0.052840102
-0.23350045 -0.4135671 0.05282547
-0.23368715 -0.41363791 0.052776076
-0.23384716 -0.41368219 0.052847914
-0.2340436 -0.41376248 0.052755818
-0.23422664 -0.41382641 0.052745651
-0.23440968 -0.41388103 0.052800078
-0.23457299 -0.41394618 0.052734673
-0.23476252 -0.41400802 0.052754454
-0.23494864 -0.41407466 0.052732758
-0.23511842 -0.41413304 0.052729577
-0.23530741 -0.41420564 0.052673265
-0.23546737 -0.41425952 0.052678213
-0.23565368 -0.41431826 0.052711859
-0.23584612 -0.41438574 0.052699346
-0.23601526 -0.41444972 0.052655824
-0.23620099 -0.41451505 0.052642185
-0.23635621 -0.41458106 0.052551445
-0.23650524 -0.41463998 0.052495338
-0.23668094 -0.4147014 0.05248522
-0.2368618 -0.41474918 0.052582312
-0.23704253 -0.41479939 0.052662123
-0.23721382 -0.41486824 0.052589748
-0.23739882 -0.41493598 0.05255767
-0.23761879 -0.41502032 0.052493121
-0.23778042 -0.41508207 0.052447326
-0.23792237 -0.41513741 0.052399322
-0.23809233 -0.41519091 0.052430741
-0.23828839 -0.41525331 0.052462038
-0.23848048 -0.41531819 0.052466821
-0.2386532 -0.41537577 0.052476324
-0.23883359 -0.41544542 0.052420046
-0.23900001 -0.41549969 0.052437656
-0.23918849 -0.41556463 0.052433234
-0.23936012 -0.41561288 0.052505013
-0.23953247 -0.41568476 0.052414186
-0.23971397 -0.41573656 0.052484754
-0.23989002 -0.41579512 0.05249539
-0.24005903 -0.41585323 0.052492224
-0.24025488 -0.41592884 0.052431259
-0.24041742 -0.41599521 0.052355476
-0.24057898 -0.41604266 0.052408852
-0.24075387 -0.41609403 0.05246678
-0.24092659 -0.41617182 0.052335583
-0.24110802 -0.41623521 0.052325435
-0.24127409 -0.41629067 0.052333809
-0.2414494 -0.41635078 0.052331764
-0.24162707 -0.4164142 0.052312408
-0.24179426 -0.41647586 0.052280419
-0.24196576 -0.416536 0.052269176
-0.24213715 -0.41660473 0.052197956
-0.24231634 -0.41667232 0.052153222
-0.24248113 -0.41673827 0.052085496
-0.24266015 -0.41680565 0.052041911
-0.24284068 -0.41686192 0.052079044
-0.24301276 -0.41692773 0.052029736
-0.24319005 -0.41698307 0.052065738
-0.24336274 -0.41704014 0.052078698
-0.24354216 -0.41709188 0.052144669
-0.24370494 -0.41716728 0.052006606
-0.24387793 -0.41723755 0.051928464
-0.24404979 -0.4173094 0.051836491
-0.24422294 -0.41737193 0.051812537
-0.24439695 -0.41743293 0.051801272
-0.24456945 -0.41749641 0.051769257
-0.24476376 -0.41754365 0.051902041
-0.24493499 -0.41760305 0.051895402
-0.24508743 -0.41769129 0.051643226
-0.24526653 -0.4177562 0.051616944
-0.24543425 -0.417826 0.051529601
-0.24561703 -0.41788518 0.051551729
-0.24581634 -0.41794953 0.05157724
-0.24598975 -0.4180052 0.051601727
-0.2461631 -0.41806665 0.051585853
-0.24633054 -0.41811958 0.051614985
-0.24651729 -0.41819555 0.051529855
-0.24665557 -0.41826522 0.051373459
-0.24684459 -0.4183166 0.051464751
-0.24719226 -0.41844779 0.051377647
-0.24773376 -0.4185811 0.051735844
-0.24789728 -0.41863951 0.051717713
-0.24807218 -0.41870412 0.051683374
-0.24823813 -0.41882089 0.051265068
-0.24844454 -0.4188363 0.051648036
-0.24862377 -0.4189052 0.051594075
-0.24875891 -0.41897529 0.051427331
-0.24895562 -0.41902998 0.051513966
-0.2491142 -0.41910195 0.051389772
-0.24927597 -0.41916159 0.051358961
-0.24948066 -0.41920009 0.051577024
-0.24966854 -0.41924298 0.051724829
-0.24984564 -0.41928828 0.05183002
-0.25001869 -0.41935876 0.051750727
-0.25018084 -0.4194268 0.051662251
-0.25035012 -0.41948801 0.051638331
-0.25051954 -0.41955307 0.05158788
-0.2507017 -0.4196147 0.051591564
-0.25086582 -0.41969222 0.051441967
-0.25102547 -0.41975361 0.05139387
-0.2511985 -0.41981509 0.051376849
-0.25137109 -0.41987696 0.05135636
-0.25155029 -0.41993707 0.05136352
-0.25171259 -0.42000735 0.051260058
-0.25189894 -0.42006162 0.051324844
-0.25210115 -0.42010725 0.051487569
-0.25227082 -0.42017156 0.051442884
-0.25244591 -0.42023161 0.051440835
-0.25262782 -0.42029366 0.051441066
-0.25279537 -0.42034882 0.0514552
-0.25296882 -0.42041725 0.05139089
-0.25314152 -0.42048261 0.051346187
-0.25332561 -0.42054656 0.051338326
-0.25349364 -0.42060834 0.051307496
-0.25365913 -0.42066163 0.051329717
-0.25384197 -0.42072317 0.0513357
-0.25401357 -0.42079246 0.051261023
-0.25418797 -0.42085311 0.051253211
-0.25435781 -0.42091683 0.051213142
-0.25452757 -0.42097405 0.05121804
-0.25470182 -0.42104125 0.051164106
-0.25486878 -0.42110351 0.051127508
-0.25504625 -0.42116851 0.051096618
-0.25522617 -0.42122573 0.051125687
-0.25539318 -0.42129096 0.051068328
-0.25555831 -0.42136037 0.050977536
-0.25571489 -0.42142552 0.050896019
-0.25591254 -0.42147836 0.050997645
-0.25609931 -0.42152882 0.051090103
-0.25629002 -0.42158923 0.051122576
-0.25645834 -0.42165658 0.05105368
-0.25663817 -0.42172322 0.051017012
-0.25682238 -0.42178738 0.051008001
-0.25699192 -0.42185381 0.050948329
-0.25717464 -0.42191017 0.05099006
-0.25734356 -0.42197689 0.050926931
-0.25750813 -0.42203733 0.050897256
-0.25767481 -0.42209101 0.050919477
-0.25786328 -0.42214751 0.050973874
-0.25805482 -0.4222165 0.050948679
-0.25821546 -0.42228171 0.050876357
-0.2584081 -0.42235008 0.050858088
-0.25857079 -0.4224087 0.050836496
-0.25873655 -0.42246854 0.050813735
-0.25889969 -0.42252699 0.050794452
-0.25907362 -0.42259094 0.05076243
-0.25925228 -0.42264742 0.050793815
-0.25944331 -0.42270878 0.050820522
-0.25962359 -0.42277771 0.050768863
-0.25978723 -0.42283601 0.05075188
-0.25995412 -0.42290056 0.050699137
-0.26012033 -0.42296535 0.05064293
-0.26031277 -0.42301872 0.050728451
-0.2604813 -0.42307752 0.050719518
-0.2606743 -0.42314851 0.050683942
-0.26082626 -0.42320925 0.050622039
-0.26101139 -0.42327109 0.050631478
-0.26119721 -0.42333761 0.050609771
-0.2613709 -0.42339686 0.050610043
-0.26154128 -0.42345744 0.050593033
-0.26172873 -0.42351857 0.050612837
-0.2618925 -0.42358419 0.050545119
-0.2620666 -0.42364338 0.050546534
-0.26225054 -0.42370367 0.050564047
-0.2624329 -0.42377397 0.050507769
-0.26258776 -0.4238334 0.050462
-0.26278761 -0.42389494 0.050508261
-0.26296285 -0.42396319 0.05044971
-0.2631377 -0.42402464 0.050437286
-0.26331785 -0.42408425 0.05045021
-0.26347935 -0.42414364 0.05042056
-0.26365227 -0.4242036 0.050413907
-0.26383191 -0.42426354 0.050423373
-0.26400763 -0.42432714 0.05039826
-0.2641775 -0.4243882 0.050376635
-0.26436171 -0.4244512 0.0503757
-0.26453391 -0.42451158 0.050364442
-0.26472527 -0.42457023 0.050410748
-0.2648989 -0.42463243 0.050390266
-0.26507634 -0.42470422 0.050312098
-0.26522037 -0.42476907 0.050202958
-0.26539969 -0.42482311 0.050252788
-0.2655924 -0.42489016 0.050243732
-0.26578519 -0.42495725 0.050234679
-0.26594809 -0.42501429 0.050224625
-0.26612288 -0.4250721 0.050237574
-0.26631695 -0.42513895 0.050233122
-0.26646191 -0.42520526 0.050115913
-0.26662618 -0.42527223 0.050040111
-0.26678041 -0.42532763 0.050020877
-0.26701471 -0.42537147 0.050272234
-0.26716462 -0.42544842 0.050092727
-0.26736569 -0.42550361 0.050186262
-0.26755846 -0.42557713 0.050132237
-0.26770556 -0.42564255 0.050026543
-0.26786202 -0.42569953 0.050001528
-0.2680594 -0.4257541 0.050090473
-0.26824778 -0.42581305 0.050127566
-0.26843354 -0.42588058 0.050098944
-0.26859242 -0.42594683 0.050015114
-0.26879269 -0.42601085 0.050045229
-0.26896456 -0.42607594 0.05000053
-0.26913047 -0.42614427 0.049918953
-0.26926506 -0.42620456 0.049819101
-0.26948112 -0.4262614 0.049936771
-0.26966333 -0.42632604 0.049919702
-0.26986024 -0.42639121 0.049933691
-0.27002612 -0.42645392 0.04989133
-0.27019829 -0.4265171 0.04986047
-0.27041709 -0.4265815 0.04993201
-0.27060345 -0.42665103 0.049890697
-0.27075309 -0.42671347 0.04981152
-0.27091813 -0.42677093 0.049803756
-0.27112633 -0.4268451 0.049781937
-0.27129039 -0.42689741 0.04980763
-0.27146411 -0.42696047 0.049781375
-0.27163565 -0.42701679 0.049796641
-0.27181783 -0.42708009 0.049788799
-0.27201161 -0.42714837 0.049773972
-0.27217332 -0.42720848 0.049739704
-0.27236709 -0.42726979 0.049773309
-0.2725651 -0.42733568 0.049784996
-0.27273133 -0.42740032 0.049729936
-0.27289674 -0.42746681 0.049659908
-0.2730777 -0.42752889 0.049657833
-0.27324793 -0.42759109 0.04962929
-0.27341932 -0.42764968 0.049628422
-0.27358925 -0.42771029 0.049610253
-0.27378738 -0.42777821 0.049608089
-0.2739667 -0.4278374 0.049622167
-0.27414593 -0.42790002 0.04961203
-0.27430722 -0.42796215 0.049562767
-0.27450368 -0.42802551 0.049588297
-0.27468288 -0.42809162 0.049553938
-0.27487189 -0.42815459 0.049564507
-0.27506474 -0.42822537 0.049530089
-0.27520877 -0.42829335 0.049399037
-0.27540424 -0.4283506 0.049464926
-0.27560115 -0.42841592 0.049477763
-0.27578017 -0.42847732 0.0494757
-0.27594692 -0.42853883 0.049443711
-0.27613586 -0.42859897 0.049473885
-0.27628815 -0.42866731 0.049360096
-0.2764807 -0.4287335 0.049356811
-0.27667767 -0.42879438 0.04940078
-0.27684426 -0.42885286 0.049389549
-0.27704149 -0.4289155 0.049421992
-0.27722159 -0.4289819 0.049387626
-0.27741125 -0.42904562 0.049394734
-0.27756479 -0.42910424 0.04935129
-0.27773058 -0.4291724 0.049270872
-0.27794322 -0.42923981 0.049306694
-0.27813005 -0.42930403 0.049303439
-0.2783103 -0.42936751 0.04928983
-0.27847502 -0.42942962 0.049248625
-0.27865431 -0.42949328 0.049231574
-0.27884519 -0.42955574 0.049250208
-0.27904621 -0.42962334 0.049257249
-0.27921185 -0.42968395 0.049228735
-0.27938536 -0.42975441 0.049150579
-0.27957261 -0.42981595 0.049166925
-0.27972886 -0.42987305 0.049140763
-0.27993661 -0.42994326 0.049145468
-0.28012851 -0.43000758 0.049153712
-0.28029913 -0.43007088 0.049118247
-0.28046983 -0.43013275 0.049093172
-0.28065979 -0.43019739 0.049094506
-0.28082982 -0.43026084 0.049056735
-0.28103712 -0.4303256 0.049098343
-0.2812255 -0.43039203 0.049083553
-0.28137377 -0.43045151 0.04902168
-0.28157768 -0.43051678 0.049051777
-0.2817533 -0.43058431 0.048998982
-0.28195363 -0.43065 0.049017571
-0.28211862 -0.43071404 0.048963681
-0.28229016 -0.43077618 0.048938587
-0.28245959 -0.43083993 0.048897363
-0.28263754 -0.43090311 0.048880316
-0.28285161 -0.43097103 0.048916128
-0.28303617 -0.43103811 0.048887514
-0.28320858 -0.43109757 0.04888317
-0.28338599 -0.43116239 0.048853438
-0.28358054 -0.43122479 0.048881274
-0.28376126 -0.43129092 0.048850369
-0.28392294 -0.43135118 0.048814949
-0.28413865 -0.43141815 0.048861131
-0.2843194 -0.43148577 0.048819847
-0.28451011 -0.43155149 0.048815422
-0.28466526 -0.431615 0.048741978
-0.28488889 -0.43168601 0.048778892
-0.28508756 -0.43175015 0.04880441
-0.28526357 -0.43182907 0.048673194
-0.28546518 -0.43188775 0.048743673
-0.28561944 -0.43194729 0.048695605
-0.28580755 -0.4320108 0.048700411
-0.28599015 -0.43207324 0.048699483
-0.2861568 -0.43213505 0.048665188
-0.28635582 -0.43219963 0.048688393
-0.2865307 -0.43227056 0.04861024
-0.28672919 -0.43233395 0.048640367
-0.2869125 -0.43240196 0.048602529
-0.28708932 -0.4324649 0.048584327
-0.28727466 -0.43252763 0.048587997
-0.28743389 -0.4325912 0.048523758
-0.28763449 -0.43265882 0.048529658
-0.28783944 -0.43272376 0.04856436
-0.28799602 -0.43279141 0.048465546
-0.28820145 -0.43285388 0.048518699
-0.28838378 -0.43292221 0.048476249
-0.28857055 -0.43298659 0.048471842
-0.28874505 -0.43305254 0.048427131
-0.19060667 -0.39838544 0.056605808
-0.19081447 -0.39845783 0.056595508
-0.19103947 -0.39854455 0.0565263
-0.19126409 -0.39863116 0.056457091
-0.19145244 -0.39868778 0.056510329
-0.1916593 -0.39875987 0.056500036
-0.19185252 -0.39882064 0.056535956
-0.19207102 -0.39890265 0.056484073
-0.19230045 -0.39899406 0.056392927
-0.19249676 -0.39905772 0.056416135
-0.19269656 -0.39912438 0.056426641
-0.19292612 -0.39921451 0.056344721
-0.19314307 -0.39929602 0.056292847
-0.19332567 -0.39934835 0.056362271
-0.19354728 -0.39943409 0.056291919
-0.19373068 -0.3994872 0.056357879
-0.19394217 -0.3995645 0.056322187
-0.19414885 -0.39963585 0.056316502
-0.1943554 -0.39970914 0.056296989
-0.19455229 -0.39977416 0.056312118
-0.19475842 -0.39984733 0.056292608
-0.19497305 -0.399928 0.056240745
-0.19517404 -0.39999691 0.056238558
-0.19537643 -0.40006515 0.05624444
-0.19558749 -0.40014312 0.056202985
-0.19579187 -0.40021536 0.056185782
-0.19601423 -0.40030366 0.056099281
-0.19619395 -0.40035421 0.056174479
-0.19640222 -0.40043023 0.056139965
-0.19661829 -0.40051341 0.056074258
-0.19681115 -0.40057588 0.056097485
-0.19701675 -0.40064785 0.056084894
-0.19721787 -0.40071797 0.056074627
-0.19742259 -0.40079147 0.056049347
-0.19762652 -0.40086436 0.056026384
-0.19782588 -0.40093321 0.056020744
-0.19801587 -0.40099356 0.056052059
-0.19823517 -0.40107882 0.055979423
-0.19844306 -0.40115589 0.055936828
-0.19865322 -0.40123525 0.05588384
-0.19883919 -0.4012922 0.055929013
-0.19904497 -0.40136772 0.055892203
-0.19924577 -0.40143871 0.055875018
-0.1994489 -0.40150985 0.055862442
-0.19964765 -0.40157914 0.05585219
-0.19985551 -0.40165722 0.055802669
-0.20004949 -0.40172222 0.055810906
-0.20024471 -0.4017885 0.055813357
-0.20045617 -0.40187043 0.055745363
-0.20065299 -0.40194073 0.055723593
-0.20084347 -0.40199825 0.055775672
-0.20105502 -0.40208304 0.055688076
-0.20124194 -0.40213951 0.055739015
-0.20143515 -0.40220442 0.055746093
-0.20162457 -0.40226573 0.055769343
-0.20183533 -0.40234578 0.055712894
-0.20198154 -0.40239015 0.05575135
-0.20221561 -0.4024725 0.055734001
-0.20242243 -0.40257028 0.055544928
-0.20263079 -0.40262976 0.055625748
-0.20282666 -0.40269807 0.055615507
-0.20302832 -0.40277234 0.055577569
-0.20321962 -0.40283629 0.055586956
-0.20341635 -0.40290341 0.055587098
-0.20361423 -0.40297422 0.055564161
-0.2038049 -0.40303779 0.055574723
-0.20401399 -0.4031204 0.055496354
-0.20421126 -0.40319103 0.055473432
-0.20441 -0.4032633 0.055442415
-0.20461917 -0.40334412 0.055376746
-0.20480686 -0.40340516 0.055397697
-0.20500101 -0.40347305 0.055386316
-0.2052103 -0.40355706 0.055298731
-0.20537509 -0.4036043 0.055361316
-0.20558091 -0.40367469 0.055360254
-0.20577434 -0.40373969 0.055367343
-0.20597042 -0.40381023 0.055342104
-0.2061643 -0.40387854 0.055327266
-0.20635624 -0.40394485 0.055321664
-0.20654164 -0.40401205 0.055294186
-0.20673224 -0.40406913 0.055349711
-0.20694517 -0.40415886 0.055230968
-0.20713797 -0.40422663 0.055217285
-0.20730972 -0.40427923 0.055259082
-0.20751712 -0.40435532 0.055222251
-0.20771618 -0.40442771 0.055191241
-0.20790297 -0.4044919 0.055187978
-0.20804624 -0.40452915 0.055269126
-0.20829064 -0.40463114 0.055139836
-0.20847164 -0.40468904 0.055166587
-0.20861511 -0.40472934 0.055226985
-0.20881817 -0.4048157 0.055108294
-0.20905651 -0.40490317 0.055065535
-0.20919882 -0.40494803 0.055091325
-0.20936504 -0.40499479 0.055160832
-0.20958093 -0.40507376 0.05512397
-0.20977491 -0.40515053 0.055050299
-0.20999998 -0.405229 0.055038761
-0.21018103 -0.40529972 0.054976694
-0.21035112 -0.40534529 0.055063486
-0.21052371 -0.40540597 0.055051051
-0.21076483 -0.40550765 0.054916024
-0.21097429 -0.40558013 0.05490917
-0.21113917 -0.40563485 0.054919854
-0.21131623 -0.40569541 0.054918945
-0.21147972 -0.40573278 0.055047289
-0.21171136 -0.40583983 0.054852322
-0.2119177 -0.40591222 0.054838572
-0.21208504 -0.40596086 0.054897685
-0.21225466 -0.40602863 0.054828756
-0.21248621 -0.40611431 0.054782577
-0.2126738 -0.40617946 0.054774698
-0.21286161 -0.40624499 0.054764498
-0.21304843 -0.4063094 0.054760072
-0.21323213 -0.40636975 0.054776438
-0.21341175 -0.4064247 0.054820493
