# .PCD v0.7 - Point Cloud Data file format
VERSION 0.7
FIELDS x y z
SIZE 4 4 4
TYPE F F F
COUNT 1 1 1
WIDTH 1307
HEIGHT 1
VIEWPOINT 0 0 0 1 0 0 0
POINTS 1307
DATA ascii
-0.34867448 -0.25341371 0.057702389
-0.34886378 -0.25339121 0.057694644
-0.3490622 -0.25337783 0.057609558
-0.34926116 -0.25335795 0.057572927
-0.34945756 -0.25332892 0.057607826
-0.34963447 -0.25331223 0.057567827
-0.34982106 -0.25329235 0.057542779
-0.35002178 -0.25326249 0.057579961
-0.35022852 -0.25324133 0.057545602
-0.35042122 -0.25321889 0.057534378
-0.35061416 -0.25319076 0.057565823
-0.35082105 -0.2531696 0.057531465
-0.35100609 -0.25315127 0.057496045
-0.35119718 -0.25313848 0.05741331
-0.35139677 -0.25310752 0.057459723
-0.35157287 -0.25308895 0.057434727
-0.35177463 -0.2530643 0.05743153
-0.35196865 -0.25304106 0.05742491
-0.35217315 -0.25301686 0.057415932
-0.35236624 -0.25299188 0.057423156
-0.3525365 -0.25298351 0.057326674
-0.35275316 -0.2529442 0.057420302
-0.35295945 -0.25292128 0.057399787
-0.35313559 -0.25291047 0.057315968
-0.35332894 -0.25288808 0.057303581
-0.35351792 -0.25286928 0.057268143
-0.35373342 -0.25283164 0.057350244
-0.35392752 -0.25280887 0.057340156
-0.35410371 -0.25280035 0.057239037
-0.35430813 -0.25277185 0.057262361
-0.35449719 -0.25274831 0.057262681
-0.3546848 -0.25273076 0.05721917
-0.3548677 -0.2527121 0.057188384
-0.35506389 -0.25269029 0.057169065
-0.35526454 -0.25266972 0.057135884
-0.35547903 -0.25263634 0.057186849
-0.35567307 -0.25261632 0.057156
-0.3558419 -0.25260609 0.057074513
-0.35603595 -0.25257921 0.057095576
-0.35627303 -0.25253615 0.057198346
-0.35645321 -0.25253111 0.057067208
-0.35664502 -0.25251058 0.057042152
-0.35685077 -0.25248209 0.057064306
-0.35704786 -0.25245115 0.057113044
-0.35721555 -0.25244612 0.056993496
-0.35740691 -0.25242826 0.056948826
-0.35763645 -0.25239164 0.057010103
-0.35781884 -0.25237593 0.056957394
-0.35799295 -0.25235319 0.056965858
-0.35820246 -0.25232252 0.057000689
-0.35840145 -0.25230587 0.056939833
-0.35859415 -0.25228506 0.05691592
-0.35880089 -0.25225875 0.056920771
-0.35899925 -0.25223833 0.056888763
-0.3591823 -0.25221598 0.056885645
-0.35936135 -0.25220269 0.05681796
-0.35959038 -0.25216749 0.056868859
-0.35974866 -0.25216839 0.056713603
-0.35993397 -0.25214669 0.056703553
-0.36015835 -0.25210473 0.056809835
-0.36035085 -0.25208443 0.056782462
-0.36054307 -0.25206232 0.056768931
-0.36072934 -0.25205424 0.056655075
-0.36095193 -0.25201404 0.056749824
-0.36114669 -0.25199637 0.05670052
-0.36135575 -0.25197127 0.056693841
-0.36154991 -0.25194621 0.05670106
-0.36172441 -0.25192812 0.056673761
-0.36192343 -0.2519078 0.056640588
-0.36210942 -0.25188813 0.056614395
-0.36232299 -0.25186232 0.056608833
-0.36251044 -0.25183991 0.056602247
-0.36271092 -0.25181496 0.056602515
-0.36291638 -0.25179261 0.056578543
-0.36310339 -0.25177252 0.056554656
-0.36328512 -0.25175202 0.056538865
-0.36351764 -0.25172219 0.056545906
-0.36368179 -0.25171089 0.056477129
-0.36388662 -0.25168359 0.056491233
-0.36409509 -0.25165963 0.056476466
-0.36426577 -0.25164798 0.056404203
-0.36443362 -0.25163621 0.056335412
-0.36463699 -0.25161001 0.056342591
-0.36485976 -0.25157207 0.056420051
-0.36505902 -0.25155216 0.056383416
-0.36526093 -0.25152886 0.056369837
-0.36545646 -0.25150588 0.056359753
-0.36566064 -0.25147957 0.056366924
-0.36585966 -0.25145465 0.056368351
-0.36604714 -0.25144017 0.05630178
-0.36623293 -0.25142664 0.05622945
-0.36640921 -0.25140652 0.05621599
-0.36665419 -0.25136524 0.056297958
-0.36686501 -0.25134236 0.056272808
-0.36705369 -0.25132206 0.056248903
-0.36724547 -0.25130689 0.056183472
-0.36742568 -0.25128645 0.056168836
-0.36763495 -0.25125781 0.056188677
-0.3678394 -0.25123543 0.056165859
-0.36805212 -0.25120667 0.056183383
-0.36825857 -0.25118664 0.056140944
-0.36843795 -0.25117025 0.05609633
-0.36863589 -0.25115004 0.056063164
-0.36884138 -0.25112066 0.05609224
-0.36903951 -0.25110209 0.056046393
-0.36924613 -0.25107059 0.056090467
-0.36945108 -0.25104997 0.056053802
-0.3696602 -0.2510238 0.056055196
-0.36986345 -0.25100094 0.056037001
-0.37005544 -0.25097948 0.056018852
-0.37025243 -0.25096017 0.055979915
-0.37043446 -0.25094101 0.055953741
-0.37064049 -0.25091842 0.055930916
-0.37086153 -0.25089094 0.055931099
-0.37104043 -0.25087994 0.05584611
-0.37123945 -0.25085333 0.055860229
-0.37144753 -0.25082195 0.055901993
-0.3716515 -0.25079918 0.05588264
-0.37185523 -0.25077656 0.055862132
-0.37203038 -0.25076452 0.0557887
-0.37224558 -0.25073743 0.05579121
-0.37245971 -0.25070637 0.055824868
-0.3726564 -0.25068924 0.055769794
-0.37282747 -0.25067934 0.055683691
-0.37305591 -0.25064105 0.055758804
-0.37331355 -0.25059223 0.055885702
-0.37345019 -0.25060037 0.055695944
-0.37365156 -0.2505779 0.055676602
-0.3738752 -0.25054398 0.055722903
-0.37406397 -0.25052962 0.055654027
-0.37429047 -0.25049445 0.055707239
-0.37449926 -0.25046694 0.055719011
-0.37468073 -0.25045639 0.055628236
-0.37492508 -0.25041243 0.055730976
-0.37506089 -0.25042358 0.05551929
-0.3752948 -0.25038654 0.055579402
-0.37551484 -0.2503581 0.055587657
-0.37571347 -0.25034192 0.055523347
-0.37589881 -0.25032222 0.055498306
-0.26816979 -0.26256737 0.064130746
-0.26840472 -0.26254198 0.064102024
-0.26861545 -0.26250964 0.064148396
-0.2688649 -0.2624878 0.06407924
-0.26909 -0.26246041 0.064074799
-0.26929912 -0.26243976 0.064034656
-0.26952884 -0.2624017 0.064106323
-0.26976725 -0.26237771 0.06406375
-0.27000242 -0.26235306 0.064029269
-0.27024859 -0.26233116 0.063963585
-0.27046967 -0.26230183 0.063977607
-0.2707077 -0.2622782 0.063932724
-0.27094042 -0.26225337 0.063901715
-0.2711823 -0.26223093 0.063844122
-0.27141687 -0.26220527 0.063817717
-0.27163517 -0.2621772 0.063824832
-0.27184641 -0.26214743 0.063851595
-0.27208304 -0.26212409 0.063805565
-0.27231577 -0.26209837 0.06378147
-0.27256027 -0.26207727 0.063711181
-0.27279678 -0.26205277 0.063674383
-0.27301657 -0.26202556 0.063673414
-0.27322149 -0.26199457 0.06371519
-0.27346271 -0.26197314 0.063650697
-0.27367061 -0.26194146 0.063694775
-0.27389672 -0.26191625 0.063673012
-0.27411753 -0.2618897 0.063666284
-0.27436867 -0.26187298 0.063556731
-0.27458966 -0.26184353 0.063571915
-0.27480316 -0.26181528 0.063584819
-0.275029 -0.26178887 0.063572288
-0.27527124 -0.26176867 0.063497409
-0.27548301 -0.26174021 0.063513771
-0.27570224 -0.26171383 0.06350705
-0.27592868 -0.26168796 0.063489899
-0.2761381 -0.26165903 0.06351205
-0.27638245 -0.2616384 0.063438304
-0.27657735 -0.26160544 0.063504361
-0.27681369 -0.26158279 0.063453712
-0.27705312 -0.26156279 0.063379996
-0.27725059 -0.26152906 0.063449487
-0.27749419 -0.26151052 0.063360751
-0.27770203 -0.26147991 0.063396752
-0.27791271 -0.26145187 0.063410826
-0.27814528 -0.26142877 0.063367121
-0.27838469 -0.26140952 0.063287631
-0.27859193 -0.2613807 0.063310936
-0.27882358 -0.26135936 0.06325455
-0.27902669 -0.26132768 0.063303262
-0.2792328 -0.26129869 0.063328892
-0.27948245 -0.26128155 0.063223973
-0.27969033 -0.26125324 0.063242674
-0.27985126 -0.26122233 0.063325033
-0.28015396 -0.26121023 0.063132197
-0.28037074 -0.26118326 0.063132405
-0.2805776 -0.26115495 0.063152254
-0.28102329 -0.2611053 0.063108772
-0.28127015 -0.26108852 0.06300386
-0.28146446 -0.2610724 0.062943026
-0.28166822 -0.26102555 0.063105941
-0.2818982 -0.26100534 0.063042641
-0.28210002 -0.26097396 0.063090205
-0.28228602 -0.26093903 0.063179366
-0.28255373 -0.26093021 0.062994771
-0.28276369 -0.26090363 0.062998466
-0.28298813 -0.26088029 0.062964022
-0.28321001 -0.26085803 0.062923826
-0.28343266 -0.26083431 0.062894017
-0.28366622 -0.26081643 0.062809929
-0.28387368 -0.26078755 0.06283325
-0.28408551 -0.26076028 0.062840387
-0.28429845 -0.26073349 0.062842906
-0.28451112 -0.26070854 0.062831596
-0.28472221 -0.26068121 0.062839903
-0.28494015 -0.26065838 0.062807791
-0.28514633 -0.26062939 0.062833428
-0.28530848 -0.260609 0.062835015
-0.28559148 -0.26058576 0.062744953
-0.28581917 -0.26056707 0.062672421
-0.28603196 -0.2605409 0.062670335
-0.28626782 -0.26052561 0.062564328
-0.28647238 -0.2604965 0.062592275
-0.28667307 -0.26046786 0.062620223
-0.28688553 -0.26044187 0.062616989
-0.28710255 -0.26041779 0.062595271
-0.28730735 -0.26038894 0.062620901
-0.28751642 -0.26036385 0.062614225
-0.2877312 -0.26033911 0.062599435
-0.2879549 -0.26032016 0.062532701
-0.28815839 -0.26029101 0.062561795
-0.28837961 -0.26027128 0.062503144
-0.28859901 -0.26024887 0.06246642
-0.28879943 -0.26022074 0.062490921
-0.28901535 -0.26019707 0.062466897
-0.28922534 -0.26017308 0.062450983
-0.28943646 -0.26014757 0.062445447
-0.28963816 -0.26012018 0.062463012
-0.28986025 -0.26009959 0.062410131
-0.29006848 -0.26007947 0.062366538
-0.29029816 -0.26005825 0.062311307
-0.29051328 -0.26003498 0.06228498
-0.29070526 -0.26000148 0.062357962
-0.29091313 -0.25997728 0.06234552
-0.29115418 -0.25996611 0.06220372
-0.29134116 -0.25993261 0.062281344
-0.29154187 -0.25990319 0.062315073
-0.29175642 -0.25988245 0.062270299
-0.29197475 -0.25986141 0.062224343
-0.29218447 -0.25983867 0.062199198
-0.29239982 -0.25981647 0.062164802
-0.2926147 -0.25979644 0.062114254
-0.29281178 -0.25976565 0.06216184
-0.29300985 -0.25973764 0.062187504
-0.29324239 -0.25972429 0.062069975
-0.2934424 -0.25969744 0.062085249
-0.29364634 -0.25967023 0.062099338
-0.29385594 -0.25964826 0.062068429
-0.29406789 -0.25962526 0.062043272
-0.29427296 -0.25959882 0.062050454
-0.29449344 -0.2595804 0.061982572
-0.29468688 -0.25955051 0.062026717
-0.29490203 -0.25953689 0.061927713
-0.29510844 -0.25950661 0.061962567
-0.29530072 -0.25948361 0.061955959
-0.29546815 -0.25944975 0.062054433
-0.29566285 -0.25942811 0.062035121
-0.29586715 -0.25941432 0.061947703
-0.29614031 -0.2593857 0.061907284
-0.29634187 -0.25936061 0.061907548
-0.29655051 -0.25934213 0.061851259
-0.29676121 -0.25931731 0.061841112
-0.29696307 -0.25929004 0.061857529
-0.2971831 -0.25927594 0.061757356
-0.29738286 -0.25925294 0.061743788
-0.29759189 -0.25922751 0.061739407
-0.29778966 -0.25919819 0.061775453
-0.29799917 -0.25917852 0.061727241
-0.29820418 -0.25915363 0.061722882
-0.29843229 -0.25914556 0.061569598
-0.29861972 -0.25911018 0.061661061
-0.29881486 -0.25908223 0.061689049
-0.2990323 -0.25906539 0.061611958
-0.29923621 -0.25904307 0.061589144
-0.29940689 -0.25901663 0.061628774
-0.2996369 -0.25899139 0.061603535
-0.29982898 -0.25896168 0.061647683
-0.30001912 -0.25896227 0.061464578
-0.30024126 -0.25892365 0.06154782
-0.30042538 -0.25889751 0.061572388
-0.30065984 -0.25888759 0.061427157
-0.30086192 -0.25885314 0.061497793
-0.30106068 -0.25882825 0.061499231
-0.30123743 -0.25880623 0.061499611
-0.30145758 -0.25877517 0.061527479
-0.30167252 -0.25875881 0.061449245
-0.30187511 -0.25873697 0.061424136
-0.30207959 -0.25871351 0.061409395
-0.30228189 -0.2586917 0.061384276
-0.30248168 -0.258665 0.061398402
-0.30268782 -0.25864622 0.061346732
-0.30289096 -0.25862217 0.061337769
-0.30311349 -0.25861615 0.061174136
-0.30330727 -0.25858533 0.061225198
-0.30350375 -0.25855979 0.061233558
-0.30370149 -0.25853199 0.06125807
-0.30389792 -0.25850648 0.061266441
-0.30410835 -0.25848883 0.061202075
-0.30430964 -0.25846747 0.06117465
-0.304506 -0.25843874 0.06120725
-0.30470255 -0.25841016 0.061238676
-0.30490834 -0.25838926 0.061203174
-0.3050909 -0.25837722 0.061122775
-0.30531514 -0.25834751 0.06113679
-0.30551079 -0.25832194 0.061146311
-0.30571479 -0.25830007 0.061120033
-0.30592483 -0.25828737 0.06101875
-0.30610502 -0.25827423 0.060948741
-0.30628809 -0.25824898 0.060967553
-0.30649647 -0.25821665 0.061016239
-0.30666095 -0.25820088 0.060980916
-0.30687624 -0.25817502 0.060974196
-0.30706108 -0.25813597 0.06109567
-0.30726862 -0.25811839 0.061033618
-0.30746698 -0.25810805 0.060925465
-0.30774266 -0.2580938 0.060774285
-0.30792663 -0.25805777 0.060873833
-0.30813366 -0.25804073 0.060808331
-0.30832872 -0.25801581 0.060813241
-0.30852816 -0.25799131 0.060811214
-0.30868647 -0.25796196 0.060884349
-0.30892038 -0.25794402 0.060800266
-0.30913326 -0.25792989 0.060707036
-0.30931395 -0.25789854 0.060774308
-0.30944219 -0.2578491 0.061027542
-0.30964401 -0.25784978 0.060832851
-0.30990079 -0.25784534 0.060625225
-0.31008703 -0.25780642 0.060744382
-0.310294 -0.25777748 0.060768858
-0.31049517 -0.25774634 0.060815264
-0.31070611 -0.25773168 0.06072782
-0.3108761 -0.25770137 0.060797445
-0.3110688 -0.25768423 0.060745843
-0.31125766 -0.25767249 0.060657345
-0.31147292 -0.25764433 0.060667925
-0.31168485 -0.25762728 0.060597785
-0.31188768 -0.2576037 0.060585361
-0.31210047 -0.25757784 0.060580965
-0.31229413 -0.25754732 0.060629718
-0.31246537 -0.25752372 0.060647428
-0.31268287 -0.2575101 0.060546104
-0.31284595 -0.25748059 0.060615763
-0.31306332 -0.257456 0.060597502
-0.31323966 -0.25745159 0.060465224
-0.31348369 -0.25742677 0.060423769
-0.31368318 -0.25739339 0.060488645
-0.31385767 -0.25736919 0.060507499
-0.31407782 -0.25734991 0.060446545
-0.31428024 -0.25733984 0.060332604
-0.31446871 -0.25731361 0.060353689
-0.31466416 -0.25729266 0.060328603
-0.31484053 -0.25726551 0.060368206
-0.31505704 -0.25724131 0.060347654
-0.31523374 -0.25722831 0.060279962
-0.31544003 -0.25719288 0.060354047
-0.31564024 -0.25717437 0.060305867
-0.31582582 -0.25714272 0.06037081
-0.31599626 -0.25712591 0.06033776
-0.31619 -0.25711018 0.060274616
-0.3164134 -0.25708574 0.060249411
-0.31660873 -0.25706616 0.060213946
-0.31681815 -0.2570447 0.060179576
-0.31701645 -0.25702399 0.060149863
-0.31718886 -0.25700465 0.060134102
-0.31737232 -0.25697631 0.060175985
-0.31758869 -0.25693658 0.060273089
-0.31780314 -0.25691891 0.060205236
-0.31799072 -0.25690958 0.060099434
-0.31820765 -0.25688031 0.06011695
-0.3184067 -0.25686303 0.060060695
-0.31860086 -0.25684312 0.060028695
-0.31878319 -0.25682163 0.060019817
-0.31895724 -0.25679782 0.060036361
-0.31918472 -0.25676709 0.06005498
-0.31935677 -0.25674841 0.06003461
-0.31950885 -0.25671372 0.060153916
-0.31971246 -0.25671327 0.059966139
-0.31996924 -0.25669464 0.059865806
-0.32016358 -0.25666493 0.059907638
-0.32035473 -0.25663671 0.059941404
-0.32052162 -0.25661379 0.059957981
-0.32071474 -0.25659296 0.05993405
-0.32089707 -0.25657314 0.059912495
-0.32112971 -0.25654957 0.059872247
-0.3213 -0.25652575 0.059892267
-0.3215057 -0.25651374 0.05978984
-0.3217085 -0.2564888 0.059787802
-0.32190365 -0.25646177 0.059808865
-0.32207736 -0.25643679 0.059834633
-0.32227623 -0.25640988 0.059851058
-0.32247883 -0.25638315 0.05986286
-0.32268676 -0.25636828 0.059780046
-0.32286936 -0.25635469 0.059711188
-0.32306173 -0.25633442 0.059683803
-0.3232601 -0.25630394 0.059727926
-0.32343775 -0.2562812 0.059732914
-0.32365531 -0.25626162 0.05967658
-0.32385486 -0.2562438 0.059623796
-0.32402503 -0.25621846 0.059655346
-0.32422069 -0.25619793 0.05962681
-0.32441619 -0.2561762 0.059607491
-0.32461187 -0.25615945 0.059550103
-0.32481065 -0.25613412 0.059555002
-0.3249988 -0.25611022 0.05955879
-0.32519403 -0.25608426 0.059571777
-0.32537153 -0.25605267 0.059643675
-0.32556689 -0.2560389 0.059564378
-0.32576561 -0.25602195 0.059505824
-0.32596442 -0.25599492 0.059523404
-0.32614571 -0.25596547 0.059575673
-0.32633021 -0.25594571 0.059551798
-0.32651544 -0.25591198 0.05963289
-0.32669893 -0.25590926 0.059480958
-0.32689273 -0.25590467 0.059333604
-0.32710925 -0.25587499 0.05935457
-0.32730111 -0.2558476 0.05938141
-0.3274996 -0.25582457 0.059369013
-0.32768443 -0.25579804 0.059395887
-0.32788274 -0.25577658 0.059371933
-0.3280724 -0.25576761 0.059261516
-0.3282792 -0.25573364 0.059324056
-0.32849267 -0.25570282 0.059356578
-0.32865945 -0.25568202 0.059356995
-0.32883677 -0.25566056 0.059352763
-0.32904294 -0.25563309 0.059366845
-0.32921854 -0.25562081 0.059294552
-0.32940495 -0.2556057 0.059233744
-0.32960218 -0.25558773 0.059184428
-0.32978868 -0.25557092 0.059136312
-0.32998666 -0.25554854 0.059119295
-0.33018905 -0.25552198 0.059129946
-0.33037743 -0.25549671 0.059144113
-0.33057967 -0.25547108 0.059147835
-0.33077425 -0.2554487 0.059134293
-0.33098787 -0.25541922 0.059156433
-0.33116043 -0.25540215 0.059123371
-0.33133134 -0.25539047 0.0590511
-0.33153537 -0.25535899 0.059097506
-0.33174479 -0.25534362 0.05901698
-0.33193859 -0.25532314 0.058989603
-0.33211485 -0.25530425 0.058966905
-0.33230668 -0.2552793 0.058975294
-0.33249915 -0.25525275 0.058995213
-0.33269122 -0.25522748 0.059005912
-0.3328796 -0.2552031 0.059013158
-0.33305413 -0.25517982 0.059025079
-0.33325487 -0.25515881 0.058995359
-0.33343893 -0.25514582 0.058920726
-0.333635 -0.25512767 0.058873713
-0.33382225 -0.25510618 0.058860205
-0.33401108 -0.25508085 0.058874369
-0.33420968 -0.25505644 0.05887235
-0.33439684 -0.25503528 0.058856532
-0.33457309 -0.25502354 0.058779623
-0.33476424 -0.25500816 0.058716483
-0.33495492 -0.25498623 0.058702961
-0.33515936 -0.25494921 0.058790892
-0.33535001 -0.25492761 0.05877506
-0.33554965 -0.25490123 0.058786865
-0.3357414 -0.25487751 0.058786027
-0.3359338 -0.2548525 0.058794413
-0.33612338 -0.25483316 0.058762435
-0.33631745 -0.25481147 0.058744274
-0.33650857 -0.25478902 0.058734208
-0.3366943 -0.25477049 0.058699936
-0.33689463 -0.25475547 0.058625236
-0.33708474 -0.25474066 0.058558643
-0.33727348 -0.25471061 0.058608569
-0.33745706 -0.25468972 0.058593918
-0.33765355 -0.25466374 0.058605745
-0.3378478 -0.25463605 0.058632586
-0.33803499 -0.25462037 0.058575235
-0.33823782 -0.25459498 0.058576658
-0.33844051 -0.25457525 0.058535386
-0.3385967 -0.25457731 0.058373198
-0.33879733 -0.25454485 0.058430001
-0.33897769 -0.25452393 0.058418822
-0.33916172 -0.25450239 0.058408789
-0.33936825 -0.25447151 0.058448255
-0.33957261 -0.25444409 0.058463506
-0.33977062 -0.25441656 0.058485709
-0.33996704 -0.25438675 0.058526378
-0.34013736 -0.25439012 0.058341052
-0.34032452 -0.25437352 0.058290623
-0.34052634 -0.25434536 0.05831397
-0.34072253 -0.25432062 0.05831657
-0.34090817 -0.25429264 0.058353819
-0.34110624 -0.25426996 0.058339112
-0.34130087 -0.25423887 0.058391318
-0.34148896 -0.25422537 0.058316667
-0.3416588 -0.25422299 0.058175188
-0.34185424 -0.25419942 0.058169711
-0.34205091 -0.25417021 0.058205761
-0.34225127 -0.25414056 0.058241799
-0.3424446 -0.25411999 0.058215573
-0.34263834 -0.25410292 0.058162805
-0.34280512 -0.25410318 0.058004029
-0.34299454 -0.25407532 0.058036651
-0.34318763 -0.254051 0.058039267
-0.3433857 -0.25401688 0.058111079
-0.34359244 -0.25398412 0.058164392
-0.34378931 -0.25395948 0.058165826
-0.34399125 -0.25394014 0.058122262
-0.34418464 -0.25391591 0.058123723
-0.34438315 -0.25390053 0.058053631
-0.34456193 -0.25388208 0.058025163
-0.34475544 -0.25386134 0.058000084
-0.34494078 -0.2538462 0.057940446
-0.34512264 -0.25383136 0.057881959
-0.34531868 -0.25380084 0.057928402
-0.34550491 -0.25378117 0.057902198
-0.34571394 -0.25375056 0.057937048
-0.34589735 -0.25373399 0.057890099
-0.34609815 -0.25370565 0.057915747
-0.34628925 -0.25368431 0.057897601
-0.34648481 -0.25366163 0.057885215
-0.34667429 -0.25364202 0.057855546
-0.34687141 -0.25361779 0.05785352
-0.34706983 -0.25359553 0.057835348
-0.34726128 -0.2535708 0.057842582
-0.34745702 -0.25354186 0.057877488
-0.34764659 -0.25352541 0.057823587
-0.34784853 -0.25349984 0.057827309
-0.34804717 -0.2534745 0.057832211
-0.34823385 -0.25345781 0.057782941
-0.34842277 -0.25344193 0.057725586
-0.34860018 -0.25342503 0.057686731
-0.34881172 -0.2533935 0.057726182
-0.3489947 -0.25337729 0.057676934
-0.34919068 -0.25335473 0.057663385
-0.3493956 -0.25332969 0.057660174
-0.34958559 -0.25330985 0.057631653
-0.34974551 -0.25330901 0.057487905
-0.34997079 -0.25327396 0.057541132
-0.35015899 -0.25324732 0.057565693
-0.35035619 -0.25322387 0.057557896
-0.35054871 -0.25320461 0.057522446
-0.35075909 -0.25317508 0.057548061
-0.35096136 -0.25315008 0.057547171
-0.35114259 -0.25312993 0.057529069
-0.35132381 -0.25311255 0.057490211
-0.35151935 -0.25309083 0.057470895
-0.351695 -0.25308084 0.057381295
-0.35190481 -0.25304696 0.057440363
-0.35209578 -0.25302395 0.057434909
-0.35229325 -0.25300592 0.057385594
-0.35248429 -0.2529881 0.057340916
-0.35269114 -0.25295457 0.057399999
-0.35286978 -0.25294194 0.057327688
-0.3530972 -0.25290695 0.057378605
-0.3532815 -0.25288722 0.057354718
-0.35346484 -0.25287324 0.057288159
-0.35364324 -0.25285575 0.057252772
-0.35385156 -0.25282663 0.057277236
-0.35404301 -0.25280616 0.057252169
-0.35423103 -0.25278839 0.057209816
-0.35443896 -0.25275016 0.057303492
-0.35462293 -0.25273809 0.057221938
-0.35482669 -0.25271532 0.057202581
-0.35501614 -0.25269419 0.057184443
-0.35521039 -0.25266939 0.057189364
-0.35541403 -0.25264451 0.05718616
-0.35561723 -0.25261769 0.057197958
-0.35584104 -0.25258696 0.057220049
-0.3560071 -0.2525768 0.057140879
-0.35620624 -0.25255322 0.057131924
-0.35639364 -0.25253844 0.057067655
-0.35660565 -0.25250995 0.057084031
-0.35680151 -0.25248891 0.057058942
-0.35697851 -0.25246841 0.057047784
-0.35717577 -0.25244203 0.057061918
-0.35737386 -0.2524195 0.057046048
-0.35756916 -0.25239688 0.057033654
-0.35776454 -0.25237423 0.057021268
-0.35796809 -0.25234798 0.057028443
-0.35814857 -0.25233817 0.056933057
-0.35836852 -0.25230685 0.056963235
-0.35856074 -0.25228873 0.056919713
-0.35875255 -0.25226668 0.056906186
-0.35896069 -0.25224385 0.05688335
-0.3591491 -0.25221795 0.056902133
-0.35932982 -0.25220993 0.056792904
-0.35953012 -0.25218013 0.056830097
-0.35974512 -0.25214863 0.056866061
-0.35994017 -0.25212878 0.056832906
-0.36013967 -0.25210595 0.056818191
-0.36033112 -0.25208655 0.056785055
-0.36053485 -0.252067 0.056741469
-0.36074361 -0.25204009 0.056748629
-0.36093122 -0.25201935 0.056729347
-0.36113882 -0.25199336 0.056730747
-0.36130917 -0.25198206 0.056656167
-0.36151817 -0.25195131 0.056692168
-0.36173099 -0.25192407 0.056698151
-0.36194158 -0.25190032 0.056679923
-0.36212599 -0.25187996 0.056660656
-0.36233053 -0.25185633 0.05664707
-0.36251035 -0.25183898 0.056609362
-0.36271578 -0.25181296 0.05661308
-0.36290491 -0.25179735 0.056553416
-0.36311299 -0.25176978 0.056566339
-0.3633045 -0.25175083 0.056529742
-0.3635006 -0.25172901 0.056510419
-0.36370131 -0.25170252 0.056522232
-0.36388746 -0.25168514 0.056478739
-0.36410981 -0.25165275 0.056514665
-0.36431289 -0.25162685 0.056519546
-0.36449802 -0.25161389 0.056443755
-0.36469939 -0.25158912 0.056441709
-0.36487925 -0.25157389 0.056387857
-0.36509249 -0.25154388 0.056414608
-0.36528453 -0.2515285 0.056350317
-0.36548477 -0.25150466 0.05634252
-0.36569285 -0.25147617 0.056362372
-0.3659007 -0.2514497 0.05636723
-0.36610153 -0.25142744 0.056346729
-0.36629087 -0.25141031 0.056298599
-0.36648846 -0.25138831 0.056279283
-0.36672559 -0.2513501 0.056345142
-0.36690378 -0.25133783 0.056270536
-0.36710605 -0.25131327 0.056266189
-0.36731094 -0.25129068 0.056244519
-0.36750105 -0.25127494 0.056184854
-0.36771312 -0.2512449 0.056212764
-0.36791113 -0.25122303 0.056192286
-0.3681055 -0.25120324 0.056159131
-0.36831057 -0.2511791 0.056149002
-0.36851475 -0.25115386 0.056148104
-0.3686938 -0.25114116 0.056075793
-0.36890891 -0.25111318 0.056085236
-0.36908671 -0.25109792 0.056033693
-0.36931086 -0.25106668 0.056059241
-0.36954308 -0.25103596 0.056073226
-0.36973819 -0.25101611 0.05604006
-0.36993316 -0.25099474 0.056018446
-0.37012106 -0.25097731 0.055973783
-0.37031692 -0.25095552 0.055954464
-0.37052226 -0.25092858 0.055965103
-0.37073743 -0.25090122 0.055969924
-0.37095168 -0.25087762 0.055947062
-0.3711549 -0.2508505 0.055961169
-0.37135822 -0.25083131 0.055915285
-0.37154832 -0.25080976 0.055899456
-0.37174144 -0.25079137 0.055857077
-0.3719576 -0.25075763 0.055909198
-0.37217444 -0.25073141 0.055903632
-0.37234035 -0.25072598 0.0557887
-0.3725509 -0.25070164 0.055775084
-0.37275657 -0.25067529 0.0557811
-0.37296325 -0.25065309 0.055754811
-0.37316081 -0.25063109 0.055735484
-0.37335926 -0.2506102 0.055706933
-0.37360537 -0.25056922 0.055785455
-0.37378249 -0.25055647 0.055715464
-0.37399799 -0.25053149 0.055701822
-0.37418532 -0.25051352 0.055661775
-0.37440294 -0.25048158 0.055698894
-0.37462211 -0.2504549 0.055694468
-0.37482023 -0.25043607 0.05565092
-0.37503654 -0.25041097 0.055637278
-0.37522507 -0.25039408 0.055588
-0.37544516 -0.25036424 0.055606641
-0.37562385 -0.25034794 0.055562019
-0.37586185 -0.25031227 0.05560828
-0.37605655 -0.25029534 0.055553205
-0.26819891 -0.26255739 0.064178862
-0.26846534 -0.26253772 0.064077288
-0.26866898 -0.2625052 0.064131752
-0.26890257 -0.26247966 0.064105317
-0.26914656 -0.26245666 0.064049989
-0.26935276 -0.26242492 0.064096361
-0.26960933 -0.2624051 0.064005211
-0.26982951 -0.26237679 0.064012304
-0.27006045 -0.26235113 0.063989341
-0.27030033 -0.26232773 0.06394095
-0.27050775 -0.26229656 0.063981555
-0.27071631 -0.26226422 0.06403023
-0.27095711 -0.2622413 0.063977227
-0.27120164 -0.26221946 0.063912667
-0.27139902 -0.26218605 0.063979857
-0.27167693 -0.26217273 0.063819379
-0.27190408 -0.26214695 0.063801043
-0.27212694 -0.26212013 0.06379427
-0.27233869 -0.26209059 0.063818693
-0.27258772 -0.26207063 0.063735664
-0.27280307 -0.26204216 0.063748531
-0.27301556 -0.26201147 0.063781038
-0.27326319 -0.26199153 0.063699156
-0.27414876 -0.26188537 0.063669793
-0.27438265 -0.2618624 0.063623741
-0.27460346 -0.26183599 0.063615814
-0.27483079 -0.26180986 0.063599795
-0.27505577 -0.26178479 0.063578017
-0.27528968 -0.26176226 0.0635285
-0.27548867 -0.26173019 0.063584141
-0.27571186 -0.26170486 0.063565835
-0.27592048 -0.26167557 0.063591428
-0.27614731 -0.26164979 0.063573107
-0.27640051 -0.26163331 0.063460037
-0.2766242 -0.26160854 0.063437112
-0.27683467 -0.26158005 0.063454628
-0.2770358 -0.26154894 0.06350103
-0.27729785 -0.26153558 0.063355617
-0.27752456 -0.26151046 0.063332677
-0.27770701 -0.26147401 0.063436851
-0.27793089 -0.26144981 0.063409306
-0.27814153 -0.2614218 0.063423358
-0.27838761 -0.26140282 0.063335717
-0.27860427 -0.26137677 0.063328974
-0.27883038 -0.2613537 0.063291036
-0.27904415 -0.26132697 0.063292369
-0.27926597 -0.26130104 0.063279845
-0.27948362 -0.26127565 0.06326732
-0.27971259 -0.26125389 0.063216686
-0.27992386 -0.26122671 0.063223802
-0.28014195 -0.26120171 0.06320782
-0.28037047 -0.26118016 0.063156024
-0.28059134 -0.26115453 0.063142337
-0.2808108 -0.2611303 0.063119426
-0.2810168 -0.26110178 0.063141577
-0.2812379 -0.26107824 0.063111737
-0.28145629 -0.26105216 0.063103825
-0.28167862 -0.26102924 0.063068219
-0.28188771 -0.261002 0.063077658
-0.28212783 -0.26098529 0.062978506
-0.28232065 -0.26095089 0.063057251
-0.28254831 -0.26093021 0.062999681
-0.28276101 -0.26090452 0.062994115
-0.28298098 -0.26088145 0.062961966
-0.28319108 -0.26085317 0.062978335
-0.28343573 -0.26083896 0.062856078
-0.28365147 -0.26081288 0.062850498
-0.28386447 -0.26079524 0.06278377
-0.28404087 -0.26076838 0.062821053
-0.28426561 -0.26073447 0.062866196
-0.28447485 -0.26070067 0.062925249
-0.28469571 -0.26067871 0.062883869
-0.28491414 -0.26065594 0.06285058
-0.28513265 -0.26063335 0.062816143
-0.28537843 -0.26061913 0.062692717
-0.28558627 -0.26059282 0.062696405
-0.28580147 -0.26056743 0.062686205
-0.28602386 -0.2605468 0.062633276
-0.28621978 -0.26051617 0.062680855
-0.2864435 -0.26049629 0.062621012
-0.28657067 -0.2604627 0.062755436
-0.28681308 -0.2604602 0.062546656
-0.2870495 -0.26042378 0.062599823
-0.287218 -0.26040247 0.06260252
-0.28749013 -0.26038241 0.062498607
-0.28772306 -0.26035085 0.062518328
-0.28790718 -0.26033205 0.062487502
-0.28815114 -0.26030311 0.062477171
-0.28834933 -0.26027387 0.062512055
-0.28855091 -0.26024604 0.062533058
-0.28875422 -0.26021692 0.062562145
-0.28898251 -0.26020044 0.062472276
-0.28918734 -0.26017419 0.062478274
-0.28941336 -0.26015708 0.062395338
-0.28962249 -0.26013076 0.06239786
-0.28982359 -0.2601074 0.062385418
-0.29004171 -0.2600809 0.062380977
-0.29024991 -0.26005653 0.062369652
-0.29045552 -0.2600311 0.062368728
-0.29066688 -0.26000831 0.06234239
-0.29087469 -0.25998184 0.062347222
-0.29108199 -0.25995743 0.062337063
-0.29128242 -0.25994319 0.062256541
-0.29151607 -0.2599178 0.062228959
-0.29172143 -0.25989056 0.062241875
-0.29192269 -0.25986367 0.062255975
-0.2921361 -0.25984034 0.062231936
-0.29235193 -0.25982052 0.06217904
-0.29254624 -0.25979054 0.062223166
-0.29276317 -0.2597715 0.062163346
-0.29297188 -0.25974628 0.062157787
-0.29317546 -0.25972098 0.062158026
-0.29337424 -0.25969332 0.062180206
-0.29356235 -0.25967449 0.0621459
-0.29377788 -0.25965303 0.0621057
-0.29399821 -0.25962228 0.062131248
-0.29422733 -0.25960797 0.062024057
-0.29441378 -0.25958157 0.062048614
-0.2946251 -0.25955358 0.062061504
-0.29482818 -0.25952864 0.062059432
-0.29504868 -0.25951052 0.061989207
-0.29524887 -0.25948423 0.06199985
-0.29545659 -0.25946206 0.06197238
-0.29566899 -0.25944251 0.06192065
-0.29586962 -0.2594142 0.061946291
-0.29606691 -0.25938657 0.061969627
-0.29628363 -0.25936726 0.061912112
-0.29648879 -0.25934416 0.061893892
-0.29669735 -0.25932312 0.061857171
-0.29688811 -0.25929204 0.061912861
-0.29712197 -0.25928313 0.061760653
-0.29731733 -0.25925484 0.061790928
-0.29751533 -0.25922546 0.061826959
-0.29772329 -0.25920463 0.061789107
-0.29792702 -0.25918141 0.061773181
-0.29811364 -0.2591669 0.061707735
-0.298316 -0.25914308 0.061697587
-0.298471 -0.25910681 0.061826117
-0.29872948 -0.25910661 0.061584957
-0.29894492 -0.25906363 0.061707452
-0.29915768 -0.25904387 0.061656874
-0.29936853 -0.2590259 0.061594777
-0.29957151 -0.25900307 0.061576553
-0.29976365 -0.25897336 0.061620694
-0.29997507 -0.2589533 0.06157358
-0.30015954 -0.25891858 0.061662748
-0.30036917 -0.25889754 0.061624885
-0.3005805 -0.25888073 0.061553556
-0.30079976 -0.2588695 0.061432566
-0.30098021 -0.25883207 0.061545983
-0.30117151 -0.25879893 0.061616659
-0.30137864 -0.25878277 0.061544195
-0.30159062 -0.25876421 0.061485544
-0.30179188 -0.25875047 0.061400406
-0.30197218 -0.25871885 0.061469983
-0.30218083 -0.25870144 0.061405584
-0.30237013 -0.25867009 0.061464727
-0.30260226 -0.2586481 0.061412908
-0.30281857 -0.25863692 0.061294258
-0.30300272 -0.25860178 0.061386883
-0.3032136 -0.25858364 0.061325938
-0.30341342 -0.25856045 0.061313502
-0.30360806 -0.25855318 0.061185703
-0.30377403 -0.25853372 0.061176874
-0.30395028 -0.25849223 0.061324932
-0.30420133 -0.25847995 0.061181873
-0.30442017 -0.25844541 0.061237432
-0.30461258 -0.25841671 0.061273489
-0.30481794 -0.2583988 0.061216027
-0.30501929 -0.25837773 0.061186273
-0.30522352 -0.25835568 0.061161123
-0.3054218 -0.25833222 0.061152153
-0.30562723 -0.25831506 0.061088923
-0.30583346 -0.25829887 0.061017606
-0.30603331 -0.25827354 0.061021328
-0.3062171 -0.2582525 0.061007805
-0.30638289 -0.25822267 0.061077438
-0.30654794 -0.25818822 0.061182857
-0.30677083 -0.25818431 0.061003011
-0.30698434 -0.25814891 0.061070122
-0.30719689 -0.25812033 0.061086476
-0.30741435 -0.25810441 0.061002418
-0.30760786 -0.25807744 0.061024621
-0.30778068 -0.25807041 0.060915388
-0.30795261 -0.25805464 0.060873069
-0.30817813 -0.25802737 0.060867444
-0.3083967 -0.25799301 0.06092184
-0.30860531 -0.25796935 0.060904756
-0.30877936 -0.25794783 0.060903966
-0.30900371 -0.2579239 0.060874119
-0.30919597 -0.25789598 0.060904406
-0.30937764 -0.25786969 0.060932435
-0.30958775 -0.25784814 0.060898021
-0.30978122 -0.25782162 0.060916774
-0.30995503 -0.25780013 0.060915988
-0.31015918 -0.25778604 0.060830839
-0.31034407 -0.2577543 0.060896926
-0.31053531 -0.25773478 0.060864914
-0.31071749 -0.25771406 0.060850251
-0.31095445 -0.25769728 0.060754571
-0.31113717 -0.25768751 0.060656823
-0.31133512 -0.2576673 0.060623623
-0.31152484 -0.25764689 0.060599692
-0.31172541 -0.2576305 0.060535334
-0.31191733 -0.25760293 0.060563311
-0.31215045 -0.25756723 0.060614184
-0.31235442 -0.25755605 0.060507115
-0.31253815 -0.25751716 0.0606286
-0.31273305 -0.25749367 0.060623102
-0.31293002 -0.25747326 0.060592219
-0.31312969 -0.25745699 0.060527854
-0.31332469 -0.25743407 0.060517751
-0.3135201 -0.2574119 0.060501873
-0.31371051 -0.25738209 0.06054832
-0.31390926 -0.25736529 0.060488582
-0.31409761 -0.2573446 0.060468115
-0.31430081 -0.25732297 0.060440663
-0.31449831 -0.25730497 0.060391314
-0.31468984 -0.25727716 0.060421608
-0.31488055 -0.25724778 0.060464598
-0.31508264 -0.25723836 0.060345996
-0.31526861 -0.25720742 0.060405158
-0.31546643 -0.25719103 0.060343109
-0.31565604 -0.25715965 0.060402259
-0.31584588 -0.25713572 0.060404867
-0.31600457 -0.25711808 0.060389154
-0.31623247 -0.25710943 0.060240433
-0.31643617 -0.2570757 0.060304131
-0.31663144 -0.25705567 0.060272094
-0.31682414 -0.25703046 0.060281612
-0.3170203 -0.25701275 0.060231123
-0.31720245 -0.25698948 0.060236067
-0.31737125 -0.25697011 0.060223766
-0.31759587 -0.25694051 0.060236603
-0.31775376 -0.25691319 0.060294744
-0.31795558 -0.25691068 0.060124215
-0.31818387 -0.25688136 0.060131267
-0.31837666 -0.25685707 0.060133863
-0.31857041 -0.2568354 0.060115688
-0.31876469 -0.25681549 0.060083654
-0.31895134 -0.25679532 0.060060896
-0.31912947 -0.25677222 0.060068171
-0.31931171 -0.25675029 0.060062736
-0.31952971 -0.25673598 0.059965983
-0.31970337 -0.25669864 0.0600852
-0.31989968 -0.2566869 0.059989698
-0.32009801 -0.2566703 0.059928808
-0.3202973 -0.25663099 0.060038678
-0.32050273 -0.25661382 0.059975453
-0.3206977 -0.25659963 0.059899569
-0.32088736 -0.2565797 0.05987218
-0.32108292 -0.25655398 0.059882842
-0.32127532 -0.25653034 0.059880823
-0.32146654 -0.2565012 0.059921496
-0.32164997 -0.25646904 0.059992217
-0.3218019 -0.25644323 0.060044602
-0.32198164 -0.25642926 0.059981488
-0.32217747 -0.25642502 0.059829459
-0.32237118 -0.25641039 0.059758201
-0.32255751 -0.25639603 0.059691593
-0.3227663 -0.2563884 0.059553344
-0.32296172 -0.25636438 0.059551306
-0.32319748 -0.25631598 0.059695639
-0.32336026 -0.25628853 0.059750281
-0.32356307 -0.25626388 0.059745915
-0.32375124 -0.25623679 0.059773911
-0.32392514 -0.25620994 0.059813514
-0.3241154 -0.25620994 0.059634961
-0.32432529 -0.25618735 0.059608638
-0.32449484 -0.25614622 0.059760183
-0.32468423 -0.25614387 0.059600092
-0.32488009 -0.25613308 0.059497673
-0.32511082 -0.25610057 0.059526633
-0.32528839 -0.25607893 0.05952353
-0.32548016 -0.25605854 0.059497282
-0.32569683 -0.25602734 0.05952977
-0.32588866 -0.2560001 0.059555449
-0.32606611 -0.25598425 0.059508495
-0.32625079 -0.25596097 0.059511129
-0.3264282 -0.25594223 0.059486099
-0.32661656 -0.25591618 0.059506014
-0.32680398 -0.25590506 0.059414022
-0.32701668 -0.25588226 0.059386529
-0.32720855 -0.25585565 0.059407588
-0.32739273 -0.25583699 0.059375603
-0.32757413 -0.25581089 0.059402484
-0.3277553 -0.25578725 0.059410892
-0.32794195 -0.25577608 0.059320055
-0.3281239 -0.25574625 0.059374623
-0.32832801 -0.25570878 0.059466008
-0.32853445 -0.25570327 0.059313931
-0.32872877 -0.25568444 0.059273817
-0.32891631 -0.25566399 0.05925221
-0.32911199 -0.25563672 0.059274402
-0.32930672 -0.25561494 0.059256218
-0.32950246 -0.25557056 0.059407644
-0.32967609 -0.25556758 0.059267256
-0.3298685 -0.25555629 0.059171773
-0.33005956 -0.25553465 0.059155907
-0.33025464 -0.25551051 0.059155032
-0.33045003 -0.2554853 0.059162229
-0.33064625 -0.25547034 0.059090964
-0.33084321 -0.25543895 0.059143156
-0.33102703 -0.25541866 0.059123863
-0.33120951 -0.25540295 0.059071124
-0.33141202 -0.25537685 0.059078287
-0.33161187 -0.25535962 0.059020847
-0.33179286 -0.25533694 0.059022341
-0.3320078 -0.25531462 0.058989074
-0.33218354 -0.25529763 0.058952507
-0.33236277 -0.25526994 0.058993239
-0.33257395 -0.25524858 0.058956519
-0.33277455 -0.25521857 0.058994848
-0.3329514 -0.25519824 0.058982518
-0.33313355 -0.25517279 0.059003614
-0.33334133 -0.25515121 0.058971532
-0.33352455 -0.25514048 0.058880709
-0.33371669 -0.25511548 0.058889069
-0.33393496 -0.25508437 0.058919247
-0.33410612 -0.25507757 0.058810011
-0.33430082 -0.25504661 0.058861062
-0.33448276 -0.25501448 0.05893293
-0.33467585 -0.2549955 0.058895141
-0.33486092 -0.25497183 0.058900073
-0.33504531 -0.25495699 0.05883925
-0.33522838 -0.25493753 0.05881419
-0.33541662 -0.25492129 0.058760267
-0.33560029 -0.25490728 0.058693673
-0.335805 -0.25488424 0.058675446
-0.33600077 -0.25486568 0.058631875
-0.33617836 -0.25484356 0.058632225
-0.3363862 -0.25480184 0.05875244
-0.33658141 -0.25478441 0.058700796
-0.33678499 -0.25475755 0.058712572
-0.33697927 -0.25474161 0.058650538
-0.33715516 -0.25472292 0.058626674
-0.3373498 -0.2546944 0.058659263
-0.33753946 -0.25468624 0.058543023
-0.33772251 -0.25467199 0.058478743
-0.33791566 -0.25464612 0.058492865
-0.33810842 -0.25461555 0.058542773
-0.33830291 -0.25458783 0.058569595
-0.33850381 -0.2545552 0.058627531
-0.33870396 -0.25453976 0.058556244
-0.33889183 -0.2545228 0.058508091
-0.33908233 -0.25450167 0.058488779
-0.33927125 -0.25448793 0.05841523
-0.3394751 -0.25446135 0.058424696
-0.33964664 -0.25443432 0.058467772
-0.33984387 -0.25441772 0.058408037
-0.34003413 -0.25439695 0.058386415
-0.34022215 -0.25437933 0.058342882
-0.3404204 -0.25435176 0.058365062
-0.34061962 -0.25431842 0.05842993
-0.34080625 -0.25430283 0.058372557
-0.34100452 -0.25427112 0.058425896
-0.34119782 -0.25425959 0.058331568
-0.34139583 -0.2542415 0.058282211
-0.34157693 -0.25422004 0.05827447
-0.34176689 -0.25419545 0.058281697
-0.3419486 -0.25418168 0.058215108
-0.34214115 -0.25416628 0.058150783
-0.34235311 -0.25413838 0.058162522
-0.3425355 -0.25411537 0.058165167
-0.34273404 -0.25408837 0.058182724
-0.34292644 -0.25407296 0.058118403
-0.34309867 -0.2540625 0.058035702
-0.34329352 -0.25403231 0.058080979
-0.34349042 -0.25400749 0.058083557
-0.34369272 -0.25398019 0.058099948
-0.34388223 -0.25395295 0.058127951
-0.34408164 -0.25393668 0.058063585
-0.34425467 -0.25392124 0.058017813
-0.34444693 -0.25389838 0.058010023
-0.3446382 -0.25387302 0.058021855
-0.34485322 -0.25384262 0.058049727
-0.34503454 -0.2538321 0.057958916
-0.34524006 -0.25380179 0.057994913
-0.34541586 -0.25378326 0.057969891
-0.34560451 -0.25376803 0.057907894
-0.34579623 -0.253746 0.057894334
-0.34599692 -0.25371781 0.057918813
-0.3461878 -0.25369009 0.057949111
-0.34637958 -0.25366822 0.057934403
-0.34656879 -0.25365227 0.057877012
-0.34676826 -0.253629 0.057865728
-0.34694919 -0.25361502 0.057801459
-0.34712487 -0.25360304 0.057726823
-0.34730405 -0.25359067 0.057652168
-0.34751391 -0.25355068 0.057757378
-0.34771672 -0.25352421 0.057766847
-0.34792835 -0.2534892 0.057832818
-0.34813464 -0.25345343 0.057909194
-0.34830812 -0.25344971 0.057774566
-0.34850073 -0.25342435 0.057785247
-0.34867093 -0.25342941 0.057587173
-0.34886971 -0.2533952 0.05765897
-0.34907711 -0.25336191 0.057715733
-0.3492789 -0.25333115 0.057758667
-0.34948429 -0.25330302 0.057778507
-0.34966415 -0.25329849 0.057643861
-0.34986034 -0.25327879 0.057608359
-0.35006756 -0.25325194 0.057616659
-0.35025379 -0.25324127 0.057522353
-0.35042879 -0.25322941 0.05744772
-0.3506144 -0.2532025 0.057476893
-0.35080236 -0.25318733 0.057414889
-0.35097274 -0.25317663 0.05733566
-0.35119325 -0.25313029 0.057478897
-0.35141614 -0.25309294 0.057551734
-0.35162309 -0.25307223 0.057513885
-0.35180661 -0.25305566 0.057466906
-0.35200667 -0.25303289 0.057451006
-0.35220277 -0.25301871 0.057373967
-0.35237962 -0.2529999 0.057350099
-0.35257897 -0.25297004 0.057388432
-0.35278067 -0.25294098 0.057418678
-0.35299248 -0.2529189 0.057386577
-0.35315892 -0.25290123 0.057363905
-0.35335508 -0.25287941 0.057344556
-0.35354602 -0.25285685 0.057335619
-0.35373649 -0.25283971 0.057286303
-0.35392958 -0.25281799 0.057269279
-0.35413617 -0.25278801 0.057301812
-0.35431692 -0.25277129 0.057258304
-0.35453373 -0.25274312 0.057267711
-0.35471466 -0.25272867 0.057206899
-0.35491779 -0.25270173 0.057219826
-0.35510364 -0.25268346 0.057183225
-0.35530314 -0.25265712 0.057195023
-0.35549343 -0.25263786 0.05716186
-0.35569641 -0.25261825 0.057119407
-0.35587311 -0.25260007 0.057090916
-0.35608 -0.25257295 0.057101529
-0.35625505 -0.25255832 0.057047665
-0.35647079 -0.25252476 0.057098616
-0.35668182 -0.25249484 0.057126507
-0.35686436 -0.25247931 0.05707261
-0.3570745 -0.25244796 0.057112049
-0.35724124 -0.25244612 0.056969371
-0.35745731 -0.25241283 0.057018019
-0.35765237 -0.25239483 0.056970987
-0.35780907 -0.25239775 0.056801826
-0.35800952 -0.25236714 0.056844767
-0.35824886 -0.25231555 0.057009842
-0.35843334 -0.25231153 0.056867093
-0.35863906 -0.25228393 0.056882322
-0.35881236 -0.25227487 0.056788076
-0.35901907 -0.2522383 0.056870218
-0.35922569 -0.25221872 0.056824289
-0.35940966 -0.2521981 0.056807317
-0.35960174 -0.25217816 0.056777608
-0.35978153 -0.25216249 0.056727182
-0.35997412 -0.25214019 0.056714769
-0.36022404 -0.25208333 0.056909803
-0.36039916 -0.25208718 0.056716319
-0.36058655 -0.25206247 0.056727022
-0.36078644 -0.25204158 0.056697272
-0.36098692 -0.2520203 0.056669831
-0.36119398 -0.25200063 0.056623902
-0.36140445 -0.25196499 0.056695648
-0.36159661 -0.25194731 0.056648627
-0.3618063 -0.25192416 0.056626912
-0.36199033 -0.25190598 0.05659147
-0.36217105 -0.25188607 0.056572191
-0.36238074 -0.25185722 0.056593172
-0.36257786 -0.25183269 0.056593448
-0.36276928 -0.25181374 0.05655681
-0.36297143 -0.25178617 0.056575522
-0.36317354 -0.2517662 0.056536533
-0.363359 -0.25174922 0.056490693
-0.36356097 -0.25172377 0.056493249
-0.3637822 -0.25169015 0.056539562
-0.36396301 -0.25167802 0.056461442
-0.36416382 -0.25165167 0.056472071
-0.36435795 -0.25163132 0.056443512
-0.36456499 -0.25160494 0.05644834
-0.36474863 -0.25159109 0.0563806
-0.3649492 -0.25156873 0.056361228
-0.36515313 -0.2515426 0.056367245
-0.36536363 -0.25151259 0.056396291
-0.36556056 -0.25149617 0.056335405
-0.36577269 -0.25146535 0.056369063
-0.36596709 -0.25144696 0.056325499
-0.36617064 -0.25142318 0.056314196
-0.36635554 -0.25140518 0.056276448
-0.36655551 -0.25138184 0.05626516
-0.36677101 -0.25135639 0.056254961
-0.36695731 -0.25133595 0.056234509
-0.36716795 -0.25130486 0.056271635
-0.36736453 -0.25128543 0.056233831
-0.36754733 -0.25127399 0.056148771
-0.3677606 -0.25124502 0.056167435
-0.36795425 -0.25122565 0.056131944
-0.3681463 -0.2512089 0.056078002
-0.36835074 -0.25118178 0.056090929
-0.36856535 -0.25115067 0.056124583
-0.36877537 -0.25112393 0.0561294
-0.36897227 -0.25110462 0.056090437
-0.36917654 -0.25108287 0.056062989
-0.36939058 -0.25105244 0.056092016
-0.36957195 -0.25104022 0.056013893
-0.36976868 -0.25102276 0.055961091
-0.36998346 -0.25098887 0.056015506
-0.37017277 -0.25097233 0.055962726
-0.37037674 -0.25094941 0.055944502
-0.37059334 -0.25092125 0.05595392
-0.37078959 -0.2508994 0.055934567
-0.37099233 -0.25087571 0.055923279
-0.37119168 -0.25085548 0.055888914
-0.37138987 -0.25083432 0.055862643
-0.37160027 -0.25080985 0.055850148
-0.37181723 -0.25077721 0.055893023
-0.3720105 -0.25076354 0.055814847
-0.37220779 -0.25073835 0.055819731
-0.3724235 -0.25070664 0.055856831
-0.37260771 -0.25069317 0.055785619
-0.37282008 -0.25066647 0.055788122
-0.37301162 -0.2506507 0.055727266
-0.37322044 -0.25062901 0.055695176
-0.37345102 -0.25059608 0.055727597
-0.37366378 -0.25056332 0.055775099
-0.37386698 -0.25054324 0.05573611
-0.37403518 -0.25053665 0.055628046
-0.37427592 -0.25050184 0.055665042
-0.37443525 -0.25049525 0.055565089
-0.37472355 -0.2504364 0.055739176
-0.37489137 -0.25043151 0.055618428
-0.37511611 -0.25039333 0.055695876
-0.37531346 -0.25037503 0.055648834
-0.37551358 -0.25035244 0.055631772
-0.37568855 -0.25034392 0.055531759
-0.37590858 -0.25031289 0.055559613
-0.3761186 -0.25028402 0.055580586
-0.26842239 -0.26253712 0.064122058
-0.26865244 -0.26251066 0.064105973
-0.26889968 -0.26248682 0.064054042
-0.26910177 -0.26245403 0.064111941
-0.2693409 -0.26242998 0.064069286
-0.26957968 -0.26240593 0.064026617
-0.26980662 -0.26237774 0.064026706
-0.27003136 -0.26235056 0.064021036
-0.27026543 -0.26232421 0.064000316
-0.27049133 -0.26229748 0.063990019
-0.27074987 -0.2622788 0.063888416
-0.27098557 -0.26225471 0.063849218
-0.27117431 -0.26221761 0.063952193
-0.27141613 -0.2621952 0.06389451
-0.27165312 -0.2621702 0.063861087
-0.27186695 -0.26214099 0.063880853
-0.27212369 -0.26212117 0.063789643
-0.2723476 -0.26209471 0.063779354
-0.27255881 -0.26206505 0.06380491
-0.27281356 -0.26204669 0.063704461
-0.27303681 -0.2620188 0.063705727
-0.27326649 -0.26199421 0.063675798
-0.27346757 -0.26196063 0.063740633
-0.2736949 -0.26193559 0.063716479
-0.27392679 -0.26191026 0.063690007
-0.27417469 -0.26189092 0.063603446
-0.27440232 -0.26186627 0.063575841
-0.27461031 -0.26183644 0.063606016
-0.27483961 -0.26181084 0.063584164
-0.27504274 -0.26177976 0.063628212
-0.27526703 -0.26175296 0.063620247
-0.27550575 -0.26173183 0.063555643
-0.27574053 -0.26170814 0.063514158
-0.2759544 -0.26168033 0.063523538
-0.27617151 -0.26165348 0.063522518
-0.27639589 -0.26162878 0.063498393
-0.27664861 -0.26161069 0.063397959
-0.27686316 -0.26158339 0.063402727
-0.27708301 -0.26155606 0.063402846
-0.27729684 -0.2615287 0.063408755
-0.27752659 -0.26150441 0.063376516
-0.2777546 -0.2614814 0.063336208
-0.27796352 -0.26145115 0.063368708
-0.27819109 -0.26142821 0.0633284
-0.27842733 -0.261408 0.063259199
-0.27861178 -0.26137221 0.063356422
-0.27884513 -0.26134962 0.063308015
-0.27907699 -0.26132843 0.063250385
-0.27928928 -0.26129958 0.063268997
-0.27949151 -0.26126939 0.063307285
-0.27973881 -0.26125163 0.063209198
-0.27995151 -0.26122487 0.06321165
-0.28015819 -0.26119626 0.063233763
-0.28038368 -0.26117373 0.063192315
-0.28062722 -0.26115537 0.06310232
-0.28080949 -0.2611191 0.063205317
-0.28104502 -0.26109838 0.063140742
-0.28126717 -0.26107517 0.063107386
-0.28147787 -0.26104653 0.063126013
-0.28160346 -0.26101834 0.063221201
-0.281957 -0.26101416 0.06292066
-0.2821323 -0.26097387 0.063060626
-0.28235921 -0.26095098 0.063020319
-0.28258422 -0.26092944 0.062971957
-0.28278679 -0.26089844 0.063016005
-0.28300941 -0.26087624 0.062974572
-0.28322789 -0.26085275 0.062947005
-0.28343233 -0.26082441 0.062969126
-0.28366235 -0.26080331 0.06291265
-0.28389928 -0.26078668 0.062815756
-0.28412291 -0.26076362 0.06278009
-0.28430685 -0.26072818 0.062875003
-0.28451639 -0.26070014 0.062890179
-0.28474158 -0.26067978 0.062832579
-0.28498057 -0.26066276 0.062736824
-0.28520018 -0.26064062 0.062697716
-0.2853879 -0.26060674 0.062777609
-0.28560656 -0.26058444 0.062740803
-0.28581974 -0.26055822 0.062738657
-0.28603494 -0.26053482 0.062713414
-0.2862505 -0.2605097 0.062700853
-0.28647396 -0.2604897 0.062642105
-0.28668377 -0.26046255 0.062650353
-0.28689697 -0.26043877 0.06262973
-0.2870968 -0.26040781 0.062676109
-0.28730285 -0.26038736 0.062637061
-0.28756666 -0.26037809 0.062459268
-0.28777087 -0.26035118 0.062471002
-0.28796446 -0.26031792 0.062540472
-0.28817913 -0.26029536 0.06250947
-0.288398 -0.26027256 0.062476125
-0.28859979 -0.26024488 0.062495954
-0.28880942 -0.26022047 0.06248343
-0.28902027 -0.26019669 0.062465124
-0.2892392 -0.26017436 0.062428329
-0.28940156 -0.2601532 0.062435642
-0.28965253 -0.26012158 0.062439084
-0.28985941 -0.26009643 0.062434644
-0.29006919 -0.2600705 0.06243366
-0.29028746 -0.26005054 0.062379546
