# .PCD v0.7 - Point Cloud Data file format
VERSION 0.7
FIELDS x y z
SIZE 4 4 4
TYPE F F F
COUNT 1 1 1
WIDTH 1290
HEIGHT 1
VIEWPOINT 0 0 0 1 0 0 0
POINTS 1290
DATA ascii
-0.27386525 -0.12311982 0.060102765
-0.27403653 -0.12303631 0.060152985
-0.27421084 -0.12295364 0.060188204
-0.27440822 -0.12287765 0.060108013
-0.27460805 -0.122795 0.06006588
-0.27478716 -0.12271138 0.060093008
-0.27498376 -0.12262797 0.06006588
-0.2751641 -0.12254736 0.060068786
-0.27536258 -0.12246733 0.060012814
-0.2755551 -0.12238556 0.059986856
-0.27574217 -0.12230738 0.059952825
-0.27589169 -0.12223013 0.06002618
-0.27608079 -0.1221448 0.060034826
-0.27629 -0.12206899 0.059917703
-0.27647281 -0.12198439 0.059940204
-0.2766597 -0.12190123 0.059940778
-0.27685687 -0.1218272 0.059847914
-0.27702188 -0.12174731 0.059892379
-0.27722663 -0.12166263 0.059849083
-0.27740031 -0.12159701 0.059770122
-0.27759191 -0.12150497 0.059816815
-0.27779546 -0.12141745 0.059796579
-0.27796626 -0.12133142 0.059865259
-0.2781494 -0.12125585 0.05982548
-0.2783159 -0.12117377 0.059880331
-0.27852196 -0.12110477 0.059726313
-0.27870423 -0.12102348 0.059728052
-0.27889994 -0.1209391 0.059710152
-0.27907625 -0.12085249 0.059766129
-0.2792646 -0.12077393 0.059730947
-0.27944785 -0.12069625 0.059705004
-0.27965266 -0.12062223 0.059589051
-0.27982199 -0.12054464 0.059604671
-0.28000742 -0.12045619 0.059645623
-0.28020218 -0.12038121 0.059566602
-0.28038621 -0.12029524 0.059594866
-0.28055823 -0.12021597 0.059613936
-0.28072858 -0.1201359 0.059643403
-0.28093389 -0.1200635 0.059514761
-0.28112257 -0.11997683 0.059533782
-0.28128833 -0.11989778 0.059570178
-0.28149009 -0.11982427 0.059459999
-0.2816833 -0.11974015 0.059447862
-0.28188077 -0.11965837 0.059406899
-0.28207374 -0.11956774 0.059439741
-0.2822732 -0.11948729 0.05938378
-0.28244555 -0.11941209 0.059374023
-0.28259584 -0.1193313 0.059469275
-0.28278559 -0.11925922 0.059385657
-0.28297937 -0.11917603 0.059365459
-0.28317958 -0.11908981 0.059346393
-0.28333554 -0.11902259 0.059332065
-0.28351313 -0.11893693 0.059377648
-0.28370023 -0.11885705 0.059355166
-0.28390583 -0.11877097 0.059318785
-0.28408858 -0.11869218 0.059302069
-0.28428662 -0.1186088 0.05927033
-0.28446606 -0.11854637 0.059152141
-0.2846444 -0.11845769 0.059216179
-0.28483024 -0.11837023 0.059249051
-0.28502157 -0.11829779 0.059163116
-0.28518569 -0.11821812 0.059208747
-0.28533241 -0.11812992 0.059365131
-0.2855517 -0.11806234 0.059161484
-0.28571588 -0.11798264 0.059207108
-0.28590703 -0.11791096 0.059116565
-0.28608778 -0.1178278 0.059135616
-0.2862761 -0.11775041 0.059092373
-0.28645873 -0.1176688 0.059095256
-0.28664342 -0.11758881 0.059080858
-0.28681815 -0.1175134 0.059065327
-0.2870059 -0.11742357 0.059108574
-0.287204 -0.1173422 0.059062988
-0.28737125 -0.11726927 0.059053246
-0.28754759 -0.11719553 0.059021559
-0.28773117 -0.11711517 0.059012927
-0.28791946 -0.117039 0.058961608
-0.28811869 -0.11695508 0.058929849
-0.28828943 -0.1168723 0.058976613
-0.28847003 -0.11680311 0.058901094
-0.28863168 -0.11672097 0.058970943
-0.28882831 -0.11664888 0.058866546
-0.28901243 -0.1165744 0.058816385
-0.28920761 -0.11648736 0.058818094
-0.28937629 -0.11640246 0.058885619
-0.28955382 -0.11632158 0.058898903
-0.28972539 -0.11624928 0.058871858
-0.28991562 -0.11617698 0.058788233
-0.29009789 -0.11610651 0.058716178
-0.29028738 -0.11602896 0.058670618
-0.29046997 -0.11594906 0.058661979
-0.29064041 -0.11585015 0.058819454
-0.29080486 -0.11576492 0.058901981
-0.29100233 -0.11571312 0.058656875
-0.29118571 -0.11562897 0.058674764
-0.29136869 -0.11554431 0.058697276
-0.2915445 -0.11546742 0.058688655
-0.2917392 -0.11540905 0.058496617
-0.29190764 -0.1153058 0.05868984
-0.29208219 -0.11522742 0.05869507
-0.292274 -0.11514866 0.058650654
-0.29246032 -0.11506861 0.058631629
-0.29263422 -0.11499561 0.05860227
-0.29282278 -0.11492524 0.058510583
-0.29301095 -0.11484844 0.058463864
-0.29318604 -0.11476509 0.058501393
-0.29335678 -0.11468147 0.058553912
-0.2935403 -0.11460436 0.058523364
-0.29372054 -0.11452889 0.058491673
-0.29389316 -0.11444121 0.058566097
-0.29408216 -0.11438046 0.058407519
-0.29428002 -0.11431444 0.058258139
-0.29444847 -0.11421236 0.0584433
-0.29461253 -0.11413085 0.058501605
-0.29480469 -0.11407041 0.058331482
-0.29498973 -0.11397484 0.058422029
-0.295165 -0.11389886 0.058408804
-0.29535073 -0.11384346 0.058223709
-0.29552796 -0.11373986 0.058392685
-0.29571772 -0.11366929 0.058298696
-0.29589638 -0.11359265 0.058279693
-0.29607671 -0.11351983 0.058229543
-0.29626602 -0.1134322 0.058253184
-0.29643524 -0.11334333 0.05834607
-0.29661322 -0.11327445 0.058276337
-0.29679048 -0.11320435 0.058216967
-0.29697862 -0.11312316 0.058200248
-0.29715571 -0.11304349 0.058206618
-0.297333 -0.11296424 0.058209535
-0.29751205 -0.1128898 0.058174379
-0.29768991 -0.11281233 0.058163457
-0.29787195 -0.11273604 0.058131762
-0.29805762 -0.11265951 0.058090821
-0.29823285 -0.11257441 0.058139872
-0.29842183 -0.1124969 0.05809547
-0.29859704 -0.11241113 0.058149129
-0.29878435 -0.11234097 0.058059756
-0.29896221 -0.11226435 0.058043063
-0.29914215 -0.11218189 0.058059804
-0.29930517 -0.11210474 0.058091596
-0.29949021 -0.1120422 0.057957247
-0.29966584 -0.11195709 0.058005147
-0.2998465 -0.11187752 0.057999976
-0.30003306 -0.11180838 0.057905987
-0.30022666 -0.11172274 0.057903085
-0.3003895 -0.11164398 0.057946403
-0.30056414 -0.11157065 0.057917036
-0.3007521 -0.11149275 0.057878397
-0.30093277 -0.1114142 0.057866309
-0.30109873 -0.11133169 0.057925772
-0.30127993 -0.11125612 0.057891771
-0.3014569 -0.111176 0.057901602
-0.30163202 -0.11110754 0.057837632
-0.30181611 -0.111029 0.057815157
-0.30199695 -0.11095273 0.057786923
-0.30217719 -0.11087117 0.057796746
-0.30236128 -0.11079364 0.057767347
-0.30253497 -0.1107148 0.057778344
-0.30271882 -0.11063518 0.057763938
-0.30288902 -0.11055399 0.057801478
-0.30307114 -0.11049969 0.057619847
-0.30325118 -0.11041532 0.057649281
-0.30342117 -0.11032865 0.057724874
-0.30360225 -0.11026499 0.05761015
-0.30378586 -0.11018378 0.057607278
-0.3039563 -0.11010571 0.057622895
-0.30413988 -0.11001605 0.057677686
-0.30431384 -0.10995081 0.057595268
-0.30449092 -0.10988046 0.057538208
-0.30467457 -0.10979772 0.057545722
-0.30484837 -0.10972086 0.057542879
-0.30503237 -0.1096283 0.057616122
-0.30521584 -0.1095551 0.057559043
-0.30538872 -0.10950068 0.05740628
-0.30557165 -0.10943127 0.057324994
-0.30574954 -0.10933754 0.057424784
-0.30592334 -0.10926069 0.057421938
-0.30610088 -0.10917675 0.05745599
-0.30629009 -0.10910542 0.057368919
-0.30648443 -0.10901064 0.05742598
-0.30664864 -0.1089367 0.057432391
-0.3068198 -0.10885662 0.057459541
-0.30699566 -0.10879035 0.057378273
-0.30718607 -0.10870579 0.057377692
-0.30735376 -0.10862945 0.057389859
-0.30753458 -0.10857013 0.057246298
-0.30771235 -0.10848745 0.057271119
-0.30788997 -0.10840636 0.05728557
-0.3080762 -0.10832907 0.057248093
-0.30825648 -0.1082507 0.057236005
-0.30843356 -0.10817323 0.057227384
-0.30861336 -0.10809761 0.057197995
-0.30879313 -0.108022 0.057168618
-0.30896676 -0.10794691 0.057154238
-0.30914018 -0.10785804 0.05723444
-0.30931929 -0.10778577 0.05718429
-0.3095136 -0.10769777 0.057195231
-0.30968627 -0.10762752 0.057150871
-0.30985221 -0.10756059 0.05710423
-0.31002688 -0.10748132 0.057115227
-0.31020302 -0.10740834 0.057078928
-0.31038445 -0.10732555 0.057093367
-0.31056201 -0.10724686 0.057091672
-0.31074247 -0.10716841 0.057079583
-0.31091157 -0.10711075 0.056960277
-0.31109563 -0.10702933 0.056957401
-0.31125885 -0.10697107 0.056860022
-0.311445 -0.10686215 0.05703821
-0.31161466 -0.106811 0.056872763
-0.31179321 -0.10672917 0.056889515
-0.31197652 -0.10663183 0.056997355
-0.31217027 -0.10653851 0.05704635
-0.31234953 -0.10647327 0.056947775
-0.31252566 -0.1064086 0.056854974
-0.31272444 -0.10629187 0.057048108
-0.31290385 -0.10622573 0.056955289
-0.31306908 -0.10616792 0.056848686
-0.31324542 -0.10609366 0.056820467
-0.31341895 -0.10601168 0.056853376
-0.31358311 -0.10595605 0.056735232
-0.31377906 -0.10585817 0.056808442
-0.31395245 -0.10578455 0.056784838
-0.31413329 -0.10570576 0.056773908
-0.31430686 -0.10563172 0.056752615
-0.31448016 -0.10555831 0.056727864
-0.31465089 -0.10548451 0.056713503
-0.3148348 -0.10540503 0.056697935
-0.31502029 -0.10532163 0.056704294
-0.31519172 -0.10525294 0.056653019
-0.31536424 -0.10517496 0.056661714
-0.31554535 -0.10510232 0.056608103
-0.31572825 -0.10501906 0.056621384
-0.31589478 -0.10495525 0.056551673
-0.31607491 -0.10487236 0.05657072
-0.31626132 -0.10478754 0.056583993
-0.31643629 -0.10471068 0.056577686
-0.3166118 -0.10463848 0.056537934
-0.31679457 -0.10456187 0.056506228
-0.3169772 -0.10447433 0.056549497
-0.31715223 -0.1044032 0.056503981
-0.31732696 -0.10432711 0.056493055
-0.31750619 -0.10425259 0.056457914
-0.31768596 -0.10417156 0.056465425
-0.31787395 -0.10408451 0.056489069
-0.31805468 -0.10400712 0.056468911
-0.31822065 -0.10394374 0.056398053
-0.31840941 -0.10385551 0.056427449
-0.31858495 -0.10378329 0.0563877
-0.31875953 -0.10370795 0.056372169
-0.31893587 -0.10363422 0.056340493
-0.31912535 -0.10354514 0.056373358
-0.31929135 -0.10348615 0.056272507
-0.31947088 -0.10340641 0.056271955
-0.3196494 -0.10332866 0.056261025
-0.31983691 -0.1032391 0.056303121
-0.32002383 -0.1031554 0.056307156
-0.32018319 -0.10310343 0.056178652
-0.32037389 -0.10300857 0.056247264
-0.32055908 -0.10291937 0.056293976
-0.32073501 -0.10285106 0.056226544
-0.3209053 -0.10279676 0.056080714
-0.32108763 -0.1027085 0.056129746
-0.32128701 -0.10260403 0.056237537
-0.32146019 -0.10253609 0.05617588
-0.32164365 -0.10246731 0.056088816
-0.32182464 -0.10238201 0.056121707
-0.32200748 -0.10229793 0.056140747
-0.32218236 -0.10223109 0.056066401
-0.32236618 -0.10214556 0.056092355
-0.32253039 -0.10208414 0.056013435
-0.32271105 -0.1020078 0.055986352
-0.32289729 -0.10192253 0.056003075
-0.32307678 -0.10184434 0.055992149
-0.32326666 -0.10174986 0.056060754
-0.32345009 -0.10167702 0.05600138
-0.32362702 -0.10159928 0.055995066
-0.32379395 -0.10153344 0.055938039
-0.3239716 -0.10146572 0.055861376
-0.324166 -0.1013687 0.055933438
-0.32435134 -0.10128216 0.055961698
-0.32453042 -0.10120872 0.055919625
-0.32471052 -0.10113025 0.055908699
-0.32488042 -0.10106698 0.055825144
-0.3250739 -0.10097224 0.055884514
-0.32524043 -0.10091385 0.055777896
-0.32542515 -0.10082538 0.055821151
-0.32558715 -0.1007734 0.05568457
-0.32576218 -0.10070244 0.055637904
-0.32596236 -0.10059542 0.055760689
-0.32614022 -0.10052387 0.055709392
-0.32632446 -0.10044002 0.055722661
-0.32650512 -0.1003613 0.055711731
-0.32669795 -0.10026889 0.055757262
-0.32685578 -0.10022537 0.055575714
-0.32705256 -0.10012443 0.055667371
-0.32723096 -0.10004909 0.055640295
-0.32741728 -0.099962942 0.055662796
-0.32760292 -0.099881008 0.055658758
-0.32778043 -0.099807084 0.055624768
-0.32796001 -0.099733412 0.055582702
-0.32814738 -0.099646308 0.055608649
-0.32832992 -0.099568784 0.055583868
-0.32851794 -0.099481046 0.055612117
-0.32868481 -0.09942437 0.055492818
-0.328881 -0.099326059 0.055568337
-0.3290565 -0.099255063 0.055520505
-0.32923973 -0.099176899 0.055498034
-0.32941464 -0.099106669 0.055446748
-0.32960257 -0.099019639 0.055470392
-0.32979566 -0.098931842 0.055483636
-0.3299711 -0.098861039 0.055434659
-0.33015099 -0.098787412 0.055391435
-0.33033675 -0.098703556 0.055400088
-0.33053258 -0.098612681 0.055426009
-0.33071551 -0.098532617 0.055417374
-0.33088401 -0.098473363 0.055310763
-0.33105528 -0.098405078 0.055257179
-0.33125415 -0.098310828 0.055296931
-0.33143926 -0.098228268 0.055298664
-0.33163339 -0.09813749 0.055329204
-0.33184037 -0.098031163 0.055426601
-0.33199373 -0.097992852 0.055223156
-0.33218369 -0.097904749 0.055247944
-0.33236444 -0.097833112 0.055188566
-0.33255991 -0.097741216 0.055222563
-0.33275023 -0.097658217 0.055211592
-0.33293423 -0.097580209 0.055185661
-0.33312589 -0.097493231 0.05519776
-0.33330363 -0.097422756 0.055139549
-0.33348751 -0.097337537 0.055163193
-0.33367535 -0.09725529 0.055154551
-0.33387169 -0.097173169 0.055119347
-0.33405584 -0.097097814 0.055074953
-0.33423242 -0.097021423 0.055060573
-0.33441347 -0.096942358 0.055050783
-0.33458692 -0.096872091 0.05500412
-0.33477581 -0.096789055 0.054997776
-0.33496287 -0.09671054 0.054966066
-0.33512017 -0.096653879 0.05487562
-0.33534563 -0.096529715 0.055038691
-0.33550942 -0.096477628 0.054897487
-0.33571011 -0.09637697 0.05497529
-0.33590901 -0.096285582 0.054995444
-0.33608732 -0.096217223 0.054921079
-0.33628154 -0.0961335 0.054903194
-0.33646724 -0.096052386 0.054893389
-0.3366484 -0.095976323 0.054862846
-0.3368462 -0.09588661 0.054874927
-0.33702669 -0.095815927 0.05480979
-0.33721995 -0.095729083 0.054816104
-0.33739889 -0.095648929 0.054820172
-0.33758411 -0.095564291 0.054835748
-0.33778468 -0.095480978 0.054795925
-0.337953 -0.095412478 0.054752734
-0.33816317 -0.095312372 0.054798216
-0.33832997 -0.095249958 0.054718126
-0.33851361 -0.095171787 0.054694492
-0.33870065 -0.095090076 0.054684691
-0.33889902 -0.094998576 0.054707147
-0.33909225 -0.094914779 0.054692712
-0.33928087 -0.094835922 0.054658689
-0.33945465 -0.094764166 0.054621249
-0.33966428 -0.094663434 0.054672498
-0.33985329 -0.094580173 0.054667313
-0.34003431 -0.094509423 0.054601014
-0.34020957 -0.094436325 0.054568183
-0.34039721 -0.094356708 0.054542236
-0.34057647 -0.0942837 0.054496706
-0.34077683 -0.09419319 0.054506473
-0.34097943 -0.094098464 0.054538138
-0.34116518 -0.094016977 0.054530643
-0.34133506 -0.093951687 0.054460928
-0.34153822 -0.093856715 0.054492597
-0.34173441 -0.093770944 0.054482758
-0.34191483 -0.093699098 0.054425701
-0.3421005 -0.093620017 0.054402061
-0.34229693 -0.093530245 0.054418754
-0.34248263 -0.09345521 0.054367438
-0.34265661 -0.093384042 0.054325391
-0.34285688 -0.093290679 0.054354757
-0.34305277 -0.09320572 0.05434031
-0.3432478 -0.09312553 0.054295886
-0.34345201 -0.093036354 0.054284878
-0.34364083 -0.092954695 0.054269306
-0.34382176 -0.092878908 0.054237615
-0.34401685 -0.092791244 0.054243937
-0.34420347 -0.092710063 0.05423183
-0.34438458 -0.092641801 0.054148231
-0.3445982 -0.092534572 0.054231763
-0.34478301 -0.092457235 0.054198898
-0.34497049 -0.092373624 0.054200634
-0.34514827 -0.092306852 0.054117046
-0.24659684 -0.13540058 0.059030294
-0.24682319 -0.13530767 0.058977716
-0.24706917 -0.13521366 0.058873184
-0.24730226 -0.13512063 0.05880098
-0.24753256 -0.13502935 0.058725324
-0.24776313 -0.13493676 0.058657743
-0.24802589 -0.13484104 0.058513954
-0.24825689 -0.13475165 0.058423314
-0.24846315 -0.1346609 0.058416907
-0.2486757 -0.13456988 0.058393188
-0.24889767 -0.13447993 0.058333702
-0.24912083 -0.1343886 0.058279976
-0.24933468 -0.13429785 0.058250491
-0.24955723 -0.1342068 0.058196768
-0.24977913 -0.13411738 0.058133818
-0.25000483 -0.13402645 0.058069713
-0.25024366 -0.13393511 0.057968665
-0.25045383 -0.13384514 0.057944953
-0.25067481 -0.13375631 0.057880849
-0.25089824 -0.13366605 0.057819061
-0.25111517 -0.13357766 0.057764195
-0.25134414 -0.13348748 0.057685085
-0.25156364 -0.13339779 0.05763137
-0.2517857 -0.13330813 0.057569571
-0.25200787 -0.13322012 0.05749625
-0.25223696 -0.13313055 0.057412528
-0.25245756 -0.13304138 0.057351895
-0.25268266 -0.13295224 0.057277404
-0.25290337 -0.13286488 0.057204086
-0.25310645 -0.13277656 0.057190772
-0.25332811 -0.13268791 0.057123218
-0.25354266 -0.13259956 0.057075277
-0.25376049 -0.13251281 0.057006583
-0.25397402 -0.13242474 0.056959804
-0.25418845 -0.1323368 0.056909565
-0.25440806 -0.13224889 0.056843165
-0.25461635 -0.13216282 0.056798711
-0.25482833 -0.13207528 0.056753084
-0.25504231 -0.13198785 0.056700535
-0.25525874 -0.13190053 0.056639913
-0.25547129 -0.13181494 0.056579303
-0.25567478 -0.13172793 0.056555614
-0.25588533 -0.13164103 0.05650999
-0.25609559 -0.13155425 0.056464382
-0.25630507 -0.13146918 0.056409538
-0.25651026 -0.13138261 0.056377776
-0.25671953 -0.13129778 0.056321781
-0.25692719 -0.13121149 0.056280784
-0.25713068 -0.13112685 0.056240954
-0.25733674 -0.13104077 0.056203421
-0.25754327 -0.1309548 0.056163579
-0.25777438 -0.13086772 0.056056794
-0.25798476 -0.13077073 0.056080353
-0.25812972 -0.13069044 0.056188285
-0.25832388 -0.13061114 0.056140412
-0.25855288 -0.13052128 0.056058992
-0.25884423 -0.13044471 0.055698376
-0.2590397 -0.1303594 0.055687394
-0.25916028 -0.130272 0.055917602
-0.25937545 -0.13019064 0.055820089
-0.25957742 -0.13010737 0.05577565
-0.25977769 -0.1300225 0.05574736
-0.25997496 -0.12993929 0.055716775
-0.26017863 -0.12985307 0.055687316
-0.26038101 -0.12977028 0.055638269
-0.26057935 -0.12968574 0.055613443
-0.26077884 -0.12960307 0.055572473
-0.26098576 -0.12951574 0.055540696
-0.26117241 -0.12943436 0.055529747
-0.26137269 -0.12935033 0.055495691
-0.26158506 -0.12926362 0.055443145
-0.261765 -0.12918387 0.055441435
-0.26195955 -0.12909983 0.055424687
-0.26215693 -0.12901606 0.055397555
-0.26235104 -0.12893392 0.055369284
-0.26254436 -0.12885007 0.055354849
-0.26272929 -0.12876576 0.055369265
-0.26291639 -0.12868163 0.05537561
-0.26308835 -0.12860002 0.055410817
-0.26325279 -0.12851429 0.055496771
-0.26340291 -0.12842561 0.055646189
-0.26353067 -0.12833501 0.055876385
-0.2619366 -0.1278816 0.063791618
-0.26240268 -0.1277132 0.063527301
-0.2625514 -0.1276204 0.063709006
-0.26275828 -0.12753308 0.063677244
-0.26304185 -0.12734738 0.064083345
-0.26348108 -0.12705971 0.064712636
-0.26525185 -0.12684117 0.060839042
-0.26544094 -0.12675466 0.060855757
-0.26565397 -0.12665716 0.060874689
-0.26588258 -0.12656578 0.060804807
-0.26605844 -0.12648378 0.060830779
-0.2662591 -0.12639703 0.060814016
-0.26645613 -0.12630986 0.060811099
-0.26666033 -0.12623405 0.060709007
-0.2668137 -0.12615934 0.060753495
-0.26706654 -0.12605788 0.060678922
-0.26724392 -0.12598062 0.060667999
-0.26744235 -0.12588996 0.060684681
-0.26762587 -0.12580118 0.060733683
-0.26780224 -0.1257176 0.060768872
-0.26799366 -0.12563646 0.06074176
-0.26821634 -0.12556702 0.060540464
-0.26838419 -0.12549077 0.060551472
-0.26860952 -0.12538156 0.060613029
-0.26879737 -0.12529594 0.060627438
-0.26897866 -0.12522219 0.06058076
-0.26919362 -0.12513077 0.060552418
-0.26937607 -0.12504873 0.060558774
-0.26955068 -0.12497625 0.060523644
-0.26976785 -0.12488116 0.06051375
-0.26995444 -0.12480235 0.060485497
-0.27016169 -0.12471216 0.060472175
-0.27036768 -0.12463303 0.060387373
-0.27054185 -0.12454975 0.060427181
-0.27071533 -0.12447084 0.06043933
-0.27093002 -0.1243826 0.060390238
-0.27109218 -0.12430821 0.060405873
-0.2712574 -0.12422992 0.060438797
-0.27149358 -0.12414686 0.060289335
-0.27165323 -0.12406512 0.06036263
-0.27186912 -0.12397076 0.060351588
-0.27205753 -0.12388876 0.060339466
-0.27222127 -0.12381503 0.060345877
-0.27244267 -0.12372703 0.060274862
-0.27262509 -0.12364381 0.060289286
-0.27281106 -0.12356392 0.060270265
-0.27298239 -0.12348275 0.060304325
-0.27319244 -0.12339234 0.060284063
-0.27337065 -0.12331793 0.060251229
-0.27354941 -0.12323886 0.060248371
-0.2737985 -0.12315211 0.06008504
-0.27397048 -0.12306896 0.060130619
-0.27414152 -0.122983 0.060198113
-0.2743344 -0.1229058 0.060139872
-0.27451923 -0.12282641 0.060120851
-0.27471697 -0.12274334 0.060087949
-0.27490452 -0.12265986 0.060088526
-0.27510655 -0.12257064 0.06008444
-0.27528837 -0.12249582 0.060043521
-0.27548009 -0.12241388 0.060021024
-0.27568343 -0.12232798 0.059990417
-0.27584094 -0.12225869 0.05998531
-0.27601397 -0.12217085 0.060059719
-0.27622241 -0.12209485 0.059946083
-0.27641758 -0.1220146 0.059901662
-0.27659565 -0.12192587 0.059966829
-0.27678934 -0.12185068 0.059892438
-0.27697432 -0.1217753 0.059845753
-0.27715889 -0.12168351 0.059912048
-0.27735087 -0.12161364 0.059806537
-0.27754256 -0.12153561 0.059757523
-0.27773097 -0.12144534 0.059801903
-0.2778928 -0.12135603 0.059920151
-0.27810189 -0.12127654 0.059828423
-0.27825817 -0.12119341 0.059921321
-0.27846813 -0.1211203 0.05978347
-0.27865803 -0.12104511 0.059720628
-0.27883992 -0.12095806 0.05976272
-0.27903247 -0.12087255 0.05976212
-0.27921307 -0.12079081 0.05977194
-0.2793915 -0.12071411 0.059754092
-0.27960765 -0.12063621 0.059630059
-0.27978241 -0.12056418 0.059591468
-0.27996448 -0.12048044 0.059610501
-0.28015381 -0.12040008 0.059584551
-0.28034139 -0.12031287 0.059610486
-0.28052405 -0.1202326 0.059604157
-0.28068444 -0.12015103 0.059673987
-0.28088275 -0.12008157 0.059546553
-0.28107983 -0.11999608 0.059532106
-0.28125113 -0.11991678 0.059553478
-0.28143126 -0.11984202 0.059517182
-0.28164288 -0.11975785 0.059449658
-0.2818386 -0.11967532 0.059419073
-0.28203046 -0.11958758 0.059435766
-0.28222385 -0.11950067 0.059442081
-0.28241295 -0.11942481 0.059386156
-0.28256276 -0.11934727 0.05946064
-0.28274229 -0.11926956 0.059446245
-0.28293824 -0.11919116 0.059386831
-0.28313935 -0.11910219 0.05938391
-0.28330579 -0.11903436 0.059341885
-0.28347674 -0.1189554 0.059362106
-0.28366694 -0.11887057 0.059363827
-0.28386015 -0.11878408 0.059367832
-0.28405684 -0.11870705 0.059296891
-0.28424209 -0.11862291 0.059309009
-0.2844398 -0.11855423 0.059178114
-0.28460473 -0.11848268 0.05916607
-0.2847929 -0.1183859 0.059255414
-0.28499016 -0.11830641 0.059199464
-0.28515553 -0.11823533 0.059182808
-0.28529456 -0.11814582 0.059371457
-0.28551555 -0.11807189 0.059205905
-0.28568149 -0.11799751 0.059210002
-0.28586656 -0.11792547 0.059140243
-0.28604901 -0.11784377 0.059144292
-0.28624076 -0.1177652 0.059098735
-0.28642169 -0.11768246 0.059114315
-0.28660995 -0.1176014 0.059096433
-0.2867834 -0.11752927 0.059062466
-0.28696418 -0.11744238 0.059106871
-0.28717029 -0.11735523 0.059076257
-0.2873337 -0.11728352 0.059069984
-0.28751397 -0.11720903 0.059031375
-0.28769752 -0.11712886 0.059021577
-0.28787988 -0.11705209 0.058992192
-0.28808242 -0.11697129 0.058929309
-0.28824806 -0.11688417 0.05902103
-0.28843841 -0.11681505 0.058915526
-0.2885994 -0.11673711 0.058958836
-0.288791 -0.11666048 0.058900595
-0.28897724 -0.11658825 0.058828536
-0.28917652 -0.11650077 0.058820993
-0.28934228 -0.116418 0.058882743
-0.28951958 -0.11633231 0.058929458
-0.28969023 -0.11626415 0.058877051
-0.28988019 -0.1161918 0.058794603
-0.29005998 -0.11611889 0.058746777
-0.29025251 -0.11604489 0.058667772
-0.29043445 -0.11596458 0.058663756
-0.29060566 -0.11586688 0.058810793
-0.29076821 -0.11577979 0.058911756
-0.29096255 -0.11572446 0.058700167
-0.2911498 -0.11564519 0.058673065
-0.29133144 -0.11555926 0.058708243
-0.29150769 -0.11548318 0.058692709
-0.29170349 -0.11542077 0.058524922
-0.29187456 -0.11532126 0.058684655
-0.29204786 -0.11524158 0.058702566
-0.29223856 -0.11516163 0.058669686
-0.29242575 -0.11508305 0.058637977
-0.29259893 -0.11500935 0.058615543
-0.29278788 -0.11493982 0.058516957
-0.29297918 -0.11486164 0.058470242
-0.29315391 -0.11477811 0.058510043
-0.29332489 -0.11469522 0.058556788
-0.29350781 -0.11461753 0.058532007
-0.29368731 -0.1145412 0.058508396
-0.29386058 -0.11445494 0.058571268
-0.29404879 -0.11439319 0.058421955
-0.29424635 -0.11432695 0.058274925
-0.29441512 -0.11422592 0.058451947
-0.29458591 -0.1141421 0.05850561
-0.29477721 -0.1140805 0.058345914
-0.29496217 -0.11398515 0.058435269
-0.29513061 -0.11391203 0.058423214
-0.29532355 -0.11385528 0.05822546
-0.29550031 -0.11375123 0.05839901
-0.29569256 -0.11367802 0.058315407
-0.29586852 -0.11360445 0.058283731
-0.29605162 -0.11352955 0.058239348
-0.29623729 -0.11344303 0.058266439
-0.29640973 -0.11335307 0.058356985
-0.29658425 -0.11328571 0.05828727
-0.29676518 -0.11321551 0.058217533
-0.29695243 -0.11313269 0.058214653
-0.29713264 -0.11305163 0.058221005
-0.29730636 -0.11297363 0.058226228
-0.29748899 -0.11289896 0.05818186
-0.29766679 -0.11282185 0.05816862
-0.29785207 -0.11274463 0.058133453
-0.29803723 -0.1126673 0.058099452
-0.29821226 -0.11258213 0.058149632
-0.29839465 -0.11250806 0.058101803
-0.29857314 -0.11242167 0.058149673
-0.2987631 -0.11234848 0.058072984
-0.29894441 -0.11227167 0.05804706
-0.29912373 -0.1121878 0.058075327
-0.29929069 -0.11211229 0.05808403
-0.29947194 -0.11204991 0.057960108
-0.29965052 -0.11196281 0.058012586
-0.2998313 -0.11188471 0.057997037
-0.30002078 -0.11181343 0.057908826
-0.30021363 -0.11172524 0.057925526
-0.30038005 -0.11164743 0.057951525
-0.30055147 -0.11157671 0.057914101
-0.30074206 -0.11149511 0.057892758
-0.30092576 -0.11141454 0.057885267
-0.30109206 -0.11133526 0.057921648
-0.30126974 -0.11126092 0.057889964
-0.30145299 -0.11117733 0.057904389
-0.30162808 -0.11111023 0.057831213
-0.30181172 -0.11102985 0.05782257
-0.30199257 -0.11095495 0.057785112
-0.30217585 -0.11087169 0.057797223
-0.30235305 -0.11079553 0.057779379
-0.30253333 -0.1107163 0.057773057
-0.30271351 -0.11063576 0.057775963
-0.30288702 -0.11055566 0.057796169
-0.30307218 -0.11049999 0.057614595
-0.3032549 -0.11040599 0.057701644
-0.30342516 -0.11032816 0.057716101
-0.30360594 -0.1102621 0.0576187
-0.30378935 -0.1101798 0.057623893
-0.30396292 -0.11010084 0.057636037
-0.30414632 -0.11001075 0.057694267
-0.30432338 -0.10994633 0.057596877
-0.30450356 -0.10987461 0.057539817
-0.30468702 -0.10979091 0.057554238
-0.3048639 -0.10971473 0.057537552
-0.30504775 -0.1096214 0.057616532
-0.3052277 -0.10955147 0.057547949
-0.30540681 -0.10949629 0.057381373
-0.30558667 -0.10942081 0.057350837
-0.30577105 -0.10932249 0.0574621
-0.30594113 -0.10925187 0.05742814
-0.30612513 -0.10916388 0.057470229
-0.30631766 -0.10908853 0.05740045
-0.30650523 -0.10899761 0.057451751
-0.30666903 -0.10892621 0.057442021
-0.3068434 -0.10884386 0.057474919
-0.30702493 -0.10878117 0.057352148
-0.30721298 -0.10868868 0.057412662
-0.30738235 -0.10862227 0.057352189
-0.30757347 -0.10855364 0.057240915
-0.30774486 -0.10847142 0.057281889
-0.30792528 -0.10839095 0.057283632
-0.30811417 -0.10831483 0.057230018
-0.30829182 -0.10823289 0.057250213
-0.3084718 -0.1081555 0.057232365
-0.30865803 -0.10807668 0.057205267
-0.30883092 -0.1080048 0.057171293
-0.30900794 -0.10792685 0.057166137
-0.30918467 -0.10783584 0.05725091
-0.30936652 -0.10776387 0.057190388
-0.30956262 -0.10768068 0.057163261
-0.30972633 -0.10760982 0.05715007
-0.30990252 -0.10753615 0.057118393
-0.31007931 -0.10745966 0.057104014
-0.31025562 -0.10738524 0.057076946
-0.31044114 -0.10729726 0.057114419
-0.31061769 -0.10722207 0.057091966
-0.310794 -0.10714765 0.057064906
-0.31096679 -0.10708632 0.05695945
-0.31114992 -0.10700769 0.056940436
-0.31131953 -0.10693625 0.056913387
-0.31150752 -0.10684074 0.056994665
-0.31167632 -0.10678202 0.056883462
-0.31185862 -0.10669665 0.056912869
-0.31204444 -0.10660024 0.05700684
-0.31223387 -0.10651121 0.057039686
-0.31241146 -0.10645061 0.056914613
-0.3125976 -0.10637183 0.056887526
-0.31279615 -0.10625573 0.057077147
-0.31296742 -0.10620487 0.056904823
-0.31314373 -0.10613047 0.056877755
-0.31331521 -0.10606174 0.056826498
-0.31349176 -0.10597877 0.056857083
-0.31366235 -0.10591248 0.056791984
-0.31385306 -0.10582881 0.056784473
-0.31403339 -0.10574345 0.056819655
-0.31421146 -0.10567164 0.056769527
-0.31438854 -0.1055952 0.056753993
-0.31456283 -0.10551898 0.05674538
-0.31473458 -0.10544913 0.056701031
-0.31492352 -0.10536353 0.056711975
-0.31510964 -0.10528492 0.05668373
-0.3152802 -0.10521137 0.056668211
-0.31545487 -0.10513447 0.056663066
-0.31563506 -0.10506359 0.056600239
-0.31582102 -0.10497914 0.056612343
-0.31598854 -0.10491268 0.05655764
-0.31617498 -0.10482734 0.056574352
-0.31635851 -0.10474279 0.056594543
-0.31653336 -0.10467173 0.056549035
-0.31671682 -0.10459328 0.056527711
-0.31689578 -0.1045133 0.056530617
-0.31707942 -0.10442904 0.056548499
-0.31725734 -0.10435694 0.056500673
-0.31743369 -0.10427728 0.056509346
-0.31761172 -0.10420498 0.056462679
-0.31779063 -0.10412551 0.05646212
-0.31798053 -0.10403441 0.056507647
-0.31816012 -0.10395905 0.056477118
-0.31833011 -0.1038976 0.056380898
-0.31852317 -0.10380067 0.056456394
-0.31869394 -0.10373753 0.056369398
-0.31886858 -0.10366183 0.056356166
-0.31904909 -0.1035847 0.056334861
-0.31924355 -0.10349089 0.056384984
-0.31941018 -0.10343043 0.056292228
-0.3195824 -0.10335935 0.056254808
-0.31977129 -0.10327157 0.056280736
-0.31996328 -0.10317377 0.056365453
-0.3201367 -0.10311435 0.05624501
-0.32030761 -0.10304572 0.056194909
-0.32049876 -0.10294998 0.0562681
-0.32068095 -0.10286603 0.056288291
-0.32085454 -0.10280586 0.056172457
-0.32102334 -0.1027451 0.056075089
-0.32121837 -0.10264342 0.056177087
-0.32140902 -0.10255384 0.05620994
-0.32158723 -0.10248129 0.056164421
-0.32177386 -0.10240281 0.056133866
-0.32195163 -0.10232284 0.056140237
-0.32213613 -0.10223987 0.056146577
-0.32231659 -0.10216768 0.056091826
-0.3224887 -0.10209718 0.056050945
-0.322658 -0.1020311 0.055988163
-0.32284826 -0.10194305 0.056011777
-0.32302067 -0.10187207 0.055973195
-0.32321286 -0.1017774 0.056036018
-0.32339719 -0.10169537 0.056036592
-0.32357901 -0.10161732 0.056017585
-0.32375094 -0.10155095 0.055949025
-0.32393295 -0.10147265 0.055931173
-0.32410112 -0.10140829 0.055860315
-0.32429722 -0.10131221 0.055920821
-0.32448578 -0.10122068 0.055973269
-0.32466167 -0.10115187 0.055909306
-0.32483709 -0.10108023 0.055866107
-0.32501516 -0.10100809 0.05581829
-0.32520533 -0.10091126 0.055901859
-0.32536548 -0.10085858 0.055775691
-0.32554978 -0.10077741 0.055770509
-0.32571152 -0.10072216 0.055657018
-0.32590303 -0.10063068 0.055700231
-0.3260819 -0.10055411 0.055680081
-0.3262755 -0.10046001 0.055734824
-0.32644522 -0.10039325 0.055675499
-0.32665083 -0.10028585 0.055784393
-0.32681069 -0.10023618 0.055638622
-0.32698867 -0.10015799 0.055632308
-0.3271679 -0.10008126 0.055612147
-0.32736206 -0.099987231 0.05566458
-0.32754335 -0.099907905 0.055655949
-0.32772869 -0.099826276 0.055650763
-0.32790264 -0.099756956 0.055596039
-0.32809034 -0.099672243 0.055604681
-0.32826775 -0.099598363 0.055570692
-0.32845628 -0.099509716 0.055603541
-0.32863557 -0.099433474 0.055579927
-0.32881129 -0.099364907 0.055514816
-0.32900751 -0.099269465 0.055570703
-0.32918307 -0.099198267 0.055524044
-0.32936156 -0.099123225 0.055494666
-0.32953513 -0.099054605 0.055436477
-0.32973018 -0.098958321 0.055501595
-0.32991147 -0.098882705 0.055467591
-0.33008736 -0.098811194 0.055422083
-0.33026871 -0.098735563 0.055388089
-0.33046129 -0.098645799 0.055416316
-0.33064857 -0.098560087 0.055433027
-0.33081767 -0.098497167 0.055349492
-0.3309952 -0.098426439 0.055293601
-0.33119127 -0.098330051 0.055356406
-0.33136117 -0.098268807 0.055259034
-0.33154511 -0.098184921 0.055273443
-0.33175063 -0.098080099 0.055365045
-0.3319307 -0.098003849 0.055339124
-0.3320967 -0.097949922 0.055203713
-0.33228475 -0.097864032 0.055219267
-0.33247477 -0.0977837 0.05519101
-0.3326852 -0.097671285 0.055319492
-0.3328369 -0.097631678 0.055129934
-0.33304396 -0.097526163 0.055221532
-0.33322495 -0.097451702 0.055180613
-0.33340847 -0.097376794 0.055135079
-0.33359087 -0.097293258 0.055151805
-0.33377057 -0.097220376 0.055103984
-0.33396712 -0.097132921 0.055104524
-0.33414313 -0.097059488 0.055071697
-0.33432361 -0.096978478 0.055076901
-0.3345032 -0.096903451 0.055044062
-0.33467939 -0.096829936 0.055011235
-0.33486643 -0.096748903 0.054996818
-0.33503446 -0.096689507 0.054892536
-0.33521464 -0.096606769 0.054910425
-0.33542645 -0.096500352 0.054993931
-0.33559006 -0.096441224 0.05490119
-0.33580863 -0.096325181 0.055029638
-0.33598268 -0.096263811 0.054920718
-0.3361817 -0.096174568 0.054925866
-0.33636612 -0.096094683 0.054911457
-0.33654809 -0.096017592 0.054885533
-0.33673194 -0.095938474 0.054867666
-0.33691764 -0.095861927 0.054826744
-0.3371096 -0.095776334 0.054828446
-0.33729738 -0.095693097 0.054826714
-0.33747253 -0.095617011 0.054814637
-0.33766571 -0.095532551 0.054804821
-0.33785102 -0.095458888 0.054745451
-0.33804095 -0.095367089 0.054795586
-0.33822641 -0.095291145 0.054751195
-0.33837682 -0.095237374 0.054661959
-0.33857945 -0.095147565 0.054660171
-0.33879066 -0.095035814 0.054781735
-0.33896539 -0.094971403 0.054691255
-0.33917037 -0.094881549 0.054682557
-0.33934325 -0.094812728 0.054627828
-0.33953509 -0.094726168 0.054636456
-0.33973804 -0.094626039 0.054703858
-0.33991024 -0.094562255 0.054616846
-0.34010354 -0.094476581 0.054615095
-0.34026802 -0.094414532 0.05453964
-0.34045747 -0.094332933 0.054521758
-0.34065458 -0.094243519 0.054533832
-0.34083903 -0.094165161 0.054509055
-0.3410362 -0.094075888 0.054519966
-0.34120849 -0.094005972 0.054474466
-0.34139857 -0.093924098 0.054456584
-0.34160545 -0.093825266 0.05450321
-0.34178594 -0.093753234 0.054447312
-0.34198025 -0.093669303 0.054430567
-0.34215564 -0.093596481 0.054395441
-0.34235901 -0.093503624 0.054412104
-0.34253222 -0.093437016 0.054341231
-0.34271029 -0.093361646 0.054315314
-0.34291908 -0.093263671 0.054350413
-0.34309661 -0.093194805 0.054281838
-0.34332147 -0.093090884 0.054308813
-0.34350729 -0.093013942 0.054270189
-0.34368825 -0.092937969 0.054239646
-0.34389263 -0.092842966 0.054267842
-0.34406376 -0.092771031 0.054239638
-0.34424356 -0.092700139 0.054177973
-0.34444654 -0.092606768 0.054199252
-0.34463447 -0.092520595 0.054217119
-0.34482688 -0.092437677 0.054199226
-0.34500408 -0.092367604 0.054139879
-0.34520295 -0.092278607 0.054143868
-0.24662325 -0.13539012 0.059021622
-0.24684571 -0.13529892 0.058969088
-0.24708222 -0.13520555 0.058888853
-0.24731459 -0.13511401 0.058808632
-0.24755469 -0.13502075 0.058716856
-0.24778314 -0.13492978 0.058644712
-0.24804622 -0.13483408 0.058499843
-0.24826312 -0.13474552 0.058446188
-0.24846604 -0.13465641 0.058438681
-0.24868435 -0.13456656 0.058389619
-0.24890906 -0.13447505 0.05833248
-0.2491224 -0.1343857 0.058294967
-0.24933532 -0.13429503 0.058267832
-0.24956262 -0.13420524 0.058191083
-0.24978685 -0.13411427 0.058131635
-0.2500096 -0.13402498 0.058065269
-0.25023749 -0.13393562 0.057983913
-0.25044522 -0.13384724 0.057956792
-0.25067562 -0.13375658 0.057876576
-0.2508949 -0.13366799 0.057815988
-0.25111538 -0.133578 0.057761159
-0.25133523 -0.13348967 0.057697117
-0.251553 -0.13340005 0.057648066
-0.25177795 -0.13331182 0.057567857
-0.25200161 -0.1332223 0.057500347
-0.25222132 -0.13313453 0.057432842
-0.25244185 -0.13304538 0.057372257
-0.25266287 -0.13295786 0.057298988
-0.25289321 -0.13286877 0.057208389
-0.2530894 -0.13278213 0.057204358
-0.25330943 -0.13269354 0.057141468
-0.2535243 -0.13260673 0.05708205
-0.25374007 -0.13252003 0.057019167
-0.25395393 -0.13243352 0.056960903
-0.25416633 -0.13234562 0.056916475
-0.25437918 -0.13225937 0.056859363
-0.25458944 -0.13217172 0.056819558
-0.25480363 -0.13208573 0.056756683
-0.25501642 -0.13199832 0.056707636
-0.25522575 -0.13191262 0.05665746
-0.25544065 -0.13182546 0.05660034
-0.25564325 -0.13174005 0.056568626
-0.25585645 -0.13165314 0.056514978
-0.2560631 -0.13156796 0.056469411
-0.25627267 -0.1314813 0.056424998
-0.25647539 -0.13139634 0.056389816
-0.2566897 -0.13130996 0.05632925
-0.2568934 -0.13122523 0.056289457
-0.25710002 -0.13113904 0.056250811
-0.25730026 -0.13105451 0.056220256
-0.25750452 -0.13096853 0.056187384
-0.25771978 -0.13088442 0.056108363
-0.2579408 -0.13078761 0.056098495
-0.258275 -0.13062631 0.056185137
-0.25848514 -0.13054092 0.056130342
-0.25900817 -0.13037497 0.055676911
-0.25912425 -0.13028583 0.055932499
-0.25933063 -0.13020752 0.055840831
-0.25953856 -0.1301228 0.055788338
-0.259736 -0.1300395 0.055757798
-0.25993636 -0.12995474 0.055728391
-0.26013339 -0.12987162 0.055697843
-0.26034412 -0.12978582 0.055644203
-0.26053372 -0.12970431 0.0556252
-0.26073527 -0.12962003 0.055588879
-0.2609449 -0.12953284 0.055547919
-0.26112396 -0.12945281 0.055550858
-0.26132244 -0.12937041 0.05551108
-0.26152962 -0.12928514 0.055464365
-0.26172164 -0.12920089 0.055456892
-0.26190957 -0.12911995 0.055439044
-0.26210183 -0.12903759 0.055417735
-0.26230037 -0.12895399 0.055386029
-0.2624929 -0.12887186 0.055362411
-0.26267943 -0.12878765 0.055371094
-0.26286337 -0.1287051 0.055376317
-0.26304233 -0.12862223 0.055398859
-0.26320812 -0.12853843 0.055467546
-0.26337078 -0.1284508 0.055571977
-0.263495 -0.12836362 0.0557895
-0.26240253 -0.12775104 0.063269988
-0.26248443 -0.12764831 0.063721672
-0.26269788 -0.12756553 0.063639194
-0.26309881 -0.12727945 0.064373538
-0.26516712 -0.12687433 0.060869802
-0.26538038 -0.12679078 0.060793094
-0.26554918 -0.12669379 0.060942471
-0.26580167 -0.12659737 0.060834523
-0.26599807 -0.12651202 0.060821265
-0.26616213 -0.12643458 0.060851917
-0.2663793 -0.12634201 0.060824767
-0.2665799 -0.12625748 0.060793057
-0.26676324 -0.12618706 0.06071759
-0.2669515 -0.12609683 0.060762003
-0.26718181 -0.12600875 0.060664497
-0.26735979 -0.12592749 0.060678963
-0.26755556 -0.12583649 0.060706064
-0.2677334 -0.12575106 0.060749356
-0.26789421 -0.12567557 0.060776554
-0.26812154 -0.12558985 0.060672142
-0.26832914 -0.12552235 0.060503222
-0.26849005 -0.12544072 0.060571913
-0.26871318 -0.12533332 0.060627759
-0.26888382 -0.12525769 0.060626104
-0.26910591 -0.12516971 0.060552832
-0.26929498 -0.12508455 0.060560353
-0.26946986 -0.12500992 0.060539089
-0.26964247 -0.12493275 0.060542047
-0.26988131 -0.1248331 0.060497545
-0.27004302 -0.12476059 0.060501695
-0.27026707 -0.12466717 0.060459532
-0.2704666 -0.12458684 0.060402464
-0.27063483 -0.12450687 0.060437709
-0.2708213 -0.12442625 0.060422182
-0.27102029 -0.12434158 0.060396239
-0.27119312 -0.12426043 0.060425714
-0.27137062 -0.12418954 0.060371011
-0.27157581 -0.1241089 0.060298935
-0.27174768 -0.12402071 0.060379133
-0.27197433 -0.12392664 0.060333513
-0.27213502 -0.12384985 0.060369939
-0.27232647 -0.12377819 0.060278304
-0.27252385 -0.12368679 0.060303092
-0.27272132 -0.12360264 0.060278308
-0.27290425 -0.12352206 0.060273167
-0.27307892 -0.1234394 0.060307235
-0.27328506 -0.12335292 0.060272053
-0.27345127 -0.12327538 0.060296938
-0.27365711 -0.12319884 0.060194883
-0.2738871 -0.12310702 0.060123887
-0.27405339 -0.12302724 0.060163755
-0.27422512 -0.12294401 0.060210526
-0.27442363 -0.12286854 0.060123477
-0.27462062 -0.12278274 0.060111381
-0.27479884 -0.12270408 0.060107403
-0.27500153 -0.12261762 0.060082607
-0.27518389 -0.12253526 0.060091294
-0.27537736 -0.12245643 0.060042314
-0.27556753 -0.1223767 0.060009483
-0.27576753 -0.12229244 0.05997777
-0.27591771 -0.12222083 0.060010768
-0.27609819 -0.12213288 0.060063269
-0.27631059 -0.12205835 0.059927769
-0.2764968 -0.12197512 0.05993069
-0.27668017 -0.12188827 0.059967048
-0.27687898 -0.12181231 0.059882309
-0.27705282 -0.12173578 0.059877187
-0.27725586 -0.12164526 0.059878904
-0.27743742 -0.12158273 0.05975502
-0.27762008 -0.12149314 0.059812136
-0.27782464 -0.12140346 0.059803464
-0.27797288 -0.12132018 0.059921779
-0.27817681 -0.12124162 0.059839334
-0.27833447 -0.12115907 0.059924178
-0.27855122 -0.12108886 0.05974602
-0.27873382 -0.12101081 0.059724737
-0.2789233 -0.1209241 0.059741467
-0.27910233 -0.12083884 0.059780151
-0.2792902 -0.1207603 0.059746169
-0.27947408 -0.12068015 0.059735261
-0.27968311 -0.12060525 0.059612446
-0.2798534 -0.12053131 0.059600428
-0.28003553 -0.12044466 0.059639093
-0.28023076 -0.12036709 0.059576273
-0.28041282 -0.12028046 0.059614934
-0.28058425 -0.12020111 0.05963634
-0.28075436 -0.12012114 0.059665821
-0.28096083 -0.12004958 0.05952803
-0.28114706 -0.11996195 0.059560925
-0.28131601 -0.11988471 0.059575416
-0.28151178 -0.11981163 0.059480313
-0.28170931 -0.11972678 0.059460133
-0.28190547 -0.11964457 0.059426129
-0.28209585 -0.11955611 0.059452094
-0.28229678 -0.11947008 0.059429612
-0.28247583 -0.11939546 0.059395656
-0.2826249 -0.11931758 0.05947477
-0.28281486 -0.1192425 0.059410803
-0.28299952 -0.11916456 0.059382603
-0.28320098 -0.11907592 0.059376247
-0.28336444 -0.11900991 0.059330814
-0.28353509 -0.11892734 0.059376426
-0.28372476 -0.11884581 0.059357435
-0.2839261 -0.11875739 0.059349932
-0.28411144 -0.11868049 0.0593125
-0.28430244 -0.1185965 0.059306178
-0.28449532 -0.11853216 0.059160363
-0.28467128 -0.11844588 0.059215188
-0.28485626 -0.11835814 0.059252691
-0.28504428 -0.11828376 0.059189886
-0.28520638 -0.11820669 0.059223995
-0.28535029 -0.1181206 0.059374601
-0.28557327 -0.1180483 0.059191804
-0.28573537 -0.11797123 0.059225917
-0.28592652 -0.11789986 0.059133135
-0.2861037 -0.11781829 0.059152219
-0.28629577 -0.11774007 0.059103243
-0.28648064 -0.11765645 0.059113082
-0.28666323 -0.11757924 0.059086032
-0.28683853 -0.11750459 0.059063613
-0.28702506 -0.11741412 0.059114948
-0.28721714 -0.11733236 0.059090182
-0.28738564 -0.11726075 0.059067793
-0.28756237 -0.11718766 0.059030384
-0.28774661 -0.1171082 0.059013709
-0.28792885 -0.11703148 0.05898435
-0.2881299 -0.11694507 0.058964174
-0.28830051 -0.11686251 0.05900979
-0.28848261 -0.116795 0.058918178
-0.28864059 -0.11671891 0.058958072
-0.28883782 -0.11664316 0.058876798
-0.289024 -0.11656638 0.058835901
-0.28921849 -0.11647899 0.058842257
-0.28938431 -0.11639637 0.058902875
-0.28956181 -0.11631583 0.058913887
-0.28973565 -0.11624624 0.058861505
-0.2899271 -0.11617068 0.058796383
-0.29011056 -0.11610189 0.05870939
-0.29029611 -0.11602048 0.058701932
-0.29047436 -0.1159464 0.058666833
-0.29063562 -0.11584786 0.058849663
-0.29080129 -0.11576445 0.05891604
-0.29100379 -0.11571361 0.058649153
-0.29118603 -0.11562859 0.058676288
-0.29136804 -0.11554319 0.058706887
-0.29154581 -0.11546914 0.058672935
-0.29173893 -0.11540926 0.058495983
-0.29190108 -0.11530406 0.058721468
-0.29208091 -0.11522724 0.058700196
-0.29227176 -0.1151477 0.058663897
-0.2924574 -0.11506712 0.058650676
-0.29263204 -0.11499564 0.058608666
-0.29282099 -0.11492628 0.05850897
-0.29301003 -0.11484502 0.058489978
-0.29317936 -0.11476626 0.058513697
-0.29335019 -0.11468327 0.058561623
-0.29353717 -0.11460546 0.058525331
-0.29371208 -0.11452879 0.058517911
-0.29388365 -0.11444667 0.058557764
-0.29407373 -0.1143883 0.058379669
-0.29426664 -0.11431447 0.058298413
-0.29443187 -0.11421451 0.058478922
-0.29460305 -0.11413882 0.058476117
-0.29479989 -0.1140727 0.05833029
-0.29497552 -0.1139754 0.058461204
-0.29515067 -0.11390743 0.058393821
-0.29534528 -0.11384638 0.058220334
-0.29551467 -0.11374389 0.058405451
-0.29570767 -0.11367238 0.05830805
-0.29588586 -0.11359543 0.058292538
-0.29606932 -0.1135214 0.058241278
-0.29625085 -0.11343468 0.058282256
-0.29642123 -0.11334918 0.05834863
-0.29659897 -0.11328039 0.058278933
-0.29678291 -0.11320835 0.05821269
-0.29696268 -0.11312646 0.058226001
-0.29714322 -0.11304644 0.058224324
-0.29732019 -0.11296716 0.058228418
-0.29750293 -0.1128931 0.058179468
-0.29767728 -0.1128172 0.058168575
-0.29786295 -0.11274133 0.058123078
-0.29804358 -0.11266211 0.058115639
-0.29821935 -0.11257946 0.058146253
-0.29840469 -0.11250324 0.05810421
-0.2985833 -0.11241747 0.058147494
-0.29876608 -0.11234543 0.058084711
-0.29895112 -0.112269 0.058044977
-0.29912344 -0.11218672 0.058083676
-0.29929787 -0.11211211 0.058063563
-0.29947862 -0.11204825 0.057951219
-0.2996569 -0.11196043 0.058009494
-0.29983464 -0.1118852 0.057983607
-0.3000235 -0.11181148 0.057913892
-0.3002162 -0.11172318 0.057931773
-0.3003827 -0.11164617 0.057952039
-0.30055439 -0.1115772 0.057901975
-0.30074772 -0.11149183 0.057897944
-0.30092815 -0.11141323 0.057887044
-0.30109468 -0.11133587 0.057909623
-0.30126894 -0.11126269 0.057880286
-0.3014521 -0.11117931 0.057893589
-0.30163047 -0.11111126 0.057816982
-0.30181381 -0.11102932 0.05781991
-0.30199122 -0.11095543 0.057785958
-0.3021777 -0.11087091 0.057796951
-0.30235484 -0.1107951 0.057776835
-0.30253506 -0.11071607 0.057769395
-0.30271512 -0.11063492 0.057776939
-0.30288535 -0.11055795 0.05778566
-0.3030704 -0.11050148 0.05760989
-0.30325285 -0.11040487 0.057715423
-0.30342644 -0.11032827 0.05771146
-0.30360389 -0.1102642 0.05761065
-0.30378714 -0.11018076 0.057623953
-0.30396396 -0.11010104 0.057631504
-0.30414724 -0.11000999 0.057696685
-0.30432424 -0.10994644 0.057593562
-0.30450431 -0.10987458 0.057537705
-0.30468768 -0.10979179 0.057546388
-0.30486116 -0.10971743 0.057527442
-0.30504823 -0.10962132 0.05761566
-0.30522811 -0.10955072 0.057551734
-0.30540392 -0.10949634 0.057389826
-0.30559024 -0.10941798 0.057359308
-0.3057712 -0.10932236 0.057462536
-0.30594113 -0.10925282 0.057421692
-0.30612502 -0.10916504 0.057462659
-0.30631104 -0.10909106 0.057403322
-0.30650166 -0.10899995 0.05744658
-0.30667192 -0.10892585 0.057435699
-0.30684292 -0.108845 0.057468638
-0.30702117 -0.10878309 0.057350531
-0.30720916 -0.10869028 0.057413388
-0.30738163 -0.10862315 0.057348326
-0.30756962 -0.10855421 0.057248633
-0.30774391 -0.10847273 0.057275794
-0.30792442 -0.10839121 0.057284497
-0.30811006 -0.10831586 0.057235539
-0.30829054 -0.10823468 0.057241932
-0.30846745 -0.10815696 0.057235651
-0.30865362 -0.10807798 0.057209741
-0.308833 -0.10800322 0.057175785
-0.30900985 -0.10792585 0.057167202
-0.30917937 -0.1078404 0.057235882
-0.30936483 -0.10776515 0.057186924
-0.30956125 -0.10767993 0.057172518
-0.30972773 -0.10760971 0.057146668
-0.30990371 -0.10753644 0.05711272
-0.31007719 -0.10746125 0.05709954
-0.31025004 -0.10738871 0.057070211
-0.31044218 -0.10729729 0.057111155
-0.3106119 -0.10722562 0.057085305
-0.31079197 -0.10714767 0.057070937
-0.31096467 -0.10708636 0.05696553
-0.31115505 -0.10700215 0.056962669
-0.3113195 -0.10693859 0.056897629
-0.31150329 -0.10683749 0.057029668
-0.31167239 -0.10678726 0.056859709
-0.31185454 -0.10670213 0.056887999
-0.31203979 -0.10660714 0.056973923
-0.31223458 -0.10650962 0.057048295
-0.31240883 -0.10645051 0.056923285
-0.31259722 -0.10637327 0.056878924
-0.31278977 -0.10625795 0.057081267
-0.31296608 -0.10620029 0.056940105
-0.31313705 -0.10613315 0.056879655
-0.3133148 -0.10606233 0.056823805
-0.31348485 -0.10598172 0.056857895
-0.31365758 -0.10591702 0.05677554
-0.31384987 -0.10582873 0.05679458
-0.31403214 -0.1057454 0.056810185
-0.3142072 -0.10567407 0.056765866
-0.31438732 -0.10559662 0.056748051
-0.31455797 -0.10552251 0.05673603
-0.31473368 -0.10544938 0.056702085
-0.314922 -0.10536505 0.056706145
-0.315106 -0.10528485 0.056695234
-0.31527513 -0.10521464 0.056661308
-0.3154529 -0.10513653 0.056655034
-0.31563327 -0.10506505 0.056595705
-0.31581974 -0.10497917 0.056615915
-0.31598592 -0.10491569 0.056545116
-0.31617582 -0.1048283 0.056565315
-0.3163532 -0.10474545 0.056592464
-0.31652844 -0.10467336 0.056552753
-0.31671107 -0.10459666 0.056522246
-0.31689602 -0.10451484 0.0565194
-0.31707725 -0.10442995 0.056548849
-0.31725481 -0.10435852 0.056497607
-0.31743425 -0.10427764 0.056505151
-0.31760857 -0.10420749 0.056455076
-0.31779006 -0.1041279 0.056447633
-0.31798092 -0.10403467 0.056504712
-0.31816438 -0.10395657 0.05648113
