# .PCD v0.7 - Point Cloud Data file format
VERSION 0.7
FIELDS x y z
SIZE 4 4 4
TYPE F F F
COUNT 1 1 1
WIDTH 1312
HEIGHT 1
VIEWPOINT 0 0 0 1 0 0 0
POINTS 1312
DATA ascii
-0.38682026 -0.33985004 0.052001439
-0.38700816 -0.33985907 0.052017815
-0.3872124 -0.33988103 0.051946484
-0.38740033 -0.33989793 0.051905207
-0.38760129 -0.33990714 0.051926129
-0.38780072 -0.33992159 0.051907856
-0.38799477 -0.33994105 0.051850408
-0.38819563 -0.33995354 0.051847123
-0.38839722 -0.33995822 0.051901463
-0.38859963 -0.33997035 0.051901627
-0.38881466 -0.33999029 0.051849846
-0.38900837 -0.34000549 0.051823523
-0.38916978 -0.34001669 0.051812362
-0.38939142 -0.340027 0.05183433
-0.38958746 -0.34004751 0.051769957
-0.3897576 -0.34006631 0.051706865
-0.38997769 -0.34006992 0.051777262
-0.39015219 -0.34008586 0.051737212
-0.39035681 -0.34009922 0.051729288
-0.39057195 -0.3401165 0.051697105
-0.39078319 -0.34013072 0.051685691
-0.39094687 -0.340143 0.051667593
-0.39113593 -0.3401587 0.051635537
-0.3913407 -0.3401708 0.051636837
-0.39155036 -0.3401843 0.051630042
-0.39174098 -0.34019962 0.051601436
-0.39200395 -0.34020346 0.051688924
-0.39216197 -0.34022781 0.051579777
-0.39231676 -0.34024599 0.05151445
-0.39252159 -0.34025559 0.051534194
-0.39274734 -0.34026584 0.051558454
-0.39295346 -0.34028086 0.051539
-0.3931292 -0.34029967 0.051478181
-0.39332545 -0.34031078 0.051482983
-0.39353013 -0.34032917 0.051438168
-0.39377004 -0.34033963 0.051466968
-0.39396629 -0.34035373 0.051449858
-0.39412317 -0.34037283 0.051378768
-0.39433905 -0.34038246 0.051403064
-0.39453819 -0.34039721 0.051382493
-0.2886225 -0.33291253 0.059698381
-0.28885004 -0.33292899 0.059677713
-0.2890729 -0.33294189 0.059681267
-0.2892971 -0.33295703 0.059668683
-0.2894842 -0.33295709 0.059750799
-0.28976601 -0.33299536 0.059593856
-0.29000092 -0.33301571 0.059547786
-0.29021299 -0.33302575 0.059567541
-0.29043606 -0.33303925 0.059566487
-0.29066387 -0.33305669 0.059538901
-0.29089466 -0.33307397 0.05951361
-0.29111221 -0.33308685 0.059514891
-0.29134077 -0.33310494 0.059482686
-0.29155982 -0.33311868 0.05947819
-0.29180452 -0.33314294 0.059407871
-0.29201883 -0.33315468 0.059416085
-0.29223135 -0.33316395 0.059441596
-0.29246277 -0.33318394 0.059396707
-0.29268846 -0.33319965 0.059380651
-0.29290515 -0.33321452 0.059366956
-0.29313606 -0.33323464 0.059320904
-0.29334503 -0.3332426 0.059354499
-0.29357174 -0.33326089 0.059320003
-0.29380396 -0.3332803 0.05927971
-0.294018 -0.33329266 0.059283316
-0.29423949 -0.33330703 0.059275351
-0.2944535 -0.33331951 0.05927781
-0.29467714 -0.3333351 0.059261769
-0.29491055 -0.33335742 0.059200719
-0.29512608 -0.33337095 0.059196241
-0.29533219 -0.33337983 0.059221789
-0.29557791 -0.33340698 0.059130717
-0.29580197 -0.33342513 0.059096232
-0.2959637 -0.33340997 0.059278756
-0.2962071 -0.33343807 0.059179619
-0.29646093 -0.33346993 0.059057392
-0.29667637 -0.33348408 0.05904831
-0.29689795 -0.33349973 0.059031118
-0.29711023 -0.33351243 0.059031274
-0.29734164 -0.33353338 0.058979463
-0.29755181 -0.33354515 0.058985386
-0.29777759 -0.33356339 0.058950894
-0.29797599 -0.33356914 0.058996066
-0.2982097 -0.33359179 0.058932714
-0.29841849 -0.3336032 0.058940955
-0.29863048 -0.33362561 0.058869638
-0.29885477 -0.33363435 0.05890432
-0.29907781 -0.33365178 0.058874451
-0.29930061 -0.33367109 0.058830746
-0.29950526 -0.33367881 0.058864363
-0.29972759 -0.33369809 0.058820661
-0.29995355 -0.33371758 0.058776941
-0.3001782 -0.33373845 0.058722865
-0.30037811 -0.33374381 0.058771484
-0.30058077 -0.33375263 0.058795888
-0.30079037 -0.33376345 0.058808729
-0.30102947 -0.33379287 0.058698103
-0.30123365 -0.33380082 0.05872941
-0.30145466 -0.33382034 0.058683407
-0.30167127 -0.33383551 0.058667406
-0.30188778 -0.33385274 0.058636412
-0.30208564 -0.33385736 0.058689661
-0.30229604 -0.33387119 0.058680601
-0.30251974 -0.33389089 0.058634583
-0.30274835 -0.33391556 0.058553968
-0.30295414 -0.33392507 0.058574896
-0.30316642 -0.33394045 0.058555454
-0.30337375 -0.33395097 0.058569465
-0.30359212 -0.33397016 0.058524631
-0.30379915 -0.33398068 0.058538638
-0.30402461 -0.3340044 0.058463804
-0.30422381 -0.33401033 0.058507815
-0.30442604 -0.33402026 0.058524154
-0.30464143 -0.33403614 0.058502395
-0.30485478 -0.33405298 0.058472566
-0.30508471 -0.33407807 0.058389641
-0.30529082 -0.33409071 0.058387518
-0.30549306 -0.33409891 0.058416538
-0.30569947 -0.33411187 0.058412105
-0.30592772 -0.33413655 0.058331482
-0.30615264 -0.33416149 0.058247428
-0.30635405 -0.33416945 0.0582776
-0.30655941 -0.33418223 0.058274332
-0.30677116 -0.33419693 0.058259498
-0.3069717 -0.33420673 0.058275841
-0.30718392 -0.33422196 0.05825755
-0.30739957 -0.33424178 0.058206961
-0.30760089 -0.33425006 0.058234841
-0.30782083 -0.33427298 0.058163483
-0.30802214 -0.33428138 0.058190197
-0.30823922 -0.33430272 0.058129229
-0.30844057 -0.33431131 0.058154795
-0.30865109 -0.33432847 0.058121525
-0.30885553 -0.33433929 0.058132097
-0.30906063 -0.33435297 0.058121901
-0.30927688 -0.33437204 0.058077082
-0.3094635 -0.33437318 0.058151126
-0.30967692 -0.33439049 0.058117844
-0.30988637 -0.3344076 0.058084577
-0.31009245 -0.33442244 0.058066312
-0.31030661 -0.33444312 0.058008827
-0.31051868 -0.33446005 0.057977848
-0.31072417 -0.33447486 0.057959594
-0.31092685 -0.33448526 0.057972472
-0.31112218 -0.33449286 0.058002677
-0.3113322 -0.33450872 0.057978623
-0.31154528 -0.33452949 0.057919987
-0.31176114 -0.33454996 0.057864789
-0.31195876 -0.33455959 0.05788115
-0.31217396 -0.33457986 0.057827108
-0.31236458 -0.33458433 0.057878084
-0.31256589 -0.33459434 0.057893276
-0.31277126 -0.33461007 0.057868097
-0.31297904 -0.33462518 0.057848673
-0.31318736 -0.33464348 0.05780619
-0.31339282 -0.3346597 0.057777554
-0.31360397 -0.33467785 0.057737373
-0.31379637 -0.33468398 0.057776805
-0.3140054 -0.33470342 0.057726253
-0.31420946 -0.33471626 0.057721831
-0.31440777 -0.33472735 0.05772781
-0.31461534 -0.33474323 0.057702631
-0.31481886 -0.3347587 0.05767861
-0.31502566 -0.33477423 0.057655737
-0.31521741 -0.33478019 0.057696331
-0.31543389 -0.33480397 0.057616927
-0.31563661 -0.33481643 0.057614818
-0.31584033 -0.3348327 0.057585038
-0.31604239 -0.3348448 0.057585236
-0.31624502 -0.33486035 0.057560079
-0.31644374 -0.33486974 0.057578731
-0.31665114 -0.33488971 0.057523578
-0.31684291 -0.33489615 0.057560716
-0.31705651 -0.33491585 0.057510138
-0.3172614 -0.33493406 0.057466522
-0.31746328 -0.33494976 0.05744021
-0.31766054 -0.33496141 0.057441588
-0.31785902 -0.33497423 0.057434887
-0.31806123 -0.3349874 0.057427015
-0.31826204 -0.33499944 0.057427224
-0.31846344 -0.33501524 0.057399757
-0.31866634 -0.33502942 0.057384968
-0.31885615 -0.33503449 0.05743134
-0.31906241 -0.33505532 0.057369273
-0.3192589 -0.33506691 0.057370644
-0.31946188 -0.33508158 0.057352405
-0.31966954 -0.33510438 0.057276487
-0.31987149 -0.33511835 0.05726286
-0.32006469 -0.33512706 0.057283849
-0.32027104 -0.33514917 0.057212558
-0.32046685 -0.3351607 0.057213943
-0.32066166 -0.3351678 0.057247609
-0.32082799 -0.33517727 0.057251435
-0.32104918 -0.3351905 0.057251547
-0.32125542 -0.335217 0.057147983
-0.32143378 -0.33522496 0.05716788
-0.32163417 -0.33524197 0.057131201
-0.32185599 -0.33525276 0.057149753
-0.32205868 -0.33527258 0.057093475
-0.32225138 -0.33528158 0.057112157
-0.32243881 -0.33530003 0.057059396
-0.32264131 -0.33531639 0.057028472
-0.32282802 -0.33532658 0.057035662
-0.32302064 -0.33533576 0.057053205
-0.32322782 -0.33535397 0.057010725
-0.3234295 -0.33536997 0.056982107
-0.32363006 -0.33538479 0.056961566
-0.32382363 -0.33539543 0.056968722
-0.32400796 -0.33540738 0.056962088
-0.32422167 -0.33542189 0.056949548
-0.32442182 -0.33543247 0.056960139
-0.32459489 -0.33544344 0.056955867
-0.32481763 -0.3354654 0.056892563
-0.32501292 -0.33547443 0.056912392
-0.32520437 -0.33548287 0.05693455
-0.32538533 -0.33549556 0.056921013
-0.32556432 -0.33551946 0.056824494
-0.32579759 -0.33553377 0.05682224
-0.32598215 -0.33555186 0.056770645
-0.32617083 -0.33558056 0.056642957
-0.32636914 -0.33558977 0.056662768
-0.32652882 -0.33558798 0.05674617
-0.3267203 -0.33558732 0.056835175
-0.32692549 -0.33560133 0.05682268
-0.32711384 -0.3356159 0.056798745
-0.32734984 -0.33564544 0.056685809
-0.32749987 -0.3356286 0.056875307
-0.32772294 -0.33566505 0.056705959
-0.32790563 -0.33567157 0.056738526
-0.32811147 -0.33568752 0.056712195
-0.32832202 -0.33571661 0.056591317
-0.32852471 -0.33572245 0.056637626
-0.32872659 -0.33573815 0.056611314
-0.3288959 -0.33574557 0.05663126
-0.32908008 -0.33575487 0.056644224
-0.32930452 -0.33579201 0.056470253
-0.32947716 -0.33579966 0.056490194
-0.32966745 -0.33580804 0.056512356
-0.3298437 -0.33581591 0.056532264
-0.33004013 -0.33584806 0.056382637
-0.33024198 -0.33585277 0.056437019
-0.33044344 -0.33586952 0.056402646
-0.33066279 -0.33587465 0.05646155
-0.33083022 -0.335879 0.056503411
-0.33102569 -0.33590481 0.056399897
-0.33124802 -0.33592284 0.056365423
-0.33142766 -0.33592415 0.056434892
-0.33163401 -0.33594516 0.056371666
-0.33179811 -0.33594975 0.056410089
-0.3320024 -0.33596686 0.056374539
-0.33220041 -0.3359856 0.056324039
-0.3324033 -0.33600008 0.056306947
-0.33259484 -0.33601248 0.056300275
-0.33278409 -0.33602774 0.056271717
-0.33298013 -0.3360346 0.056307685
-0.33316261 -0.33605051 0.056271084
-0.33332431 -0.33605781 0.056288764
-0.33350956 -0.33608145 0.056196835
-0.33374423 -0.33610871 0.056100048
-0.33390051 -0.3361111 0.056151181
-0.33413133 -0.33611882 0.056196205
-0.33430302 -0.33613536 0.05615044
-0.33447677 -0.33613771 0.056209564
-0.33466893 -0.33616444 0.056097992
-0.33486089 -0.33618048 0.056064811
-0.33506322 -0.33618566 0.056115732
-0.33524576 -0.33619389 0.056135621
-0.33543694 -0.33620784 0.056117427
-0.33564615 -0.33622462 0.056086462
-0.33583757 -0.33624014 0.056056745
-0.33602524 -0.33625495 0.056030501
-0.33618769 -0.3362664 0.056018203
-0.33637127 -0.33627939 0.056003504
-0.33661401 -0.33629316 0.056009281
-0.33678827 -0.33631143 0.055951979
-0.33698198 -0.3363241 0.055944148
-0.33716479 -0.33633456 0.055947892
-0.33735064 -0.33634284 0.055968918
-0.33755928 -0.33636129 0.055925284
-0.3377502 -0.33637851 0.055882882
-0.33792526 -0.33638522 0.055910885
-0.33810005 -0.33638969 0.055955011
-0.33831871 -0.33640748 0.055920552
-0.33851644 -0.33642608 0.055871204
-0.33869672 -0.33644548 0.055808105
-0.33887893 -0.33645338 0.055830304
-0.33907095 -0.33648637 0.055672623
-0.33925608 -0.33649006 0.055727083
-0.33944243 -0.33650592 0.05569277
-0.33965918 -0.33651057 0.055753998
-0.33985126 -0.33651012 0.055841859
-0.34001654 -0.3365247 0.05580765
-0.34019276 -0.33654904 0.055706527
-0.34040043 -0.33657935 0.055575289
-0.34058538 -0.33656999 0.055725425
-0.34077126 -0.33658317 0.055710714
-0.34095392 -0.33661368 0.055566914
-0.34114647 -0.33661735 0.055624794
-0.34137079 -0.33660865 0.055787425
-0.34155697 -0.33659953 0.055936407
-0.34171468 -0.33662134 0.055845752
-0.34189346 -0.33663642 0.055813782
-0.34208548 -0.33667004 0.055651493
-0.34227434 -0.33668807 0.055602185
-0.34245917 -0.33671215 0.055506792
-0.34265083 -0.3367357 0.055418279
-0.34284753 -0.33673695 0.055495743
-0.34303275 -0.33675069 0.05547642
-0.34322304 -0.33678389 0.055316448
-0.34342265 -0.33679223 0.055343173
-0.34363139 -0.33678368 0.05549781
-0.34381005 -0.3367928 0.055509645
-0.34399948 -0.33682624 0.055347368
-0.34420228 -0.33683807 0.055349868
-0.34439376 -0.33683226 0.055476926
-0.34458843 -0.33685157 0.055420674
-0.34478328 -0.33686888 0.055379413
-0.34498546 -0.33688444 0.055354249
-0.34516981 -0.33690017 0.055319946
-0.34535328 -0.3369028 0.055381335
-0.34552252 -0.33692279 0.055309061
-0.34572309 -0.33692884 0.055353072
-0.34590366 -0.33694497 0.05531418
-0.34609747 -0.33693582 0.055466585
-0.3462745 -0.33693838 0.05552569
-0.34645498 -0.33696848 0.055384208
-0.34663779 -0.33700171 0.055220813
-0.346845 -0.33702275 0.055157587
-0.34705329 -0.33700365 0.055389449
-0.34722862 -0.33700123 0.05548431
-0.34740904 -0.33703983 0.055280577
-0.34758675 -0.33706316 0.055187512
-0.34779021 -0.33708349 0.05512777
-0.34798169 -0.33709684 0.055114184
-0.34816438 -0.33712471 0.054989982
-0.34837171 -0.3371332 0.055018976
-0.34854907 -0.33713624 0.055074625
-0.34874234 -0.33716318 0.054961897
-0.34894368 -0.33716911 0.055007055
-0.34912425 -0.3371824 0.054988913
-0.34930673 -0.3371911 0.055005345
-0.34950185 -0.33719558 0.055058599
-0.3496877 -0.33720511 0.055070408
-0.34989771 -0.3372249 0.055017538
-0.35009021 -0.33724347 0.054965913
-0.35027117 -0.33724818 0.055011172
-0.35048631 -0.33727172 0.054932922
-0.35067767 -0.33728474 0.054921642
-0.35084414 -0.33729717 0.054903567
-0.35105681 -0.3373107 0.054897957
-0.35123834 -0.33732876 0.054845225
-0.35140046 -0.33733562 0.054866362
-0.35157675 -0.33734974 0.054840177
-0.35177857 -0.33735681 0.054877266
-0.35197869 -0.3373735 0.054842886
-0.35216653 -0.33737999 0.054877743
-0.35235804 -0.33739901 0.054822657
-0.35254106 -0.33741385 0.054794125
-0.35272777 -0.33742848 0.054769039
-0.3529267 -0.33744085 0.054765798
-0.35311431 -0.33745393 0.054752231
-0.35331747 -0.33747113 0.05471554
-0.35349077 -0.33748382 0.054698583
-0.35366529 -0.33750021 0.054655112
-0.3538523 -0.33750322 0.05471532
-0.35404348 -0.33751106 0.054742087
-0.35421127 -0.33755308 0.054507289
-0.35440007 -0.33755371 0.054585941
-0.35458821 -0.3375659 0.054579288
-0.35478729 -0.33757812 0.054577198
-0.35498574 -0.33759123 0.054568194
-0.35517734 -0.33760381 0.054560374
-0.35537052 -0.33761913 0.054532945
-0.35554808 -0.3376357 0.05448946
-0.35574499 -0.33764136 0.05453464
-0.35594377 -0.33765417 0.054527942
-0.356123 -0.33767322 0.054467157
-0.35630339 -0.33768603 0.054452471
-0.35648879 -0.33769727 0.0544516
-0.35667819 -0.33770812 0.054455314
-0.35685453 -0.33772147 0.054434884
-0.35704622 -0.33773842 0.054394789
-0.35723436 -0.33774653 0.054418109
-0.35743666 -0.3377555 0.054441363
-0.35762298 -0.33777434 0.054385152
-0.35781509 -0.3377907 0.054349661
-0.35798776 -0.33780399 0.054328099
-0.35818988 -0.33782142 0.054289114
-0.35836363 -0.33784154 0.054217968
-0.35855529 -0.33784625 0.054267794
-0.358731 -0.33787197 0.054156296
-0.35892111 -0.33789009 0.054106984
-0.35909128 -0.33790573 0.054066993
-0.35927761 -0.33792001 0.054044217
-0.35946023 -0.33793044 0.054047961
-0.35965133 -0.33793622 0.05408971
-0.35985148 -0.33794427 0.054118741
-0.36003742 -0.33795539 0.054119013
-0.3602303 -0.33796346 0.054144621
-0.36042455 -0.33797038 0.054179437
-0.3606317 -0.33797225 0.054256842
-0.36082676 -0.33797872 0.054295123
-0.36101156 -0.33800188 0.054206643
-0.36118072 -0.33802894 0.054082498
-0.36137843 -0.33803305 0.054139208
-0.36158213 -0.3380388 0.054186665
-0.3617827 -0.3380475 0.054211073
-0.36197284 -0.33807552 0.054089144
-0.36215553 -0.33809665 0.0540145
-0.36235222 -0.33811203 0.053988211
-0.36252928 -0.33812165 0.053995445
-0.3627187 -0.33814004 0.053943835
-0.36289614 -0.3381494 0.053953376
-0.3630839 -0.33815968 0.053960558
-0.36327863 -0.33816424 0.054012664
-0.36347601 -0.33818233 0.053966783
-0.36365783 -0.33820686 0.053866785
-0.36384764 -0.33821869 0.053863589
-0.36403176 -0.33822906 0.05386848
-0.36422098 -0.33824146 0.053860672
-0.36442086 -0.33824855 0.053896621
-0.36459711 -0.33826819 0.05383008
-0.36479089 -0.3382743 0.053870667
-0.36498722 -0.33828729 0.053861678
-0.36516869 -0.33830866 0.053784736
-0.36535859 -0.33832362 0.053758483
-0.36554745 -0.338328 0.053809457
-0.36574709 -0.3383415 0.05379815
-0.36594218 -0.33836117 0.053739589
-0.36611235 -0.33837387 0.053721495
-0.36630347 -0.33838528 0.053721745
-0.36649731 -0.33839482 0.05373697
-0.36667567 -0.33841538 0.053664666
-0.36687732 -0.33842227 0.053702906
-0.36706641 -0.33843529 0.053690489
-0.36724487 -0.33845836 0.05359973
-0.36743447 -0.33846578 0.053628802
-0.36763233 -0.33847556 0.053644013
-0.36782151 -0.33849126 0.053611994
-0.36801675 -0.33850294 0.053612232
-0.36820063 -0.33852476 0.053532973
-0.36837885 -0.33853495 0.053536743
-0.36857352 -0.33854455 0.053551964
-0.36878324 -0.33855459 0.053570576
-0.36896679 -0.33857152 0.053527061
-0.36913192 -0.33859771 0.05340755
-0.36932874 -0.33860368 0.05345042
-0.36952206 -0.33861932 0.053420693
-0.3697128 -0.33862445 0.05346705
-0.3699103 -0.33863515 0.053475346
-0.37008384 -0.33865589 0.053399608
-0.37028292 -0.33866811 0.053397506
-0.37047213 -0.33867925 0.053398922
-0.37067473 -0.33868244 0.053464822
-0.37085384 -0.33870679 0.053364851
-0.37104681 -0.33872053 0.053348955
-0.37123862 -0.33873498 0.0533273
-0.37141818 -0.338752 0.053281493
-0.37162387 -0.33875614 0.053341616
-0.37181833 -0.33876917 0.053331483
-0.37199962 -0.33878756 0.053276446
-0.37217376 -0.33880767 0.053205308
-0.3723745 -0.33881497 0.053240094
-0.37256813 -0.33882639 0.053241488
-0.37276748 -0.33883911 0.053235941
-0.37296081 -0.33885083 0.053235028
-0.37314671 -0.33886665 0.053200718
-0.37334579 -0.33887967 0.053192869
-0.37353465 -0.33889392 0.053171232
-0.37372372 -0.33890381 0.053181864
-0.37390888 -0.33892226 0.053127967
-0.37410223 -0.3389321 0.053140886
-0.37428227 -0.33894694 0.053111214
-0.37447947 -0.3389633 0.053078011
-0.37465224 -0.33898193 0.053017255
-0.37484229 -0.33898953 0.053045176
-0.37504369 -0.33900377 0.053029239
-0.37523988 -0.33901662 0.053021397
-0.37542289 -0.33903006 0.053003244
-0.3756012 -0.33904997 0.052935548
-0.37580991 -0.33905667 0.05297837
-0.37599516 -0.33907512 0.052924473
-0.37618673 -0.33908844 0.052910883
-0.37637758 -0.33910018 0.052908834
-0.37658203 -0.33910534 0.052960895
-0.3767879 -0.33911389 0.052988738
-0.37697557 -0.3391372 0.052900247
-0.377152 -0.33915606 0.052839473
-0.37733874 -0.33916613 0.052847818
-0.37755963 -0.33917749 0.052861758
-0.37774524 -0.33919013 0.052850507
-0.37792236 -0.33920872 0.052792039
-0.37809092 -0.33922553 0.052742831
-0.37831977 -0.33922967 0.052813224
-0.37852475 -0.33924493 0.052791506
-0.37869623 -0.33925861 0.052766491
-0.37889019 -0.33926958 0.05277133
-0.37907529 -0.33928835 0.052715138
-0.37926459 -0.33929965 0.052715391
-0.37948245 -0.33930752 0.052753553
-0.37965488 -0.33932647 0.052690491
-0.37985313 -0.33934131 0.052668817
-0.38006482 -0.33934847 0.052709319
-0.38024521 -0.33936036 0.052701551
-0.38042131 -0.33938673 0.052585445
-0.38063914 -0.33939508 0.05262015
-0.38083169 -0.33941254 0.05257659
-0.38100064 -0.33942765 0.052540064
-0.38117138 -0.33944553 0.052483927
-0.38137707 -0.33945048 0.052538291
-0.38157815 -0.33945921 0.052562699
-0.38177991 -0.33947301 0.052550223
-0.38196951 -0.33949187 0.052495144
-0.38218603 -0.3394962 0.052558679
-0.3823697 -0.33951929 0.052470203
-0.38257623 -0.3395296 0.052485369
-0.38277316 -0.33954215 0.052479833
-0.38295504 -0.33955914 0.052435167
-0.38313553 -0.33957669 0.052385904
-0.38333255 -0.33958596 0.052404571
-0.38353935 -0.33959818 0.052405905
-0.38372508 -0.3396154 0.05236122
-0.38390616 -0.3396278 0.052349992
-0.38412154 -0.3396385 0.052366264
-0.38431129 -0.33965093 0.052358452
-0.38450557 -0.33966663 0.052328721
-0.38472801 -0.33967322 0.052378394
-0.38492131 -0.33969593 0.052296791
-0.38509527 -0.33970803 0.052284438
-0.38527828 -0.33972165 0.052265134
-0.38549441 -0.33973256 0.052280255
-0.38569337 -0.33974993 0.052240126
-0.38588306 -0.339766 0.052205794
-0.3860608 -0.33977693 0.052203812
-0.38626221 -0.33979511 0.05215906
-0.38645092 -0.33980843 0.052144337
-0.38666168 -0.33982009 0.052151408
-0.38685811 -0.33983076 0.052159704
-0.38707209 -0.33985391 0.052083768
-0.38727504 -0.33986703 0.052077044
-0.38743103 -0.33988291 0.052029055
-0.38765541 -0.33987767 0.052166317
-0.38784307 -0.33990255 0.0520663
-0.38803333 -0.33991879 0.05203082
-0.38822967 -0.33992833 0.052047186
-0.38844046 -0.33994362 0.052027747
-0.38862726 -0.33996421 0.051958859
-0.38882443 -0.33997366 0.051976368
-0.38901028 -0.33998555 0.051970884
-0.38922399 -0.3399955 0.051991776
-0.38945204 -0.34001121 0.051976874
-0.38964149 -0.34003103 0.051914878
-0.38981754 -0.34004641 0.051879466
-0.3900224 -0.34005961 0.051872741
-0.39021555 -0.34007084 0.051875286
-0.39040068 -0.34008333 0.05186519
-0.39057598 -0.34010053 0.051815949
-0.3907977 -0.34010988 0.051844876
-0.39102197 -0.34012145 0.051858805
-0.39120725 -0.3401399 0.051804908
-0.39139196 -0.34015566 0.051770605
-0.3915984 -0.3401688 0.051765021
-0.39180043 -0.34018341 0.051746774
-0.3919929 -0.34019679 0.051733185
-0.39218932 -0.34021184 0.051709209
-0.39239508 -0.340224 0.051710546
-0.39260271 -0.34023705 0.051706105
-0.39281729 -0.34025085 0.051699333
-0.39298549 -0.34026495 0.051669717
-0.39319611 -0.34028009 0.051651441
-0.39338994 -0.34029341 0.051638991
-0.39360666 -0.34031233 0.051595315
-0.39382061 -0.34031826 0.05164618
-0.39401451 -0.34033173 0.051632591
-0.39422473 -0.3403528 0.051570509
-0.39441693 -0.34036961 0.051531561
-0.3946223 -0.34038255 0.051527131
-0.28839204 -0.33286279 0.059962187
-0.2886382 -0.33288726 0.059890743
-0.28885606 -0.33289921 0.059898958
-0.28908667 -0.3329154 0.059881762
-0.2893306 -0.3329393 0.059813783
-0.28954214 -0.33294865 0.059838168
-0.28977785 -0.33296904 0.059792131
-0.29000935 -0.33298606 0.059769168
-0.29023415 -0.33300173 0.059753142
-0.29047087 -0.33302298 0.059701335
-0.29069394 -0.33303806 0.059688784
-0.2908971 -0.33304238 0.059746645
-0.29111749 -0.33305636 0.059741016
-0.29135656 -0.33307916 0.059678823
-0.2915864 -0.33309782 0.059643179
-0.29180703 -0.33311054 0.059646785
-0.29204282 -0.33313221 0.059591513
-0.29225537 -0.33314133 0.059618205
-0.2924687 -0.33315253 0.05962991
-0.29267398 -0.33315992 0.059665859
-0.29289788 -0.33317634 0.059644081
-0.29309464 -0.33317804 0.059718117
-0.29336262 -0.33321595 0.059557796
-0.29359633 -0.33323577 0.059515215
-0.29380479 -0.3332451 0.059538469
-0.29402852 -0.33326197 0.05951323
-0.29424831 -0.33327702 0.059499547
-0.29447952 -0.33329603 0.059461594
-0.29470679 -0.33331499 0.0594225
-0.29494923 -0.3333399 0.05934646
-0.29515907 -0.33335042 0.059361637
-0.29535455 -0.33335379 0.059423
-0.29557127 -0.33336785 0.059415076
-0.29581216 -0.3333925 0.05934019
-0.29603574 -0.33341029 0.059308045
-0.29626685 -0.33343026 0.05926317
-0.29647356 -0.33343965 0.059285283
-0.29670745 -0.33346307 0.05921619
-0.29691622 -0.33347368 0.059230216
-0.29713631 -0.33348843 0.059218831
-0.29734921 -0.33350134 0.059217852
-0.29757062 -0.33351696 0.059200704
-0.29778853 -0.33353269 0.059181251
-0.29800177 -0.33354419 0.059190646
-0.29822198 -0.3335613 0.059161969
-0.29844159 -0.33357823 0.059134454
-0.29866424 -0.33359689 0.05909539
-0.29887608 -0.333608 0.059107091
-0.29910123 -0.33362824 0.059057638
-0.29930881 -0.33363721 0.059083208
-0.29952145 -0.33365089 0.059076462
-0.29974294 -0.33366948 0.059037402
-0.29996258 -0.33368719 0.059004117
-0.30016959 -0.33369613 0.059029676
-0.30039448 -0.33371696 0.058975618
-0.30060562 -0.33372834 0.058985025
-0.30082214 -0.33374476 0.058959823
-0.30104691 -0.33376592 0.058903456
-0.30125111 -0.33377564 0.058922119
-0.30148169 -0.33379841 0.058856502
-0.30168161 -0.3338058 0.058890171
-0.30189359 -0.33381817 0.058892656
-0.30211616 -0.33383873 0.058839761
-0.30231059 -0.33384314 0.058893047
-0.30253753 -0.33386645 0.058821686
-0.30277249 -0.33389264 0.058732986
-0.30297428 -0.33390155 0.05875627
-0.30318192 -0.33391196 0.058771461
-0.30339503 -0.33392769 0.058749732
-0.30360034 -0.33393887 0.058758005
-0.30381951 -0.33395845 0.058710892
-0.30403149 -0.33397174 0.058706462
-0.30424067 -0.33398554 0.058697429
-0.30445263 -0.33399901 0.058691844
-0.304676 -0.33402163 0.058623955
-0.30488786 -0.33403528 0.058617212
-0.3051002 -0.33405143 0.058592029
-0.30530834 -0.33406293 0.058599144
-0.30551395 -0.33407509 0.058600511
-0.30572933 -0.33409128 0.058576465
-0.30593681 -0.33410481 0.058568597
-0.30615237 -0.33412352 0.058526106
-0.30635625 -0.33413491 0.058532082
-0.30657434 -0.33415332 0.058493037
-0.30678251 -0.33416766 0.05847941
-0.30699399 -0.33418205 0.058466904
-0.3072066 -0.33419949 0.058432497
-0.30741009 -0.33420882 0.058453463
-0.30762336 -0.33422694 0.058414444
-0.30783337 -0.33424076 0.058405414
-0.30802706 -0.33424607 0.058451787
-0.30825153 -0.3342697 0.058376983
-0.30846244 -0.33428672 0.058344878
-0.30867359 -0.33430171 0.058327779
-0.30888158 -0.334317 0.058307227
-0.30907983 -0.3343257 0.058330521
-0.30929226 -0.33434188 0.058305338
-0.30950397 -0.33436006 0.058265176
-0.30971819 -0.33437774 0.058229595
-0.30991918 -0.33438867 0.058237903
-0.3101238 -0.33439982 0.058246184
-0.31033665 -0.33441931 0.058196791
-0.31054002 -0.33442974 0.058209691
-0.31076866 -0.33446088 0.058081832
-0.31095868 -0.33446187 0.058158197
-0.31116879 -0.33447993 0.058118034
-0.31137145 -0.33449018 0.05813209
-0.31157306 -0.33450222 0.058132328
-0.31178221 -0.33451742 0.058112916
-0.31198975 -0.33453408 0.058081992
-0.31220698 -0.33455557 0.058019891
-0.31240076 -0.33456212 0.058057047
-0.31262314 -0.33458784 0.057966098
-0.31282297 -0.33459917 0.057970952
-0.31302688 -0.33461106 0.057973478
-0.3132309 -0.33462578 0.057955243
-0.31343305 -0.33463913 0.057946254
-0.31363332 -0.33465111 0.057946485
-0.31383634 -0.33466262 0.057951316
-0.31404281 -0.33467969 0.057916936
-0.31423742 -0.3346929 0.05790567
-0.31444982 -0.33470669 0.057897769
-0.31466529 -0.33472872 0.057831071
-0.31486291 -0.33473912 0.057841696
-0.31507424 -0.33475804 0.057795767
-0.31526595 -0.33476371 0.057838693
-0.31547168 -0.33477822 0.057822768
-0.31567699 -0.33479536 0.057787232
-0.31587207 -0.33480105 0.057831302
-0.31608674 -0.33482647 0.057739239
-0.31628832 -0.33483791 0.057744075
-0.31647724 -0.33484134 0.057802007
-0.3166793 -0.33485326 0.057803392
-0.31686455 -0.33486858 0.057772562
-0.31706423 -0.33489072 0.057697866
-0.31729621 -0.33490527 0.057693336
-0.31750372 -0.33492255 0.057657804
-0.31770182 -0.33493453 0.057656899
-0.31789672 -0.33494055 0.05769866
-0.31810907 -0.33496583 0.057606608
-0.31831428 -0.33498156 0.057581462
-0.3185195 -0.33500388 0.057507884
-0.31869799 -0.33501408 0.057511684
-0.31889039 -0.33503106 0.057471592
-0.31906968 -0.33502907 0.057565313
-0.31927368 -0.33503419 0.057617404
-0.31950358 -0.33505127 0.057593286
-0.31970817 -0.33507058 0.057541624
-0.31991434 -0.33508825 0.057502639
-0.3201099 -0.3351092 0.057434879
-0.32027575 -0.33512458 0.057394914
-0.32050002 -0.33513331 0.057429627
-0.3207072 -0.33514917 0.05740447
-0.32091433 -0.33515796 0.057431191
-0.321114 -0.33517334 0.057406057
-0.32131103 -0.33518606 0.057399392
-0.32151407 -0.33520168 0.057374254
-0.32171211 -0.33521572 0.057358354
-0.32190621 -0.33522183 0.057398967
-0.32210588 -0.33523786 0.057369232
-0.32230791 -0.33526045 0.057292212
-0.32250574 -0.33527479 0.057274006
-0.32269821 -0.33528316 0.057297338
-0.32289749 -0.33529148 0.057324093
-0.32310793 -0.33532071 0.057202078
-0.32328755 -0.33533835 0.057151683
-0.32349604 -0.33533764 0.057248712
-0.32368743 -0.33534908 0.057248987
-0.32386711 -0.33536717 0.057195138
-0.3240934 -0.33538797 0.05714222
-0.3242946 -0.33540344 0.057117082
-0.32448626 -0.33541146 0.057142727
-0.32468051 -0.33542275 0.05714529
-0.32487151 -0.33543873 0.057112131
-0.32507157 -0.33546215 0.057028208
-0.32527235 -0.33546442 0.057099923
-0.32547081 -0.33548164 0.057060964
-0.32566392 -0.33549193 0.05707046
-0.32584175 -0.33550945 0.057020064
-0.32601732 -0.33551475 0.057058461
-0.32621539 -0.33553681 0.056983769
-0.32644174 -0.33555555 0.056945838
-0.32662809 -0.33556652 0.056947287
-0.32684791 -0.33558127 0.056935903
-0.32703 -0.33558616 0.056980032
-0.32720795 -0.3356103 0.056881219
-0.327389 -0.33561373 0.05693572
-0.32759038 -0.33563221 0.056888685
-0.32782152 -0.33564386 0.056904919
-0.32801804 -0.33566064 0.056868277
-0.32818663 -0.33567148 0.056862898
-0.32837558 -0.335682 0.056868944
-0.32858136 -0.3357031 0.056804594
-0.32877523 -0.33571061 0.056834832
-0.32897153 -0.33573946 0.056709424
-0.32919505 -0.33575082 0.056724541
-0.3293823 -0.33575305 0.056790546
-0.329579 -0.33577171 0.056740072
-0.3297736 -0.33578697 0.056713816
-0.32992586 -0.3357943 0.056726955
-0.33012679 -0.33580241 0.056756001
-0.33032593 -0.33582658 0.056666315
-0.3305456 -0.33583766 0.056681447
-0.33074105 -0.33584872 0.056686319
-0.33091325 -0.33586168 0.056667078
-0.33108041 -0.33586457 0.056719348
-0.33127728 -0.33589286 0.056598544
-0.33148867 -0.33592325 0.056468457
-0.33172059 -0.33593211 0.056505442
-0.33190656 -0.33593097 0.056595661
-0.33209866 -0.33595079 0.056534823
-0.3322711 -0.33595777 0.056559399
-0.33248174 -0.33596504 0.056598786
-0.33268106 -0.33598641 0.056529846
-0.33286017 -0.3360095 0.056439105
-0.33303908 -0.33600715 0.056535125
-0.33322236 -0.33603269 0.056428224
-0.33343568 -0.33604735 0.056414559
-0.33363143 -0.33606142 0.056397527
-0.3338376 -0.33607578 0.056382746
-0.33402649 -0.33608079 0.056429144
-0.33419266 -0.33609009 0.056434151
-0.33438978 -0.33610877 0.056383673
-0.33455935 -0.3361181 0.056389812
-0.33475581 -0.33613551 0.056348555
-0.33498809 -0.33615696 0.056293309
-0.33519024 -0.33617127 0.056277394
-0.33535823 -0.3361758 0.056318123
-0.33555582 -0.3361865 0.056326445
-0.33572543 -0.33619663 0.056326818
-0.3359116 -0.33621669 0.056261402
-0.33610007 -0.33623299 0.056224801
-0.33632231 -0.33625981 0.056125782
-0.33652729 -0.33625904 0.05622169
-0.33672574 -0.3362745 0.056195416
-0.33689103 -0.33628201 0.0562131
-0.33707118 -0.33629388 0.056205355
-0.33725584 -0.33631104 0.056160703
-0.33747253 -0.33633232 0.056099758
-0.33767372 -0.33634624 0.056086153
-0.33785579 -0.33635053 0.056134894
-0.33804357 -0.33636788 0.056090221
-0.33824095 -0.33638045 0.0560847
-0.3384313 -0.33639294 0.056076914
-0.33860788 -0.3364071 0.056050736
-0.33882076 -0.33643302 0.055954076
-0.33900276 -0.33643574 0.056014348
-0.33917454 -0.33643985 0.056059666
-0.33938009 -0.33646676 0.055952668
-0.3395696 -0.33647323 0.055988684
-0.33975911 -0.33647889 0.056030471
-0.33993241 -0.33650258 0.055932831
-0.34013981 -0.33651391 0.055941105
-0.34032983 -0.33652887 0.055914871
-0.34051251 -0.33653742 0.055932485
-0.34071636 -0.33654821 0.055943072
-0.34089917 -0.33656085 0.055930711
-0.34107846 -0.33657345 0.0559172
-0.34127879 -0.33659485 0.055848267
-0.34148246 -0.33661002 0.055826575
-0.34167564 -0.33662111 0.0558303
-0.34186506 -0.33663887 0.05578332
-0.34204742 -0.33665463 0.055747896
-0.34225082 -0.33667025 0.055722758
-0.34243685 -0.33668026 0.055731125
-0.34264359 -0.33669657 0.055702511
-0.34282938 -0.33670971 0.055687822
-0.34302601 -0.3367191 0.055705365
-0.34320831 -0.33673126 0.055696461
-0.34337139 -0.33672479 0.055815607
-0.34354827 -0.3367542 0.0556776
-0.34373733 -0.33679643 0.055450775
-0.34394842 -0.33680186 0.055503994
-0.34416342 -0.33680561 0.055571023
-0.34432602 -0.33680636 0.055637147
-0.34451708 -0.33682892 0.055555567
-0.34472311 -0.33684534 0.055525806
-0.34490877 -0.33685675 0.055523802
-0.34510204 -0.33686531 0.055545967
-0.34529895 -0.33687395 0.055569276
-0.34549406 -0.33689111 0.055529185
-0.34567961 -0.33690298 0.055523723
-0.34587014 -0.33692381 0.055454828
-0.34606692 -0.33693305 0.055473529
-0.34625679 -0.33694157 0.055494554
-0.34644154 -0.33695638 0.055467196
-0.34661883 -0.336972 0.055430647
-0.34682587 -0.33698311 0.055440061
-0.34703577 -0.33699661 0.055433344
-0.34721056 -0.33700833 0.055424463
-0.34738627 -0.33701709 0.055437502
-0.34758747 -0.33703539 0.055391613
-0.34776774 -0.33704114 0.055428825
-0.34794688 -0.3370713 0.05528621
-0.3481544 -0.33709094 0.055233374
-0.34835404 -0.3370927 0.055308543
-0.34853491 -0.33709735 0.055353828
-0.34872064 -0.33711755 0.055287264
-0.34891385 -0.33713666 0.055232201
-0.349114 -0.33714706 0.055243958
-0.34930241 -0.33715141 0.055294976
-0.34949312 -0.3371675 0.055260662
-0.34966511 -0.33717698 0.055266798
-0.34985456 -0.33720371 0.0551541
-0.35003948 -0.33721617 0.055144019
-0.35024166 -0.33721477 0.055243399
-0.35043451 -0.33724105 0.055135302
-0.35061422 -0.33724943 0.055152915
-0.35080555 -0.33727077 0.055080567
-0.35101032 -0.33727956 0.055106137
-0.3512035 -0.3372969 0.055063754
-0.35138556 -0.33730105 0.055113643
-0.35156867 -0.33730349 0.05517621
-0.35176086 -0.3373161 0.055168405
-0.3519415 -0.33734289 0.05505114
-0.35212332 -0.33736709 0.054953471
-0.3523204 -0.33738327 0.054921433
-0.35251728 -0.33738139 0.055021986
-0.35270035 -0.33739689 0.054988861
-0.352887 -0.33742422 0.054870415
-0.35308376 -0.33743489 0.054878742
-0.35327196 -0.33744189 0.054910149
-0.35347322 -0.33745706 0.054887332
-0.35366422 -0.33746564 0.054908358
-0.35384896 -0.33748376 0.054856781
-0.35404518 -0.33749548 0.054857034
-0.35424116 -0.33750233 0.054893024
-0.35442379 -0.33752331 0.054819558
-0.35459957 -0.33753818 0.054787625
-0.35479876 -0.33755606 0.054744054
-0.35498616 -0.33756492 0.054761641
-0.35517731 -0.33756879 0.054817252
-0.35537866 -0.33759356 0.054724105
-0.3555533 -0.33760494 0.054717537
-0.35575101 -0.33761975 0.054695874
-0.35595077 -0.33763185 0.054694958
-0.3561351 -0.33764961 0.054645695
-0.35630625 -0.33765623 0.054672576
-0.356502 -0.33767343 0.054632481
-0.35671714 -0.33767593 0.054708738
-0.35690317 -0.33769599 0.054643322
-0.35708484 -0.33770794 0.054635577
-0.35729098 -0.33772153 0.054626558
-0.35749349 -0.33773506 0.054616407
-0.35767314 -0.33774942 0.054590221
-0.35784701 -0.33775774 0.054605566
-0.35803327 -0.33777297 0.054575883
-0.35820979 -0.33779073 0.054523196
-0.35840604 -0.33781108 0.054460049
-0.35861763 -0.33782282 0.054467145
-0.35880741 -0.33783025 0.054496244
-0.35897982 -0.33784428 0.054468937
-0.35919696 -0.33785823 0.05446218
-0.35937563 -0.3378697 0.054456744
-0.3595511 -0.3378844 0.05442597
-0.35974005 -0.33789679 0.054418184
-0.35992125 -0.33791688 0.054350492
-0.36011717 -0.33792609 0.054369185
-0.36031288 -0.3379356 0.054385588
-0.36049381 -0.3379522 0.054343253
-0.36068282 -0.33796823 0.054308947
-0.36086851 -0.33798024 0.054302335
-0.36106238 -0.33799168 0.05430375
-0.36125347 -0.33800232 0.054309793
-0.36145079 -0.33801758 0.054284673
-0.36163563 -0.33803397 0.054245781
-0.36182883 -0.33804613 0.054241441
-0.36199826 -0.33806944 0.054144971
-0.36218944 -0.3380768 0.054175224
-0.36240071 -0.33807671 0.054268789
-0.36258796 -0.33809748 0.054198761
-0.36275798 -0.33812317 0.054084994
-0.36293852 -0.33813977 0.054042663
-0.36313015 -0.33815342 0.054026797
-0.36335665 -0.33814767 0.054168716
-0.36355963 -0.33815229 0.054224271
-0.36375761 -0.33816725 0.054201454
-0.36395556 -0.33818835 0.054133683
-0.36412981 -0.33821008 0.05405103
-0.36431316 -0.33821851 0.054069787
-0.36448985 -0.33823818 0.054003268
-0.36469558 -0.33823824 0.054093402
-0.36488456 -0.33825141 0.054079849
-0.36506569 -0.33827055 0.054019071
-0.36527067 -0.33828029 0.054037735
-0.36545604 -0.33829623 0.0540023
-0.36564845 -0.33830979 0.053987578
-0.365832 -0.33832702 0.053941771
-0.36601564 -0.33833581 0.05395823
-0.36622018 -0.33834898 0.053951524
-0.36639777 -0.33837324 0.053851567
-0.36660585 -0.33837849 0.053904787
-0.36679471 -0.33839196 0.053888936
-0.36699003 -0.33840099 0.053908791
-0.36717337 -0.3384237 0.05382264
-0.3673619 -0.33843482 0.053824078
-0.36755636 -0.33844724 0.053818576
-0.36773568 -0.33846468 0.053769331
-0.36793956 -0.33847344 0.053794917
-0.36812413 -0.33848995 0.053754874
-0.36831576 -0.3385044 0.053733241
-0.36850202 -0.33851725 0.053720858
-0.36869454 -0.3385261 0.053740732
-0.36889273 -0.33854392 0.053697165
-0.36909032 -0.33855715 0.053687036
-0.36927426 -0.33857411 0.053643532
-0.36945751 -0.33859149 0.053596579
-0.36965385 -0.33859819 0.053633723
-0.36985925 -0.33861157 0.053625867
-0.37004322 -0.33862856 0.053582359
-0.37024671 -0.33863837 0.053599868
-0.37043989 -0.3386474 0.053618588
-0.37062183 -0.33866563 0.053564716
-0.37081683 -0.33867368 0.053591494
-0.37102148 -0.33868784 0.053577874
-0.37119573 -0.33870828 0.053504448
-0.37138438 -0.33871561 0.053533554
-0.37158427 -0.33872804 0.053530332
-0.37177286 -0.33874702 0.053474128
-0.37196913 -0.33875704 0.053487062
-0.3721559 -0.33877477 0.053438939
-0.37235004 -0.33878389 0.05345764
-0.37256044 -0.33879286 0.053484343
-0.37275037 -0.33880892 0.053450044
-0.37295234 -0.33882493 0.053421453
-0.37316185 -0.33883244 0.053458534
-0.37332925 -0.33885217 0.053387441
-0.37350017 -0.3388721 0.053316332
-0.37370229 -0.33887947 0.053351138
-0.37390634 -0.33888808 0.053377874
-0.37408686 -0.33891141 0.053285975
-0.37427711 -0.33892107 0.053298932
-0.37447628 -0.33893454 0.053287648
-0.37465796 -0.3389509 0.053247608
-0.37486961 -0.33896214 0.053258173
-0.37504074 -0.33898604 0.053158246
-0.37523586 -0.33899346 0.053189628
-0.37544197 -0.33900154 0.053220958
-0.37562636 -0.33901665 0.053191293
-0.37581798 -0.33903015 0.053176578
-0.37603122 -0.33903897 0.053205572
-0.37623334 -0.33905342 0.053188507
-0.37639961 -0.33907354 0.05311396
-0.37658712 -0.33908522 0.053110797
-0.37678069 -0.33909601 0.053116821
-0.37696454 -0.3391194 0.053026058
-0.37717816 -0.33911869 0.053125378
-0.37736496 -0.33914068 0.053046126
-0.377554 -0.33915576 0.053018749
-0.3777585 -0.3391636 0.053051233
-0.37795058 -0.33918309 0.052992716
-0.37816173 -0.33919179 0.053021714
-0.37836507 -0.33921182 0.052964292
-0.37853599 -0.33922783 0.052922007
-0.37872356 -0.33923808 0.052929219
-0.37894103 -0.33924797 0.052952427
-0.37912968 -0.33926538 0.052907757
-0.37929931 -0.33927831 0.05288738
-0.37949923 -0.33928886 0.05289799
-0.37970012 -0.33930087 0.052898221
-0.37990642 -0.33931243 0.052904196
-0.38007772 -0.33933207 0.05283539
-0.38028163 -0.33934113 0.052858666
-0.38046902 -0.33935562 0.052834742
-0.38067123 -0.33937275 0.052798074
-0.38086665 -0.33938208 0.052815624
-0.38106623 -0.33939683 0.052795112
-0.38125196 -0.33941218 0.052764289
-0.38145226 -0.33942494 0.052758757
-0.38159865 -0.33945328 0.052615128
-0.38177872 -0.3394675 0.052590091
-0.3820129 -0.3394663 0.052701999
-0.38227853 -0.33945411 0.052908298
-0.38239542 -0.33950314 0.052599952
-0.38259894 -0.33951658 0.052590944
-0.38279662 -0.33952558 0.05261194
-0.38301462 -0.339535 0.052638605
-0.38321054 -0.33955678 0.052565075
-0.38338712 -0.33956763 0.052563116
-0.38354596 -0.33959061 0.052464396
-0.3837668 -0.33959079 0.052560225
-0.3839992 -0.33959499 0.052631792
-0.38417679 -0.33962068 0.052521445
-0.38436577 -0.33963525 0.052497528
-0.38457629 -0.33964488 0.052519619
-0.38478628 -0.33966136 0.052490991
-0.38498801 -0.33967122 0.052507348
-0.38514075 -0.33969322 0.05241327
-0.38536447 -0.33970788 0.052404173
-0.38556406 -0.3397187 0.052412488
-0.3857677 -0.33972648 0.05244498
-0.38598308 -0.33973482 0.052478574
-0.38616791 -0.33976096 0.052368201
-0.38635772 -0.33977246 0.052367337
-0.38653326 -0.33978921 0.052321576
-0.38674366 -0.33979332 0.052384011
-0.38693881 -0.33981568 0.052305873
-0.38714027 -0.33982944 0.05229342
-0.38733703 -0.33984497 0.052266002
-0.38751024 -0.33986112 0.052223708
-0.38774291 -0.33987021 0.052259527
-0.38795623 -0.33988157 0.052270085
-0.38815162 -0.33989623 0.052248433
-0.38831779 -0.3399165 0.052172735
-0.38853613 -0.33992174 0.052230526
-0.38872433 -0.33994052 0.052175485
-0.3889398 -0.33994541 0.052234437
-0.38914746 -0.3399561 0.052247319
-0.38932967 -0.33998457 0.052118521
-0.38950357 -0.3399978 0.052098121
-0.38971001 -0.34000903 0.052106403
-0.38990951 -0.34002268 0.052093957
-0.3900972 -0.34004036 0.052046984
-0.39031345 -0.34005299 0.052049451
-0.3904987 -0.34007001 0.052005947
-0.39069879 -0.34008074 0.052015394
-0.39089835 -0.34010193 0.051947616
-0.39111376 -0.34011215 0.051967379
-0.39129677 -0.3401286 0.051927343
-0.39151806 -0.34013996 0.05194132
-0.39171627 -0.34015447 0.051921964
-0.39191765 -0.34017092 0.051889908
-0.39208159 -0.34018636 0.051848806
-0.39233667 -0.3401902 0.051932953
-0.39252084 -0.34021077 0.051862929
-0.39271244 -0.34022051 0.051875889
-0.39291397 -0.34023428 0.051863432
-0.39312243 -0.34025303 0.051817518
-0.39333653 -0.34026867 0.051796935
-0.39353594 -0.34028327 0.051777571
-0.39374584 -0.34029192 0.051806588
-0.39394853 -0.34030703 0.05178491
-0.39415494 -0.34031826 0.05179318
-0.39436755 -0.34032911 0.051807195
-0.39452422 -0.3403554 0.05168312
-0.3947522 -0.34036452 0.051716655
-0.28823856 -0.33283719 0.060082451
-0.28847691 -0.33285791 0.060035236
-0.2886999 -0.33287191 0.060030762
-0.28893358 -0.33289078 0.0599951
-0.28918904 -0.3329196 0.059895925
-0.28936833 -0.33291414 0.060015015
-0.28962553 -0.33294401 0.059908915
-0.28985691 -0.3329607 0.059888259
-0.29009658 -0.33298293 0.059830662
-0.29029498 -0.3329863 0.059893176
-0.2905345 -0.33300868 0.059834428
-0.29074243 -0.33301654 0.059868068
-0.2909728 -0.3330349 0.059834722
-0.29120013 -0.33305198 0.059809465
-0.29141107 -0.33306146 0.059832718
-0.29164445 -0.33308157 0.059787832
-0.29184473 -0.33308616 0.059842262
-0.29208332 -0.33310896 0.059780061
-0.29232571 -0.3331337 0.059705157
-0.2925559 -0.3331511 0.059678741
-0.29280466 -0.33317921 0.059581906
-0.29298502 -0.33317459 0.059695229
-0.2932131 -0.33319297 0.059660748
-0.2934368 -0.33320934 0.05963897
-0.29365915 -0.33322519 0.059620656
-0.29388785 -0.3332442 0.059581563
-0.29409477 -0.33325267 0.05961059
-0.29431826 -0.33326763 0.059599183
-0.29453754 -0.33328232 0.059587814
-0.29476452 -0.33330095 0.059551023
-0.29498082 -0.33331436 0.059547734
-0.29518127 -0.33331993 0.059595242
-0.29542994 -0.33334976 0.059485719
-0.29564455 -0.33336261 0.05948589
-0.29586673 -0.33337936 0.059460662
-0.29607931 -0.33338958 0.059479289
-0.29630801 -0.33340988 0.059430968
-0.29651386 -0.33341858 0.059457704
-0.29672962 -0.33343244 0.059450943
-0.29695499 -0.33344954 0.059424549
-0.29716489 -0.33346054 0.059436269
-0.29740781 -0.33348703 0.05934868
-0.29763046 -0.33350492 0.059315383
-0.29783368 -0.33351269 0.059347887
-0.29804319 -0.33352381 0.059358463
-0.29827979 -0.33354756 0.059288193
-0.29851079 -0.33357036 0.059222572
-0.29871109 -0.33357686 0.059263162
-0.29894811 -0.33360314 0.059174456
-0.29914516 -0.33360612 0.059239272
-0.29936922 -0.33362567 0.059194431
-0.29956105 -0.33364108 0.05916588
-0.29978138 -0.33364546 0.059230596
-0.30001539 -0.33366892 0.059161492
-0.3002187 -0.33367747 0.059188239
-0.30044007 -0.33369419 0.059163012
-0.30067024 -0.33371785 0.059090473
-0.30089217 -0.33373713 0.059046797
-0.30109829 -0.33374757 0.059060834
-0.30130476 -0.3337563 0.059087567
-0.30152389 -0.3337743 0.059051976
-0.30174729 -0.33379287 0.05901406
-0.30195403 -0.33380398 0.059023485
-0.3021718 -0.33381954 0.059005193
-0.30237946 -0.33383131 0.05901001
-0.30261943 -0.33386204 0.058890149
-0.30281469 -0.3338668 0.058941141
-0.30302778 -0.33388004 0.058937866
-0.30323744 -0.33389336 0.058932289
-0.30342376 -0.33389083 0.05903291
-0.30366507 -0.33392319 0.058901511
-0.30388913 -0.33394337 0.058852054
-0.30410239 -0.33395928 0.058829173
-0.30431601 -0.33397552 0.058803987
-0.30451745 -0.33398443 0.058827274
-0.30473626 -0.33400193 0.058795143
-0.30494905 -0.33401796 0.058771107
-0.30515701 -0.33402899 0.058781691
-0.30536801 -0.33404413 0.05876343
-0.3055796 -0.3340576 0.058757842
-0.30577675 -0.33406419 0.058796145
-0.30600592 -0.33408892 0.058715537
-0.30621892 -0.33410576 0.058685742
-0.30643606 -0.33412316 0.058653608
-0.30663893 -0.33413371 0.058665365
-0.30685729 -0.33415213 0.05862632
-0.30706307 -0.33416477 0.05862423
-0.30727941 -0.33418211 0.058592103
-0.30748987 -0.334198 0.058568079
-0.30769387 -0.33420974 0.058571763
-0.30789438 -0.33421922 0.058590446
-0.30810118 -0.33423063 0.058597572
-0.30832899 -0.33425859 0.058492757
-0.30853465 -0.33426946 0.058503352
-0.30874026 -0.33428273 0.058496639
-0.30894065 -0.33429015 0.058530316
-0.30915576 -0.33431008 0.058478594
-0.30937538 -0.33433095 0.058422241
-0.30956903 -0.33434346 0.058415592
-0.30972436 -0.33433166 0.058570538
-0.30997333 -0.33435649 0.058497913
-0.31019276 -0.33438015 0.058420811
-0.31039479 -0.33439162 0.05842565
-0.31061578 -0.33441427 0.058356609
-0.31082225 -0.33442914 0.058338374
-0.31104267 -0.33445176 0.058269333
-0.31125998 -0.33447483 0.058195699
-0.31144696 -0.33447328 0.058289394
-0.31164467 -0.3344821 0.058311548
-0.3118507 -0.33449459 0.058310606
-0.31204593 -0.3345094 0.058287803
-0.31226572 -0.33452728 0.058253359
-0.31245407 -0.33452928 0.058321688
-0.31268063 -0.33455777 0.058212258
-0.3128753 -0.33456469 0.058247112
-0.31308714 -0.33458224 0.058211558
-0.31329897 -0.33460262 0.058155242
-0.31350711 -0.33461758 0.058136996
-0.31371805 -0.33463758 0.058082983
-0.31392109 -0.33464879 0.058090132
-0.31411973 -0.33465925 0.058100749
-0.31433463 -0.33468014 0.05804212
-0.31453615 -0.33469313 0.05803543
-0.31473279 -0.33470222 0.058055282
-0.31494254 -0.33472216 0.058001287
-0.31513983 -0.33472908 0.058037277
-0.31534314 -0.33474392 0.058017906
-0.31556407 -0.3347708 0.057917729
-0.31576297 -0.33478224 0.057921439
-0.31596687 -0.33479506 0.057917044
-0.31617522 -0.33481476 0.057864204
-0.31636363 -0.33481738 0.057927907
-0.31657436 -0.3348394 0.057858914
-0.31677774 -0.33485222 0.057854526
-0.31698117 -0.33486813 0.057827078
-0.31718582 -0.33488226 0.057813454
-0.31739077 -0.33489987 0.057774477
-0.31759754 -0.33491617 0.057745852
-0.317792 -0.33492449 0.05777033
-0.31797901 -0.33492279 0.057865173
-0.31819269 -0.33494893 0.057767339
-0.31839633 -0.33496597 0.057731822
-0.31859267 -0.33497632 0.057742454
-0.31880021 -0.33499408 0.05770345
-0.31899291 -0.33500105 0.057737164
-0.31919652 -0.33501527 0.057722397
-0.31938553 -0.33503881 0.057632752
-0.31959143 -0.33504549 0.057674468
-0.31977409 -0.33504948 0.057725519
-0.31994897 -0.33505598 0.057754695
-0.32017717 -0.33508158 0.057667173
-0.3204101 -0.33510891 0.057569258
-0.32060474 -0.33511835 0.05758566
-0.32080412 -0.33512917 0.057593975
-0.32100201 -0.33514211 0.057586145
-0.3211998 -0.3351514 0.057604842
-0.32140595 -0.33517334 0.057534721
-0.32159978 -0.33518225 0.057554584
-0.32180262 -0.33520097 0.05750639
-0.32199284 -0.33520982 0.057525113
-0.32218495 -0.3352246 0.057501178
-0.32240561 -0.33524457 0.057451736
-0.32260245 -0.33525729 0.057445079
-0.3227995 -0.33527035 0.057436105
-0.32300007 -0.33528751 0.057398286
-0.32320094 -0.33530125 0.05738584
-0.32339656 -0.33531296 0.0573861
-0.32358178 -0.33532465 0.057381786
-0.32378313 -0.33534753 0.057302464
-0.32398972 -0.33535203 0.057360321
-0.32419521 -0.33537203 0.057304036
-0.32439196 -0.33538568 0.057290453
-0.32458729 -0.33539766 0.057288412
-0.32478839 -0.33541709 0.057234447
-0.3249718 -0.33542284 0.057272814
-0.32516938 -0.33544251 0.057215407
-0.32534692 -0.33544967 0.057241119
-0.32557788 -0.33546838 0.057205472
-0.32577595 -0.33548006 0.057206865
-0.32597962 -0.33550417 0.057119466
-0.32617304 -0.33550978 0.05716354
-0.3263669 -0.33552074 0.057168424
-0.32655817 -0.33553296 0.057162933
-0.32674757 -0.33555245 0.057103269
-0.32695267 -0.33557007 0.057064276
-0.3271589 -0.3355794 0.057086393
-0.32735941 -0.33559564 0.057055499
-0.32755554 -0.33561066 0.057031535
-0.32773399 -0.33562526 0.057003047
-0.32791016 -0.33564174 0.056959577
-0.32815012 -0.33565581 0.056961939
-0.32833904 -0.33566552 0.056973763
-0.3285113 -0.33567628 0.056970671
-0.328731 -0.3356913 0.05695698
-0.32892111 -0.33569169 0.057037972
-0.32910064 -0.33570901 0.056989882
-0.32927743 -0.33572191 0.056972928
-0.32950455 -0.33575043 0.056863502
-0.32970297 -0.33575931 0.056885656
