# .PCD v0.7 - Point Cloud Data file format
VERSION 0.7
FIELDS x y z
SIZE 4 4 4
TYPE F F F
COUNT 1 1 1
WIDTH 1297
HEIGHT 1
VIEWPOINT 0 0 0 1 0 0 0
POINTS 1297
DATA ascii
-0.1192724 -0.4367815 0.058209628
-0.11943695 -0.43687701 0.058279343
-0.11960378 -0.43698522 0.058274001
-0.11977929 -0.43711266 0.058177415
-0.11996046 -0.43722543 0.058203183
-0.12011445 -0.43732381 0.058208283
-0.12027712 -0.43742466 0.058234137
-0.12044391 -0.43753475 0.058216091
-0.12059807 -0.43763512 0.058208499
-0.12076417 -0.43776256 0.058071535
-0.12094662 -0.43788755 0.058021106
-0.12111396 -0.43798229 0.058108129
-0.1212718 -0.4380928 0.058048561
-0.12145451 -0.43822351 0.057961177
-0.12161348 -0.43831992 0.058000892
-0.12179688 -0.43843052 0.058050901
-0.12196995 -0.43855515 0.057962403
-0.12211703 -0.43864858 0.057971004
-0.12227748 -0.43876526 0.0578814
-0.12244855 -0.43886861 0.057926845
-0.12261342 -0.43896553 0.057988472
-0.12278816 -0.43908006 0.057975017
-0.12294798 -0.43919495 0.057894655
-0.12313187 -0.43932071 0.057845369
-0.12330604 -0.43942708 0.057883866
-0.12347136 -0.43954054 0.057836965
-0.12363652 -0.43965355 0.05779238
-0.1237984 -0.43975025 0.057842474
-0.12397867 -0.43987265 0.057800133
-0.12412833 -0.43996686 0.057814494
-0.12428113 -0.44005617 0.057875015
-0.12444593 -0.44016826 0.05783505
-0.12460713 -0.44029254 0.057698108
-0.12478084 -0.44040725 0.057678882
-0.12494563 -0.44050911 0.057707038
-0.12511031 -0.44061336 0.057719018
-0.12527773 -0.4407247 0.057695206
-0.12544745 -0.44084719 0.057606719
-0.12561242 -0.44094557 0.057659112
-0.12578884 -0.44106117 0.057645652
-0.12595837 -0.44118059 0.057576798
-0.12611599 -0.4412877 0.057539165
-0.12627162 -0.44138247 0.057575431
-0.12644634 -0.44148231 0.057660114
-0.12660381 -0.44158947 0.05762133
-0.12676689 -0.44170338 0.05756174
-0.12694193 -0.441825 0.057502102
-0.12710951 -0.44192901 0.05752793
-0.12726714 -0.44203252 0.057514545
-0.1274302 -0.44214329 0.057475735
-0.12760353 -0.44225276 0.057489999
-0.12776008 -0.44236088 0.057440825
-0.12792337 -0.44245178 0.057535943
-0.12807982 -0.44257626 0.057377093
-0.12825504 -0.44269213 0.057356708
-0.12842439 -0.44280282 0.05734558
-0.12858586 -0.44290239 0.057374895
-0.12874787 -0.44300005 0.057419218
-0.12890694 -0.44309568 0.057464711
-0.12906335 -0.44321477 0.057341654
-0.12923105 -0.44333062 0.057288971
-0.12939143 -0.4434464 0.057205141
-0.12956476 -0.44354221 0.057310615
-0.12973329 -0.4436543 0.057286788
-0.1298942 -0.44375575 0.057301097
-0.13004927 -0.44386378 0.057246163
-0.13021499 -0.44398338 0.057160012
-0.13038537 -0.44408903 0.05718698
-0.1305501 -0.44418985 0.057222053
-0.13071446 -0.44430181 0.057180934
-0.13087749 -0.44441688 0.057113264
-0.13104057 -0.44451231 0.057177208
-0.1312028 -0.44462878 0.057096846
-0.13137113 -0.44473931 0.057082258
-0.13153601 -0.44483989 0.057119645
-0.13169973 -0.44495195 0.057075057
-0.13185798 -0.44506708 0.056986623
-0.13202536 -0.44517061 0.057014767
-0.13218985 -0.44528025 0.056989808
-0.13235368 -0.44538307 0.057007566
-0.13251637 -0.44549602 0.056952599
-0.1326821 -0.44560283 0.05695188
-0.13284428 -0.44570115 0.056992739
-0.13299996 -0.44581148 0.056925103
-0.13316026 -0.44594225 0.056740835
-0.13333926 -0.44603983 0.056858979
-0.13350447 -0.44613317 0.056946006
-0.1336589 -0.4462584 0.056773305
-0.13382715 -0.44636062 0.056814142
-0.13399366 -0.44645238 0.056917325
-0.13415207 -0.44657019 0.056811571
-0.13431907 -0.44668108 0.056788914
-0.13447589 -0.44679406 0.056708574
-0.13465227 -0.44689739 0.056777075
-0.13481613 -0.44700626 0.056754425
-0.13499048 -0.44711879 0.056752518
-0.13513888 -0.44721842 0.056725316
-0.13530762 -0.44732061 0.056768462
-0.13547073 -0.44743019 0.056737728
-0.13563852 -0.44754523 0.05669082
-0.13579412 -0.44764689 0.056680918
-0.13596246 -0.44774985 0.056717124
-0.13612396 -0.44786102 0.056669094
-0.13629173 -0.44797018 0.056661434
-0.136452 -0.44807175 0.056672283
-0.13661756 -0.4481886 0.056603447
-0.13677992 -0.44829306 0.056603905
-0.13694972 -0.4483999 0.056620486
-0.13710614 -0.44850555 0.056587473
-0.13726819 -0.44861034 0.056584466
-0.13743085 -0.44871947 0.056554899
-0.13759731 -0.44883451 0.056502219
-0.13776112 -0.44893751 0.056518827
-0.13791788 -0.44904715 0.05646041
-0.13808687 -0.44914538 0.056531265
-0.13825257 -0.44925144 0.056535162
-0.13841008 -0.44937402 0.056393623
-0.13857904 -0.4494862 0.056370955
-0.13874136 -0.44958147 0.056432601
-0.13890919 -0.44969016 0.056428406
-0.13906372 -0.44979218 0.056411568
-0.13923994 -0.4499028 0.056430433
-0.13939771 -0.45000222 0.056444757
-0.13955159 -0.45012176 0.05630786
-0.13971302 -0.45022252 0.056329094
-0.13988291 -0.4503296 0.056344524
-0.14003518 -0.45043722 0.056280352
-0.14019966 -0.45054409 0.056273874
-0.14035551 -0.45065299 0.056216624
-0.14052673 -0.45076314 0.05621703
-0.14068425 -0.45086673 0.056202494
-0.14084804 -0.45097402 0.056190237
-0.1410114 -0.45108154 0.056174524
-0.14117745 -0.45118734 0.056181882
-0.14133006 -0.45129398 0.056125809
-0.14151047 -0.45140231 0.05617813
-0.14165887 -0.45150763 0.05611283
-0.14182231 -0.45161501 0.056098264
-0.14199126 -0.45171922 0.056128703
-0.14216201 -0.45182979 0.056124508
-0.14231445 -0.45193616 0.056069575
-0.14246966 -0.45204446 0.056013484
-0.14264217 -0.45215046 0.056047373
-0.1428013 -0.45226008 0.05599935
-0.14296453 -0.45236751 0.055983633
-0.1431402 -0.45247209 0.056040592
-0.14329675 -0.45257264 0.056042228
-0.14344534 -0.45269069 0.055892639
-0.1436121 -0.45279971 0.055881534
-0.14378285 -0.45290354 0.055922359
-0.14394569 -0.45300779 0.055926263
-0.14410545 -0.45312005 0.055863224
-0.14427543 -0.4532277 0.05587519
-0.14443396 -0.45333713 0.055826008
-0.1446064 -0.45343739 0.055898
-0.14476679 -0.4535428 0.055883449
-0.14492106 -0.45364758 0.055846989
-0.14509025 -0.45375577 0.055852029
-0.14524531 -0.45386639 0.05577977
-0.14541392 -0.45398715 0.05569822
-0.14557526 -0.45408905 0.055711374
-0.14573421 -0.45418578 0.055748783
-0.14589611 -0.45429063 0.055744618
-0.14605753 -0.45440468 0.055676952
-0.14621134 -0.45450932 0.055639349
-0.14638962 -0.45461455 0.055703223
-0.14652433 -0.45472258 0.055560634
-0.14667816 -0.4548271 0.05552417
-0.14687264 -0.45492738 0.055690736
-0.14702462 -0.45504123 0.055583861
-0.14718542 -0.45514363 0.055591241
-0.14735983 -0.45524776 0.055645902
-0.14752552 -0.45535454 0.055645183
-0.1477025 -0.45546374 0.055676751
-0.14784898 -0.45557317 0.055575665
-0.14800678 -0.45568213 0.055526488
-0.14816284 -0.45578873 0.055485405
-0.14832859 -0.45589554 0.055484686
-0.14848568 -0.45600456 0.055432048
-0.14866726 -0.45611018 0.055507459
-0.14882621 -0.45622143 0.055447888
-0.14898978 -0.45632356 0.055469118
-0.14914919 -0.45643198 0.055430327
-0.14931594 -0.45653877 0.05543422
-0.14948353 -0.45664281 0.055460047
-0.14964516 -0.45675075 0.055433951
-0.14979303 -0.4568564 0.055364031
-0.14996508 -0.45696989 0.055345967
-0.15011306 -0.45708045 0.055243723
-0.15028146 -0.45718449 0.055273015
-0.15043238 -0.45728433 0.055255041
-0.15060313 -0.45739058 0.055279698
-0.15078525 -0.45749742 0.055349331
-0.150947 -0.45760787 0.055307075
-0.15110506 -0.45771888 0.055245191
-0.15125698 -0.45782351 0.055199504
-0.15142442 -0.45792574 0.05523688
-0.15159085 -0.45803541 0.055219997
-0.15174122 -0.45814025 0.055166237
-0.1519147 -0.45824894 0.055186264
-0.15208074 -0.45835164 0.055214409
-0.15224205 -0.45845973 0.055185996
-0.15240715 -0.45856267 0.055208378
-0.15256062 -0.45867178 0.055139586
-0.15271717 -0.45878044 0.055086959
-0.15288307 -0.45889029 0.055066608
-0.15304986 -0.45899776 0.055065881
-0.15321045 -0.45910367 0.055049028
-0.15337408 -0.45920929 0.055047154
-0.15353729 -0.45931724 0.055027977
-0.15371111 -0.45941976 0.055090722
-0.15384565 -0.45953256 0.054915808
-0.15400179 -0.45963886 0.054877028
-0.15417387 -0.45974389 0.054915536
-0.15435082 -0.45985085 0.054962106
-0.15451622 -0.45995659 0.054967158
-0.15468258 -0.46006447 0.054961815
-0.15482473 -0.46017182 0.054856136
-0.15501277 -0.46027625 0.05496731
-0.15516378 -0.46038514 0.054889303
-0.15531792 -0.46049377 0.054826286
-0.15546916 -0.46060041 0.054764442
-0.15566023 -0.46070939 0.054858282
-0.15581177 -0.46081603 0.05479759
-0.15594885 -0.46092525 0.054657295
-0.15612076 -0.46103105 0.054690033
-0.15630125 -0.46113873 0.054746974
-0.15648323 -0.46124443 0.054823548
-0.15663075 -0.4613573 0.054703988
-0.1568044 -0.46146539 0.054728627
-0.15696287 -0.46157184 0.054699078
-0.1571306 -0.46168217 0.054683346
-0.15728131 -0.46178672 0.054633047
-0.15745768 -0.46189505 0.054668069
-0.15763235 -0.46199951 0.054721572
-0.15778121 -0.46211201 0.054610092
-0.15793595 -0.46221656 0.054577097
-0.15808842 -0.46231914 0.054547563
-0.15825063 -0.46242765 0.054520309
-0.15842138 -0.46253821 0.054516107
-0.15859079 -0.46264687 0.054518834
-0.15875727 -0.46275553 0.05450888
-0.15892491 -0.46286425 0.054503538
-0.15908842 -0.46296912 0.05450628
-0.15924057 -0.46307373 0.054461751
-0.15940388 -0.46318433 0.054425254
-0.1595642 -0.46328729 0.05442686
-0.15974118 -0.46339843 0.054445721
-0.15990266 -0.46350715 0.054413848
-0.16008857 -0.46362248 0.054443061
-0.16022627 -0.46372467 0.054352406
-0.1603933 -0.46383369 0.054342449
-0.16055398 -0.46393329 0.054368302
-0.16071406 -0.46404389 0.054317962
-0.1608533 -0.46414605 0.05423424
-0.16102888 -0.46425384 0.054269265
-0.16118602 -0.46436065 0.054231633
-0.16135813 -0.46447018 0.054240126
-0.16154931 -0.46457922 0.054333966
-0.16170259 -0.46468768 0.054268651
-0.1618506 -0.46479395 0.05419527
-0.16201359 -0.46489948 0.054191098
-0.16216791 -0.4650062 0.054141946
-0.16236156 -0.46511769 0.054230001
-0.16251539 -0.46522444 0.054178536
-0.16267566 -0.46533343 0.054139741
-0.16284984 -0.46544188 0.05416438
-0.16301209 -0.46554938 0.054144055
-0.1631669 -0.46565622 0.054096043
-0.1633517 -0.46576753 0.054147195
-0.16350158 -0.46587396 0.054080732
-0.16367027 -0.4659839 0.054071922
-0.16383691 -0.46609199 0.054066584
-0.16399822 -0.46619955 0.054041635
-0.16415477 -0.46630666 0.05399939
-0.16432214 -0.4664166 0.053984817
-0.16450001 -0.46652606 0.054018684
-0.164654 -0.4666346 0.053955667
-0.16481912 -0.46674275 0.053943407
-0.16497487 -0.46684986 0.053897701
-0.16516206 -0.46696064 0.0539627
-0.16532877 -0.4670724 0.053933114
-0.16547343 -0.46717823 0.053848207
-0.1656379 -0.46728647 0.053832471
-0.16581675 -0.46739656 0.053866342
-0.16596761 -0.46750638 0.053781405
-0.16613732 -0.46761543 0.053782973
-0.16633005 -0.46772754 0.053862959
-0.1664615 -0.46783158 0.053733081
-0.16663265 -0.46794412 0.05371733
-0.1667991 -0.46805605 0.053685434
-0.16697229 -0.46816421 0.053707764
-0.16716358 -0.46827662 0.053779673
-0.16732107 -0.46838897 0.053706259
-0.16749339 -0.46850193 0.053692807
-0.1676693 -0.46861547 0.053690888
-0.16783412 -0.46872583 0.053662471
-0.16798604 -0.46883115 0.053612161
-0.1681605 -0.46893686 0.053656429
-0.16835879 -0.46905255 0.053736396
-0.16850442 -0.46916318 0.053623769
-0.16866507 -0.46926999 0.053601131
-0.16883966 -0.46938059 0.053613074
-0.16899467 -0.46948808 0.053561606
-0.16914606 -0.46959499 0.053498603
-0.16931081 -0.46970409 0.053478267
-0.16945468 -0.46980819 0.05340144
-0.16967821 -0.4699274 0.053566724
-0.16978773 -0.47002715 0.053371131
-0.17000562 -0.47014564 0.053516809
-0.17017859 -0.47026092 0.053490661
-0.17034572 -0.47037518 0.053446066
-0.17050444 -0.47048351 0.053404961
-0.17067848 -0.47059464 0.053411134
-0.17084968 -0.47070825 0.053388454
-0.17102191 -0.47082064 0.053378478
-0.17119426 -0.47093308 0.053368486
-0.17137937 -0.47104943 0.053387314
-0.1715392 -0.47116107 0.053328894
-0.17169374 -0.47126448 0.053302828
-0.17185602 -0.47137371 0.053270947
-0.17203321 -0.47148445 0.053293273
-0.17220989 -0.47160089 0.053275183
-0.17237125 -0.47171009 0.053239845
-0.17255202 -0.47182742 0.053233292
-0.17269601 -0.47192749 0.053184178
-0.17290099 -0.4720456 0.053276803
-0.17304513 -0.47215283 0.053180344
-0.17322537 -0.47227451 0.053142622
-0.17339666 -0.47238591 0.053134948
-0.17354929 -0.4724893 0.053100809
-0.17370996 -0.47259578 0.053080481
-0.17389356 -0.47271132 0.053098161
-0.17408136 -0.47282648 0.053136598
-0.1742247 -0.47293079 0.053056307
-0.1743874 -0.47304341 0.053003654
-0.17456065 -0.47315559 0.052999441
-0.17475238 -0.47327051 0.053056337
-0.17491657 -0.47338217 0.053016372
-0.17508405 -0.47349599 0.052976388
-0.17528082 -0.47361502 0.053027488
-0.17544417 -0.47372392 0.053002533
-0.17562851 -0.4738417 0.053008657
-0.17577547 -0.47394693 0.052937593
-0.17595181 -0.47406161 0.052929901
-0.17611398 -0.47417441 0.052873783
-0.17627679 -0.47428468 0.05283729
-0.17644168 -0.47439146 0.05283311
-0.17663798 -0.47451505 0.052851886
-0.17682399 -0.47463095 0.052877624
-0.1769772 -0.47474176 0.052796148
-0.17715086 -0.47485352 0.052796546
-0.17731452 -0.47496554 0.052751966
-0.17748946 -0.47507638 0.052763909
-0.1776664 -0.4751904 0.052763142
-0.1778542 -0.4753111 0.052764632
-0.17799562 -0.4754152 0.05267743
-0.17817885 -0.47553223 0.052683558
-0.17834759 -0.47564444 0.052659739
-0.17852347 -0.47576106 0.052637041
-0.088744164 -0.41721055 0.057652734
-0.088930085 -0.41733056 0.057650801
-0.089126885 -0.41746461 0.057601489
-0.089335121 -0.41761142 0.057516329
-0.089535058 -0.41775218 0.057435818
-0.089736462 -0.41789284 0.057362229
-0.089938834 -0.418035 0.057282865
-0.090140313 -0.41817626 0.057205815
-0.090360492 -0.41833991 0.057059411
-0.09055233 -0.41847131 0.05700665
-0.090731509 -0.41858402 0.057024367
-0.090925463 -0.41871625 0.056975059
-0.091125071 -0.41885388 0.056914181
-0.091316663 -0.41898337 0.056872971
-0.091507986 -0.41911271 0.056831755
-0.091702819 -0.41924691 0.056773208
-0.091895841 -0.41937888 0.05672159
-0.092096776 -0.41952169 0.056631848
-0.092287205 -0.41965061 0.05658948
-0.092482045 -0.41978568 0.056525163
-0.09267772 -0.4199197 0.056471229
-0.092869759 -0.4200514 0.056417301
-0.093065351 -0.42018816 0.056344904
-0.093267813 -0.42033452 0.056237821
-0.093457475 -0.42046365 0.056190841
-0.093644731 -0.42058969 0.056154266
-0.093835756 -0.42072108 0.056098044
-0.094033509 -0.42086199 0.056007154
-0.094228625 -0.42099705 0.055943981
-0.09442059 -0.42113042 0.055878524
-0.094617978 -0.42127162 0.055784173
-0.094800957 -0.42139542 0.055744141
-0.094990425 -0.42152095 0.055720259
-0.095180742 -0.42165294 0.055657111
-0.095369652 -0.42178312 0.055599745
-0.09555693 -0.42191124 0.055549305
-0.095747054 -0.42204362 0.055482693
-0.095933124 -0.42217043 0.055435732
-0.096123978 -0.42230171 0.05537951
-0.096308224 -0.42242631 0.055339482
-0.096494392 -0.4225539 0.055287898
-0.09667965 -0.42268035 0.055239778
-0.096853703 -0.42278543 0.055286393
-0.097085573 -0.42298028 0.054981742
-0.097253993 -0.42308554 0.055002984
-0.097448111 -0.42321253 0.054989465
-0.097601876 -0.42330712 0.055018842
-0.097791627 -0.4234415 0.054937225
-0.097997561 -0.42359477 0.054798953
-0.098156042 -0.42368031 0.05490914
-0.098342337 -0.42381299 0.054824073
-0.098521888 -0.423933 0.054794449
-0.098701641 -0.42405349 0.054762524
-0.098883167 -0.42417687 0.054719046
-0.099067681 -0.42430216 0.054675546
-0.099249512 -0.42442644 0.054627441
-0.099429369 -0.42454785 0.054589737
-0.099622488 -0.42468128 0.054528888
-0.099792972 -0.42479444 0.054506242
-0.099969886 -0.42491189 0.054482408
-0.10015132 -0.42503658 0.054429691
-0.10033237 -0.42515498 0.054417379
-0.10050678 -0.42527497 0.054365847
-0.10068384 -0.4253934 0.054336242
-0.1008618 -0.42551345 0.054299697
-0.10104347 -0.42563656 0.054258525
-0.10123056 -0.42576247 0.05422195
-0.10139581 -0.42586881 0.054222412
-0.10156588 -0.42597684 0.054232094
-0.10173833 -0.42608884 0.054225598
-0.10191841 -0.42620403 0.054230612
-0.10208079 -0.42630607 0.054247253
-0.10225388 -0.42641312 0.054276556
-0.10247502 -0.42659345 0.054022759
-0.10263298 -0.42669836 0.054001309
-0.10280477 -0.42681357 0.053970572
-0.10298136 -0.42693046 0.053949051
-0.10315713 -0.42704615 0.053932149
-0.10332479 -0.4271549 0.053926826
-0.10349863 -0.42726761 0.053921483
-0.10366549 -0.42737186 0.053942721
-0.10383385 -0.42747533 0.053975496
-0.10399772 -0.42757112 0.054040626
-0.10415301 -0.42765528 0.0541462
-0.1042913 -0.42770952 0.05437886
-0.10380331 -0.42619884 0.062379152
-0.10399053 -0.42633674 0.062262896
-0.10416245 -0.42643595 0.062339544
-0.10435355 -0.42658156 0.062188637
-0.10456521 -0.42677304 0.061819419
-0.10466735 -0.4267368 0.062501386
-0.10482697 -0.42682898 0.062572308
-0.1050145 -0.42695689 0.062524177
-0.10512869 -0.42693153 0.063185312
-0.10531467 -0.42706019 0.063125648
-0.10627568 -0.42822659 0.059463698
-0.10646328 -0.42835233 0.059430584
-0.10662161 -0.42845488 0.059426457
-0.10681348 -0.42858094 0.059409492
-0.10700988 -0.42869905 0.059465248
-0.10719968 -0.42883861 0.059348982
-0.10736707 -0.4289425 0.059374847
-0.10754694 -0.42905843 0.059374094
-0.10771474 -0.42916778 0.059365302
-0.10789254 -0.42928874 0.059321832
-0.10805311 -0.42940173 0.059257656
-0.10825704 -0.42953625 0.05923602
-0.10843151 -0.42965108 0.059219126
-0.1086007 -0.42975029 0.059284233
-0.10876819 -0.42985529 0.059303157
-0.10896087 -0.43000001 0.059164945
-0.10912777 -0.43009928 0.059219673
-0.1093062 -0.43021876 0.059188902
-0.10947409 -0.43032521 0.059199743
-0.10964906 -0.43044245 0.059168987
-0.10982391 -0.43055463 0.059171721
-0.11000767 -0.43068704 0.059077427
-0.11016646 -0.43078384 0.059113711
-0.11035 -0.43090072 0.059122182
-0.11052921 -0.43102899 0.059035987
-0.11068845 -0.43112177 0.059101138
-0.11085495 -0.43123701 0.059047326
-0.111048 -0.43136626 0.059014186
-0.11122077 -0.43148053 0.058993839
-0.11138477 -0.43158501 0.059001233
-0.11154983 -0.43169793 0.058956657
-0.11172916 -0.43182334 0.058890093
-0.11188801 -0.43193313 0.058839779
-0.1120411 -0.43200487 0.059019268
-0.11223275 -0.43214443 0.058911081
-0.11242726 -0.4322798 0.0588433
-0.11259937 -0.43238813 0.058859892
-0.11275482 -0.43248397 0.058888108
-0.11293487 -0.43260086 0.058881581
-0.11310071 -0.43270549 0.058895893
-0.1132467 -0.43280199 0.058879122
-0.11345852 -0.43296078 0.058729284
-0.11363019 -0.43306208 0.058790915
-0.11378689 -0.4331691 0.05874984
-0.11395261 -0.43327433 0.058759544
-0.11411987 -0.43338421 0.058744989
-0.11428315 -0.43348977 0.058742002
-0.11445303 -0.4336153 0.058633901
-0.1146173 -0.43371701 0.058660932
-0.11481117 -0.43384126 0.058664732
-0.11496835 -0.43395206 0.058600567
-0.11513548 -0.43404734 0.058683004
-0.11530112 -0.43416184 0.058630347
-0.11547671 -0.43429297 0.058509532
-0.11564961 -0.43439919 0.058543444
-0.11581217 -0.43450466 0.058538146
-0.1159889 -0.43461543 0.058558188
-0.11614791 -0.43471774 0.05855868
-0.11632505 -0.43483931 0.058508284
-0.11650142 -0.43495867 0.058469445
-0.1166601 -0.43506059 0.058471091
-0.11682811 -0.43516868 0.058471542
-0.11698872 -0.43526837 0.05849627
-0.11716463 -0.43539762 0.05838931
-0.11733384 -0.43550098 0.058426708
-0.11750112 -0.43560705 0.058437549
-0.11767811 -0.43573198 0.058364064
-0.11783711 -0.43581441 0.058497339
-0.11802479 -0.43595228 0.058383394
-0.11818767 -0.43606347 0.058341146
-0.11833867 -0.43615735 0.058363602
-0.1185038 -0.43626738 0.058338668
-0.11868361 -0.43638393 0.058333293
-0.11886865 -0.43651354 0.058263242
-0.11901798 -0.43661356 0.058237214
-0.11919085 -0.43672359 0.058245733
-0.11936491 -0.43684042 0.058213823
-0.11952821 -0.43694341 0.05822815
-0.11969061 -0.43705741 0.058165118
-0.11985099 -0.43716007 0.058169067
-0.12002312 -0.43726718 0.058193743
-0.12019069 -0.43738088 0.058154944
-0.12035708 -0.43748742 0.058158867
-0.12053114 -0.4376089 0.05809579
-0.12070152 -0.43772528 0.058051191
-0.12085674 -0.43781251 0.058135994
-0.12101255 -0.43790361 0.058197685
-0.12117244 -0.43802908 0.058046915
-0.12134701 -0.43816143 0.0579134
-0.1215234 -0.43825871 0.058022354
-0.12166918 -0.43833575 0.058134899
-0.12184434 -0.43847969 0.057926327
-0.12202257 -0.43859661 0.057911724
-0.12220346 -0.43871129 0.05792366
-0.12235367 -0.43880635 0.057934582
-0.12251223 -0.43889403 0.058030911
-0.1226878 -0.43901876 0.057952814
-0.12285665 -0.43913189 0.057923239
-0.12302547 -0.43924671 0.057882119
-0.12317871 -0.43934754 0.05786762
-0.12334706 -0.43945378 0.057881922
-0.12351565 -0.43957245 0.057814248
-0.12367784 -0.43967992 0.057793945
-0.12383378 -0.43977264 0.057845253
-0.12404174 -0.43991199 0.057808585
-0.12419761 -0.44001693 0.057777915
-0.1243502 -0.44012719 0.057697609
-0.12450913 -0.4402234 0.057738505
-0.12466457 -0.44033307 0.057674348
-0.12482645 -0.44043392 0.057696763
-0.12498548 -0.44052845 0.057749212
-0.12514985 -0.44064283 0.057691947
-0.12531458 -0.44074848 0.057694722
-0.12547842 -0.44086635 0.057612054
-0.12564625 -0.44097155 0.057630975
-0.1258104 -0.441082 0.057599112
-0.125975 -0.4411867 0.057607658
-0.12614472 -0.44130436 0.057551526
-0.12630081 -0.44139665 0.057606298
-0.12647486 -0.44150415 0.057636745
-0.12664568 -0.44163653 0.057487078
-0.12679523 -0.44172856 0.057515323
-0.12696107 -0.44182318 0.057596602
-0.12713236 -0.44194824 0.057497747
-0.12729241 -0.4420583 0.057450883
-0.12745112 -0.44215575 0.057482548
-0.12762319 -0.44227335 0.057436801
-0.12778455 -0.44237477 0.057453442
-0.12793128 -0.44248089 0.057375472
-0.1280897 -0.44259593 0.057288207
-0.12826037 -0.44270143 0.05731751
-0.12842725 -0.44279325 0.057421889
-0.12858415 -0.44289851 0.057393517
-0.12874906 -0.44302773 0.057239264
-0.12891686 -0.44313052 0.057274356
-0.12908249 -0.44322845 0.057332538
-0.12924199 -0.44333589 0.057300702
-0.12940478 -0.44343168 0.057361212
-0.12956448 -0.44353819 0.057336301
-0.12972559 -0.44366327 0.0571936
-0.12988776 -0.44377244 0.057161748
-0.13005424 -0.44386831 0.05723726
-0.13021986 -0.4439564 0.057361268
-0.13037857 -0.44407544 0.057248592
-0.13054161 -0.44418171 0.057239838
-0.13069865 -0.44430381 0.057099462
-0.13086095 -0.44441134 0.057079159
-0.13102537 -0.44451332 0.05710502
-0.13119461 -0.44461304 0.057166666
-0.13135289 -0.44472992 0.057066698
-0.13151978 -0.44483522 0.057081014
-0.13167842 -0.44493294 0.057110377
-0.13183933 -0.44504288 0.057068132
-0.13200186 -0.44515744 0.057001632
-0.13216618 -0.44525972 0.057025194
-0.13232747 -0.44536021 0.057047613
-0.132487 -0.44547993 0.056933783
-0.13265069 -0.44558334 0.056946959
-0.13281892 -0.44568589 0.056985512
-0.1329864 -0.44579002 0.057010211
-0.1331474 -0.44589844 0.056978367
-0.13329704 -0.44600487 0.056910768
-0.13347253 -0.44610244 0.057013948
-0.13362235 -0.44621521 0.056904789
-0.13378108 -0.44634029 0.056751713
-0.13395533 -0.44643342 0.056879144
-0.13411537 -0.4465293 0.056926962
-0.13427858 -0.44664657 0.056845456
-0.13444778 -0.44676098 0.056808952
-0.13460331 -0.44686982 0.056750573
-0.1347587 -0.44697237 0.056733761
-0.13492829 -0.44707355 0.056787312
-0.13508728 -0.44718325 0.056738153
-0.13525629 -0.44728544 0.056782477
-0.13541341 -0.44739154 0.056749489
-0.13557264 -0.44750053 0.056706101
-0.13573289 -0.44760811 0.056676563
-0.13590157 -0.44771096 0.056715112
-0.13605554 -0.44782588 0.0566094
-0.13622451 -0.44793928 0.056578673
-0.13638449 -0.44803599 0.056620717
-0.13654801 -0.44813946 0.056632739
-0.13670789 -0.44824699 0.056602042
-0.13687071 -0.44836158 0.056536704
-0.13703248 -0.44846687 0.056529094
-0.13719279 -0.44857362 0.056505334
-0.13735814 -0.44868019 0.056504644
-0.13752581 -0.44878444 0.056529343
-0.13768156 -0.44889069 0.056489438
-0.13784324 -0.44900075 0.056449499
-0.13801037 -0.44910085 0.0564996
-0.13818067 -0.44921231 0.056487337
-0.1383511 -0.44931439 0.056538582
-0.13850679 -0.44942039 0.056499835
-0.13866137 -0.44952726 0.056450691
-0.13882546 -0.44963491 0.056437295
-0.13897969 -0.44973743 0.056415875
-0.13914236 -0.44985053 0.056359768
-0.13929676 -0.44996142 0.056282915
-0.13946757 -0.45006356 0.056335308
-0.13962172 -0.45017016 0.056286167
-0.13978866 -0.4502838 0.056245059
-0.13995561 -0.45037651 0.05634366
-0.14011292 -0.45048481 0.056296818
-0.14027044 -0.45058873 0.056279987
-0.14043529 -0.45069963 0.056248128
-0.14059849 -0.45080358 0.056255527
-0.14076266 -0.450903 0.056297563
-0.14091748 -0.45101261 0.056231096
-0.14107727 -0.45111886 0.056208491
-0.14125142 -0.45122367 0.056257408
-0.14141667 -0.45133033 0.056255557
-0.14156878 -0.4514375 0.056193732
-0.14173396 -0.45154792 0.056166474
-0.14189617 -0.45165265 0.056164648
-0.14207143 -0.45176455 0.056170844
-0.14222926 -0.45186815 0.056157477
-0.14237987 -0.45197573 0.056086414
-0.142537 -0.45208323 0.056044187
-0.14269412 -0.45218706 0.056026205
-0.14286764 -0.45229286 0.056065898
-0.14302765 -0.45239526 0.056069847
-0.14318149 -0.4525077 0.055980295
-0.14334624 -0.452618 0.055951886
-0.14350374 -0.4527216 0.05593738
-0.14367636 -0.45283145 0.055945888
-0.14383949 -0.45293245 0.055972919
-0.14400429 -0.45303276 0.056011487
-0.14415339 -0.45314682 0.05589078
-0.1443121 -0.45325962 0.055819683
-0.14448184 -0.45336434 0.055850141
-0.14464599 -0.45347151 0.055840217
-0.14479356 -0.45358869 0.055691805
-0.14497179 -0.45369321 0.055760339
-0.14514358 -0.45380047 0.055782713
-0.14528717 -0.4539063 0.055693205
-0.14544964 -0.45400786 0.055713303
-0.1456061 -0.45410872 0.055712655
-0.14579098 -0.45420834 0.055842351
-0.14595333 -0.45431936 0.055798952
-0.14610437 -0.45442826 0.055720951
-0.14626621 -0.4545393 0.05567525
-0.14642388 -0.45463985 0.055681512
-0.14660145 -0.45473978 0.055777766
-0.14676994 -0.45484871 0.055774741
-0.14694558 -0.45496121 0.05577863
-0.14708643 -0.4550758 0.055618696
-0.14724836 -0.45518377 0.05559377
-0.14741769 -0.45528394 0.05565311
-0.1475745 -0.45539343 0.055595867
-0.14772633 -0.45550147 0.055527113
-0.14790723 -0.45560977 0.055581778
-0.14805974 -0.45571479 0.055536106
-0.14821313 -0.45582226 0.055477727
-0.14837511 -0.45592475 0.055489756
-0.14854808 -0.45603535 0.0554948
-0.14871848 -0.45614395 0.055502169
-0.14886978 -0.45625183 0.05543226
-0.14902899 -0.45636305 0.055373862
-0.14918739 -0.4564665 0.055363957
-0.14934239 -0.45656812 0.055351764
-0.14950767 -0.45667791 0.055329129
-0.14968392 -0.45678028 0.055403445
-0.14983533 -0.45688787 0.055335846
-0.15002246 -0.45700103 0.055384714
-0.15018365 -0.45710921 0.055355173
-0.15032731 -0.4572106 0.055295676
-0.15050283 -0.45732114 0.055312261
-0.15066443 -0.45742422 0.055318519
-0.15082406 -0.4575302 0.055297062
-0.15097307 -0.45763797 0.055217922
-0.15113567 -0.45774588 0.055196464
-0.15129566 -0.45784932 0.055193476
-0.1514492 -0.45796105 0.055107396
-0.15163529 -0.45806783 0.05519437
-0.15179163 -0.4581767 0.055139445
-0.15195745 -0.45828184 0.055150297
-0.15211545 -0.45838574 0.055135775
-0.1522755 -0.45849407 0.055100475
-0.15243095 -0.45860061 0.055057094
-0.15259805 -0.45871037 0.055042543
-0.15277283 -0.45881698 0.055082224
-0.15294023 -0.4589245 0.05508383
-0.15311491 -0.45903587 0.05509118
-0.15325508 -0.4591395 0.055001684
-0.15341696 -0.45924312 0.055005625
-0.15359575 -0.45934969 0.055062614
-0.15375872 -0.45946008 0.055026136
-0.15390754 -0.45956945 0.05493544
-0.15407413 -0.45967284 0.054961305
-0.15421228 -0.45978293 0.054819856
-0.15438807 -0.45988569 0.05488956
-0.15458263 -0.45999381 0.055004206
-0.1547434 -0.46010655 0.05494234
-0.15489374 -0.46021345 0.054874737
-0.15504405 -0.460316 0.054836005
-0.15523013 -0.46042299 0.054921828
-0.15538496 -0.46053174 0.05486114
-0.15553179 -0.46064293 0.054749675
-0.15568359 -0.46074751 0.054704007
-0.1558813 -0.46085435 0.054840583
-0.15605912 -0.46096429 0.054871015
-0.15620193 -0.46107343 0.054756101
-0.15636605 -0.46118385 0.054724246
-0.15652278 -0.46129036 0.054686632
-0.1566973 -0.46139851 0.054714777
-0.1568756 -0.46150669 0.054759059
-0.15703003 -0.46161535 0.054697212
-0.15718123 -0.46172401 0.054621525
-0.157352 -0.46183044 0.054645058
-0.1575314 -0.46193689 0.054705504
-0.15767831 -0.46204954 0.054584809
-0.15782443 -0.46215612 0.054501064
-0.15801729 -0.46226281 0.054618031
-0.15818651 -0.4623715 0.054619629
-0.15833451 -0.4624781 0.054543957
-0.15850675 -0.46258497 0.054570947
-0.15867218 -0.46269953 0.054517139
-0.15884152 -0.46280259 0.054556847
-0.15897748 -0.46290696 0.054444276
-0.15915176 -0.46301979 0.054440074
-0.15931828 -0.46312678 0.054441694
-0.15949951 -0.46323803 0.054477878
-0.15963884 -0.46334422 0.054367602
-0.15982682 -0.46345395 0.054443028
-0.15998542 -0.46356082 0.054411184
-0.16014847 -0.46367162 0.054372396
-0.16031748 -0.46377897 0.054382082
-0.16048439 -0.46388444 0.054395244
-0.16068003 -0.46399879 0.054472934
-0.16079478 -0.46409985 0.054291174
-0.1609513 -0.46420124 0.054287061
-0.16111141 -0.46431011 0.054248285
-0.16126755 -0.46441695 0.054206058
-0.16144729 -0.46452707 0.054243412
-0.16161665 -0.46463484 0.054251943
-0.16175771 -0.46474251 0.05413935
-0.16193381 -0.46485078 0.054173253
-0.16209522 -0.4649581 0.054150637
-0.16228192 -0.46506736 0.054223754
-0.16244419 -0.46517658 0.054191895
-0.16260245 -0.46528378 0.054156594
-0.16277403 -0.46539381 0.05415934
-0.16293515 -0.46550128 0.054134414
-0.16308513 -0.46560776 0.054067969
-0.16327251 -0.46571764 0.054139934
-0.16342127 -0.46582577 0.05405733
-0.16357596 -0.4659327 0.054008186
-0.16376635 -0.46604314 0.054089367
-0.16392276 -0.46615031 0.05404599
-0.16408314 -0.46626127 0.053994521
-0.16424954 -0.46636784 0.053998441
-0.16443108 -0.46647772 0.054045022
-0.16458751 -0.46658665 0.053990096
-0.16473401 -0.46669281 0.053910963
-0.1649107 -0.46680236 0.053939089
-0.16508466 -0.46691498 0.053934898
-0.1652505 -0.4670234 0.053923815
-0.16539927 -0.46712983 0.053852752
-0.16555858 -0.46723747 0.053818606
-0.16576047 -0.46735048 0.053932071
-0.16589443 -0.4674567 0.053798724
-0.1660683 -0.46756631 0.053814158
-0.16624323 -0.46767455 0.053843446
-0.16639857 -0.46778345 0.053783908
-0.166584 -0.46789485 0.053837404
-0.16673303 -0.46800452 0.053745557
-0.16692561 -0.46811706 0.053822111
-0.16710487 -0.46823102 0.053831752
-0.16725919 -0.46834463 0.05373643
-0.16741705 -0.46845084 0.053705752
-0.16760379 -0.46856135 0.053770781
-0.16771474 -0.46866065 0.053584419
-0.16788352 -0.46877167 0.053568698
-0.16806503 -0.46888313 0.05360489
-0.16824746 -0.4689948 0.053643379
-0.1684152 -0.46910584 0.05362305
-0.16857146 -0.4692212 0.053524252
-0.16871236 -0.4693203 0.053468242
-0.16891718 -0.4694359 0.053577069
-0.1690637 -0.46954206 0.05349794
-0.16923842 -0.46965137 0.053519152
-0.1693581 -0.46975303 0.053354688
-0.16957319 -0.46986625 0.053523522
-0.1696662 -0.46996623 0.053255253
-0.16987568 -0.47008175 0.053384852
-0.17010154 -0.47020328 0.053544402
-0.17025527 -0.47031823 0.053437527
-0.17040968 -0.47042584 0.05338262
-0.17058045 -0.47053641 0.053378433
-0.1707558 -0.47064495 0.053407721
-0.1709445 -0.47076774 0.053398848
-0.17106825 -0.47086683 0.053269006
-0.17126678 -0.47098425 0.053338617
-0.17141825 -0.47108996 0.05328371
-0.17160535 -0.4712083 0.053297929
-0.17175853 -0.47131151 0.053267274
-0.17193848 -0.47142282 0.053297695
-0.17211543 -0.47154081 0.053270396
-0.17229542 -0.47165802 0.053261563
-0.17244664 -0.47176668 0.053185876
-0.17260793 -0.47187167 0.053178277
-0.172747 -0.47197077 0.053114187
-0.17295398 -0.47209364 0.053183749
-0.17311931 -0.47220242 0.053168043
-0.17330557 -0.47232261 0.053166114
-0.17346554 -0.47242898 0.053143505
-0.17360291 -0.47253063 0.053055175
-0.17379421 -0.47264925 0.053085554
-0.17398398 -0.47276068 0.053157497
-0.17413679 -0.47286984 0.053085268
-0.17430608 -0.47298259 0.053060316
-0.17446211 -0.47308969 0.053015787
-0.17461818 -0.47319683 0.052971251
-0.17479017 -0.47330749 0.052971687
-0.17497323 -0.47342616 0.052966304
-0.17515166 -0.47353837 0.052984029
-0.17531008 -0.47364753 0.052936029
-0.17548782 -0.47376382 0.052923732
-0.17566085 -0.47387636 0.05291608
-0.17582728 -0.4739888 0.052880749
-0.17600361 -0.47409949 0.052899636
-0.17615689 -0.47421435 0.05279161
-0.1763279 -0.47431988 0.052822076
-0.17654768 -0.4744463 0.052922763
-0.1766853 -0.4745495 0.052825194
-0.17685995 -0.47466412 0.052810609
-0.17702432 -0.47477368 0.052785669
-0.17720816 -0.47489059 0.052795298
-0.17737392 -0.4750019 0.052764576
-0.17753717 -0.47511262 0.052726947
-0.17772922 -0.47523174 0.052757323
-0.17788747 -0.47534788 0.05266197
-0.17805885 -0.47545415 0.052688967
-0.17823921 -0.475568 0.052704379
-0.1784279 -0.47568786 0.05271513
-0.17854574 -0.47578746 0.052556448
-0.089230552 -0.41802028 0.054332495
-0.089011155 -0.41739029 0.057600386
-0.089194395 -0.41750681 0.057610013
-0.089388505 -0.41763967 0.057557236
-0.089594267 -0.41778558 0.057467461
-0.089801714 -0.41792944 0.057398461
-0.08999934 -0.41806975 0.057311021
-0.09019924 -0.41820878 0.057242058
-0.090414211 -0.41836318 0.057134919
-0.090619266 -0.41851398 0.057009336
-0.090813905 -0.41864684 0.056958873
-0.090995461 -0.41876262 0.056966193
-0.091191381 -0.41889754 0.056907631
-0.09138979 -0.41903591 0.056836359
-0.091577768 -0.41916069 0.056811333
-0.091766164 -0.41928849 0.056767814
-0.091959164 -0.4194203 0.056717351
-0.092151642 -0.41955158 0.056668047
-0.092352696 -0.41969463 0.056577131
-0.092542842 -0.4198232 0.056535918
-0.092732489 -0.41995129 0.056495868
-0.092928417 -0.42008808 0.056424603
-0.093119673 -0.42021877 0.056374148
-0.093323343 -0.42036659 0.056262434
-0.093513742 -0.42049655 0.05621314
-0.093704328 -0.42062697 0.056161534
-0.093897708 -0.42076144 0.0560949
-0.094092637 -0.42089829 0.056019027
-0.094284683 -0.42103136 0.055955861
-0.094473884 -0.4211607 0.05590542
-0.094670609 -0.4213008 0.055815674
-0.094861604 -0.42143562 0.055736348
-0.09504208 -0.42155591 0.055709034
-0.095237434 -0.42168972 0.055655099
-0.095425665 -0.42181882 0.055602342
-0.095613636 -0.42194772 0.055549599
-0.095801994 -0.42207739 0.055493377
-0.095991835 -0.42220938 0.055427916
-0.096179187 -0.42233807 0.055374011
-0.096365616 -0.42246565 0.055323575
-0.096553728 -0.42259586 0.055262741
-0.096736841 -0.42271903 0.055227336
-0.096925259 -0.42285013 0.055161878
-0.09712474 -0.42298698 0.055105612
-0.097296283 -0.42310184 0.055076033
-0.097480536 -0.42322749 0.055029068
-0.097681254 -0.42337495 0.054906972
-0.097844332 -0.42346969 0.054975588
-0.09803322 -0.42360559 0.054880098
-0.098215058 -0.42372847 0.054841235
-0.098401725 -0.42385325 0.054810431
-0.098579034 -0.42397529 0.054757722
-0.098758996 -0.42409593 0.054725792
-0.098944537 -0.42422241 0.054678824
-0.099124059 -0.42434275 0.054646898
-0.099303171 -0.42446268 0.054616123
-0.099483833 -0.42458513 0.054574944
-0.099664271 -0.42470744 0.054533772
-0.099852785 -0.42483377 0.054500658
-0.10002068 -0.42494577 0.054474551
-0.10019577 -0.42506033 0.054462265
-0.10037316 -0.4251757 0.054454606
-0.10056953 -0.42531812 0.054347541
-0.10074281 -0.42543635 0.054302931
-0.10092098 -0.42555651 0.054266386
-0.10110038 -0.42567888 0.054220606
-0.10127757 -0.42579791 0.054187529
-0.10148175 -0.42594829 0.054060798
-0.10167238 -0.42608032 0.053998798
-0.10185914 -0.42622501 0.053835187
-0.10203643 -0.42634842 0.053773247
-0.10219802 -0.42644945 0.05379336
-0.10236691 -0.4265562 0.05380651
-0.10253649 -0.42666098 0.053835828
-0.10270692 -0.42677048 0.053837426
-0.10286852 -0.42686528 0.053899117
-0.10303813 -0.42697355 0.053905334
-0.10320893 -0.42708725 0.053880379
-0.10338555 -0.42720434 0.053857692
-0.10356086 -0.42731941 0.053843103
-0.1037286 -0.42742836 0.053836629
-0.10389681 -0.42753485 0.053848632
-0.10406147 -0.42763528 0.053886048
-0.10422141 -0.42772746 0.053958144
-0.1043805 -0.4278146 0.054060258
-0.10451965 -0.42786992 0.054289479
-0.10402548 -0.42634556 0.062354475
-0.10422638 -0.42651215 0.062105358
-0.10440451 -0.42661864 0.062160045
-0.10458875 -0.4267481 0.06208767
-0.10502928 -0.42692128 0.062826075
-0.10533339 -0.42705074 0.063269421
-0.10650136 -0.42837927 0.059414379
-0.10668315 -0.42849779 0.059404377
-0.10683906 -0.42859119 0.059451081
-0.1070509 -0.42874789 0.059315078
-0.10724031 -0.4288736 0.059290037
-0.1074058 -0.42896903 0.059364408
-0.10758892 -0.42909998 0.059277035
-0.10776776 -0.42922264 0.059226632
-0.10793839 -0.4293378 0.059191272
-0.1081111 -0.42943925 0.059256375
-0.10827616 -0.42955235 0.059210647
-0.10845919 -0.42967081 0.059206426
-0.1086364 -0.42978656 0.059195295
-0.10881087 -0.42990142 0.059178397
-0.10898751 -0.43002114 0.059138395
-0.10915953 -0.43013111 0.059143454
-0.10933714 -0.4302485 0.05912308
-0.10951331 -0.43036792 0.059083082
-0.10968688 -0.43048185 0.059068501
-0.1098587 -0.43059206 0.059071247
-0.11002439 -0.43069881 0.059070557
-0.11019861 -0.43080953 0.059080221
-0.11035716 -0.4309212 0.059016041
-0.11055631 -0.4310582 0.058957469
-0.11072312 -0.43115756 0.059011057
-0.11089718 -0.43127406 0.058981456
-0.11107001 -0.43138784 0.058964565
-0.11124486 -0.43150675 0.058922261
-0.11140849 -0.43161565 0.058898486
-0.11158507 -0.43172789 0.058908146
-0.11173494 -0.43182048 0.058934078
-0.11190198 -0.4319385 0.058864094
-0.11205233 -0.43202659 0.058922358
-0.11225609 -0.43217257 0.058823351
-0.11242035 -0.4322722 0.058864232
-0.11258813 -0.43238103 0.058858916
-0.11274616 -0.4324832 0.058855951
-0.11293396 -0.43261391 0.058790497
-0.11311352 -0.43273583 0.058748171
-0.11329609 -0.43285313 0.05874972
-0.11346325 -0.43295464 0.058790602
-0.11361833 -0.43305632 0.058778405
-0.11377235 -0.43317595 0.058641486
-0.11395494 -0.43328723 0.058683459
-0.11413804 -0.43340713 0.058669988
-0.11429492 -0.43350786 0.058671646
-0.114473 -0.43362799 0.058635101
-0.11462563 -0.43371615 0.058702596
-0.11479887 -0.43385249 0.058536742
-0.11497962 -0.43395877 0.058604121
-0.11513633 -0.43405995 0.058602311
-0.11530663 -0.43418092 0.058526538
-0.11547786 -0.43428901 0.058540829
-0.11563621 -0.43437949 0.058617547
-0.11581057 -0.43449825 0.058574092
-0.11598133 -0.434605 0.058595322
-0.11615346 -0.43473458 0.058469877
-0.11631765 -0.43483678 0.05849345
-0.11649106 -0.43495387 0.058456928
-0.11665602 -0.43505913 0.05846316
-0.1168476 -0.4351871 0.058432341
-0.11699554 -0.43527725 0.058466367
-0.11716843 -0.43540403 0.058362864
-0.11733381 -0.43550164 0.05842223
-0.11749749 -0.43561348 0.058378816
-0.11767238 -0.43572879 0.058360763
-0.11783326 -0.4358297 0.05837857
-0.11802808 -0.43596336 0.058323484
-0.11819228 -0.43607971 0.058252357
-0.11834352 -0.43618634 0.05819051
-0.11849844 -0.43627304 0.058277637
-0.11868726 -0.43639317 0.058287244
-0.11886607 -0.43651757 0.058225289
-0.11901798 -0.43662995 0.058127657
-0.11918486 -0.43673629 0.058135036
-0.11934127 -0.43683034 0.058179416
-0.11951227 -0.43694469 0.058150992
-0.11968428 -0.43706557 0.058083296
-0.11985182 -0.4371604 0.058170363
-0.12002636 -0.43728116 0.058114201
-0.12019025 -0.43738782 0.058106594
-0.12036057 -0.43750069 0.058085088
-0.12052485 -0.43761122 0.058053233
-0.12069486 -0.43772319 0.058036353
-0.1208488 -0.43782067 0.058047257
-0.12102498 -0.43793783 0.058022276
-0.12118211 -0.43803892 0.058022767
-0.12134918 -0.43815279 0.057980493
-0.12149806 -0.43823096 0.05809883
-0.12166705 -0.43836561 0.057926048
-0.12184994 -0.43849832 0.057825968
-0.1220138 -0.43858024 0.057983503
-0.12217174 -0.43869585 0.057890456
-0.12233894 -0.43882105 0.057773121
-0.12251 -0.43891883 0.057855561
-0.12267593 -0.43902817 0.057838701
-0.12285391 -0.43914235 0.05784142
-0.12303187 -0.43925703 0.057840675
-0.12318534 -0.43935871 0.057821557
-0.123351 -0.43946874 0.057798926
-0.12350733 -0.43957019 0.057793655
-0.12367599 -0.43968871 0.057727128
-0.12383216 -0.43978831 0.057733398
-0.12401278 -0.43990695 0.057717633
-0.1241964 -0.44002563 0.057714563
-0.12433081 -0.4401252 0.057627387
-0.12452649 -0.44025061 0.057631187
-0.12468211 -0.44035918 0.057575114
-0.12482616 -0.4404394 0.057658814
-0.1249914 -0.44054106 0.057690457
-0.1251591 -0.44065604 0.057643563
-0.12531468 -0.44075924 0.057623282
-0.12547949 -0.44086647 0.05761566
-0.12564398 -0.4409768 0.057586104
-0.12581125 -0.44109133 0.057540376
-0.12597282 -0.44119614 0.057535078
-0.12613958 -0.44131312 0.057470866
-0.12630391 -0.44142109 0.057456329
-0.12646863 -0.44152516 0.057469495
-0.12664239 -0.44163594 0.057476848
-0.12679738 -0.4417384 0.057458889
-0.1269626 -0.44183883 0.057498615
-0.12713845 -0.44195732 0.057463232
-0.12729537 -0.44206744 0.057402525
-0.12744784 -0.44216329 0.057418063
-0.1276212 -0.44227517 0.057416186
-0.12779161 -0.4423843 0.05742009
-0.12794875 -0.44249108 0.057382479
-0.12810327 -0.44259325 0.057364509
-0.12827571 -0.44269264 0.057442326
-0.12842646 -0.44279599 0.057400115
-0.12858444 -0.44292715 0.057203136
-0.12876157 -0.44303596 0.057238206
-0.12893111 -0.44313329 0.057317175
-0.12908792 -0.44323885 0.057286501
-0.129244 -0.44335946 0.057151888
-0.12940206 -0.44345957 0.057162777
-0.12957181 -0.44356897 0.057162069
-0.12973751 -0.44367957 0.057135969
-0.12991139 -0.44377589 0.05724033
-0.13005999 -0.4438715 0.057240866
-0.13021941 -0.44398943 0.057138585
-0.13038959 -0.44409719 0.05715058
-0.13055284 -0.44420344 0.057142962
-0.13071893 -0.44431201 0.057131879
-0.13087849 -0.44441777 0.057111584
-0.13103624 -0.44451839 0.057117846
-0.13119778 -0.44462839 0.057077914
-0.13135424 -0.4447501 0.056937531
-0.13152488 -0.44485608 0.056963377
-0.1316887 -0.4449513 0.057031982
-0.1318495 -0.44506201 0.056983963
-0.1320073 -0.44517872 0.056882836
-0.13217053 -0.44527546 0.056938738
-0.13233468 -0.44537863 0.056955375
-0.13249382 -0.44549173 0.056884266
-0.13265562 -0.44559929 0.056861654
-0.13282682 -0.44568923 0.05699721
-0.13298187 -0.44580919 0.056862596
-0.13314508 -0.44592127 0.056815729
-0.13331388 -0.44603056 0.05681156
-0.13347664 -0.4461289 0.056854762
-0.13363619 -0.44623965 0.056800969
-0.13379823 -0.44634613 0.05678644
-0.13395679 -0.44645801 0.056721102
-0.13412142 -0.44654042 0.056878634
-0.1342693 -0.4466618 0.056703638
-0.1344431 -0.44678244 0.05664517
-0.13461138 -0.4468731 0.056763411
-0.13476333 -0.44698727 0.056654222
-0.13492891 -0.44708827 0.056691647
-0.13509567 -0.44719383 0.056703657
-0.13525328 -0.44730559 0.056634855
-0.13541086 -0.44741127 0.05660649
-0.13557526 -0.44751394 0.056627743
-0.13573524 -0.44762221 0.056592431
-0.13590425 -0.4477194 0.056670252
-0.13606966 -0.4478322 0.056627985
-0.13622913 -0.44792998 0.056660809
-0.13638733 -0.44803467 0.056641676
-0.13654199 -0.44813797 0.056616776
-0.13670838 -0.44825453 0.056553725
-0.13686964 -0.44835567 0.056571525
-0.13702728 -0.44846073 0.056547776
-0.1371855 -0.4485701 0.056497455
-0.13734977 -0.44867322 0.056515254
-0.1375113 -0.44878402 0.056469541
-0.13766424 -0.44889331 0.0563973
-0.13782395 -0.44900072 0.056366615
-0.13798164 -0.44910043 0.056378655
-0.13814506 -0.44920903 0.056356031
-0.13830608 -0.44931969 0.056309171
-0.13846219 -0.44942999 0.056243844
-0.13862625 -0.44954225 0.056199282
-0.13878953 -0.44963714 0.056267887
-0.13894522 -0.44974297 0.056230284
-0.13912 -0.44984198 0.056320783
-0.1392763 -0.44995168 0.056260079
-0.13943772 -0.45004863 0.056306761
-0.1395932 -0.45015451 0.056267995
-0.13975193 -0.4502663 0.056203816
-0.13991603 -0.45037809 0.056162719
-0.14007759 -0.45047513 0.056209389
-0.14023431 -0.4505758 0.056211043
-0.14039932 -0.45068282 0.056205742
-0.14056391 -0.45078611 0.056223527
-0.14072122 -0.45089042 0.056203242
-0.14087239 -0.45100269 0.056103297
-0.14103711 -0.45110592 0.056122243
-0.14119618 -0.45120895 0.056118108
-0.1413471 -0.45131329 0.056070134
-0.14151008 -0.45142522 0.056023266
-0.14167054 -0.45153484 0.055981025
-0.14183505 -0.45163083 0.056047313
-0.14200406 -0.4517318 0.056099724
-0.14216644 -0.45185131 0.05599973
-0.14231242 -0.45195797 0.055914827
-0.14246424 -0.45205772 0.055901483
-0.14264512 -0.45215961 0.055998895
-0.14279637 -0.4522633 0.055956684
-0.14297095 -0.45236182 0.056049496
-0.14311518 -0.45247254 0.055929951
-0.14327426 -0.45257902 0.055902723
-0.14343286 -0.45268571 0.055872042
-0.14360107 -0.45278099 0.055959109
-0.14374018 -0.45289689 0.055782996
-0.14390422 -0.4529976 0.055815797
-0.14406317 -0.45310402 0.055788569
-0.14422159 -0.45321715 0.055714
-0.14438175 -0.45331967 0.055717953
-0.14454344 -0.45341834 0.055754237
-0.14470819 -0.45352226 0.055768561
-0.14486474 -0.45362642 0.055745967
-0.1450448 -0.45372745 0.055845682
-0.14519116 -0.45384508 0.055689171
-0.14534412 -0.45395055 0.055642344
-0.14549986 -0.45405799 0.055594347
-0.14567471 -0.4541522 0.055717181
-0.14585274 -0.45426071 0.055758014
-0.14599419 -0.45437327 0.055614226
-0.14615603 -0.45447549 0.055627406
-0.1463183 -0.45457765 0.055642888
-0.14646597 -0.45468768 0.055542961
-0.14663304 -0.45479119 0.055569984
-0.14678475 -0.45490262 0.055478118
-0.14694798 -0.45500451 0.055499382
-0.14711604 -0.45511076 0.05551254
-0.14726853 -0.45521316 0.055484187
-0.14742243 -0.45532081 0.055426955
-0.14759843 -0.45542765 0.055470102
-0.14776519 -0.45553443 0.055474028
-0.14792539 -0.45563474 0.055492997
-0.14809078 -0.45573923 0.055506162
-0.14824325 -0.45584717 0.055440851
-0.14840412 -0.45595014 0.055444799
-0.14855564 -0.45605281 0.055410683
-0.14872088 -0.45616016 0.055404224
-0.14889553 -0.45627064 0.055417344
-0.14903316 -0.45637384 0.055319764
-0.14919555 -0.45647657 0.055331796
-0.14936747 -0.45658511 0.055346083
-0.14952576 -0.45668367 0.05536852
-0.14970271 -0.4567939 0.055393189
-0.14984939 -0.45691037 0.055245914
-0.15000868 -0.45700628 0.055290289
-0.15015866 -0.45710915 0.055248085
-0.15032591 -0.45721883 0.055234686
-0.15047355 -0.45732209 0.055179797
-0.15065239 -0.45742473 0.055263348
-0.15080461 -0.45753217 0.055200353
-0.15095739 -0.45763943 0.055140823
-0.15113218 -0.45774549 0.055183973
-0.15129414 -0.4578464 0.055206396
-0.15145142 -0.45794812 0.05520343
-0.15161613 -0.45805597 0.055191204
-0.15175509 -0.4581604 0.055091303
-0.15193011 -0.45826679 0.055133298
-0.15205967 -0.45837706 0.054953761
-0.15222622 -0.45847988 0.054983094
-0.15239975 -0.45858428 0.05503203
-0.15256126 -0.45869026 0.055018649
-0.1527212 -0.45879644 0.054997198
-0.15288557 -0.45890445 0.054982651
-0.15304422 -0.45901307 0.054939266
-0.15319978 -0.45911747 0.054910898
-0.15337157 -0.4592225 0.054948285
-0.15353373 -0.45932853 0.054937221
-0.15366097 -0.45943558 0.054769237
-0.15381761 -0.4595398 0.054746643
-0.15401196 -0.4596431 0.054892495
-0.15420528 -0.45974678 0.055031419
-0.15436435 -0.45985553 0.054989181
-0.15447572 -0.45996547 0.054733504
-0.15463786 -0.46006942 0.054736294
-0.15482944 -0.46017373 0.05486368
-0.15497983 -0.46028289 0.054781057
-0.15512596 -0.46038795 0.054707695
-0.1552867 -0.46049428 0.054688547
-0.15546961 -0.46059957 0.054772083
-0.15563957 -0.46070769 0.054780614
-0.1558056 -0.46081609 0.054770682
-0.15595852 -0.46092498 0.054700755
-0.15611009 -0.46103182 0.054638918
-0.15629044 -0.46114182 0.05467974
-0.15645151 -0.46124631 0.054674447
-0.15662965 -0.46135247 0.054731444
-0.15676796 -0.46146163 0.054596908
-0.15692516 -0.4615683 0.05456046
-0.15710385 -0.46167463 0.054618604
-0.15726151 -0.46177936 0.054597158
-0.15742426 -0.46188802 0.054571074
-0.15756771 -0.46199083 0.054501187
-0.15774956 -0.46210146 0.054544315
