# .PCD v0.7 - Point Cloud Data file format
VERSION 0.7
FIELDS x y z
SIZE 4 4 4
TYPE F F F
COUNT 1 1 1
WIDTH 1291
HEIGHT 1
VIEWPOINT 0 0 0 1 0 0 0
POINTS 1291
DATA ascii
-0.28681439 -0.25638309 0.050130766
-0.28700113 -0.25640485 0.050013397
-0.28720978 -0.2564123 0.050061509
-0.28739238 -0.25642672 0.050019473
-0.28758556 -0.25644904 0.049899735
-0.28777841 -0.25645721 0.049930591
-0.28797272 -0.25646764 0.049938273
-0.28817624 -0.25648361 0.049892597
-0.28836679 -0.25649405 0.049897984
-0.28856251 -0.25650674 0.049882494
-0.28876051 -0.25652075 0.04985423
-0.28895441 -0.25653496 0.049821366
-0.28914338 -0.25654683 0.049810559
-0.28933832 -0.25655052 0.04989006
-0.28953302 -0.2565673 0.049830548
-0.28974178 -0.25657877 0.04983579
-0.28992429 -0.25659287 0.049797233
-0.29010966 -0.25660768 0.049752861
-0.29030031 -0.25661835 0.049755927
-0.29048973 -0.25663295 0.04971616
-0.29069412 -0.25664198 0.04974461
-0.29088274 -0.25665426 0.049729165
-0.2910758 -0.25666615 0.049720641
-0.29125512 -0.25668812 0.04959638
-0.29146039 -0.2566995 0.049600497
-0.29163551 -0.25671864 0.049504071
-0.29184684 -0.2567147 0.049674958
-0.29202369 -0.25674075 0.049505543
-0.29221484 -0.25675121 0.049510926
-0.29242584 -0.25675347 0.049615782
-0.29264233 -0.25676018 0.049676571
-0.29282612 -0.2567811 0.049566176
-0.29301825 -0.25679892 0.049493946
-0.29324588 -0.25679341 0.049691342
-0.29344159 -0.25681406 0.049591273
-0.29361475 -0.25683394 0.049485601
-0.29380447 -0.25684813 0.04945045
-0.29399228 -0.25685608 0.0494802
-0.29416814 -0.25687647 0.04937103
-0.29438889 -0.25688362 0.049429469
-0.29457355 -0.25689611 0.049409423
-0.29476964 -0.2569088 0.049393918
-0.29496002 -0.2569226 0.049363405
-0.29514796 -0.25693551 0.049341012
-0.29533243 -0.25694808 0.049319815
-0.29553685 -0.2569606 0.049311195
-0.2957367 -0.25697124 0.049319994
-0.2959193 -0.25698721 0.049261741
-0.29611203 -0.25699744 0.049270585
-0.29630625 -0.25701353 0.049218036
-0.29650754 -0.25702348 0.049234919
-0.29668295 -0.2570411 0.049154721
-0.29688454 -0.25705096 0.049172767
-0.2970891 -0.25706142 0.049186159
-0.29728019 -0.25707275 0.049182281
-0.29746839 -0.25708774 0.049137875
-0.29766262 -0.25710166 0.049108498
-0.29787225 -0.2571097 0.049150802
-0.29806009 -0.25712487 0.049104087
-0.29824963 -0.25713709 0.049089801
-0.29844338 -0.25715128 0.04905694
-0.29863819 -0.25716293 0.04905187
-0.2988472 -0.2571716 0.049087241
-0.29904863 -0.25718409 0.049077488
-0.2992222 -0.25720224 0.048990343
-0.29943115 -0.25721112 0.049023382
-0.29962137 -0.25722513 0.048990559
-0.29980859 -0.25723863 0.048961226
-0.30000162 -0.25725323 0.048923738
-0.30021203 -0.25726163 0.048962563
-0.30038714 -0.25728074 0.048866138
-0.30058137 -0.25729293 0.04885529
-0.30077651 -0.25730655 0.048829366
-0.30098075 -0.25731429 0.048871726
-0.30119178 -0.25732276 0.048910543
-0.30135524 -0.25734684 0.048753981
-0.30156222 -0.25735354 0.048809052
-0.3017692 -0.25736034 0.048862971
-0.30196089 -0.25737563 0.048817381
-0.30213624 -0.25739965 0.048668824
-0.30233401 -0.25740877 0.048692696
-0.30256084 -0.25741094 0.048807852
-0.30274484 -0.25742775 0.048741475
-0.30294329 -0.25744539 0.048674978
-0.30314136 -0.25745463 0.048697695
-0.30334288 -0.2574659 0.048700683
-0.30353662 -0.25748208 0.048646972
-0.30373111 -0.2574912 0.048668548
-0.30390215 -0.25750974 0.048575629
-0.30410278 -0.25752315 0.04855546
-0.30430409 -0.25753301 0.048573516
-0.30449608 -0.25754657 0.048546456
-0.30471209 -0.25755087 0.048632741
-0.30490762 -0.257568 0.048569746
-0.3051016 -0.25757927 0.048568156
-0.3052738 -0.25759724 0.048482187
-0.30546626 -0.25761387 0.04842269
-0.30567539 -0.25762114 0.048473116
-0.30588064 -0.2576299 0.048505034
-0.30607334 -0.2576434 0.04847914
-0.30626759 -0.25765634 0.048460174
-0.30645156 -0.25767455 0.04837874
-0.30666307 -0.2576828 0.048419878
-0.3068428 -0.25769946 0.048352376
-0.30703357 -0.25771067 0.04834966
-0.30721235 -0.25773063 0.048246253
-0.30739161 -0.25774738 0.0481776
-0.30762175 -0.25774792 0.048312414
-0.30780157 -0.25776601 0.048229858
-0.3080098 -0.25777429 0.048268702
-0.30819803 -0.25778949 0.048221983
-0.3084265 -0.25779253 0.048329022
-0.30857375 -0.25782156 0.048110027
-0.30879271 -0.25782505 0.048206713
-0.30897966 -0.25784069 0.048154213
-0.30919188 -0.25784802 0.048205767
-0.30939198 -0.25786087 0.048191395
-0.30958471 -0.2578747 0.048162017
-0.30977124 -0.25789055 0.048107199
-0.30998069 -0.25789902 0.048144877
-0.31017074 -0.25791377 0.04810394
-0.31038028 -0.25792235 0.048140459
-0.31055641 -0.25794154 0.048044026
-0.31076619 -0.25795013 0.048080545
-0.31096232 -0.25796306 0.048062719
-0.31115586 -0.25797683 0.0480345
-0.31134984 -0.25799179 0.047993533
-0.31154585 -0.25800484 0.047974553
-0.31175581 -0.25801367 0.048008751
-0.31194755 -0.2580294 0.04795853
-0.31213552 -0.25804359 0.047922239
-0.31233338 -0.25805619 0.04790904
-0.31254706 -0.25806546 0.047940891
-0.31274948 -0.25807679 0.047943875
-0.3129178 -0.25809813 0.0478197
-0.31310064 -0.25811386 0.047763765
-0.31333464 -0.25811744 0.047868431
-0.31351602 -0.25813496 0.047792811
-0.31372425 -0.25814611 0.047801532
-0.31395894 -0.25814852 0.047918934
-0.31412336 -0.25817212 0.047768157
-0.314316 -0.25818649 0.047732987
-0.31451049 -0.2582016 0.047690857
-0.31471607 -0.25821367 0.047688022
-0.31495881 -0.25821811 0.047789138
-0.31511846 -0.25824034 0.04764998
-0.31533933 -0.25824839 0.047699146
-0.31552944 -0.25826359 0.047653578
-0.31572515 -0.25827605 0.047640398
-0.31593448 -0.25828615 0.047660694
-0.31612927 -0.2583026 0.047604661
-0.31633386 -0.25831646 0.047582138
-0.31652215 -0.25832981 0.047555115
-0.31671733 -0.25834137 0.0475512
-0.31690985 -0.25835603 0.047512561
-0.31710488 -0.25836891 0.047494743
-0.3173041 -0.2583819 0.047478057
-0.3174786 -0.25840241 0.047366582
-0.31770128 -0.25840598 0.047464393
-0.31790382 -0.25842059 0.047432616
-0.31809238 -0.25843406 0.047404438
-0.31832871 -0.25843799 0.047506772
-0.31851083 -0.25845894 0.047395229
-0.31872994 -0.25847191 0.047391124
-0.31892464 -0.25848398 0.047381423
-0.31912324 -0.25849858 0.047347367
-0.31932724 -0.25851077 0.047342226
-0.3195225 -0.25852734 0.047285028
-0.31973746 -0.2585381 0.04730181
-0.31993607 -0.25854942 0.047302507
-0.32012349 -0.25856119 0.0472917
-0.32034162 -0.25857586 0.047269069
-0.32052428 -0.25859213 0.047207341
-0.32075167 -0.25859913 0.04727152
-0.32093903 -0.25861549 0.047212064
-0.32109937 -0.25863254 0.047128499
-0.32131907 -0.25864586 0.047120921
-0.32156149 -0.25864863 0.047239415
-0.32174376 -0.25866729 0.047152199
-0.32196093 -0.25868243 0.047123782
-0.32214174 -0.25869706 0.047078289
-0.32236087 -0.25870752 0.047100823
-0.3225812 -0.25871456 0.047160432
-0.32276243 -0.25873348 0.047069751
-0.32296845 -0.25874591 0.047063433
-0.32314482 -0.25876269 0.046992488
-0.32334551 -0.25877631 0.046969995
-0.32356679 -0.25878766 0.046984408
-0.32376269 -0.25880134 0.04695848
-0.3239781 -0.25881299 0.04696599
-0.32416272 -0.25882807 0.046918139
-0.32437682 -0.25884008 0.046921026
-0.32459581 -0.2588501 0.046948206
-0.32479131 -0.25886714 0.046886366
-0.32499936 -0.25888056 0.046870764
-0.32519016 -0.25889447 0.046839092
-0.32540882 -0.25890577 0.046852361
-0.32559571 -0.25892359 0.046776697
-0.32578927 -0.25893703 0.046751946
-0.3260186 -0.25894731 0.046782516
-0.3262051 -0.25896427 0.046716113
-0.32645223 -0.25897613 0.046740737
-0.32665253 -0.25899136 0.046700872
-0.32684547 -0.2590051 0.046672657
-0.32707378 -0.25901586 0.046697441
-0.32725835 -0.25902933 0.046666972
-0.32744434 -0.25904548 0.046608683
-0.3276737 -0.25905716 0.046624199
-0.32787681 -0.25906712 0.046642229
-0.32808578 -0.25908092 0.046623148
-0.32827258 -0.25909701 0.046566017
-0.32849273 -0.25910971 0.046565376
-0.22109087 -0.25243235 0.052041866
-0.22133316 -0.252451 0.05199128
-0.221586 -0.25247324 0.051909335
-0.22183309 -0.25249478 0.051830906
-0.22208744 -0.25251773 0.051742002
-0.22233205 -0.25253868 0.051668227
-0.22260779 -0.25256789 0.051525868
-0.22285266 -0.25258923 0.051448621
-0.22307673 -0.25260258 0.051443361
-0.22330908 -0.25261989 0.051400959
-0.22355101 -0.25263938 0.051341109
-0.22378346 -0.25265694 0.051296387
-0.2240146 -0.25267297 0.051266745
-0.22424988 -0.25269166 0.051211584
-0.2244969 -0.25271332 0.051131997
-0.22473967 -0.25273365 0.051064037
-0.22498623 -0.25275537 0.050983295
-0.22521168 -0.25277111 0.050953694
-0.22545707 -0.25279266 0.050874121
-0.2256979 -0.25281277 0.050807331
-0.22593462 -0.25283152 0.050752163
-0.2261707 -0.25285134 0.050685406
-0.22640522 -0.25286955 0.050634883
-0.22664537 -0.25289103 0.050553031
-0.22688431 -0.25291103 0.050486267
-0.2271243 -0.25293151 0.050414838
-0.22736174 -0.25295117 0.050350394
-0.22759666 -0.25297126 0.050280176
-0.22784305 -0.25299442 0.050184384
-0.2280625 -0.25300792 0.050174527
-0.2282974 -0.25302714 0.050113566
-0.22852802 -0.2530461 0.05005265
-0.22876363 -0.25306579 0.049987063
-0.22899321 -0.25308457 0.049927309
-0.22922213 -0.253102 0.049881466
-0.22945461 -0.25312087 0.049822845
-0.22968152 -0.25313777 0.04978165
-0.22991148 -0.25315711 0.0497161
-0.23014052 -0.25317499 0.049665622
-0.23036958 -0.25319299 0.04961399
-0.23060037 -0.25321177 0.049555384
-0.23081949 -0.25322744 0.049522359
-0.23104863 -0.25324577 0.04946724
-0.23127122 -0.25326294 0.049420286
-0.23149772 -0.25328046 0.049372148
-0.23172027 -0.25329655 0.049336776
-0.23195013 -0.2533156 0.049274702
-0.23217022 -0.2533322 0.049232401
-0.23239323 -0.25334874 0.049192395
-0.23261018 -0.25336429 0.049159389
-0.2328307 -0.25338006 0.049126353
-0.23306546 -0.25340155 0.049041077
-0.23330301 -0.25341514 0.049041495
-0.23367867 -0.25343022 0.049110316
-0.2339035 -0.25344679 0.04907145
-0.23444517 -0.25352171 0.048604943
-0.23458874 -0.25350544 0.048865575
-0.23481312 -0.25352764 0.048766483
-0.23503658 -0.25354552 0.048712574
-0.23525015 -0.25356078 0.048680753
-0.23546757 -0.25357637 0.048647739
-0.23567945 -0.25359106 0.048620567
-0.23590589 -0.25360924 0.04856547
-0.23611668 -0.25362366 0.048540618
-0.23633461 -0.25363982 0.048501808
-0.23656014 -0.25365654 0.048461784
-0.23675625 -0.25366771 0.048462536
-0.23697346 -0.25368384 0.048423734
-0.23719828 -0.2537019 0.048368648
-0.23739906 -0.25371391 0.04836357
-0.23760924 -0.2537272 0.048350312
-0.23782238 -0.25374189 0.048324287
-0.23803872 -0.25375804 0.048284322
-0.23824568 -0.2537716 0.048266463
-0.23844922 -0.25378224 0.048277572
-0.23865056 -0.25379339 0.048281759
-0.23884679 -0.2538023 0.04830683
-0.23903486 -0.25380605 0.048381776
-0.23921582 -0.25380501 0.048503123
-0.23937169 -0.25379241 0.048732381
-0.23816122 -0.25296038 0.056843497
-0.23869641 -0.25304279 0.056293651
-0.23883384 -0.25301635 0.056658581
-0.23906144 -0.25303742 0.056573365
-0.23941778 -0.25302079 0.056967832
-0.23953547 -0.25298712 0.057397794
-0.24157584 -0.25344485 0.053774416
-0.24180305 -0.25346339 0.05371584
-0.24200743 -0.25346363 0.053838152
-0.24226651 -0.25348815 0.053735301
-0.24247 -0.25350007 0.053732522
-0.24267437 -0.25351077 0.053743631
-0.24289821 -0.25352454 0.053733729
-0.24311472 -0.25354344 0.053664818
-0.2432937 -0.25355527 0.05364833
-0.24354249 -0.25357169 0.053625494
-0.24375618 -0.25358945 0.053567033
-0.24395834 -0.25359935 0.053585105
-0.24417162 -0.25360793 0.053623937
-0.24437076 -0.25361624 0.053657107
-0.24455059 -0.25362515 0.053671878
-0.24480464 -0.25365615 0.053497255
-0.24499594 -0.25367534 0.053410009
-0.24520889 -0.25367835 0.053507932
-0.24543697 -0.25368977 0.053525794
-0.24562067 -0.25370306 0.053496528
-0.24586475 -0.25372171 0.053447098
-0.24606845 -0.25373301 0.053451255
-0.24625356 -0.25374734 0.053411551
-0.24645473 -0.2537573 0.053428475
-0.24669796 -0.25377589 0.053379036
-0.24688505 -0.2537857 0.053389125
-0.24712795 -0.25380635 0.053317685
-0.24733037 -0.25381932 0.053303324
-0.24751152 -0.25382778 0.053323895
-0.24773619 -0.25384399 0.053288504
-0.24793307 -0.25385588 0.053282291
-0.24812296 -0.25386354 0.053316694
-0.24836096 -0.25389034 0.053176947
-0.24853809 -0.25389865 0.053196386
-0.24874742 -0.25390583 0.053247988
-0.24898745 -0.25392368 0.053204373
-0.24915296 -0.25392908 0.05324823
-0.24938641 -0.25395384 0.05312705
-0.24958108 -0.25396049 0.0531753
-0.24979353 -0.25397643 0.05313538
-0.24998951 -0.25398618 0.05315119
-0.2502031 -0.25399631 0.05317381
-0.25040781 -0.25401422 0.053108461
-0.25059396 -0.2540198 0.053162575
-0.250837 -0.25404993 0.052990362
-0.25105646 -0.25406203 0.052995559
-0.25124207 -0.25406739 0.053051986
-0.25143155 -0.25407773 0.053057425
-0.25164714 -0.25409681 0.052986205
-0.25186267 -0.2541112 0.052964788
-0.25205675 -0.25412259 0.052962083
-0.25228062 -0.2541382 0.052932497
-0.25247416 -0.25414935 0.052932106
-0.25268462 -0.25416538 0.052889884
-0.2528936 -0.25418049 0.052856937
-0.2530956 -0.2541956 0.052819408
-0.25326887 -0.25419956 0.052882895
-0.2534779 -0.25421238 0.052874278
-0.25370121 -0.25423613 0.052757822
-0.25389546 -0.25424308 0.0528026
-0.25410485 -0.25425646 0.052788183
-0.25431174 -0.25427598 0.052706607
-0.25449532 -0.25428274 0.05274684
-0.25472182 -0.25430179 0.052682485
-0.25490972 -0.25432315 0.052569773
-0.25512135 -0.25432774 0.052650332
-0.25533128 -0.25433645 0.052685723
-0.25552869 -0.25434619 0.05270268
-0.25572202 -0.25435829 0.052691866
-0.25591248 -0.25436807 0.052704245
-0.25612938 -0.25439459 0.052554242
-0.25632972 -0.25440419 0.052574649
-0.25653848 -0.25441816 0.052553285
-0.25673124 -0.25442415 0.052607346
-0.25693497 -0.25443992 0.052564017
-0.25713867 -0.25445578 0.052519538
-0.25735283 -0.25447825 0.052411262
-0.25753888 -0.25448775 0.052423678
-0.2577396 -0.25449485 0.052470721
-0.25795126 -0.25451228 0.052414589
-0.25815582 -0.25452307 0.052424535
-0.25833568 -0.25453004 0.05246016
-0.25852844 -0.25454289 0.052441247
-0.25874439 -0.25456512 0.052336439
-0.25894487 -0.25457209 0.052384645
-0.25913218 -0.25458321 0.052380826
-0.25934899 -0.25460702 0.05225978
-0.25955367 -0.2546185 0.052262787
-0.2597636 -0.25463188 0.052248366
-0.25997344 -0.25464156 0.052273326
-0.26019806 -0.25465986 0.052215934
-0.26037705 -0.25467005 0.05221682
-0.26054937 -0.25467277 0.052293055
-0.26075551 -0.2546941 0.052191786
-0.26096055 -0.25470647 0.052185521
-0.26117384 -0.25472051 0.052166432
-0.26134902 -0.25473472 0.052122176
-0.26154396 -0.2547394 0.05219128
-0.26174358 -0.25475395 0.052158408
-0.26196885 -0.25477031 0.052121863
-0.26216203 -0.25478142 0.052121475
-0.26237664 -0.25479782 0.052078061
-0.26256177 -0.25482145 0.051939894
-0.26276535 -0.25482368 0.052040208
-0.26296899 -0.25483519 0.052042052
-0.26316676 -0.25485313 0.051972136
-0.26334187 -0.25485414 0.052068036
-0.26352531 -0.25485685 0.052151129
-0.26374143 -0.25488663 0.05196638
-0.26392832 -0.25489444 0.051997319
-0.26412994 -0.2549139 0.051913463
-0.2643286 -0.25492382 0.05192925
-0.26453406 -0.2549389 0.051894031
-0.26473743 -0.25495085 0.051891237
-0.26492429 -0.25496453 0.051859628
-0.26511711 -0.25497663 0.051848821
-0.26532906 -0.25498557 0.051883042
-0.26553637 -0.25499859 0.051870961
-0.26571575 -0.25501198 0.051838245
-0.26590943 -0.25502604 0.051806588
-0.26610616 -0.25503945 0.051784165
-0.26630798 -0.25505608 0.051730424
-0.26652026 -0.25506592 0.051755369
-0.26671255 -0.25507796 0.051744565
-0.2668958 -0.25509331 0.051693298
-0.26707852 -0.25510022 0.051731221
-0.2672891 -0.25512195 0.051628765
-0.26749262 -0.25513628 0.051600493
-0.2677016 -0.25514701 0.051613882
-0.26788691 -0.25515166 0.051677272
-0.26807588 -0.25516528 0.051647954
-0.26826531 -0.25518021 0.05160474
-0.2684693 -0.25519675 0.051553309
-0.26865718 -0.255218 0.051441763
-0.2688615 -0.2552264 0.051477201
-0.26905364 -0.2552405 0.051444381
-0.26924613 -0.25523373 0.05163398
-0.26943311 -0.25524232 0.051656801
-0.26963612 -0.25528133 0.051365606
-0.26983219 -0.25528556 0.051440489
-0.27003363 -0.25529584 0.051453933
-0.2702257 -0.25531125 0.051407225
-0.27042389 -0.25533813 0.051242314
-0.27061662 -0.25532669 0.051481709
-0.27081898 -0.25534117 0.051451132
-0.27101806 -0.25535774 0.051396262
-0.27121595 -0.2553685 0.051402785
-0.27140406 -0.25538486 0.051343367
-0.27160335 -0.25540528 0.051247947
-0.2718119 -0.2554175 0.051245131
-0.27199867 -0.25542694 0.051258694
-0.27218875 -0.25543374 0.051302351
-0.27238688 -0.25544885 0.051262543
-0.27257738 -0.25545949 0.051265653
-0.27276418 -0.25546861 0.051282689
-0.27296302 -0.25549924 0.05107839
-0.27317137 -0.25551417 0.051046617
-0.27336103 -0.25550768 0.051231589
-0.27354792 -0.25552246 0.051188394
-0.27375269 -0.25554785 0.05104313
-0.27395019 -0.25554463 0.051197931
-0.2741403 -0.25556615 0.051085204
-0.27433723 -0.25558925 0.050959684
-0.27453893 -0.25558409 0.051137619
-0.27474636 -0.25560725 0.051017813
-0.27493292 -0.25561765 0.051020954
-0.27512968 -0.25563443 0.050962627
-0.27533105 -0.25564069 0.051018931
-0.27552161 -0.25564796 0.051057957
-0.27571082 -0.25566572 0.050984621
-0.27590734 -0.2556816 0.050935559
-0.27610463 -0.25569209 0.05094441
-0.27630183 -0.25570321 0.05094631
-0.2764917 -0.25571492 0.050937846
-0.27668792 -0.25573069 0.050889939
-0.27688125 -0.25574267 0.050880291
-0.27707726 -0.25575852 0.050831232
-0.277271 -0.25576848 0.050843585
-0.27746454 -0.25577942 0.050845511
-0.27766445 -0.25579354 0.050817274
-0.27786243 -0.25580156 0.050852753
-0.27805784 -0.25581825 0.050794438
-0.27825698 -0.25583431 0.050745353
-0.27845183 -0.25584105 0.050792448
-0.27862972 -0.25585476 0.050755121
-0.27882671 -0.25587603 0.050649293
-0.27902213 -0.25588149 0.050710279
-0.27922168 -0.2558955 0.050683208
-0.27941918 -0.25591427 0.050604016
-0.27962795 -0.25592336 0.05063479
-0.27981079 -0.25593323 0.050641436
-0.27999854 -0.25594848 0.050593596
-0.28021002 -0.25595993 0.050601177
-0.28040263 -0.25597242 0.050585739
-0.28058562 -0.25598207 0.050594702
-0.28077418 -0.25599521 0.05057003
-0.28097534 -0.25600538 0.050584633
-0.28116482 -0.25602359 0.05050667
-0.28136533 -0.25603491 0.050508544
-0.28156015 -0.25604972 0.05046992
-0.2817575 -0.25606009 0.050479922
-0.28195345 -0.25607291 0.050463304
-0.28214595 -0.25608531 0.050449021
-0.28234324 -0.25609589 0.050456718
-0.2825332 -0.25610641 0.050460987
-0.28272298 -0.25613397 0.050283402
-0.2829271 -0.25613442 0.050403398
-0.28311199 -0.25614691 0.050383389
-0.28330275 -0.25616682 0.050288044
-0.2835075 -0.2561774 0.050300308
-0.28369761 -0.25618768 0.050306894
-0.28390235 -0.25619349 0.05037012
-0.2840848 -0.2562139 0.050264414
-0.28427771 -0.25623024 0.050208431
-0.28447855 -0.25624114 0.050214943
-0.28466713 -0.25625342 0.050199527
-0.28487378 -0.25625747 0.050282441
-0.28506938 -0.25627485 0.050217167
-0.28524601 -0.2563009 0.050047792
-0.28544834 -0.2563144 0.050027646
-0.28565326 -0.25631663 0.050129104
-0.28583226 -0.25633106 0.050084811
-0.28603604 -0.25633898 0.050124884
-0.28624246 -0.2563563 0.050066482
-0.28644639 -0.25636426 0.050106551
-0.28663525 -0.25637621 0.050094612
-0.28682092 -0.25638372 0.050127879
-0.28701049 -0.25640631 0.050003584
-0.28721714 -0.25641188 0.050070271
-0.28740418 -0.25642928 0.049999278
-0.28759927 -0.25644967 0.049901575
-0.28779149 -0.25645834 0.049926683
-0.28798583 -0.25646865 0.049935557
-0.28818879 -0.25648502 0.049885288
-0.28838643 -0.25649586 0.04989066
-0.28857926 -0.25650761 0.049883328
-0.28877726 -0.25652152 0.049856257
-0.28897098 -0.25653583 0.049822278
-0.28916356 -0.25654778 0.049812626
-0.28935698 -0.2565527 0.049878273
-0.28955254 -0.25656864 0.049828053
-0.28975958 -0.25658146 0.049818292
-0.28994644 -0.25659505 0.049787838
-0.29013607 -0.25660944 0.049750417
-0.2903215 -0.25662109 0.049739666
-0.29051146 -0.25663519 0.049705721
-0.29071718 -0.25664312 0.049746934
-0.29090825 -0.25665638 0.049722239
-0.29110068 -0.25666866 0.049709123
-0.29128155 -0.2566894 0.049598791
-0.29148641 -0.25670099 0.049600627
-0.29166317 -0.2567189 0.049518127
-0.29187575 -0.25671676 0.049670495
-0.29204372 -0.25674352 0.049488455
-0.29224354 -0.2567533 0.049506545
-0.29244867 -0.25675681 0.049594104
-0.29266819 -0.2567614 0.049679223
-0.29285336 -0.25678393 0.049552634
-0.29305094 -0.25680065 0.049495459
-0.29327568 -0.25679445 0.049698688
-0.29346868 -0.25681677 0.049578998
-0.29364437 -0.25683492 0.049493041
-0.29382837 -0.25685021 0.049442913
-0.29402018 -0.25685808 0.049476132
-0.29419771 -0.25687733 0.049379736
-0.29441547 -0.25688627 0.049417377
-0.29460967 -0.25689769 0.049414672
-0.29480305 -0.25691196 0.049380686
-0.29499072 -0.25692496 0.049357183
-0.29518315 -0.25693744 0.049341746
-0.29536656 -0.25695062 0.049313638
-0.29557171 -0.25696266 0.049310837
-0.29577062 -0.25697377 0.049313881
-0.29595417 -0.25698912 0.049262606
-0.29614866 -0.25700054 0.049259901
-0.2963424 -0.25701681 0.049205065
-0.29654413 -0.25702646 0.049225457
-0.29671946 -0.25704408 0.049145289
-0.29692438 -0.25705424 0.049162194
-0.29712653 -0.25706381 0.049183737
-0.29731473 -0.25707659 0.049162541
-0.29751137 -0.25709128 0.049126223
-0.29770321 -0.25710431 0.049104996
-0.29790893 -0.25711223 0.049146216
-0.29809934 -0.25712809 0.049093727
-0.29829094 -0.25713924 0.0490922
-0.29848245 -0.25715449 0.049046651
-0.29867598 -0.25716671 0.049034681
-0.29888809 -0.25717384 0.049088586
-0.29908884 -0.25718659 0.049075395
-0.29925948 -0.25720608 0.0489721
-0.29947481 -0.25721186 0.049042195
-0.29966006 -0.25722817 0.048981637
-0.2998504 -0.25724208 0.048949998
-0.30004206 -0.25725725 0.048905615
-0.300257 -0.25726354 0.048969924
-0.3004297 -0.25728369 0.048860818
-0.30062193 -0.25729671 0.048839591
-0.3008219 -0.25730813 0.048840303
-0.30102777 -0.2573151 0.048891939
-0.30122837 -0.25732815 0.048875283
-0.3013978 -0.25734955 0.048751142
-0.30160922 -0.25735608 0.048810847
-0.30181998 -0.25736299 0.048865922
-0.30200648 -0.25738046 0.048793778
-0.30218393 -0.25740352 0.048656836
-0.30238703 -0.25741032 0.048708495
-0.30260837 -0.25741482 0.048795912
-0.3027927 -0.25743139 0.04873189
-0.3029964 -0.25744683 0.04869204
-0.30319136 -0.25745729 0.048699751
-0.303388 -0.25746885 0.048697017
-0.30358294 -0.25748616 0.048631757
-0.30377769 -0.25749683 0.048637152
-0.30395225 -0.25751558 0.048544243
-0.30415556 -0.25752619 0.048555367
-0.30435103 -0.25753832 0.048545692
-0.30454972 -0.25754923 0.048551053
-0.30476004 -0.25755566 0.048610769
-0.30495915 -0.25757137 0.04856516
-0.30514833 -0.25758445 0.048541635
-0.30532366 -0.25760117 0.048470736
-0.3055135 -0.25761876 0.04839972
-0.30572316 -0.25762418 0.048469868
-0.30593824 -0.25763243 0.048513323
-0.30613118 -0.25764737 0.048472393
-0.30632252 -0.25766131 0.048440747
-0.30650955 -0.25767991 0.04835701
-0.30672747 -0.25768277 0.048459519
-0.30689219 -0.25770628 0.048309937
-0.3070944 -0.2577149 0.048341915
-0.30726331 -0.2577368 0.048211992
-0.30745253 -0.25775149 0.048171092
-0.30767858 -0.2577534 0.048288602
-0.30786544 -0.25776756 0.048252352
-0.30806333 -0.25777936 0.048247296
-0.30826551 -0.25779125 0.048244528
-0.30847746 -0.25779986 0.048282214
-0.30863252 -0.25782618 0.048096802
-0.30885625 -0.25782949 0.0481981
-0.30904815 -0.25784349 0.048166461
-0.309255 -0.25785255 0.048196081
-0.30945188 -0.25786498 0.048184074
-0.30964169 -0.25787973 0.048143178
-0.30983549 -0.25789458 0.048103407
-0.31004062 -0.25790444 0.048123777
-0.31023633 -0.25791734 0.048105992
-0.31044349 -0.25792667 0.048133295
-0.31061941 -0.25794724 0.048021857
-0.3108362 -0.25795361 0.04808614
-0.31102723 -0.2579681 0.048048712
-0.3112171 -0.25798297 0.048006646
-0.31140608 -0.25799808 0.047961123
-0.3116152 -0.25800708 0.047993045
-0.31182343 -0.25801778 0.048006438
-0.31200987 -0.25803372 0.047950506
-0.3121987 -0.25804895 0.047903821
-0.31240356 -0.25806075 0.047903344
-0.31261685 -0.2580688 0.04794798
-0.31281367 -0.25808176 0.047930188
-0.31299025 -0.25810194 0.047823366
-0.31317049 -0.25811839 0.047758222
-0.31339285 -0.25812533 0.047820151
-0.31358832 -0.25813878 0.047796577
-0.31380361 -0.25814658 0.047844671
-0.3140291 -0.25815165 0.047928579
-0.31417793 -0.25817958 0.047722369
-0.31438854 -0.25818887 0.047751963
-0.31458655 -0.2582055 0.047695935
-0.31480092 -0.25821513 0.047724344
-0.3150045 -0.25822905 0.047700703
-0.3151969 -0.25824228 0.047677167
-0.31540748 -0.2582531 0.047690537
-0.31560436 -0.25826892 0.047642633
-0.31580088 -0.2582787 0.047658432
-0.31600788 -0.25829062 0.047657944
-0.31620663 -0.258306 0.047615811
-0.31641224 -0.25832078 0.047584049
-0.31660181 -0.25833374 0.04756169
-0.31679112 -0.25834683 0.047538161
-0.31698152 -0.25836203 0.047492631
-0.31718889 -0.25837287 0.04750371
-0.31738314 -0.25838831 0.047458142
-0.31755003 -0.25840718 0.047359508
-0.31779677 -0.25840703 0.047511593
-0.31797004 -0.25842896 0.047383957
-0.3181861 -0.25843555 0.047445934
-0.31840909 -0.25844511 0.047480062
-0.31859621 -0.25846362 0.047397487
-0.31880751 -0.25847733 0.047380738
-0.31899783 -0.25849044 0.047357209
-0.31919765 -0.25850359 0.047339395
-0.31940901 -0.25851512 0.047345813
-0.31960309 -0.25853196 0.047285192
-0.31981254 -0.25854403 0.04728467
-0.32000983 -0.25855452 0.047293521
-0.32020399 -0.25856578 0.047291972
-0.32042253 -0.25858143 0.047258951
-0.32060391 -0.25859687 0.047205381
-0.32083169 -0.25860488 0.047259163
-0.32100153 -0.25862303 0.047169767
-0.32118607 -0.25863779 0.047125436
-0.32140076 -0.25864896 0.047137614
-0.32162482 -0.25865808 0.047177523
-0.32182497 -0.25867373 0.047133073
-0.32203212 -0.25868785 0.047109403
-0.32221285 -0.25870249 0.04706395
-0.3224428 -0.25871053 0.047118869
-0.32265329 -0.25872082 0.047138039
-0.32283786 -0.25874004 0.047046214
-0.3230384 -0.25875255 0.047035344
-0.32322523 -0.25876811 0.046984039
-0.32342029 -0.25878292 0.046945412
-0.32363871 -0.25879484 0.046951782
-0.32385987 -0.25880522 0.046976652
-0.32405725 -0.25881755 0.046965808
-0.32423881 -0.2588343 0.046898335
-0.32446057 -0.2588447 0.046923205
-0.32467788 -0.2588571 0.046923783
-0.32486799 -0.25887316 0.046868984
-0.32507598 -0.25888658 0.046853423
-0.32527924 -0.25889891 0.046846006
-0.3254838 -0.2589131 0.046820048
-0.32566738 -0.25892955 0.046757188
-0.32588065 -0.25893998 0.046776336
-0.32610044 -0.25895318 0.046769939
-0.32629591 -0.25897032 0.046706986
-0.3265236 -0.25898203 0.046721388
-0.32673842 -0.25899637 0.046699978
-0.32692662 -0.25901103 0.046659097
-0.32715183 -0.2590214 0.046686254
-0.32734495 -0.25903416 0.046668492
-0.32751495 -0.25905338 0.046567515
-0.32776374 -0.25906032 0.046645455
-0.32796422 -0.25907373 0.046625324
-0.32817313 -0.25908557 0.04662713
-0.32835415 -0.25910467 0.046534169
-0.22106636 -0.25242901 0.052062392
-0.22130305 -0.25244701 0.052015312
-0.22155765 -0.25246987 0.051927537
-0.22179797 -0.2524904 0.051856108
-0.22204237 -0.25251123 0.051783472
-0.22228953 -0.25253311 0.051701553
-0.22255307 -0.25255945 0.051582437
-0.22280753 -0.25258511 0.051464546
-0.22303396 -0.25260046 0.051439557
-0.22325583 -0.25261435 0.051427361
-0.22349034 -0.25263256 0.05137682
-0.22373036 -0.2526527 0.051308859
-0.22395954 -0.2526693 0.051272269
-0.22419032 -0.25268653 0.051229872
-0.22442812 -0.25270623 0.051165402
-0.22466588 -0.25272605 0.051099785
-0.22491281 -0.25274912 0.051005121
-0.22514412 -0.25276691 0.050956927
-0.22537509 -0.2527847 0.050908741
-0.22561286 -0.25280496 0.050838478
-0.2258499 -0.25282505 0.050769385
-0.22608392 -0.25284421 0.050708432
-0.22632083 -0.25286332 0.050649766
-0.22655302 -0.25288203 0.050592292
-0.2267849 -0.25290075 0.050534822
-0.22702885 -0.25292385 0.050437875
-0.22726287 -0.25294358 0.050371118
-0.22749397 -0.25296232 0.050312497
-0.22773558 -0.25298497 0.050219044
-0.22796488 -0.25300333 0.050163914
-0.22818814 -0.25301838 0.050140116
-0.22841719 -0.2530368 0.050083835
-0.22865225 -0.25305754 0.050006643
-0.22887637 -0.25307438 0.049964298
-0.22910334 -0.25309238 0.049911506
-0.22933662 -0.25311279 0.04983665
-0.22956014 -0.25312972 0.049793147
-0.2297827 -0.25314635 0.049751978
-0.23001263 -0.25316462 0.049697999
-0.23024108 -0.25318366 0.04963477
-0.2304634 -0.25320053 0.049591284
-0.23069051 -0.25321928 0.049530379
-0.2309124 -0.25323489 0.049499642
-0.23113385 -0.2532517 0.049456153
-0.23136003 -0.25327039 0.049395263
-0.23158321 -0.25328806 0.049343657
-0.23180398 -0.25330362 0.049312931
-0.23202561 -0.25332084 0.049264811
-0.23224528 -0.25333744 0.049222503
-0.23246565 -0.25335437 0.049176715
-0.23268732 -0.25337064 0.04913903
-0.23290554 -0.25338691 0.049099043
-0.23316097 -0.25341418 0.048964921
-0.2333415 -0.25341043 0.049115248
-0.23375298 -0.25344142 0.049036644
-0.23402572 -0.25346959 0.048903544
-0.23450837 -0.25352758 0.048581086
-0.23464143 -0.25351113 0.048837215
-0.23486675 -0.25353253 0.048747368
-0.23508325 -0.25354901 0.048703916
-0.23529963 -0.25356421 0.048674382
-0.235515 -0.25358045 0.04863327
-0.23573139 -0.25359443 0.04861648
-0.23594289 -0.25361195 0.04855917
-0.23615801 -0.25362697 0.048530798
-0.23637119 -0.25364262 0.048494339
-0.23659229 -0.25365895 0.048455492
-0.23678982 -0.25367087 0.048449278
-0.2370058 -0.25368661 0.048413955
-0.237234 -0.25370488 0.048358835
-0.23742777 -0.2537168 0.048350327
-0.23763241 -0.25372922 0.048342898
-0.23784606 -0.25374427 0.048313383
-0.23805574 -0.25375906 0.048283901
-0.23826209 -0.25377247 0.048267186
-0.23845947 -0.2537834 0.048271395
-0.23866604 -0.2537941 0.048283648
-0.23885655 -0.25380203 0.048315711
-0.2390435 -0.25380537 0.048394155
-0.23921548 -0.25380185 0.048536438
-0.23936677 -0.25378877 0.048768096
-0.23816399 -0.25296217 0.056826077
-0.23867212 -0.25303048 0.056409575
-0.23883323 -0.25301698 0.056651566
-0.23905869 -0.25303715 0.056574464
-0.2393935 -0.25301546 0.057009708
-0.23951815 -0.2529836 0.057424627
-0.23988043 -0.25297046 0.057785504
-0.24155644 -0.25344431 0.05376818
-0.24178186 -0.25346211 0.053716555
-0.24198401 -0.25346306 0.053829636
-0.24224199 -0.25348723 0.053730246
-0.2424385 -0.25349918 0.053722885
-0.2426447 -0.25350919 0.053742088
-0.24286346 -0.25352225 0.053736858
-0.24308304 -0.25354111 0.05367022
-0.24326201 -0.25355303 0.053652577
-0.24350756 -0.25356972 0.053625114
-0.24372189 -0.25358793 0.053562
-0.24392618 -0.25359732 0.053587005
-0.24413379 -0.25360665 0.053614311
-0.2443371 -0.25361553 0.053643964
-0.24451238 -0.25362399 0.053661093
-0.24477422 -0.25365379 0.053503752
-0.24496749 -0.25367418 0.05340489
-0.24515972 -0.25367719 0.05349024
-0.24539015 -0.25368819 0.053513881
-0.24557436 -0.25369999 0.05350082
-0.24582048 -0.25371996 0.053438604
-0.24602345 -0.25373098 0.05344509
-0.24621251 -0.25374579 0.053403027
-0.24639678 -0.25375399 0.053428203
-0.24665146 -0.25377348 0.053376339
-0.24682212 -0.25378177 0.053392358
-0.24707106 -0.25380212 0.053327799
-0.24728501 -0.25381806 0.053289011
-0.2474613 -0.25382578 0.053314246
-0.24767989 -0.25384057 0.053290486
-0.2478779 -0.25385329 0.053276151
-0.24806906 -0.2538619 0.053301271
-0.2482768 -0.2538828 0.053205766
-0.24848501 -0.25389785 0.053172819
-0.24867491 -0.25390157 0.05324892
-0.2489308 -0.25392103 0.053198207
-0.24909528 -0.25392589 0.05324671
-0.24931294 -0.25394943 0.05312911
-0.24951178 -0.25395676 0.053172708
-0.2497236 -0.25397244 0.053135093
-0.24992561 -0.25398409 0.053134635
-0.2501187 -0.25399214 0.053166687
-0.25033826 -0.25400871 0.053124383
-0.25052041 -0.25401637 0.0531542
-0.25074387 -0.25404036 0.053035393
-0.25098696 -0.2540594 0.052981317
-0.25117061 -0.25406593 0.053023871
-0.25135532 -0.25407317 0.053059466
-0.25156915 -0.25409356 0.052973174
-0.25177574 -0.25410667 0.052959934
-0.25198206 -0.25411963 0.052947864
-0.25218976 -0.25413367 0.052925348
-0.25239491 -0.25414354 0.052945711
-0.2526024 -0.25416005 0.052896552
-0.25280336 -0.25417447 0.052865975
-0.25302419 -0.25419098 0.052824818
-0.25318754 -0.25419798 0.052850157
-0.2533825 -0.25420299 0.052915797
-0.25361031 -0.25423029 0.05276452
-0.25381395 -0.25424203 0.052764039
-0.25401127 -0.25424892 0.052811123
-0.25422642 -0.25426972 0.052721348
-0.25441456 -0.25428292 0.052695513
-0.25463155 -0.25429195 0.052732006
-0.25481889 -0.2543157 0.052593797
-0.25502872 -0.25432462 0.052626871
-0.25524613 -0.25433692 0.052628614
-0.25541854 -0.25433475 0.052756988
-0.25563198 -0.25435522 0.05266954
-0.25580865 -0.25435644 0.052764289
-0.25603485 -0.25438517 0.052596807
-0.25623637 -0.25440189 0.052541897
-0.25643355 -0.25440902 0.052586664
-0.25664496 -0.25441957 0.052603506
-0.25683913 -0.25443313 0.052577622
-0.25703809 -0.25444493 0.052573711
-0.25726402 -0.25446883 0.052457206
-0.25744894 -0.25448382 0.052410543
-0.25764814 -0.254493 0.052434433
-0.25785777 -0.25450879 0.052394524
-0.25805566 -0.25451681 0.052430015
-0.25825527 -0.25452647 0.052449271
-0.2584306 -0.25453261 0.052490726
-0.25864509 -0.25455695 0.052362729
-0.25885436 -0.25456956 0.052356418
-0.25904971 -0.25457862 0.052379183
-0.25924242 -0.25459561 0.052316241
-0.25946707 -0.25461367 0.052261148
-0.25967464 -0.25462857 0.052229371
-0.2598806 -0.25463814 0.052253205
-0.26007593 -0.25464743 0.052273653
-0.26030159 -0.25466731 0.052200019
-0.26047149 -0.25467151 0.052258901
-0.2606574 -0.254682 0.052260883
-0.26086435 -0.25470078 0.052187402
-0.26107502 -0.25471205 0.052196138
-0.26126623 -0.25472903 0.052132051
-0.26145574 -0.25474006 0.052130528
-0.26165658 -0.25474802 0.052168313
-0.2618596 -0.25475863 0.052179426
-0.26208112 -0.25477946 0.052093085
-0.26227844 -0.25478745 0.052128579
-0.26249862 -0.25481156 0.052006319
-0.26266783 -0.25482848 0.051929668
-0.2628805 -0.25482929 0.052050769
-0.26308322 -0.25484478 0.05200975
-0.2632716 -0.25485989 0.051964216
-0.26343811 -0.25485399 0.052128553
-0.26366428 -0.25487334 0.052060712
-0.26385164 -0.25489241 0.051972322
-0.26404232 -0.25490633 0.051940668
-0.26424345 -0.25492039 0.051913574
-0.26444027 -0.25493336 0.051895771
-0.26464668 -0.25494504 0.0518976
-0.26484659 -0.25495753 0.051886722
-0.26503822 -0.25497389 0.051829584
-0.2652289 -0.25498292 0.051850066
-0.26544937 -0.25499508 0.051855255
-0.26563346 -0.25500479 0.051864214
-0.26582384 -0.25501966 0.051822137
-0.26601657 -0.25503263 0.051802058
-0.26621681 -0.25504667 0.051774964
-0.26642668 -0.25506604 0.051696815
-0.26662156 -0.25506985 0.051775195
-0.26682356 -0.25508803 0.051705226
-0.26700148 -0.25510034 0.051682945
-0.2671878 -0.255108 0.051715054
-0.26739776 -0.25512925 0.051617213
-0.2676118 -0.2551443 0.051587693
-0.26780546 -0.25515294 0.051613949
-0.26799348 -0.25515625 0.051693536
-0.26818022 -0.25517386 0.051620215
-0.26836926 -0.25518876 0.051576998
-0.26857603 -0.25520429 0.051538266
-0.26876795 -0.25522819 0.051401183
-0.26897109 -0.255234 0.051463272
-0.26916128 -0.25524321 0.051481441
-0.26935419 -0.25523818 0.051652525
-0.26954639 -0.25525329 0.051609278
-0.26974475 -0.25529051 0.051334269
-0.26994312 -0.25529116 0.051448535
-0.27014095 -0.25530243 0.051449277
-0.2703332 -0.25532004 0.051379375
-0.27053678 -0.25534147 0.05127579
-0.27072307 -0.25533345 0.051474728
-0.27092507 -0.25534791 0.051444151
-0.27112761 -0.25536579 0.051377654
-0.27131772 -0.25537476 0.051398143
-0.27150929 -0.25539267 0.05132477
-0.27170807 -0.25541237 0.05123629
-0.27191615 -0.25542349 0.051245052
-0.27210271 -0.25543359 0.051251668
-0.27229249 -0.25544035 0.051295329
-0.27249029 -0.25545546 0.051255517
-0.27267686 -0.25546521 0.051265605
-0.27286705 -0.25547615 0.051265243
-0.2730619 -0.25550753 0.051050507
-0.27326974 -0.25551972 0.05104769
-0.27345923 -0.25551331 0.051231541
-0.27364585 -0.25553015 0.051166326
-0.27385017 -0.25555325 0.051045358
-0.27404389 -0.25555003 0.051197886
-0.27423355 -0.25557357 0.051063139
-0.27443734 -0.25559446 0.050965346
-0.27463162 -0.25559017 0.05112946
-0.27483866 -0.25561321 0.051010795
-0.27502131 -0.25562361 0.051011644
-0.27521777 -0.25563994 0.050957941
-0.27541882 -0.2556465 0.05101078
-0.27560547 -0.25565374 0.051047519
-0.27579445 -0.25567073 0.050982296
-0.27599064 -0.25568649 0.050934374
-0.2761876 -0.25569719 0.050940908
-0.27638096 -0.25570798 0.050943997
-0.27657056 -0.25571933 0.050938997
-0.27676281 -0.25573519 0.050887637
-0.27695569 -0.25574782 0.050871033
-0.27714795 -0.25576282 0.050828945
-0.27734119 -0.2557736 0.050832033
-0.27753836 -0.2557832 0.050850153
-0.27773753 -0.25579882 0.050805688
-0.27793169 -0.25580651 0.050842375
-0.27812666 -0.25582352 0.050780565
-0.2783221 -0.25583857 0.050739609
-0.27850923 -0.25584576 0.050777502
-0.27868667 -0.25585988 0.050735533
-0.27888376 -0.25587982 0.050643589
-0.27907878 -0.2558856 0.050701104
-0.27927062 -0.2558997 0.050668288
-0.27947196 -0.25591719 0.050605275
-0.27967653 -0.25592679 0.050627969
-0.27985924 -0.25593632 0.050638091
-0.28004289 -0.25595179 0.050585646
-0.28024668 -0.2559633 0.05058749
-0.28044224 -0.25597665 0.050565071
-0.28062201 -0.25598469 0.050589114
-0.28081036 -0.25599772 0.050565597
-0.28101048 -0.25600922 0.050565153
-0.28119287 -0.25602627 0.050495334
-0.28139305 -0.25603756 0.050497212
-0.28158447 -0.2560513 0.050467871
-0.28178117 -0.2560623 0.050470933
-0.28197658 -0.25607541 0.050450832
-0.28216961 -0.25608641 0.050451603
-0.28236297 -0.2560969 0.050458163
-0.28254551 -0.25610697 0.050462492
-0.28273582 -0.25613326 0.050298773
-0.28293616 -0.2561388 0.050362054
-0.28312391 -0.25614667 0.050392985
-0.28330976 -0.25616783 0.050281435
-0.28350696 -0.25617811 0.050292596
-0.28369629 -0.25618899 0.050292239
-0.28390121 -0.25619414 0.050362434
-0.28408018 -0.25621381 0.050262522
-0.28426895 -0.25623024 0.050203085
-0.28446966 -0.25624093 0.050211899
-0.284657 -0.25625432 0.050183754
-0.28486112 -0.25625649 0.050285231
-0.28504947 -0.25627321 0.050222322
-0.28523934 -0.25629666 0.050088726
-0.28542465 -0.25631636 0.049992237
-0.28562948 -0.25631824 0.050097182
-0.28581446 -0.25632986 0.050086435
-0.28600916 -0.25633913 0.050106887
-0.28620806 -0.25635603 0.050048523
-0.28641933 -0.25636384 0.050094333
-0.28659812 -0.25637412 0.050094061
-0.28678802 -0.25638473 0.050097175
-0.28697211 -0.25640109 0.050035454
-0.28717628 -0.25641254 0.050038453
-0.28736252 -0.25642303 0.050040442
-0.28755122 -0.25644565 0.049914971
-0.28774822 -0.25645667 0.049918018
-0.28793991 -0.25646564 0.049939658
-0.28813821 -0.25647902 0.049918383
-0.28833136 -0.25649363 0.049880914
-0.28852168 -0.25650391 0.049887501
-0.2887232 -0.2565178 0.049862713
-0.28891718 -0.2565316 0.04983452
-0.28910422 -0.25654474 0.049808688
-0.28928339 -0.25655168 0.049844328
-0.28948244 -0.25656444 0.049829986
-0.28968599 -0.25657356 0.049857326
-0.28987893 -0.25659132 0.049786266
-0.29005206 -0.25660637 0.049731582
-0.29024866 -0.25661498 0.049760133
-0.29043549 -0.25663128 0.049700711
-0.29063132 -0.25664061 0.049721155
-0.29082593 -0.25665092 0.049730025
-0.29101676 -0.25666127 0.049736608
-0.29120141 -0.25668192 0.049629699
-0.29139358 -0.25669405 0.04961773
-0.29157221 -0.25671598 0.049493492
-0.29177663 -0.25671381 0.049641315
-0.29195666 -0.25673735 0.049500849
-0.29214177 -0.25675172 0.049461138
-0.29234302 -0.2567549 0.049549889
-0.29256156 -0.25675717 0.049659353
-0.29275393 -0.25677466 0.049590621
-0.2929385 -0.25679466 0.049490672
-0.29315215 -0.25679281 0.049640719
-0.29336357 -0.25680292 0.049662203
-0.29352948 -0.25682977 0.049477827
-0.29372147 -0.25684223 0.049462385
-0.29391068 -0.256854 0.049452759
-0.29409713 -0.25686994 0.049396817
-0.29429817 -0.25687686 0.04944618
-0.29448196 -0.25689438 0.049371719
-0.29468909 -0.25690252 0.049411766
-0.29487577 -0.25691825 0.049358141
-0.29506755 -0.25693095 0.049340382
-0.29524666 -0.2569418 0.049334321
-0.29544517 -0.25695518 0.049313031
-0.29564527 -0.2569654 0.049326487
-0.29583383 -0.25698224 0.049262423
-0.29602131 -0.25699291 0.049263235
-0.2962136 -0.25700539 0.049247794
-0.29640466 -0.25702077 0.049201082
-0.2965982 -0.25703472 0.049170561
-0.29678744 -0.2570467 0.049158625
-0.29699174 -0.25705707 0.049173206
-0.29718587 -0.25706649 0.049191348
-0.2973783 -0.25708324 0.049130719
-0.29756701 -0.25709769 0.049092133
-0.29777232 -0.25710559 0.04913336
-0.29796526 -0.2571179 0.049120229
-0.2981464 -0.25713214 0.049079392
-0.29834512 -0.25714359 0.049078953
-0.29853544 -0.25715727 0.049049623
-0.29873604 -0.25716782 0.0490596
-0.29894453 -0.25717658 0.04909385
-0.29912758 -0.25719386 0.049021713
-0.29931554 -0.25721067 0.048957646
-0.29952538 -0.25721502 0.049039379
-0.29969916 -0.25723469 0.048936043
-0.29989544 -0.25724754 0.048919402
-0.30009207 -0.2572583 0.048924781
-0.30029628 -0.25726941 0.048931256
-0.30047664 -0.25728589 0.048866093
-0.30066457 -0.25730258 0.048803184
-0.30086592 -0.25731134 0.048832852
-0.30108553 -0.25731388 0.048939999
-0.30125916 -0.25733879 0.048781045
-0.30144632 -0.25735217 0.048752904
-0.30165648 -0.2573573 0.048826523
-0.30185723 -0.25736845 0.048830703
-0.30203739 -0.25739023 0.048708778
-0.30222061 -0.2574071 0.048641268
-0.30243388 -0.25740948 0.048746146
-0.30263767 -0.2574212 0.048745673
-0.3028335 -0.25743631 0.048704721
-0.30303973 -0.25744709 0.048715807
-0.30323088 -0.25746071 0.048687637
-0.30343133 -0.25747225 0.048687182
-0.30362195 -0.2574878 0.048638158
-0.30380172 -0.25750434 0.04857184
-0.30399248 -0.25751978 0.04852397
-0.30419326 -0.25752798 0.048559435
-0.30438676 -0.25754237 0.048524287
-0.30459952 -0.25754768 0.048597895
-0.30480343 -0.25756139 0.04857656
-0.304993 -0.25757414 0.048556507
-0.30516183 -0.25759321 0.048456684
-0.3053661 -0.2576052 0.04845389
-0.30554694 -0.25762126 0.04839335
-0.30576551 -0.25762796 0.04845532
-0.30597588 -0.25763628 0.048495352
-0.30616459 -0.25765106 0.04845329
-0.30635074 -0.25766832 0.048383437
-0.30654958 -0.25768247 0.048354041
-0.30676043 -0.25768778 0.048426498
-0.30692455 -0.25770983 0.048291951
-0.30712825 -0.2577208 0.048299596
-0.30729517 -0.25774324 0.04816271
-0.30750626 -0.25775018 0.048217788
-0.30770433 -0.25776324 0.048199981
-0.30791447 -0.25777066 0.048249271
-0.30810088 -0.25778627 0.048196804
-0.30832961 -0.25778902 0.048307352
-0.30849671 -0.25781268 0.048157718
-0.30868724 -0.25782549 0.048137657
-0.30888712 -0.25783807 0.048125625
-0.30910051 -0.25784484 0.048184164
-0.30930036 -0.25785753 0.048170976
-0.30949947 -0.25786909 0.048169389
-0.30968726 -0.25788578 0.048106473
-0.30988938 -0.25789645 0.048116442
-0.31008524 -0.25791055 0.048085913
-0.31029022 -0.25792041 0.048106279
-0.31049144 -0.25793287 0.04809656
-0.31067151 -0.25795063 0.048017498
-0.31089664 -0.25795707 0.048086364
-0.31107745 -0.25797325 0.048024669
-0.3112728 -0.25798765 0.047990672
-0.31145784 -0.25800386 0.047931265
-0.31168032 -0.25801003 0.048001308
-0.31187853 -0.25802231 0.047991611
-0.31206745 -0.25803876 0.04793217
-0.31225657 -0.25805378 0.047887787
-0.31246948 -0.25806311 0.047918528
-0.31267884 -0.25807354 0.047935389
-0.3128626 -0.2580902 0.047870196
-0.31304756 -0.2581065 0.047809634
-0.31325385 -0.25811663 0.047827672
-0.31344289 -0.25813308 0.047768235
-0.31364626 -0.25814414 0.047774713
-0.31387267 -0.25815001 0.047850523
-0.31407985 -0.2581614 0.047855817
-0.31424272 -0.25818524 0.047701579
-0.31445357 -0.25819564 0.04771959
-0.31466198 -0.25820929 0.047701694
-0.31488499 -0.25821397 0.047787964
-0.31505802 -0.25823861 0.047631335
-0.31527376 -0.25824419 0.04770375
-0.31547767 -0.25825921 0.04766852
-0.31567314 -0.25827405 0.047629878
-0.31587622 -0.25828445 0.047643322
-0.31606337 -0.25830033 0.047588531
-0.3162865 -0.25831157 0.047605276
-0.31647953 -0.25832593 0.047570132
-0.31667328 -0.25833654 0.047575537
-0.31686541 -0.25835121 0.047536924
-0.31705752 -0.25836706 0.047485564
-0.31725532 -0.2583791 0.047478188
-0.31744745 -0.25839615 0.047414087
-0.3176176 -0.2584129 0.047339745
-0.31787649 -0.25841314 0.047495224
-0.31803763 -0.2584357 0.047353756
-0.31827426 -0.25843823 0.047471192
-0.31847584 -0.25845417 0.047424387
-0.31868285 -0.25846884 0.047394924
-0.31888416 -0.25848261 0.047371302
-0.31907982 -0.25849551 0.047353521
-0.31927788 -0.25850898 0.04733108
-0.31949365 -0.25852162 0.047328189
-0.31968683 -0.25853634 0.047289569
-0.319895 -0.25854975 0.047273997
-0.32008052 -0.25856185 0.047258615
-0.32028607 -0.25857261 0.047269709
-0.32049328 -0.25858855 0.047226347
-0.32068598 -0.25860128 0.047208577
-0.32090455 -0.25861248 0.047223054
-0.32105321 -0.2586332 0.047093261
-0.32128263 -0.25864196 0.04714008
-0.32150015 -0.25865135 0.047173101
-0.32169148 -0.25866672 0.047126383
-0.32191971 -0.25867814 0.047144257
-0.32210967 -0.25869384 0.047092915
-0.32229707 -0.258708 0.04705666
-0.32253343 -0.25871456 0.047131229
-0.32272837 -0.25872928 0.047093749
-0.32292759 -0.25874412 0.047057398
-0.32310629 -0.25876027 0.046994567
-0.32330692 -0.2587738 0.046973258
-0.32350901 -0.25878915 0.046933413
-0.32372025 -0.25880045 0.046942152
-0.32394201 -0.25881061 0.046969336
-0.32413203 -0.25882339 0.046949279
-0.32432342 -0.25884008 0.046888657
-0.32454187 -0.25885004 0.046915878
-0.3247532 -0.25886366 0.04690028
-0.32494015 -0.25888029 0.046837382
-0.32514808 -0.2588926 0.046833392
-0.32535809 -0.2589035 0.046845615
-0.32555628 -0.25891992 0.0467919
-0.32573944 -0.25893536 0.046739459
-0.32596982 -0.25894427 0.046785112
-0.32617143 -0.25895807 0.046761479
-0.32640153 -0.2589722 0.046751525
-0.32661134 -0.25898844 0.046706989
-0.32679656 -0.25900257 0.046669584
-0.327005 -0.25901416 0.046673715
-0.32722014 -0.25902644 0.046674307
-0.32741171 -0.25903943 0.046653073
-0.32761255 -0.25905752 0.046583116
-0.32782686 -0.25906518 0.046632372
-0.32803881 -0.25907826 0.046622567
-0.32823658 -0.25909021 0.046616346
-0.22116373 -0.25243649 0.052042186
-0.22139981 -0.25245437 0.051996253
-0.22165576 -0.25247884 0.051892221
-0.22190073 -0.25249982 0.051818408
-0.222151 -0.25252047 0.051751491
-0.22239228 -0.25254157 0.051674228
-0.2226575 -0.25256854 0.051549263
-0.22291249 -0.2525945 0.051429011
-0.22313243 -0.2526077 0.051422603
-0.22335932 -0.25262222 0.051406872
-0.22359636 -0.25264132 0.051348172
-0.22383279 -0.2526592 0.051302236
-0.22406526 -0.25267696 0.051255167
-0.22430046 -0.25269577 0.051198814
-0.22453722 -0.2527152 0.051136643
-0.22478069 -0.25273588 0.051065162
-0.22502202 -0.2527571 0.050986733
-0.22525634 -0.25277486 0.050940812
-0.22548936 -0.25279343 0.050885625
-0.22572465 -0.25281289 0.050822321
-0.22595921 -0.25283217 0.050760169
-0.22620144 -0.25285313 0.050685212
-0.22643416 -0.25287199 0.050626557
-0.2266701 -0.25289094 0.050569035
-0.22690466 -0.25291067 0.050502252
-0.22714067 -0.25293106 0.050429665
-0.22738174 -0.25295335 0.05033965
-0.22761439 -0.25297156 0.050287947
-0.22785825 -0.2529951 0.050186332
-0.22807978 -0.2530095 0.050168324
