# .PCD v0.7 - Point Cloud Data file format
VERSION 0.7
FIELDS x y z
SIZE 4 4 4
TYPE F F F
COUNT 1 1 1
WIDTH 1290
HEIGHT 1
VIEWPOINT 0 0 0 1 0 0 0
POINTS 1290
DATA ascii
-0.21190821 -0.34513304 0.05371768
-0.21208027 -0.34518346 0.053756192
-0.21228527 -0.34526122 0.053634726
-0.21248449 -0.34532428 0.053634889
-0.21266793 -0.3453798 0.053659461
-0.21286222 -0.34544975 0.053579733
-0.21307075 -0.34551969 0.053542793
-0.21326825 -0.34558553 0.053511694
-0.21346897 -0.34564662 0.053535022
-0.21367565 -0.34571368 0.053520083
-0.21386363 -0.34577855 0.053469356
-0.21402992 -0.34582388 0.053539164
-0.21422487 -0.34589133 0.05348492
-0.21441421 -0.34595361 0.053463135
-0.2146267 -0.34602126 0.053459764
-0.21479329 -0.34607962 0.053406812
-0.21497856 -0.34613362 0.053451054
-0.21516806 -0.34619692 0.05342
-0.21537896 -0.3462615 0.053440951
-0.21557319 -0.34632924 0.053382084
-0.21577431 -0.3463923 0.053388033
-0.21596576 -0.34646854 0.053239986
-0.21615058 -0.34652182 0.053290024
-0.21634331 -0.34657955 0.053321496
-0.21654032 -0.34664828 0.053261444
-0.21671221 -0.34669939 0.053293012
-0.21688236 -0.34673738 0.05344389
-0.21709806 -0.3468245 0.053265616
-0.21727361 -0.34687725 0.053292543
-0.2174613 -0.34694755 0.053189687
-0.21765406 -0.34700578 0.053216517
-0.21784984 -0.34707338 0.053163424
-0.21804293 -0.3471328 0.053179841
-0.21822739 -0.34719473 0.053146485
-0.21841156 -0.34725609 0.053117778
-0.21861026 -0.3473134 0.053171217
-0.21881112 -0.34737846 0.053157475
-0.21898797 -0.34743679 0.053135753
-0.21917212 -0.3474991 0.05309777
-0.21935883 -0.34755933 0.053087577
-0.21955012 -0.34762573 0.053032186
-0.21976076 -0.34769341 0.053023033
-0.21994245 -0.34774607 0.053069614
-0.2201203 -0.34781152 0.052983027
-0.22029525 -0.34786275 0.053022683
-0.22049353 -0.34793505 0.052932523
-0.22068712 -0.34800038 0.052894495
-0.22089705 -0.34806639 0.052899241
-0.22107513 -0.34811652 0.052958574
-0.22125062 -0.34817123 0.052966967
-0.22143705 -0.34823415 0.052930139
-0.22162738 -0.34830332 0.052845806
-0.22181056 -0.34836987 0.052764975
-0.2220031 -0.34843156 0.052758228
-0.22219227 -0.34849367 0.052737597
-0.22237663 -0.34853506 0.052898813
-0.2225586 -0.34858754 0.052947707
-0.2227456 -0.34867457 0.052683882
-0.22293767 -0.34873039 0.052731566
-0.2231299 -0.34878832 0.052759562
-0.22331195 -0.34884962 0.052725062
-0.2235007 -0.34892815 0.052546933
-0.22368962 -0.34896347 0.052779935
-0.2238818 -0.34902737 0.05275118
-0.22407384 -0.34909242 0.05271085
-0.22426254 -0.34915265 0.052706435
-0.22444406 -0.34921488 0.052661516
-0.22462843 -0.34928423 0.052557524
-0.22483042 -0.34935039 0.05253683
-0.22500885 -0.3494041 0.052563742
-0.22519441 -0.34945783 0.052611455
-0.22537895 -0.34952065 0.052569997
-0.22557059 -0.34958279 0.052556299
-0.22575292 -0.34963515 0.052607514
-0.2259316 -0.34971026 0.05243174
-0.22612491 -0.34978172 0.052334648
-0.22631656 -0.34982288 0.052520163
-0.22649476 -0.34987843 0.052528534
-0.22668314 -0.34995431 0.052374724
-0.22688444 -0.35000464 0.052502271
-0.22706425 -0.35006851 0.052436523
-0.22724447 -0.35014436 0.052258424
-0.22744083 -0.35018677 0.052446224
-0.2276299 -0.35025615 0.052356102
-0.22781701 -0.35031867 0.052325062
-0.2280004 -0.3503809 0.052285928
-0.22819597 -0.35044026 0.052310437
-0.22837618 -0.35048938 0.052385971
-0.22855853 -0.35055417 0.05231905
-0.22874066 -0.35061905 0.052250974
-0.22893897 -0.35068133 0.052255772
-0.22912061 -0.35073727 0.052271083
-0.2293084 -0.35079709 0.052267835
-0.22948755 -0.35085881 0.052220613
-0.22967482 -0.35091957 0.052206933
-0.22985755 -0.35098156 0.052167807
-0.23004819 -0.35104325 0.052155279
-0.23023403 -0.35109869 0.052187935
-0.23042305 -0.35116354 0.052140675
-0.23061255 -0.35121974 0.052176781
-0.23080382 -0.35128751 0.052108664
-0.2309799 -0.35134619 0.052081149
-0.23116906 -0.35140315 0.052109163
-0.23133907 -0.35145831 0.052096725
-0.23151837 -0.35152483 0.052004341
-0.23171166 -0.35158175 0.05204507
-0.23189804 -0.3516432 0.052022137
-0.23208433 -0.35171086 0.051940136
-0.23228645 -0.35177326 0.05195535
-0.23245813 -0.35182568 0.051974181
-0.23263985 -0.35188746 0.0519339
-0.23283377 -0.35194972 0.051925983
-0.23302373 -0.35201159 0.051909976
-0.23319681 -0.35206234 0.051948495
-0.23338237 -0.35212439 0.051917456
-0.23356605 -0.3521834 0.051909596
-0.23374245 -0.35224596 0.051846176
-0.23393393 -0.35230583 0.051853329
-0.23411936 -0.35236773 0.051823452
-0.23431043 -0.35242811 0.051824816
-0.23449963 -0.35249057 0.051800709
-0.23468092 -0.35254723 0.05180791
-0.23487177 -0.35260791 0.051805802
-0.23504712 -0.35266158 0.05182346
-0.23522513 -0.35273525 0.051659275
-0.23541589 -0.3527914 0.051700018
-0.23559731 -0.35284358 0.051750071
-0.23577522 -0.35291222 0.051633373
-0.23596984 -0.35297349 0.051637035
-0.23615186 -0.35302952 0.051652335
-0.23634058 -0.35308379 0.051704668
-0.23652059 -0.35314992 0.051618077
-0.23670031 -0.35321206 0.051568542
-0.23689128 -0.35327253 0.051568739
-0.23707013 -0.35333136 0.051548161
-0.23727074 -0.35338402 0.051651396
-0.23745565 -0.35344952 0.051585618
-0.23762684 -0.3535181 0.051449258
-0.23780549 -0.35358429 0.051358033
-0.23800673 -0.35363692 0.051463589
-0.23818567 -0.35369551 0.051445313
-0.23837259 -0.3537519 0.051472183
-0.23856767 -0.35382012 0.051410988
-0.23876351 -0.35387725 0.051457498
-0.23894066 -0.35393369 0.051454302
-0.2391198 -0.35398883 0.051469617
-0.23929749 -0.35405168 0.051407352
-0.23949161 -0.35411364 0.051402908
-0.23967323 -0.3541705 0.051408954
-0.23984694 -0.35423893 0.051281847
-0.24004149 -0.35430053 0.051282041
-0.24022585 -0.35435572 0.051312394
-0.24041472 -0.35441771 0.051291764
-0.24060223 -0.3544805 0.051259555
-0.24078666 -0.35453889 0.051259797
-0.24098261 -0.3546029 0.051241443
-0.24116279 -0.35466373 0.051205806
-0.2413412 -0.35472253 0.051184066
-0.2415193 -0.35477561 0.051215611
-0.24170616 -0.35483575 0.051206566
-0.24190435 -0.35489571 0.051233381
-0.24208312 -0.35496008 0.05115952
-0.2422571 -0.35502115 0.051103067
-0.24243788 -0.35507596 0.051126484
-0.24261951 -0.35513869 0.051076941
-0.24280709 -0.35519576 0.051099166
-0.24299632 -0.35525483 0.051107485
-0.24317895 -0.35531166 0.051116999
-0.24335207 -0.3553783 0.051004961
-0.24353901 -0.35543847 0.050995916
-0.24370255 -0.35550389 0.050866552
-0.24390472 -0.35555205 0.051017258
-0.24407314 -0.35562038 0.050875135
-0.24425352 -0.35568076 0.050844114
-0.24445155 -0.35573372 0.050936937
-0.24466556 -0.35579026 0.051043585
-0.244847 -0.35585541 0.050970875
-0.24501771 -0.35591981 0.050872732
-0.24523085 -0.35596973 0.05103961
-0.24543659 -0.35603502 0.051038582
-0.24558866 -0.35610169 0.050862946
-0.24576782 -0.35616022 0.050845839
-0.2459493 -0.35621792 0.050843775
-0.24612048 -0.35627943 0.050774589
-0.24632341 -0.35633639 0.05084423
-0.24650121 -0.3564001 0.050773844
-0.24669352 -0.35645869 0.050796051
-0.24686924 -0.35652077 0.050734952
-0.24705303 -0.35658005 0.050724775
-0.24722824 -0.35663554 0.050725061
-0.24741979 -0.35669899 0.050698631
-0.24760614 -0.35675749 0.050703488
-0.24778894 -0.35681939 0.05066552
-0.24796583 -0.35687661 0.050654214
-0.24814981 -0.35693598 0.050644029
-0.24833827 -0.35700038 0.05059908
-0.24851735 -0.35706124 0.050559968
-0.24869953 -0.35711902 0.050559066
-0.2488945 -0.35717943 0.050571993
-0.2490758 -0.35723549 0.050584983
-0.24925594 -0.35729814 0.050531965
-0.24943605 -0.35735869 0.050498642
-0.24963604 -0.35741785 0.050538182
-0.24982131 -0.35747907 0.050514098
-0.25000149 -0.35753965 0.050480772
-0.2501843 -0.35759753 0.050481021
-0.25036639 -0.35765764 0.050458107
-0.25055814 -0.35771725 0.050468728
-0.25075689 -0.35777712 0.050497849
-0.25092876 -0.35783982 0.050419405
-0.25111002 -0.35790208 0.050373327
-0.25130999 -0.35795799 0.050444137
-0.25147271 -0.35802081 0.050336778
-0.2516613 -0.35808137 0.050328888
-0.2518478 -0.35814056 0.050327964
-0.25204223 -0.35820174 0.05033163
-0.25221476 -0.35826224 0.050276328
-0.25239301 -0.35832512 0.050215218
-0.25258547 -0.35838312 0.050243214
-0.25280029 -0.35843834 0.050364904
-0.25295833 -0.35850728 0.050185766
-0.25313964 -0.3585659 0.050174437
-0.25334197 -0.35862216 0.050248709
-0.25353041 -0.35868305 0.050237346
-0.2536985 -0.35874969 0.050110266
-0.25387156 -0.35880995 0.050058447
-0.25408366 -0.35886467 0.050176688
-0.25427577 -0.35892671 0.050165307
-0.25446308 -0.35898969 0.050130781
-0.25465626 -0.35905159 0.050124034
-0.25483739 -0.3591105 0.050109234
-0.25503248 -0.35917217 0.050110575
-0.25521117 -0.35923326 0.050067991
-0.25538206 -0.35929394 0.050005753
-0.25555587 -0.35935578 0.049941193
-0.25575489 -0.35941356 0.049991157
-0.25593626 -0.35947588 0.04994509
-0.25614443 -0.35953239 0.050034381
-0.25633255 -0.35959536 0.05000218
-0.25651792 -0.35965553 0.049988512
-0.25667658 -0.35971636 0.049888119
-0.25686997 -0.35977858 0.049879052
-0.25704312 -0.35983887 0.049827233
-0.25725323 -0.35989881 0.049889881
-0.25745335 -0.35995865 0.049923632
-0.25763366 -0.36001962 0.049886823
-0.25780767 -0.36008301 0.049808368
-0.25799525 -0.36014462 0.049787745
-0.25819978 -0.36020255 0.04985274
-0.25835466 -0.36026365 0.049738463
-0.25854138 -0.36032385 0.049728274
-0.25869963 -0.36038747 0.049600087
-0.2589041 -0.36044562 0.049662765
-0.25908968 -0.36050758 0.049632888
-0.25929141 -0.3605662 0.049682841
-0.25946853 -0.36062765 0.049632154
-0.25969136 -0.36068565 0.049751498
-0.25984529 -0.36075106 0.049593218
-0.26002845 -0.3608104 0.04958073
-0.2602196 -0.36087191 0.049571671
-0.26042378 -0.36093071 0.049627393
-0.2606146 -0.36099234 0.04961602
-0.26080438 -0.36105266 0.049613915
-0.26098022 -0.36111432 0.049557455
-0.26117224 -0.36117449 0.049563449
-0.26135615 -0.36123687 0.049524315
-0.2615529 -0.36129674 0.04954765
-0.26174542 -0.36135843 0.049540896
-0.26191804 -0.36142039 0.049471714
-0.2621302 -0.36148196 0.04952509
-0.26230299 -0.36154252 0.049469784
-0.26248673 -0.36160362 0.049442235
-0.26266211 -0.36166537 0.049383458
-0.26287389 -0.36172584 0.049446099
-0.26306352 -0.36178663 0.049439367
-0.26324478 -0.36184937 0.049388662
-0.26342407 -0.36191088 0.049343757
-0.26363122 -0.36197332 0.049373988
-0.26382762 -0.36203381 0.049390391
-0.26400194 -0.36209568 0.049326982
-0.26418009 -0.36215734 0.049277447
-0.26436839 -0.36221707 0.049276512
-0.26454723 -0.36228004 0.049216554
-0.26474282 -0.36234075 0.049228325
-0.264963 -0.36240157 0.049312927
-0.26515967 -0.3624624 0.049327001
-0.2653119 -0.36252934 0.049149048
-0.26550758 -0.36258766 0.049183972
-0.2657001 -0.36265263 0.049145952
-0.26591694 -0.36271143 0.049239844
-0.26607677 -0.36277789 0.04908964
-0.2662833 -0.36283597 0.049159262
-0.26647601 -0.36289978 0.049132824
-0.26666281 -0.36296257 0.049098309
-0.26685447 -0.36302143 0.049115881
-0.26703721 -0.36308444 0.049067486
-0.26724324 -0.36314917 0.049072247
-0.26742181 -0.36321107 0.049021553
-0.26761365 -0.3632701 0.049037978
-0.26779473 -0.36333072 0.049006958
-0.26796913 -0.36339155 0.04895398
-0.26816458 -0.36345309 0.048957638
-0.26834089 -0.36351755 0.04887569
-0.26849693 -0.3635751 0.048798464
-0.26875332 -0.36363792 0.048973233
-0.26889575 -0.36369821 0.048828915
-0.26912236 -0.3637594 0.048929695
-0.26931456 -0.36382365 0.048897468
-0.26951224 -0.36388907 0.048871003
-0.26969993 -0.36395106 0.048846904
-0.26989251 -0.36401299 0.048837841
-0.27007776 -0.36407506 0.048805647
-0.27027929 -0.36413938 0.048801173
-0.27046797 -0.36420265 0.048767798
-0.27066162 -0.36426592 0.048749462
-0.27084026 -0.36432344 0.048740465
-0.27103007 -0.36438328 0.048742998
-0.2712355 -0.36445129 0.048715331
-0.27141047 -0.36451009 0.048683196
-0.27162674 -0.36457467 0.04872033
-0.27177095 -0.36463347 0.048595697
-0.27197808 -0.36469701 0.048615512
-0.27218008 -0.36475828 0.048641142
-0.27236989 -0.36482069 0.048619352
-0.27257705 -0.36488667 0.048616
-0.2727668 -0.36495027 0.048582625
-0.27293965 -0.36500928 0.048542392
-0.27316731 -0.36507332 0.048618846
-0.27335569 -0.36513481 0.048601694
-0.27354354 -0.36519966 0.048550956
-0.27371278 -0.3652609 0.048478313
-0.27389777 -0.36532238 0.048450746
-0.2740877 -0.36538509 0.048426639
-0.27428913 -0.36544913 0.048424479
-0.27450383 -0.36551344 0.04845931
-0.27469012 -0.36557403 0.048444487
-0.27486742 -0.36563551 0.048393797
-0.27507654 -0.36569881 0.048421711
-0.27527878 -0.3657642 0.048409127
-0.27545375 -0.36582679 0.048341077
-0.27564958 -0.36589098 0.048320413
-0.27585283 -0.3659533 0.048340246
-0.27604178 -0.36601737 0.048299931
-0.27621916 -0.36607903 0.04824809
-0.27642873 -0.36614269 0.048273683
-0.27662063 -0.3662059 0.04825072
-0.27683049 -0.36627394 0.048235778
-0.27703837 -0.36634198 0.048215058
-0.27722287 -0.36640504 0.048171282
-0.27741042 -0.3664661 0.048155293
-0.27761704 -0.36652899 0.048179738
-0.27781209 -0.36659148 0.048172981
-0.27797008 -0.36665258 0.048067965
-0.27819872 -0.36671853 0.048129357
-0.27839178 -0.3667821 0.048106387
-0.27859607 -0.36684412 0.04813201
-0.27876455 -0.3669067 0.048044316
-0.1764317 -0.33395055 0.053202532
-0.17666049 -0.33402789 0.053156208
-0.17688827 -0.33410603 0.053099476
-0.17712966 -0.33419189 0.05301024
-0.17736383 -0.33427447 0.052930314
-0.17760146 -0.33435816 0.052850362
-0.17784747 -0.33444488 0.052766897
-0.1780955 -0.33453712 0.0526371
-0.17831635 -0.33461279 0.052582715
-0.17853063 -0.33468151 0.052574687
-0.17875125 -0.3347559 0.052531891
-0.17897886 -0.33483371 0.052477475
-0.1791954 -0.33490559 0.052446268
-0.17942579 -0.33498552 0.052380256
-0.17965059 -0.33506319 0.052318908
-0.17987606 -0.33514142 0.052254073
-0.18010321 -0.33522093 0.052182287
-0.18033445 -0.335302 0.052108157
-0.18055046 -0.33537418 0.052072339
-0.18078029 -0.33545455 0.052000538
-0.18100101 -0.33553019 0.051946141
-0.18122648 -0.33560783 0.05188711
-0.18145208 -0.3356871 0.05181301
-0.18167371 -0.33576375 0.051751677
-0.18189371 -0.33583939 0.051694978
-0.18212298 -0.33592018 0.051617388
-0.18234484 -0.33599743 0.051551417
-0.18257141 -0.33607662 0.051480796
-0.18280084 -0.33615941 0.051384673
-0.18301654 -0.33623272 0.051337261
-0.18322721 -0.33630264 0.05130725
-0.18344735 -0.33637783 0.051255181
-0.1836684 -0.33645529 0.051184583
-0.18388726 -0.33652985 0.05113484
-0.18410392 -0.33660445 0.051078167
-0.18431966 -0.3366785 0.0510238
-0.1845369 -0.33675379 0.050962489
-0.18475237 -0.33682641 0.05092087
-0.18496838 -0.33690104 0.050861884
-0.18518269 -0.33697307 0.050822578
-0.1853945 -0.33704489 0.050777506
-0.18561405 -0.33712247 0.050701126
-0.1858211 -0.3371911 0.050672285
-0.18603605 -0.33726406 0.050626043
-0.18624581 -0.33733487 0.05058445
-0.18646485 -0.33741108 0.05051966
-0.18667175 -0.33748001 0.050487347
-0.18688071 -0.33755058 0.050445758
-0.18709055 -0.33762193 0.050399542
-0.18730009 -0.33769158 0.050368372
-0.18751052 -0.33776358 0.050317522
-0.18772095 -0.33783412 0.050280556
-0.1879665 -0.33792803 0.050127611
-0.18813643 -0.33796668 0.050271522
-0.18852827 -0.33809611 0.05022091
-0.18879259 -0.33819854 0.050043542
-0.18923071 -0.33836424 0.049787711
-0.18936518 -0.33838227 0.050020982
-0.18958263 -0.33846089 0.049928389
-0.18979082 -0.33853087 0.049890283
-0.18999434 -0.33859897 0.049855679
-0.19019657 -0.33866617 0.049825706
-0.19040841 -0.33873594 0.049800318
-0.19060792 -0.3388046 0.049748357
-0.19080974 -0.33887181 0.049717236
-0.19101571 -0.33894071 0.04968261
-0.19122198 -0.33900821 0.049661886
-0.19141492 -0.33907211 0.049635444
-0.19161564 -0.33913887 0.049605481
-0.19183527 -0.33921391 0.049553413
-0.192019 -0.33927244 0.049550176
-0.19221747 -0.33933589 0.049544543
-0.1924203 -0.33940476 0.049500678
-0.19261827 -0.33946976 0.049478836
-0.19281694 -0.33953366 0.049469735
-0.19300729 -0.33959258 0.049482673
-0.19320232 -0.33965361 0.0494898
-0.19338247 -0.339706 0.049534068
-0.19356 -0.3397544 0.049608447
-0.1937269 -0.33979014 0.049770907
-0.19293609 -0.33868378 0.05789461
-0.19320528 -0.33881068 0.057499491
-0.19336934 -0.33883587 0.057753466
-0.19355538 -0.33888379 0.057857919
-0.19376637 -0.33895734 0.057794321
-0.19408225 -0.33900607 0.058281463
-0.19460595 -0.33911571 0.058815055
-0.19609742 -0.33999401 0.054962531
-0.19629298 -0.34005263 0.05499398
-0.1965138 -0.34012341 0.054985918
-0.19674201 -0.34020108 0.054934971
-0.19692694 -0.3402589 0.054942146
-0.19713345 -0.34032562 0.054929532
-0.19734086 -0.34039107 0.054931957
-0.19754392 -0.34046599 0.054831337
-0.19770588 -0.34051165 0.054884955
-0.19795825 -0.34060147 0.054791041
-0.19814759 -0.34066167 0.054788928
-0.19834927 -0.34072444 0.054799497
-0.19854495 -0.34078151 0.054845996
-0.19872531 -0.34083557 0.054875202
-0.19891259 -0.34089631 0.054861516
-0.19914323 -0.34099218 0.05464495
-0.19931509 -0.34104538 0.054656822
-0.19954449 -0.34110937 0.054739058
-0.19973981 -0.34117121 0.054739237
-0.19991928 -0.34123206 0.054701269
-0.20014811 -0.34130782 0.054670006
-0.20033741 -0.34136885 0.054659791
-0.20051514 -0.34142831 0.054629944
-0.20074299 -0.34150097 0.054625332
-0.20093381 -0.34156382 0.054602362
-0.20113908 -0.34162882 0.054602493
-0.20135026 -0.3417052 0.054512251
-0.2015371 -0.34176168 0.054537944
-0.20171428 -0.34181595 0.054555587
-0.2019337 -0.34189093 0.05450353
-0.20210369 -0.34194303 0.054520056
-0.20227562 -0.34199452 0.054548141
-0.2025082 -0.34208408 0.054397568
-0.20267639 -0.3421317 0.05445116
-0.20290796 -0.34220406 0.054460421
-0.20310612 -0.34226778 0.054451309
-0.20326993 -0.34231901 0.054457441
-0.20349917 -0.34240043 0.054374062
-0.20368148 -0.34245533 0.054400943
-0.20387843 -0.34252098 0.05436983
-0.20405766 -0.34257543 0.054392103
-0.20427881 -0.34264535 0.054393306
-0.20446473 -0.34271055 0.054333299
-0.20464174 -0.34276256 0.054371797
-0.20488454 -0.34285814 0.054194532
-0.20507514 -0.3429141 0.054236427
-0.20524956 -0.34296322 0.054294616
-0.2054469 -0.34303033 0.054250777
-0.20563941 -0.34309494 0.054216221
-0.20584065 -0.34316075 0.054196682
-0.2060345 -0.34322408 0.054178335
-0.20624991 -0.34329131 0.05418767
-0.20643538 -0.34335431 0.054147363
-0.20663571 -0.34341946 0.054131307
-0.20684592 -0.34349054 0.054088555
-0.20701079 -0.34354469 0.054070354
-0.207193 -0.34359372 0.054152824
-0.20740134 -0.34366968 0.054057971
-0.20759884 -0.34373882 0.053995591
-0.20779288 -0.3437928 0.05406642
-0.2079902 -0.343862 0.054002889
-0.20818424 -0.34393063 0.053934745
-0.20837481 -0.34398365 0.054004438
-0.20856878 -0.34405631 0.053898066
-0.208762 -0.34412444 0.053832237
-0.20896736 -0.344183 0.053893745
-0.20914869 -0.34423065 0.05398665
-0.20935223 -0.34430218 0.053919613
-0.20953059 -0.34434938 0.054007895
-0.2097335 -0.34442437 0.053906113
-0.20992263 -0.34449571 0.053797461
-0.21011741 -0.34455094 0.05385901
-0.21032329 -0.34461868 0.053834815
-0.21050778 -0.34467515 0.053853586
-0.21069589 -0.34473726 0.053829476
-0.21091376 -0.34481555 0.053741522
-0.21109134 -0.34487921 0.053671136
-0.21128342 -0.34493929 0.053678282
-0.21148328 -0.34500295 0.053674959
-0.21168146 -0.34506387 0.05369249
-0.21187036 -0.34512356 0.053693861
-0.21204166 -0.34517279 0.053741641
-0.21223682 -0.34524336 0.053658426
-0.21244316 -0.34531382 0.053609908
-0.21262673 -0.34536964 0.053632148
-0.2128095 -0.34542921 0.053616174
-0.2130222 -0.3455067 0.053520143
-0.21322539 -0.34557238 0.053507533
-0.21342346 -0.34563398 0.053518128
-0.21361353 -0.3456915 0.053543806
-0.21382773 -0.34576762 0.053465135
-0.2139919 -0.34581459 0.053512953
-0.21416759 -0.34586692 0.053544495
-0.21436757 -0.34593877 0.053463582
-0.21457303 -0.3460041 0.053461388
-0.2147567 -0.34606725 0.053414136
-0.21492746 -0.34612203 0.05340749
-0.21512684 -0.34618089 0.053448189
-0.21531765 -0.34624058 0.05345533
-0.21552718 -0.34631583 0.053370893
-0.21571991 -0.34637332 0.053404666
-0.21593426 -0.34645379 0.053285465
-0.21609025 -0.34651035 0.053217508
-0.21628989 -0.34656283 0.053319573
-0.21648887 -0.34662876 0.053291939
-0.21667133 -0.34669164 0.053243537
-0.2168369 -0.34672576 0.053417586
-0.21705566 -0.34680432 0.053329624
-0.21722859 -0.346867 0.053254634
-0.21741371 -0.34692976 0.053215485
-0.2176047 -0.34699193 0.053199474
-0.21779929 -0.34705585 0.053177651
-0.21798915 -0.34711489 0.053188276
-0.21818671 -0.34717879 0.053175703
-0.2183686 -0.34724295 0.053113412
-0.21855773 -0.3472999 0.053141415
-0.21876505 -0.34736556 0.053141519
-0.21894097 -0.34742039 0.053149901
-0.21912521 -0.34748301 0.053109601
-0.21931191 -0.34754309 0.053100556
-0.21949928 -0.34760633 0.053063713
-0.21969771 -0.3476766 0.052993231
-0.21988556 -0.34772813 0.053068727
-0.22008419 -0.34780055 0.052978545
-0.22024971 -0.34785342 0.052974239
-0.22044218 -0.34791169 0.052999906
-0.22063364 -0.34798318 0.052897036
-0.22084069 -0.34805155 0.052870519
-0.22102575 -0.34810501 0.05291938
-0.22121049 -0.34815544 0.052996054
-0.22138704 -0.34821841 0.052929148
-0.22157024 -0.34828287 0.052868005
-0.22176336 -0.34834868 0.052824177
-0.22195034 -0.34842154 0.052694686
-0.22214232 -0.34847805 0.052735414
-0.22233063 -0.34852865 0.052821331
-0.22251196 -0.34857252 0.052950136
-0.22269823 -0.34864247 0.052846126
-0.22288795 -0.34872207 0.052661024
-0.22308329 -0.34877196 0.052774698
-0.22326532 -0.34883165 0.052755255
-0.22345416 -0.34890401 0.052636176
-0.2236463 -0.34896132 0.052669957
-0.22383182 -0.34900945 0.052770939
-0.22402394 -0.34907332 0.052742172
-0.22421923 -0.34914151 0.052682132
-0.22440107 -0.34919822 0.052690476
-0.22458903 -0.34926736 0.052599207
-0.22477347 -0.34933347 0.052526474
-0.22496901 -0.34939232 0.052555598
-0.22515105 -0.3494457 0.052596383
-0.22533958 -0.34950477 0.052602381
-0.22552744 -0.34956887 0.052558579
-0.22570994 -0.34961995 0.052622519
-0.22589351 -0.34968746 0.052533578
-0.22607845 -0.34976628 0.052341551
-0.2262786 -0.34981966 0.052436672
-0.2264594 -0.34986189 0.052579381
-0.22664464 -0.34993589 0.052433677
-0.22684312 -0.3499985 0.052436158
-0.22702624 -0.35004854 0.052511677
-0.22720243 -0.35012618 0.05230464
-0.2274023 -0.35018301 0.052366175
-0.22759442 -0.35024139 0.052389532
-0.22778003 -0.35030907 0.05230521
-0.22796121 -0.35036629 0.052306622
-0.22815509 -0.35043073 0.052277848
-0.22834647 -0.35048023 0.052383438
-0.22851944 -0.35053939 0.052342042
-0.22870758 -0.35060871 0.052249592
-0.22889896 -0.35066906 0.052252106
-0.22909048 -0.35072911 0.052258097
-0.22927277 -0.3507835 0.052289605
-0.22945476 -0.35084772 0.052227311
-0.22963837 -0.35090792 0.052207861
-0.22982816 -0.35097155 0.052174479
-0.23001386 -0.35103536 0.052127212
-0.23020574 -0.35108647 0.052218907
-0.23038976 -0.3511534 0.052136905
-0.23058243 -0.3512111 0.052168373
-0.23077159 -0.35127538 0.052126884
-0.23094723 -0.3513349 0.052090097
-0.23114099 -0.35139784 0.052075226
-0.23132083 -0.35145 0.052120648
-0.23149118 -0.35151127 0.05205147
-0.23168421 -0.3515752 0.052025016
-0.23186943 -0.351632 0.052042618
-0.23206373 -0.3517001 0.051980253
-0.23225479 -0.35176659 0.051923707
-0.23243918 -0.35181862 0.051984165
-0.23261756 -0.35187924 0.051945046
-0.23280291 -0.3519417 0.051909368
-0.23299693 -0.35200375 0.051903758
-0.23317406 -0.35205469 0.051952668
-0.23335947 -0.35211694 0.051919308
-0.23354606 -0.35217759 0.051904481
-0.2337247 -0.35223746 0.05187346
-0.23391391 -0.35230005 0.051848192
-0.23410091 -0.3523601 0.051840309
-0.23428664 -0.35242158 0.051815048
-0.23447701 -0.35248274 0.05180715
-0.23466223 -0.3525399 0.051821269
-0.23485175 -0.35260198 0.05180179
-0.23503318 -0.35265857 0.051810145
-0.23520988 -0.35272452 0.051715448
-0.23539345 -0.35279226 0.051624186
-0.23558934 -0.35283905 0.051769126
-0.23576133 -0.35290471 0.051662877
-0.23594564 -0.35296708 0.051624883
-0.23613514 -0.35302466 0.051648259
-0.23632532 -0.3530817 0.051678572
-0.2365071 -0.35314217 0.051651023
-0.23668861 -0.35320684 0.05158294
-0.23687749 -0.3532691 0.051559981
-0.23706099 -0.35332793 0.051553268
-0.23725857 -0.35338303 0.051624082
-0.23744299 -0.35344508 0.051589571
-0.2376229 -0.35351059 0.051508758
-0.23779103 -0.35358125 0.051343456
-0.23799336 -0.35363665 0.051425818
-0.23817872 -0.35369048 0.051472377
-0.23835357 -0.3537485 0.051447179
-0.2385492 -0.35381275 0.051425342
-0.23875253 -0.35387507 0.051445175
-0.23893525 -0.3539311 0.051462777
-0.23911107 -0.35398847 0.05144684
-0.23929289 -0.35404518 0.051455192
-0.23947801 -0.35411307 0.051367398
-0.23967287 -0.35416794 0.051432442
-0.23984507 -0.35423732 0.051291443
-0.24003662 -0.3543008 0.051264998
-0.24021873 -0.35435417 0.051305771
-0.24040928 -0.35441512 0.051300179
-0.24060079 -0.35448173 0.051243633
-0.24078001 -0.35453701 0.051257789
-0.24097197 -0.35460022 0.051234815
-0.2411605 -0.35466236 0.051211871
-0.24133451 -0.35472062 0.051182039
-0.24151303 -0.35477641 0.051189244
-0.24170513 -0.35483369 0.051223021
-0.24189705 -0.35489407 0.05122669
-0.24208514 -0.35496217 0.051145837
-0.24225049 -0.35501915 0.051102154
-0.24244209 -0.35507691 0.051130146
-0.24261689 -0.35513747 0.051080626
-0.24280483 -0.3551971 0.051079683
-0.24299772 -0.35525441 0.051115766
-0.24318253 -0.35531291 0.051115997
-0.24335565 -0.35537687 0.051029425
-0.24353771 -0.35543928 0.050984509
-0.24370912 -0.35550377 0.050887518
-0.2439052 -0.35555464 0.05099424
-0.24408102 -0.3556197 0.050905339
-0.24425492 -0.35568035 0.050852347
-0.24445404 -0.35573536 0.050928943
-0.24466145 -0.35579214 0.0510136
-0.24484715 -0.35585299 0.050994139
-0.24502254 -0.35592046 0.050880916
-0.24522935 -0.35597536 0.050981797
-0.24544005 -0.35603377 0.051060647
-0.24559329 -0.35610241 0.050869942
-0.24577552 -0.35616219 0.050850496
-0.24595523 -0.35622054 0.050836857
-0.24613589 -0.35628089 0.050806995
-0.24632427 -0.35633847 0.050826889
-0.24650708 -0.3564027 0.050766911
-0.24670322 -0.35645992 0.050813407
-0.24688071 -0.35652369 0.050741874
-0.24706146 -0.35658175 0.050734013
-0.24724086 -0.35663807 0.050738905
-0.2474269 -0.35670111 0.050699748
-0.24762012 -0.35676181 0.050704572
-0.24780348 -0.35682353 0.050670058
-0.24797693 -0.35687965 0.05065877
-0.24816434 -0.35694009 0.050648555
-0.24834582 -0.35700449 0.050582789
-0.24852984 -0.35706386 0.050572604
-0.24870862 -0.35712266 0.050552014
-0.24890438 -0.3571828 0.050569557
-0.24909034 -0.3572396 0.050589472
-0.24926925 -0.35730261 0.05052951
-0.24944954 -0.3573631 0.050497331
-0.24964808 -0.35742268 0.050528761
-0.24983948 -0.35748425 0.05051969
-0.25001496 -0.35754406 0.050479434
-0.25020072 -0.35760117 0.050495878
-0.25038373 -0.35766301 0.050459057
-0.25057033 -0.35772198 0.050460432
-0.25077012 -0.35778159 0.050495327
-0.2509478 -0.35784477 0.050429583
-0.25111693 -0.35790613 0.05035577
-0.25132644 -0.35796356 0.050440416
-0.25148889 -0.35802647 0.050331891
-0.25167403 -0.35808593 0.050324019
-0.25186008 -0.35814521 0.050320767
-0.2520574 -0.35820574 0.050339464
-0.25222722 -0.3582668 0.050270274
-0.25240314 -0.35832837 0.050214957
-0.25259557 -0.35838637 0.050242946
-0.25280672 -0.35844055 0.050363488
-0.25296614 -0.35850918 0.05019128
-0.25314581 -0.35856813 0.050171848
-0.25334743 -0.35862452 0.05024264
-0.25353381 -0.35868403 0.050238237
-0.25370285 -0.35875046 0.050115779
-0.25387397 -0.35881111 0.050054692
-0.25408879 -0.35886708 0.050169427
-0.25428286 -0.35892877 0.050167292
-0.25446543 -0.35899082 0.050127
-0.25465813 -0.35905284 0.050117925
-0.25483626 -0.35911056 0.050105445
-0.25503433 -0.35917339 0.050104454
-0.25520951 -0.35923338 0.050061882
-0.25538063 -0.359294 0.050000794
-0.25555193 -0.35935459 0.049940873
-0.25575393 -0.35941353 0.049988497
-0.2559326 -0.35947463 0.049945906
-0.25614294 -0.35953245 0.05002939
-0.25633234 -0.35959521 0.050002966
-0.25651288 -0.35965446 0.049983524
-0.25667182 -0.35971525 0.049884282
-0.25686467 -0.35977754 0.049872898
-0.25703993 -0.35983753 0.049830325
-0.25724974 -0.35989749 0.049891807
-0.25744581 -0.35995629 0.049923249
-0.25762531 -0.36001739 0.049882971
-0.25779578 -0.36007965 0.049804516
-0.25799173 -0.36014327 0.049789634
-0.25818813 -0.36019912 0.049850032
-0.25834844 -0.36026108 0.049743827
-0.25853154 -0.36032176 0.049718589
-0.25868881 -0.36038396 0.049600828
-0.25890094 -0.36044273 0.049680836
-0.25907767 -0.36050418 0.049628988
-0.25928631 -0.36056355 0.049692798
-0.25945705 -0.36062416 0.04963056
-0.25968218 -0.36068192 0.049759135
-0.25982648 -0.36074689 0.049576584
-0.2600213 -0.36080649 0.049596447
-0.26020339 -0.36086744 0.04956542
-0.26040986 -0.36092597 0.049630396
-0.26059657 -0.36098656 0.049616724
-0.26078865 -0.3610481 0.049609963
-0.26096329 -0.36110985 0.049548868
-0.2611627 -0.3611708 0.049569864
-0.26134068 -0.36123228 0.049521495
-0.26154011 -0.36129189 0.049555235
-0.26172364 -0.36135292 0.049527675
-0.26190552 -0.36141551 0.049480431
-0.26211077 -0.36147624 0.049521092
-0.26228386 -0.36153677 0.049466953
-0.26246759 -0.36159787 0.049439393
-0.26264617 -0.36166075 0.049379423
-0.26285687 -0.36171991 0.049451336
-0.26304147 -0.36178103 0.049426079
-0.26321882 -0.36184266 0.04937423
-0.26340511 -0.36190507 0.049342029
-0.26361027 -0.36196625 0.049378052
-0.26380411 -0.3620269 0.049385194
-0.26397195 -0.36208919 0.049298648
-0.2641536 -0.36215195 0.049249083
-0.26436201 -0.36221182 0.049307108
-0.26453233 -0.36227527 0.049217075
-0.26472175 -0.362335 0.049219601
-0.26494482 -0.36239564 0.049314599
-0.26512524 -0.36245728 0.049271997
-0.26529115 -0.36252224 0.049154192
-0.26548624 -0.36258316 0.049162485
-0.26568142 -0.36264801 0.049133699
-0.26590598 -0.36270645 0.049254179
-0.26605937 -0.36277318 0.049082004
-0.26627114 -0.36283231 0.049157381
-0.26646075 -0.36289623 0.049120527
-0.2666446 -0.36295786 0.049088329
-0.26684016 -0.36301783 0.049107034
-0.26701838 -0.36308098 0.049043603
-0.26723465 -0.36314788 0.049058728
-0.26740664 -0.36320624 0.049021959
-0.26759565 -0.36326534 0.049029123
-0.26778281 -0.36332825 0.04899459
-0.26796505 -0.36339009 0.048955463
-0.26815259 -0.36345059 0.048945248
-0.26832026 -0.36351404 0.04884712
-0.26849931 -0.3635723 0.048832331
-0.26873761 -0.36363667 0.048937671
-0.26889232 -0.36369675 0.04883267
-0.2691291 -0.36375892 0.048954245
-0.2693041 -0.36382347 0.048867665
-0.26950762 -0.3638888 0.048859689
-0.26969564 -0.36395076 0.048836734
-0.26989257 -0.36401385 0.048829958
-0.27007931 -0.3640759 0.048802383
-0.27027446 -0.36414024 0.04877824
-0.27047172 -0.36420345 0.04877146
-0.27066249 -0.36426556 0.048755437
-0.27084437 -0.36432424 0.048745263
-0.27103823 -0.36438757 0.048726916
-0.27123067 -0.36445326 0.048681937
-0.27142435 -0.36451203 0.048706446
-0.27162218 -0.36457664 0.04868808
-0.27176657 -0.36463428 0.048575021
-0.27198768 -0.36470124 0.048604019
-0.27219811 -0.36476141 0.048665494
-0.27238116 -0.36482608 0.048602041
-0.27259862 -0.36489326 0.04861832
-0.27278316 -0.36495569 0.048580326
-0.27297002 -0.36501706 0.048559707
-0.27319169 -0.36507994 0.048629235
-0.27337104 -0.36514357 0.048564635
-0.27357408 -0.3652086 0.048557829
-0.27373242 -0.36526859 0.048464376
-0.2739324 -0.36533251 0.04845874
-0.27412966 -0.36539644 0.048445012
-0.2743279 -0.36546046 0.048433594
-0.27453199 -0.36552349 0.048448782
-0.27471703 -0.36558512 0.048420053
-0.27490455 -0.36564901 0.048377417
-0.27512318 -0.36571363 0.048421483
-0.27531675 -0.3657777 0.048395038
-0.27550536 -0.36584279 0.048344288
-0.27568546 -0.36590445 0.048300534
-0.27590737 -0.36597046 0.04834111
-0.27608788 -0.36603433 0.048277661
-0.2762658 -0.36609492 0.048237391
-0.2764923 -0.36616018 0.048298799
-0.27666932 -0.36622295 0.048235364
-0.27691272 -0.36629736 0.048260782
-0.27710146 -0.3663637 0.048198447
-0.27728289 -0.36642456 0.048166268
-0.27748632 -0.36648726 0.048182618
-0.27767187 -0.36654836 0.04816084
-0.27786544 -0.36661184 0.048140176
-0.27807117 -0.36668101 0.048102081
-0.27826965 -0.3667396 0.048142783
-0.27846652 -0.36680436 0.048119787
-0.27865797 -0.3668679 0.048092186
-0.17647082 -0.33396345 0.053197779
-0.17669629 -0.33403999 0.053149186
-0.17692646 -0.33411971 0.053084351
-0.17716306 -0.33420381 0.052997485
-0.17739955 -0.33428663 0.052922208
-0.17763001 -0.33436829 0.052840013
-0.17787132 -0.3344546 0.052746184
-0.17811288 -0.33454394 0.052624553
-0.17833397 -0.33461848 0.052581772
-0.17854533 -0.33468661 0.052570298
-0.17876619 -0.3347612 0.052526355
-0.1789895 -0.33483756 0.052473135
-0.17920594 -0.33490938 0.052441951
-0.17943205 -0.33498782 0.052377142
-0.17965676 -0.33506545 0.052315816
-0.17988248 -0.33514392 0.052249841
-0.18011053 -0.33522406 0.052174605
-0.18033114 -0.33529931 0.052123718
-0.18054964 -0.33537459 0.052065894
-0.18077625 -0.3354542 0.051991817
-0.18099619 -0.33552933 0.051939778
-0.18121746 -0.3356055 0.051881939
-0.18144201 -0.33568406 0.051811345
-0.18166357 -0.33576071 0.051750034
-0.18188316 -0.33583611 0.051694512
-0.18210955 -0.33591634 0.051613495
-0.18233007 -0.33599266 0.051552184
-0.1825541 -0.33607155 0.05147697
-0.18278283 -0.33615386 0.051383197
-0.18299752 -0.33622649 0.051339284
-0.1832056 -0.33629459 0.051318571
-0.1834254 -0.33637103 0.051253784
-0.18364578 -0.33644801 0.05118553
-0.18386114 -0.3365216 0.051134668
-0.18407714 -0.33659574 0.051080327
-0.18429345 -0.33667022 0.051023677
-0.18450637 -0.3367424 0.05097862
-0.18472114 -0.33681604 0.050925441
-0.18493681 -0.33689043 0.050867632
-0.18514857 -0.33696213 0.050823733
-0.18536031 -0.33703396 0.050778676
-0.18557954 -0.33711132 0.050703481
-0.18578596 -0.33717948 0.050676975
-0.18599629 -0.33725059 0.05063425
-0.18620692 -0.33732206 0.0505892
-0.18641874 -0.33739451 0.050538354
-0.18662484 -0.33746442 0.050494485
-0.18683493 -0.33753583 0.050448284
-0.18704475 -0.33760715 0.050402075
-0.18725087 -0.33767584 0.050369784
-0.18745816 -0.33774552 0.050331701
-0.18766804 -0.33781722 0.05028202
-0.18790121 -0.33790341 0.050165072
-0.18809941 -0.33795857 0.050237022
-0.18846273 -0.33807129 0.050259523
-0.18870685 -0.33815825 0.050168
-0.18917099 -0.33834541 0.049787067
-0.18930666 -0.33836111 0.050045751
-0.18952091 -0.33844057 0.04993584
-0.18972626 -0.33850998 0.049894288
-0.18992873 -0.33857727 0.049864329
-0.19013122 -0.33864468 0.049833223
-0.19033732 -0.33871165 0.049817137
-0.19054049 -0.3387832 0.049748968
-0.19074023 -0.33884877 0.049727131
-0.19094156 -0.33891568 0.049697183
-0.19115452 -0.33898678 0.049662545
-0.19133952 -0.33904609 0.049655825
-0.19154303 -0.33911505 0.049613129
-0.19175725 -0.33918923 0.049553007
-0.19194305 -0.3392477 0.049556717
-0.19213741 -0.3393096 0.049553424
-0.19233781 -0.33937648 0.049521163
-0.1925402 -0.33944508 0.049478464
-0.19273981 -0.33950976 0.04946474
-0.19292916 -0.33956787 0.04948232
-0.19312108 -0.33962816 0.049487151
-0.19330643 -0.33968487 0.049505908
-0.19348174 -0.33973148 0.049590711
-0.19365412 -0.33977371 0.049707942
-0.19380775 -0.3397983 0.049936429
-0.19281898 -0.33863062 0.058047306
-0.19332194 -0.3388502 0.057475146
-0.19345105 -0.33884943 0.057870474
-0.19366655 -0.33892682 0.057783723
-0.19413482 -0.33899391 0.058554813
-0.1944451 -0.33903185 0.059127547
-0.19597892 -0.33995211 0.055003807
-0.19619495 -0.34002921 0.054921679
-0.19638896 -0.34007576 0.055063128
-0.19663854 -0.34016627 0.054954201
-0.19683099 -0.3402288 0.054939352
-0.19701561 -0.3402842 0.054968528
-0.19722687 -0.34035319 0.054948948
-0.19743425 -0.34042311 0.05490854
-0.19761543 -0.34048671 0.054849744
-0.1978166 -0.34054881 0.05486495
-0.19803785 -0.34062767 0.054781646
-0.1982345 -0.34068799 0.054800346
-0.19843933 -0.3407515 0.054813214
-0.19862804 -0.34080663 0.054857433
-0.1987936 -0.34085587 0.054887868
-0.19902535 -0.34094083 0.054777868
-0.19922498 -0.34102103 0.054617092
-0.19939613 -0.34106642 0.054700758
-0.199633 -0.34113777 0.054735463
-0.1998101 -0.34119385 0.054735743
-0.20003478 -0.3412728 0.054661673
-0.20023188 -0.34133425 0.054671116
-0.20040874 -0.34139282 0.054647073
-0.20058692 -0.34144774 0.054661237
-0.200829 -0.34152991 0.054609079
-0.20099787 -0.34158313 0.054611713
-0.2012265 -0.34165946 0.054574676
-0.20143117 -0.34173182 0.054503031
-0.20160578 -0.34178343 0.054538049
-0.20179665 -0.34184423 0.054534771
-0.20200248 -0.34191296 0.054501332
-0.2021848 -0.34196749 0.054531679
-0.20235708 -0.34202483 0.054505348
-0.20257193 -0.34210363 0.054403543
-0.20275432 -0.34215295 0.054483674
-0.2029921 -0.34223217 0.054446604
-0.20316321 -0.34228304 0.054478168
-0.20334865 -0.3423498 0.054401975
-0.20355937 -0.34241641 0.054403242
-0.20375809 -0.34248117 0.054386046
-0.20395267 -0.34254426 0.054372333
-0.20412987 -0.34259644 0.05440966
-0.20434447 -0.34266782 0.054377321
-0.20452315 -0.34272474 0.054374114
-0.20471892 -0.3427926 0.054318719
-0.20494978 -0.34287742 0.054207578
-0.2051369 -0.3429324 0.054248318
-0.20531181 -0.34298217 0.054301865
-0.20550922 -0.3430526 0.054226778
-0.20570759 -0.3431181 0.054201476
-0.20590708 -0.34318188 0.054195851
-0.20610097 -0.34324533 0.054176345
-0.2063047 -0.34330803 0.054193858
-0.2064952 -0.34337407 0.054139644
-0.20669198 -0.34343821 0.054122459
-0.20690194 -0.34350911 0.054080889
-0.20705661 -0.34355706 0.05409053
-0.20724674 -0.34360945 0.054164842
-0.20745182 -0.34368831 0.054032981
-0.2076492 -0.34375387 0.054004211
-0.20784073 -0.34380814 0.054064613
-0.20804313 -0.34388068 0.053984873
-0.20822422 -0.34394288 0.053938806
-0.20842236 -0.34399891 0.054002661
-0.20860657 -0.34406942 0.053887114
-0.20880742 -0.34413692 0.053850226
-0.20900768 -0.34419608 0.053890899
-0.20918708 -0.34424105 0.05400347
-0.20938852 -0.34431362 0.053920262
-0.20956236 -0.34435827 0.054018967
-0.20976812 -0.3444376 0.053884786
-0.20995474 -0.34450534 0.053802803
-0.21014635 -0.34456003 0.053859748
-0.21035112 -0.34462622 0.053847138
-0.21053305 -0.34468308 0.053854339
-0.21072419 -0.34474567 0.053834859
-0.21093914 -0.34482387 0.053738847
-0.21111605 -0.34488657 0.053675435
-0.21130419 -0.34494492 0.05368723
-0.21150085 -0.34500805 0.053679302
-0.21169205 -0.34506688 0.05369572
-0.21188787 -0.34512877 0.053697057
-0.21205544 -0.34517658 0.053747158
-0.21225107 -0.34524801 0.053657033
-0.21245363 -0.34531704 0.053610861
-0.21264021 -0.34537318 0.053638875
-0.21281968 -0.34543207 0.053619459
-0.21302898 -0.34550872 0.053521156
-0.21322885 -0.34557372 0.053505108
-0.21342644 -0.34563458 0.053521488
-0.21361645 -0.34569207 0.053547166
-0.21383436 -0.34576985 0.053463869
-0.21399498 -0.34581569 0.053511705
-0.21416998 -0.34586671 0.053553667
-0.21436703 -0.34593874 0.053462371
-0.21456525 -0.34600139 0.053463697
-0.21475227 -0.34606549 0.053417601
-0.21492718 -0.34612292 0.053398207
-0.21511848 -0.34617728 0.053457454
-0.21531013 -0.34623891 0.053448394
-0.21551877 -0.34631231 0.053379044
-0.21570823 -0.34636924 0.053408198
-0.21591781 -0.34644562 0.053313367
-0.21607849 -0.34650636 0.053219944
-0.21627814 -0.34655896 0.053320825
-0.21647292 -0.34662211 0.053307123
-0.21665582 -0.34668624 0.05324832
-0.21682622 -0.34672529 0.053389881
-0.21702023 -0.34678647 0.05339238
-0.21721032 -0.34686288 0.053238608
-0.21738987 -0.34691864 0.053249277
-0.217586 -0.34698695 0.05319041
-0.21777232 -0.34704474 0.053202216
-0.21796678 -0.34710863 0.053180404
-0.21816045 -0.3471702 0.053178281
-0.21834175 -0.34723246 0.053132221
-0.21852472 -0.34729004 0.053135931
-0.21873152 -0.34735405 0.053149953
-0.21892132 -0.34741366 0.053154796
-0.21909481 -0.34747162 0.053126141
-0.21927837 -0.34753206 0.053104386
-0.21946877 -0.3475948 0.053081438
-0.21966389 -0.34766462 0.053005207
-0.21985252 -0.34772021 0.053044789
-0.22004637 -0.34778523 0.05301024
-0.22021942 -0.34784368 0.052975796
-0.22039406 -0.3478936 0.053027026
-0.22059251 -0.34796777 0.052919511
-0.22078933 -0.34803364 0.052886114
-0.22098172 -0.34809262 0.052904837
-0.22116293 -0.34814203 0.052980345
-0.22133909 -0.34820232 0.052937783
-0.22151834 -0.34826174 0.052912574
-0.22171515 -0.34833091 0.052847911
-0.22189516 -0.34840032 0.052730076
-0.22208712 -0.34845686 0.052770793
-0.22226937 -0.34851724 0.052745569
-0.22246048 -0.34855884 0.052925244
-0.2226426 -0.34861502 0.052939378
-0.22282942 -0.34870332 0.052662883
-0.22301787 -0.3487547 0.052741833
-0.22321005 -0.34881324 0.052764025
-0.22339199 -0.34887558 0.052719127
-0.22358055 -0.34895444 0.052537564
-0.22376609 -0.34898734 0.052783255
-0.22395818 -0.34905097 0.052756816
-0.22415005 -0.34911793 0.052697964
-0.22433871 -0.34917679 0.052706286
-0.22452006 -0.34923995 0.052652128
-0.22470094 -0.34930709 0.052558593
-0.22490285 -0.34937286 0.052541383
-0.22508115 -0.3494271 0.05256249
-0.22526674 -0.34948027 0.052615974
-0.22545111 -0.34954339 0.052571058
-0.2256393 -0.34960407 0.052560858
-0.22581801 -0.34965625 0.052602805
-0.22599962 -0.34973425 0.052408539
-0.2261932 -0.34980336 0.052334636
-0.22638483 -0.34984463 0.052518919
-0.22656281 -0.34990084 0.05252035
-0.22675444 -0.34997776 0.052366562
-0.22694567 -0.3500239 0.052503385
-0.22712848 -0.35009009 0.052424897
-0.22730893 -0.35016429 0.052263059
-0.22750199 -0.35020527 0.052454293
-0.22769053 -0.35027596 0.052350298
-0.22787449 -0.35033628 0.052330859
-0.22805756 -0.35039911 0.052284792
-0.22825305 -0.35045844 0.05230929
-0.2284333 -0.35050735 0.052387126
-0.22861561 -0.3505719 0.052322529
-0.22879773 -0.35063651 0.052256785
-0.22898902 -0.35069695 0.052258149
-0.22917372 -0.35075459 0.052266486
-0.22936174 -0.35081363 0.052271336
-0.22954063 -0.35087574 0.052219495
-0.22972757 -0.35093701 0.052200031
-0.2299104 -0.35099855 0.052165546
-0.23010069 -0.35106075 0.052147228
-0.23028357 -0.351114 0.052191474
-0.23047563 -0.35118043 0.052138403
-0.23066188 -0.35123512 0.052179158
-0.23085281 -0.35130328 0.052106425
-0.23102871 -0.35136214 0.052076593
-0.23122114 -0.35142025 0.052103423
-0.23139131 -0.35147497 0.052095622
-0.2315672 -0.35154018 0.052005596
-0.23176019 -0.35159749 0.05204168
-0.23194706 -0.35165802 0.05202917
-0.23213382 -0.3517248 0.051956452
-0.23233491 -0.35178861 0.051955447
-0.23250702 -0.35184029 0.05198238
-0.23268503 -0.35190129 0.051938646
-0.23287474 -0.35196343 0.051919177
-0.2330678 -0.35202661 0.051899679
-0.23324139 -0.35207659 0.051947441
-0.23342037 -0.35213605 0.051921077
-0.23361111 -0.35219681 0.051917814
-0.23378743 -0.35225934 0.051854406
-0.23397776 -0.35232046 0.051846508
-0.23416394 -0.35238135 0.051828209
-0.23435146 -0.35244071 0.051828437
-0.23454031 -0.35250345 0.051800858
-0.23472188 -0.35255972 0.051812686
-0.2349124 -0.35262063 0.051807106
-0.23508759 -0.35267439 0.051823601
-0.23526613 -0.35274738 0.051667564
-0.23545468 -0.35280561 0.051681664
-0.2356382 -0.35285565 0.051758327
-0.23581593 -0.35292438 0.051640496
-0.23600687 -0.3529847 0.051641859
-0.23618814 -0.35304135 0.05164906
-0.2363774 -0.35309505 0.051708318
-0.23655762 -0.35316089 0.051625218
-0.23673624 -0.35322392 0.051564116
-0.23692766 -0.35328391 0.051570114
-0.23710653 -0.35334262 0.051550686
-0.23730643 -0.35339579 0.051646944
-0.23749191 -0.35346073 0.051588126
-0.23766443 -0.35352814 0.051466856
-0.23784021 -0.35359648 0.051346719
-0.23803751 -0.35364833 0.051447622
-0.2382188 -0.35370514 0.051453672
-0.23840073 -0.35376149 0.051465496
-0.23859593 -0.35382953 0.051406622
-0.238795 -0.35388783 0.051451951
-0.23897609 -0.3539449 0.051454514
-0.23915063 -0.35399967 0.051459432
-0.23933111 -0.35406059 0.051423796
-0.23952188 -0.35412467 0.051389266
-0.23970912 -0.35418114 0.051416121
-0.23987933 -0.35424843 0.051289063
-0.2400725 -0.35431081 0.051277675
-0.24025352 -0.35436484 0.051309191
-0.24043982 -0.35442516 0.051296685
-0.24062918 -0.35448986 0.051251743
-0.24081136 -0.35454646 0.051262412
-0.24099943 -0.3546088 0.051236004
-0.2411872 -0.3546713 0.05120727
-0.24136141 -0.35472938 0.051179774
-0.24154286 -0.35478354 0.05121129
-0.24173078 -0.35484302 0.051211514
-0.24192819 -0.35490334 0.051232517
-0.24210671 -0.35496777 0.051157523
-0.24227765 -0.3550275 0.051104568
-0.24246281 -0.35508284 0.051136065
-0.24264394 -0.35514578 0.051083058
-0.24283022 -0.35520342 0.051096018
-0.24302046 -0.35526195 0.051112443
-0.24320333 -0.35531864 0.051124264
-0.243377 -0.35538495 0.051016871
-0.24355887 -0.35544473 0.050996285
-0.24372734 -0.3555105 0.050878499
-0.24392915 -0.35555878 0.051026851
-0.24409488 -0.35562563 0.050890561
-0.24427569 -0.3556858 0.050863024
-0.24447219 -0.35573936 0.050945405
-0.24468173 -0.35579523 0.051045097
-0.2448646 -0.35585973 0.050982811
-0.24503697 -0.35592589 0.050873116
-0.24524972 -0.35597837 0.051014468
-0.24544954 -0.3560386 0.051043574
-0.24560408 -0.35610664 0.050862186
-0.24578695 -0.35616612 0.050847374
-0.24596511 -0.35622266 0.050846484
-0.24613729 -0.35628375 0.050784256
-0.24633385 -0.35634062 0.050835378
-0.24651174 -0.35640424 0.050766181
-0.24671014 -0.35646293 0.05080571
-0.24688652 -0.35652474 0.050749257
-0.24706952 -0.35658425 0.050734449
-0.24724504 -0.35663959 0.050737042
-0.24743253 -0.35670212 0.050707161
-0.24762379 -0.35676122 0.050721262
-0.24780267 -0.35682431 0.050660159
-0.24798141 -0.3568809 0.050660428
-0.24816456 -0.35694048 0.05064562
-0.24834871 -0.35700402 0.050596062
-0.24853273 -0.35706544 0.0505662
-0.24871445 -0.35712335 0.050562982
-0.24890247 -0.35718152 0.050575934
-0.24909402 -0.35724086 0.050588869
-0.24927004 -0.35730255 0.050532416
-0.24945351 -0.35736418 0.050499082
-0.24965301 -0.35742342 0.05053629
-0.24983601 -0.35748321 0.050519172
-0.25001225 -0.35754278 0.050483555
-0.2502023 -0.35760272 0.05048608
-0.25038391 -0.35766289 0.050460856
-0.25057495 -0.35772264 0.050468013
-0.25077257 -0.35778278 0.050491333
-0.25094494 -0.35784528 0.050416369
-0.25112659 -0.35790741 0.050372627
-0.2513245 -0.35796374 0.050432999
-0.25149044 -0.35802579 0.050343022
-0.25167719 -0.35808674 0.050325874
-0.25186631 -0.35814527 0.050338831
-0.25205797 -0.35820705 0.050328605
-0.25223041 -0.35826752 0.050273325
-0.25240949 -0.35833016 0.050216857
-0.25260302 -0.35838792 0.050250631
-0.25281572 -0.35844356 0.050361872
-0.25297296 -0.35851261 0.050179306
-0.2531563 -0.35857078 0.050178397
-0.2533569 -0.35862735 0.050244547
-0.25354576 -0.35868812 0.050235499
-0.25371373 -0.35875469 0.050108451
-0.25388744 -0.35881481 0.050060112
-0.25409997 -0.35886943 0.050180629
-0.25429007 -0.35893181 0.050159991
-0.25447604 -0.35899496 0.050119702
-0.25467137 -0.35905644 0.050123349
-0.25485614 -0.35911641 0.050109699
-0.25504467 -0.35917744 0.050097182
-0.25522655 -0.35923794 0.050069638
-0.25539187 -0.35929784 0.049998183
-0.25557262 -0.35936019 0.04994981
-0.25576928 -0.3594183 0.049989358
-0.25595239 -0.35948032 0.049951389
-0.25616023 -0.35953686 0.050039507
-0.2563507 -0.35960108 0.050002657
-0.25653225 -0.35966012 0.049987856
-0.25668955 -0.35972112 0.049881708
