# .PCD v0.7 - Point Cloud Data file format
VERSION 0.7
FIELDS x y z
SIZE 4 4 4
TYPE F F F
COUNT 1 1 1
WIDTH 566
HEIGHT 1
VIEWPOINT 0 0 0 1 0 0 0
POINTS 566
DATA ascii
-0.22520827 -0.31808689 0.059242263
-0.22539797 -0.31811354 0.059191857
-0.2255857 -0.31813478 0.059179507
-0.22577995 -0.31814429 0.059258245
-0.2259613 -0.31816739 0.059227459
-0.22616073 -0.31819302 0.059192002
-0.22636834 -0.31822309 0.059129968
-0.22655226 -0.31824428 0.059115339
-0.226742 -0.31826165 0.059132963
-0.22694635 -0.31829408 0.05905135
-0.22712873 -0.31831035 0.05907131
-0.22732382 -0.31832153 0.059138507
-0.22752565 -0.31834537 0.059118032
-0.22772847 -0.31837368 0.059065249
-0.22791886 -0.31840968 0.058946781
-0.22811142 -0.318425 0.058981705
-0.22831173 -0.31844363 0.05899813
-0.22850274 -0.31846821 0.058963858
-0.22867782 -0.31846535 0.059118792
-0.2288681 -0.31850511 0.058972649
-0.22907512 -0.31854221 0.058858722
-0.22927834 -0.31855816 0.058897059
-0.22946142 -0.31858003 0.058876656
-0.22966246 -0.31860471 0.058849253
-0.22985893 -0.31862247 0.058869161
-0.23004869 -0.31864268 0.058866024
-0.23023811 -0.31866035 0.05888135
-0.23045905 -0.31867468 0.058944978
-0.23068558 -0.31867155 0.059141211
-0.23087741 -0.31867182 0.059285693
-0.23105857 -0.31866771 0.059454441
-0.23125495 -0.31867161 0.059575841
-0.23145469 -0.31866646 0.059766419
-0.23165168 -0.31866854 0.059901651
-0.23184532 -0.31866762 0.060056508
-0.23203553 -0.31866002 0.060257509
-0.23223729 -0.31866339 0.060386956
-0.23243567 -0.31865808 0.060577549
-0.23263094 -0.3186534 0.060761224
-0.23282668 -0.31864861 0.060946051
-0.17964567 -0.31282774 0.062984459
-0.17989586 -0.31286386 0.062910743
-0.18013293 -0.31289357 0.062873974
-0.18034476 -0.31291074 0.062909961
-0.18057105 -0.31293526 0.062903211
-0.18083435 -0.31297857 0.06278678
-0.18104832 -0.31299707 0.062814683
-0.18126102 -0.31301495 0.06284605
-0.18148713 -0.31303975 0.062837012
-0.18174498 -0.31308094 0.062732123
-0.1819659 -0.31310332 0.062736943
-0.18219312 -0.31312901 0.062722124
-0.18240717 -0.31314799 0.062746562
-0.18264948 -0.31318173 0.062684409
-0.18288085 -0.31320989 0.062654585
-0.18309207 -0.31322765 0.062685959
-0.18332335 -0.31325597 0.062654987
-0.18353985 -0.31327662 0.062669039
-0.18374509 -0.31329137 0.062717728
-0.18398191 -0.31332469 0.062654451
-0.18420821 -0.31334904 0.062648855
-0.18444774 -0.3133823 0.062587872
-0.18467852 -0.31341106 0.062553436
-0.18489133 -0.31343022 0.062575579
-0.18512343 -0.3134599 0.062535375
-0.18535164 -0.31348759 0.062506728
-0.18559778 -0.31352517 0.062419191
-0.18582183 -0.31355086 0.062402081
-0.18602093 -0.31356293 0.062465783
-0.18626045 -0.31359732 0.062396728
-0.18648103 -0.31362137 0.06238886
-0.18671781 -0.31365451 0.062326722
-0.1869116 -0.31366932 0.062366247
-0.18709046 -0.31368133 0.062415056
-0.18735933 -0.31371626 0.062364317
-0.18758543 -0.31374389 0.062334515
-0.18779907 -0.31376645 0.062332444
-0.18803315 -0.31379884 0.062273778
-0.18825239 -0.31382293 0.062264763
-0.18847546 -0.3138493 0.06224189
-0.18868962 -0.31387064 0.062249042
-0.1889189 -0.3139008 0.062203083
-0.18914855 -0.31393132 0.062154822
-0.1893529 -0.31394723 0.062194292
-0.18956928 -0.31397024 0.062191058
-0.18981609 -0.31401119 0.062079303
-0.19001871 -0.3140263 0.062123396
-0.19024287 -0.31405419 0.062090144
-0.19045779 -0.31407672 0.06208922
-0.19067191 -0.31409883 0.062090598
-0.19083314 -0.31410506 0.062168308
-0.19114575 -0.31417084 0.061924838
-0.19134754 -0.31418586 0.061968926
-0.19153866 -0.31419441 0.062052272
-0.19176406 -0.31422386 0.062008638
-0.19198917 -0.31425327 0.061965004
-0.19221123 -0.31428096 0.06193177
-0.19242263 -0.31430215 0.061937775
-0.1926336 -0.31432319 0.061944928
-0.19285986 -0.31435379 0.061893225
-0.19307318 -0.31437647 0.061889999
-0.19328874 -0.31440064 0.061877541
-0.19350024 -0.31442234 0.061880082
-0.19372728 -0.31445399 0.061821457
-0.19395372 -0.31448543 0.061763987
-0.19417164 -0.3145116 0.061738834
-0.19439256 -0.31453976 0.061700985
-0.19460309 -0.31456137 0.061703537
-0.19481057 -0.31458107 0.061717622
-0.19502197 -0.31460339 0.061715558
-0.19523607 -0.31462756 0.061701953
-0.19544801 -0.31465039 0.061696425
-0.19565696 -0.31467137 0.061702445
-0.19588119 -0.31470257 0.061644979
-0.19608451 -0.31471995 0.061672926
-0.19631216 -0.31475371 0.061599307
-0.19652265 -0.31477609 0.061596096
-0.1967442 -0.31480607 0.061545566
-0.19694135 -0.31481731 0.061613891
-0.19716142 -0.31484649 0.06156797
-0.1973756 -0.31487179 0.061546292
-0.19759119 -0.31489813 0.061517693
-0.19778717 -0.31491098 0.061573341
-0.19801193 -0.31494397 0.061503202
-0.19817805 -0.31495902 0.061519772
-0.19845301 -0.31500688 0.061379079
-0.19864963 -0.31502277 0.061412811
-0.19885984 -0.31503898 0.061454568
-0.19907153 -0.31506336 0.061437521
-0.19929652 -0.31509748 0.061359294
-0.19950625 -0.31512073 0.061349168
-0.19971256 -0.31514156 0.061354045
-0.19991651 -0.31516075 0.061369307
-0.2001293 -0.3151865 0.061343022
-0.20036077 -0.31522381 0.061246321
-0.20056941 -0.31524679 0.061237354
-0.20076619 -0.31526098 0.061283775
-0.2009775 -0.3152861 0.061260957
-0.20118837 -0.31530851 0.061257739
-0.20140482 -0.31533781 0.061208382
-0.20160508 -0.31535989 0.061199453
-0.20182449 -0.31538668 0.061170824
-0.20203729 -0.31541103 0.061154924
-0.20224147 -0.31543133 0.061162118
-0.20245016 -0.31545523 0.061146222
-0.20266557 -0.31548458 0.061095715
-0.20287019 -0.31550288 0.061117887
-0.20308112 -0.31552893 0.06108816
-0.20324847 -0.31554395 0.061105885
-0.20348589 -0.3155756 0.06105528
-0.20367981 -0.31559622 0.061052144
-0.20386387 -0.3156251 0.060981013
-0.20412283 -0.31565872 0.060932621
-0.20433451 -0.31567523 0.06097322
-0.20452467 -0.31569311 0.060987391
-0.20475103 -0.31572205 0.060948357
-0.20495889 -0.31574664 0.060926709
-0.20516531 -0.31577018 0.060911983
-0.20531105 -0.31577304 0.061002441
-0.20552076 -0.31580806 0.060905844
-0.20579356 -0.31584924 0.060812421
-0.20597509 -0.31586307 0.060849689
-0.20615804 -0.31587234 0.060921535
-0.20635471 -0.31590837 0.060807697
-0.20658317 -0.31595525 0.060638376
-0.20680377 -0.31595984 0.060773477
-0.20700514 -0.31597984 0.060780682
-0.2072303 -0.31600344 0.060779713
-0.20742698 -0.31602234 0.060791533
-0.20758955 -0.3160466 0.060737796
-0.20785825 -0.31608939 0.06062942
-0.20805892 -0.31610301 0.060682736
-0.20824224 -0.31612223 0.060681947
-0.20843425 -0.31614345 0.060673047
-0.20865078 -0.31616914 0.060650207
-0.20888573 -0.3161999 0.06060423
-0.20908763 -0.31622139 0.060601056
-0.20928235 -0.31624573 0.060571387
-0.20946752 -0.31626403 0.060578659
-0.20966433 -0.31628072 0.060606636
-0.20987979 -0.31630945 0.060560744
-0.21011999 -0.31634659 0.060472071
-0.21029019 -0.31636363 0.060477104
-0.21048175 -0.31637523 0.060538538
-0.21072923 -0.31641358 0.060446389
-0.21091391 -0.31642854 0.060477875
-0.21112533 -0.31645054 0.060478114
-0.21133569 -0.31648219 0.060406875
-0.21151507 -0.31649879 0.060422242
-0.21173166 -0.3165158 0.060462818
-0.21192928 -0.3165414 0.060426217
-0.21214548 -0.31657287 0.060360722
-0.21232469 -0.31658584 0.060402606
-0.21253926 -0.31660455 0.060429357
-0.21274771 -0.31663159 0.060390413
-0.212947 -0.31665215 0.060391851
-0.21315169 -0.31667519 0.060379438
-0.21335366 -0.3167069 0.060301319
-0.21355525 -0.31673053 0.060282007
-0.21376315 -0.31675783 0.060240753
-0.2139466 -0.31678021 0.060216896
-0.21416903 -0.31680918 0.060174435
-0.21437824 -0.31683457 0.060148161
-0.21458411 -0.31686431 0.060087316
-0.2147761 -0.31687281 0.060171813
-0.21498428 -0.3169058 0.060089055
-0.2151763 -0.31691852 0.060142413
-0.21537478 -0.3169395 0.060140401
-0.21558145 -0.3169668 0.060098007
-0.21578777 -0.31699833 0.060024474
-0.21599153 -0.31702676 0.059971716
-0.21617037 -0.31703106 0.060077019
-0.2163306 -0.31705114 0.060052112
-0.21656114 -0.31708428 0.059985396
-0.21677148 -0.31710851 0.059968352
-0.21695381 -0.31712684 0.059973329
-0.21715951 -0.31715438 0.05992863
-0.21734203 -0.31716833 0.05996589
-0.21755402 -0.31720534 0.05985659
-0.21774611 -0.31721351 0.059943393
-0.21796028 -0.31724429 0.059881363
-0.21815474 -0.31725588 0.059945084
-0.21832407 -0.31728604 0.059853267
-0.21854639 -0.3173092 0.059853464
-0.21875782 -0.31733134 0.059852555
-0.21893455 -0.31735253 0.059832186
-0.2191374 -0.31737757 0.059803639
-0.21934085 -0.31741494 0.059685159
-0.21956575 -0.31742626 0.059774123
-0.21972971 -0.3174381 0.059812613
-0.2199568 -0.31747603 0.059707865
-0.22017026 -0.31749684 0.059718482
-0.22036906 -0.31751594 0.059730306
-0.22054939 -0.3175388 0.059700705
-0.22073913 -0.31756026 0.059688348
-0.22092988 -0.31758371 0.059662163
-0.22114748 -0.31760636 0.059662372
-0.22132295 -0.31762066 0.059691601
-0.22151585 -0.31765532 0.059584688
-0.22174859 -0.31768131 0.05957216
-0.2219269 -0.31769463 0.05961059
-0.2221214 -0.31771991 0.059574004
-0.22231151 -0.31774345 0.059546672
-0.22250473 -0.31776652 0.059525084
-0.22270525 -0.31779069 0.059501156
-0.2229012 -0.31781265 0.059489932
-0.22310549 -0.31783798 0.05946023
-0.22331624 -0.3178626 0.059440866
-0.22350655 -0.31788003 0.059458498
-0.2236975 -0.31789893 0.059465747
-0.22389294 -0.3179372 0.059334613
-0.22408397 -0.31794825 0.059399512
-0.22427306 -0.31796288 0.059436746
-0.22449303 -0.31799459 0.059372384
-0.22468078 -0.31801489 0.059366953
-0.22486849 -0.31803522 0.05936154
-0.22508758 -0.31807545 0.05923377
-0.22527955 -0.31808883 0.059282515
-0.225457 -0.31811026 0.059260994
-0.22564763 -0.31812975 0.059263628
-0.22584273 -0.3181524 0.059246652
-0.22603996 -0.31817102 0.059260782
-0.22624043 -0.31820023 0.05919997
-0.2264331 -0.31821555 0.05923488
-0.22662382 -0.31823602 0.059230596
-0.22682795 -0.31826717 0.059158236
-0.22702828 -0.31828502 0.059180427
-0.22721201 -0.31830615 0.059165798
-0.2274154 -0.31833613 0.059101507
-0.22762024 -0.31835854 0.059093703
-0.22779685 -0.31838018 0.059069887
-0.22799282 -0.31839475 0.059112851
-0.2281975 -0.31841683 0.059107356
-0.22840266 -0.31844148 0.05908341
-0.22857848 -0.31846023 0.059080347
-0.2287595 -0.31846946 0.059151053
-0.22895691 -0.31851041 0.059001461
-0.22917092 -0.31854796 0.058889851
-0.2293631 -0.31856102 0.05894091
-0.22955605 -0.31857842 0.058960825
-0.2297461 -0.31860021 0.058946177
-0.22993891 -0.31861633 0.058975324
-0.23013717 -0.31864798 0.058894906
-0.23032331 -0.3186681 0.058889493
-0.23051998 -0.31868762 0.05889672
-0.23070385 -0.31872168 0.05878754
-0.23090343 -0.31873584 0.058836263
-0.23109679 -0.31875989 0.058807757
-0.23134582 -0.31876758 0.05894158
-0.23154449 -0.31875807 0.059163246
-0.23173676 -0.31875226 0.059352659
-0.23192967 -0.3187508 0.059510935
-0.23211934 -0.31874725 0.059681915
-0.23232029 -0.31874883 0.059824016
-0.23251081 -0.31874898 0.059968472
-0.2327089 -0.31874192 0.060171701
-0.23290749 -0.31873867 0.060347252
-0.23310295 -0.31873336 0.060535491
-0.23329884 -0.31872907 0.060716819
-0.23349482 -0.3187345 0.060826667
-0.23369505 -0.31873333 0.060988374
-0.17972034 -0.31283849 0.062962666
-0.17995802 -0.31286842 0.062924787
-0.18020089 -0.31290111 0.062870756
-0.18041541 -0.31291965 0.062898695
-0.18064415 -0.31294379 0.062896602
-0.18089199 -0.31297934 0.062825255
-0.18111996 -0.31300494 0.062811635
-0.18132673 -0.31301987 0.062860355
-0.18155032 -0.31304172 0.062870964
-0.18180573 -0.31308168 0.062773071
-0.18202354 -0.31310245 0.062787168
-0.1822629 -0.31313446 0.062735453
-0.18249655 -0.31316194 0.062712587
-0.18275149 -0.31320232 0.062611245
-0.18295556 -0.31321633 0.062664583
-0.18317905 -0.31324053 0.062657908
-0.18339747 -0.31326216 0.06266623
-0.18361944 -0.31328574 0.062663004
-0.18386155 -0.31331834 0.06260898
-0.18407239 -0.31333619 0.062639236
-0.18421119 -0.3133314 0.062780462
-0.18451886 -0.31338534 0.062620103
-0.18476634 -0.31342131 0.0625453
-0.18500066 -0.31345215 0.062498227
-0.18520916 -0.31346914 0.062533103
-0.18541983 -0.3134909 0.062534541
-0.18567303 -0.31352702 0.062463179
-0.18588106 -0.31354395 0.062498055
-0.18609995 -0.31356689 0.06249715
-0.18633761 -0.31360027 0.062433921
-0.18657055 -0.31362942 0.062398382
-0.18678215 -0.31364858 0.062419407
-0.18700226 -0.3136726 0.06241158
-0.18723628 -0.31370452 0.062356442
-0.18744831 -0.31372234 0.062387846
-0.18766782 -0.31374627 0.06238002
-0.1878925 -0.3137714 0.062367566
-0.1881332 -0.31380761 0.062285881
-0.18835536 -0.31383342 0.062266521
-0.188592 -0.31386763 0.062196374
-0.18879965 -0.31388342 0.062239334
-0.18902479 -0.31391126 0.062207274
-0.18924108 -0.31393409 0.062205233
-0.18945983 -0.31395844 0.062193949
-0.1896853 -0.31398487 0.062172275
-0.18991046 -0.31401318 0.062136754
-0.19013996 -0.31404227 0.062098924
-0.19035363 -0.31406403 0.062102661
-0.19056237 -0.31408292 0.062123697
-0.19079962 -0.31411895 0.062040877
-0.19101608 -0.31414068 0.0620469
-0.19123566 -0.31416637 0.062026404
-0.19146432 -0.31419566 0.06198626
-0.19168872 -0.31422454 0.061946139
-0.19188498 -0.31423628 0.062009893
-0.19210836 -0.31426471 0.061972074
-0.1923379 -0.31429508 0.06192502
-0.19254369 -0.31431285 0.061951838
-0.19276303 -0.3143371 0.061941717
-0.19297101 -0.31435639 0.061959304
-0.19320412 -0.31438947 0.061894931
-0.1934267 -0.31441814 0.061854828
-0.1936217 -0.31442943 0.061920885
-0.19382852 -0.3144483 0.061940782
-0.19407266 -0.31448895 0.061829105
-0.19429024 -0.31451491 0.061805159
-0.19449757 -0.31453222 0.061836578
-0.19471794 -0.3145602 0.061799929
-0.19494353 -0.31459168 0.06174136
-0.19516282 -0.31461921 0.061707027
-0.1953727 -0.31463856 0.061725765
-0.19559242 -0.3146666 0.061687969
-0.19581382 -0.31469372 0.061658237
-0.19602998 -0.31471968 0.061633132
-0.19623345 -0.31473723 0.061659962
-0.19645202 -0.31476501 0.06162332
-0.19665065 -0.3147772 0.061685905
-0.19686915 -0.31480512 0.061648116
-0.19703476 -0.31481272 0.061718911
-0.19731197 -0.31486315 0.061560988
-0.19751903 -0.31488359 0.061569355
-0.1977382 -0.31491253 0.061524644
-0.19793637 -0.31492466 0.061587229
-0.19815886 -0.31495613 0.061526373
-0.19837993 -0.31498447 0.061487414
-0.19859169 -0.31500873 0.061471559
-0.19881853 -0.31504381 0.061387625
-0.19902423 -0.31506395 0.06139715
-0.19924462 -0.31509238 0.061357044
-0.19945332 -0.31511489 0.061351575
-0.19965458 -0.31513205 0.061379571
-0.1998588 -0.31515139 0.061393712
-0.20007944 -0.31518048 0.061348997
-0.20028412 -0.31520036 0.061359677
-0.20050582 -0.31523052 0.061308041
-0.20072487 -0.31526133 0.061249502
-0.2009303 -0.31528208 0.061254419
-0.20113179 -0.3152999 0.061277799
-0.20134157 -0.31532156 0.061279237
-0.20155762 -0.31535065 0.061231084
-0.20178051 -0.31538516 0.061148316
-0.20198408 -0.31540492 0.061159004
-0.20217666 -0.31542131 0.061185874
-0.20236184 -0.31544229 0.061173588
-0.20260374 -0.31546906 0.061162211
-0.20281991 -0.3154991 0.06110714
-0.20302352 -0.31551668 0.061133966
-0.20323409 -0.31554252 0.06110543
-0.20344938 -0.31557229 0.061051525
-0.20365177 -0.31559178 0.061063364
-0.20385575 -0.31561804 0.061026782
-0.20407431 -0.3156428 0.061012052
-0.20427796 -0.31566086 0.061035424
-0.20449439 -0.31569234 0.060969979
-0.20469192 -0.31571651 0.060943805
-0.20489579 -0.31572938 0.061005216
-0.20511198 -0.31575832 0.06095821
-0.20532666 -0.31578898 0.06089738
-0.20553049 -0.3158105 0.060895387
-0.20573318 -0.31583109 0.060899161
-0.20592952 -0.31584334 0.060959451
-0.20610672 -0.31587952 0.06082961
-0.20635679 -0.31590715 0.060818203
-0.20653979 -0.31592539 0.060824357
-0.20670605 -0.31593165 0.060905524
-0.20691586 -0.31596509 0.060820512
-0.20718028 -0.31600019 0.060765237
-0.20736301 -0.31601244 0.0608152
-0.20759094 -0.31604794 0.060728952
-0.20778103 -0.31606707 0.060733937
-0.20797512 -0.31608379 0.060759656
-0.20814353 -0.3160983 0.060782015
-0.20840865 -0.31614777 0.060621843
-0.20860362 -0.31615925 0.060686741
-0.20881546 -0.3161805 0.060692791
-0.20901141 -0.31620905 0.06063319
-0.20922729 -0.3162345 0.060611546
-0.20942664 -0.31624708 0.060671825
-0.20962638 -0.3162666 0.06068138
-0.20985699 -0.3163071 0.060560532
-0.21005356 -0.31632707 0.060564339
-0.21026266 -0.31635305 0.060533497
-0.21046837 -0.31637919 0.060499221
-0.21066242 -0.31640029 0.060492657
-0.2108729 -0.31642473 0.060474504
-0.21105245 -0.31644133 0.060489897
-0.21123716 -0.31645989 0.060494903
-0.21143086 -0.31648099 0.06048834
-0.21167828 -0.31650957 0.06046772
-0.21186364 -0.3165364 0.060412779
-0.2120575 -0.31655434 0.060429275
-0.21227577 -0.31658083 0.060401849
-0.21250036 -0.31661081 0.060353659
-0.21270195 -0.316634 0.060337845
-0.21289067 -0.31664261 0.060418922
-0.21309935 -0.31667405 0.060347743
-0.21329679 -0.31669664 0.060333095
-0.21349913 -0.31672508 0.060279228
-0.21368633 -0.3167398 0.060314193
-0.21384177 -0.31674069 0.060426529
-0.21408571 -0.31678715 0.060272202
-0.2142846 -0.31680393 0.060301349
-0.21450856 -0.31684327 0.060184002
-0.21469079 -0.31686047 0.060197085
-0.21488988 -0.31688195 0.060191646
-0.21508166 -0.31690708 0.060153969
-0.21530184 -0.31693426 0.060123093
-0.21551594 -0.3169581 0.060111832
-0.21570882 -0.31698084 0.060092591
-0.21590662 -0.31700122 0.060094088
-0.21608149 -0.31702271 0.060070306
-0.21630315 -0.31703445 0.060153544
-0.21650878 -0.31706575 0.060081225
-0.21669327 -0.31709152 0.060033206
-0.21686967 -0.31711096 0.06002555
-0.21705733 -0.31713203 0.060014412
-0.21726733 -0.31715608 0.05999855
-0.21746011 -0.31717992 0.059971251
-0.21767056 -0.31720495 0.059948482
-0.21787918 -0.31722742 0.059943009
-0.21808243 -0.31725219 0.059916809
-0.21826884 -0.31727219 0.059912585
-0.21846548 -0.31729233 0.05991523
-0.21864843 -0.31730711 0.059946753
-0.21888466 -0.31735229 0.059795916
-0.21906385 -0.31735581 0.059906993
-0.21926478 -0.31738883 0.059818558
-0.21945187 -0.31739947 0.059883494
-0.21965666 -0.31743947 0.059746623
-0.2198686 -0.31745759 0.059775714
-0.22005509 -0.31747887 0.059762273
-0.2202585 -0.31750602 0.05971878
-0.22044003 -0.31752485 0.059719183
-0.220654 -0.31754681 0.05972176
-0.2208446 -0.31756994 0.059697919
-0.22104022 -0.3175835 0.059747834
-0.22124998 -0.31761068 0.059708931
-0.22145414 -0.31764057 0.059645839
-0.221642 -0.31767252 0.059555151
-0.22185276 -0.31770277 0.059494331
-0.22205843 -0.31770924 0.059604146
-0.22223875 -0.31773379 0.059561901
-0.22244433 -0.31775391 0.059571438
-0.22262309 -0.31777564 0.059548795
-0.22281185 -0.31779683 0.059537642
-0.22301251 -0.31782162 0.059509143
-0.22320713 -0.31784862 0.059459932
-0.22339416 -0.31787434 0.0594142
-0.22360325 -0.31788746 0.059477899
-0.22379668 -0.31790411 0.059503611
-0.22399242 -0.31794333 0.059365619
-0.22420879 -0.31795719 0.059429288
-0.22439985 -0.31797692 0.059430808
-0.22458193 -0.31799129 0.059464633
-0.22478427 -0.3180227 0.059388872
-0.2249586 -0.31804442 0.059362795
-0.2251713 -0.31806701 0.059359606
-0.22539105 -0.31807998 0.059432488
-0.22559091 -0.31810582 0.059395932
-0.22574738 -0.31813747 0.05928345
-0.22594796 -0.31815565 0.059303377
-0.22614053 -0.31818163 0.059259929
-0.22633471 -0.31820184 0.05926029
-0.22652677 -0.31822681 0.059223764
-0.22673951 -0.31825149 0.059205592
-0.22692199 -0.31826776 0.059225589
-0.22710316 -0.31829226 0.059184492
-0.22730404 -0.3182987 0.059290878
-0.22750361 -0.31832716 0.059234716
-0.22769912 -0.31835392 0.0591878
-0.22789782 -0.31838009 0.05914779
-0.22806841 -0.31839058 0.059201263
-0.22827832 -0.31842059 0.05914161
-0.22846563 -0.31844383 0.059114322
-0.2286541 -0.3184554 0.059173487
-0.22884658 -0.31848815 0.059080474
-0.22904128 -0.31851485 0.059033558
-0.22922866 -0.31854075 0.058986679
-0.22943991 -0.31858522 0.05882211
-0.22963366 -0.3185854 0.058968864
-0.22983366 -0.31860274 0.058994554
-0.23002012 -0.3186245 0.058977656
-0.2302133 -0.31864378 0.058983773
-0.23040999 -0.31866282 0.058994487
-0.23060754 -0.3186903 0.058944106
-0.23079792 -0.31871858 0.058882222
-0.2309909 -0.31873754 0.058890648
-0.23119128 -0.31876042 0.058875985
-0.23137763 -0.31878719 0.058822189
-0.2315743 -0.31881046 0.058801785
-0.23176385 -0.31883505 0.058766417
-0.23194925 -0.31884536 0.058832519
-0.23216702 -0.31886077 0.058885805
-0.23239195 -0.31886643 0.059016299
-0.23259217 -0.31885958 0.059219517
-0.2327857 -0.31885755 0.059382416
-0.23297966 -0.3188557 0.059544157
-0.2331561 -0.31884983 0.059722118
-0.23337227 -0.31885567 0.059844576
-0.23356773 -0.31884736 0.060054731
-0.23376361 -0.31884134 0.060248755
-0.23395938 -0.31884456 0.060374752
-0.2341591 -0.31884804 0.060501896
-0.23435697 -0.31883404 0.060755845
-0.23455426 -0.31883332 0.060911819
