# .PCD v0.7 - Point Cloud Data file format
VERSION 0.7
FIELDS x y z
SIZE 4 4 4
TYPE F F F
COUNT 1 1 1
WIDTH 1312
HEIGHT 1
VIEWPOINT 0 0 0 1 0 0 0
POINTS 1312
DATA ascii
-0.36833006 -0.25202546 0.057117969
-0.36852056 -0.25200638 0.057082444
-0.36872897 -0.25197342 0.057135664
-0.36893043 -0.25195512 0.057083935
-0.36912823 -0.25193727 0.05703222
-0.36932382 -0.25190905 0.057061277
-0.36951238 -0.25188947 0.05703152
-0.36971444 -0.25186306 0.057040937
-0.36991435 -0.25183812 0.057041127
-0.37010044 -0.25182217 0.056986012
-0.37030309 -0.2517975 0.056981571
-0.37051696 -0.25176764 0.05700592
-0.37069753 -0.25175527 0.056928918
-0.37091169 -0.25171778 0.057010952
-0.37108964 -0.25170708 0.056923572
-0.37128463 -0.25168565 0.056901865
-0.37148693 -0.25166526 0.056865122
-0.37168929 -0.25163743 0.056884915
-0.37187529 -0.25161803 0.056856334
-0.37209666 -0.25159329 0.0568345
-0.37226948 -0.25157657 0.05679791
-0.37246558 -0.25155285 0.056792349
-0.37266552 -0.2515305 0.056772932
-0.37286529 -0.25150466 0.056780048
-0.3730551 -0.25148675 0.056736443
-0.37326643 -0.25145766 0.056757346
-0.37346578 -0.25143051 0.056774843
-0.37366223 -0.25141403 0.056713905
-0.37383726 -0.25140327 0.056630008
-0.37404579 -0.25137785 0.056625538
-0.37428683 -0.25133854 0.056695905
-0.37447244 -0.25131112 0.056728467
-0.3746542 -0.25129649 0.056667604
-0.37485424 -0.25127807 0.056618191
-0.37505731 -0.25125274 0.056618366
-0.37526721 -0.25123033 0.05658967
-0.37546578 -0.25120601 0.0565864
-0.37566715 -0.25118864 0.056527749
-0.37588158 -0.25115871 0.056552097
-0.37606871 -0.25114447 0.056483131
-0.37626979 -0.25111726 0.05649947
-0.37644979 -0.25109872 0.056469768
-0.37664938 -0.25107914 0.056429576
-0.37686568 -0.25105017 0.056444693
-0.37707561 -0.25102323 0.056450598
-0.37725988 -0.25100085 0.056446258
-0.37744817 -0.25098282 0.056404971
-0.37762907 -0.25096887 0.056339487
-0.37783372 -0.25094184 0.0563512
-0.37806481 -0.2509068 0.056398541
-0.37823331 -0.25089654 0.056316972
-0.37843803 -0.25087449 0.056290612
-0.37865236 -0.25084245 0.056331109
-0.37885353 -0.25082403 0.056280531
-0.37904611 -0.25080076 0.056274988
-0.37927511 -0.25077373 0.056263503
-0.3794927 -0.25074658 0.056263611
-0.37967122 -0.25072476 0.056260444
-0.37984058 -0.25071877 0.056145422
-0.38006145 -0.25068229 0.056213573
-0.38025445 -0.25066534 0.056159571
-0.38046464 -0.25063622 0.056181639
-0.38067073 -0.25061554 0.056143731
-0.38088635 -0.25058681 0.05615769
-0.3810938 -0.25056398 0.056134775
-0.38128603 -0.25053999 0.056135003
-0.3814972 -0.25051531 0.056122452
-0.38169897 -0.25049105 0.056115706
-0.38192543 -0.25046617 0.0560904
-0.38208073 -0.25045237 0.05604811
-0.38228303 -0.25043398 0.055996377
-0.3824752 -0.25041926 0.055926237
-0.38268149 -0.25039291 0.055931013
-0.38291243 -0.2503556 0.055995654
-0.38309211 -0.25034291 0.055922113
-0.38329241 -0.25031686 0.055930376
-0.38352045 -0.25028279 0.05597312
-0.38369492 -0.25027421 0.055873066
-0.38393494 -0.2502358 0.055937674
-0.38413447 -0.25021622 0.055897482
-0.2764824 -0.26249135 0.064579844
-0.27672973 -0.26246887 0.064516328
-0.27697867 -0.26244545 0.064458579
-0.2771489 -0.26242161 0.064478517
-0.27742305 -0.26238805 0.064473726
-0.27762911 -0.26235643 0.064518869
-0.27789432 -0.26233873 0.064402193
-0.27812862 -0.26231393 0.064368747
-0.27835751 -0.26228645 0.064360708
-0.27856246 -0.26225483 0.064407021
-0.2788026 -0.26223022 0.064366624
-0.27902591 -0.26220313 0.064360917
-0.27928779 -0.26218402 0.064258099
-0.27951339 -0.26215771 0.064244315
-0.27971911 -0.26212507 0.064297542
-0.27996963 -0.26210508 0.064212091
-0.28019902 -0.26207846 0.064197131
-0.28038082 -0.26204148 0.064305857
-0.28063244 -0.26202062 0.06422618
-0.28086713 -0.26199713 0.064182341
-0.28112555 -0.2619783 0.064080693
-0.28133446 -0.26194847 0.064109676
-0.28156161 -0.26192179 0.064097032
-0.28179905 -0.2618995 0.064041644
-0.28204215 -0.26187727 0.06398046
-0.28224409 -0.26184583 0.064027943
-0.28246015 -0.26181662 0.064045355
-0.28266466 -0.26178592 0.064084746
-0.2828986 -0.26176164 0.064047836
-0.28313667 -0.26174018 0.063985519
-0.28336543 -0.2617147 0.063962482
-0.28358856 -0.26168779 0.06395562
-0.28382629 -0.26166499 0.063903697
-0.28403702 -0.26163641 0.063921131
-0.28425542 -0.26160842 0.063926995
-0.28450668 -0.2615914 0.063818462
-0.28472155 -0.26156262 0.063833565
-0.28495237 -0.26154009 0.063786291
-0.28516027 -0.26150945 0.063822202
-0.28538102 -0.26148421 0.063804977
-0.28558537 -0.26145262 0.063851297
-0.28582764 -0.26143381 0.063764729
-0.28604299 -0.26140559 0.063775219
-0.28625059 -0.26137683 0.063797288
-0.28646749 -0.26134917 0.063801996
-0.2867153 -0.26133257 0.063693479
-0.28693917 -0.26130724 0.063673928
-0.28714472 -0.26128659 0.063635997
-0.28737566 -0.26125342 0.063669495
-0.28760302 -0.26123112 0.063623384
-0.28783685 -0.26120928 0.063568018
-0.28803197 -0.26117718 0.063627072
-0.28826222 -0.26115441 0.063582107
-0.28846788 -0.26112571 0.063605331
-0.2887165 -0.26110902 0.063496813
-0.28889322 -0.26107997 0.063550182
-0.28913534 -0.26105267 0.063528232
-0.28935936 -0.2610302 0.063486762
-0.28959006 -0.26100829 0.063434869
-0.28979108 -0.26097849 0.063470818
-0.28999665 -0.26094845 0.063504428
-0.29022172 -0.26092494 0.063469872
-0.290463 -0.26090702 0.063377544
-0.29067767 -0.26088208 0.063363805
-0.29087153 -0.26084831 0.063436709
-0.29109764 -0.26082742 0.063381374
-0.29132086 -0.26080385 0.063349128
-0.29154059 -0.26078099 0.063314594
-0.29174671 -0.26075163 0.063342445
-0.29196835 -0.26072779 0.063313678
-0.2921837 -0.26070186 0.063306861
-0.29236668 -0.26066625 0.063404039
-0.29263079 -0.26065797 0.063216984
-0.29284418 -0.26063347 0.063200951
-0.29306594 -0.26061022 0.063167565
-0.29326704 -0.26057953 0.06321042
-0.29348904 -0.26055655 0.063174725
-0.29370785 -0.26053444 0.063135587
-0.29392204 -0.26050878 0.063127622
-0.2941325 -0.26048374 0.063118517
-0.29433948 -0.26045549 0.063137136
-0.29455507 -0.26043257 0.063107237
-0.29476863 -0.260407 0.06309928
-0.29500097 -0.26038882 0.063017368
-0.29522854 -0.26036894 0.062952802
-0.29542413 -0.2603386 0.062997997
-0.29564744 -0.2603173 0.06294845
-0.29585302 -0.26029104 0.062953219
-0.29605743 -0.26026237 0.062977612
-0.29627857 -0.26024255 0.062918842
-0.29649386 -0.26021841 0.062898174
-0.29670835 -0.26019409 0.062879831
-0.29692522 -0.26017085 0.062851079
-0.29713193 -0.26014555 0.062847756
-0.29734367 -0.26012033 0.062838651
-0.29755065 -0.26009527 0.062833034
-0.29775852 -0.2600686 0.062838949
-0.29796717 -0.2600444 0.06282524
-0.2981835 -0.26002151 0.062794179
-0.29840341 -0.26000243 0.062730804
-0.29860988 -0.25997546 0.062740184
-0.29881167 -0.25994864 0.062753052
-0.29902339 -0.25992846 0.06270586
-0.29924423 -0.25990382 0.062684014
-0.29944599 -0.259875 0.06271188
-0.29965359 -0.25985107 0.062697023
-0.2998721 -0.25983006 0.062649801
-0.3000778 -0.25980544 0.062641874
-0.30029559 -0.25978437 0.062595822
-0.30049792 -0.25975835 0.06260176
-0.30071101 -0.25973529 0.06257534
-0.30091837 -0.25971186 0.062557012
-0.30113837 -0.25969231 0.062497098
-0.30132776 -0.25965804 0.062578112
-0.3015427 -0.25963625 0.062540136
-0.30175486 -0.25961557 0.062496409
-0.30196232 -0.2595903 0.062491931
-0.302165 -0.25957215 0.062437877
-0.30236 -0.25953841 0.062509619
-0.30257946 -0.2595171 0.062463544
-0.30278853 -0.25949302 0.062448684
-0.30299655 -0.25947085 0.062419973
-0.30319852 -0.25944567 0.062420152
-0.30341783 -0.25942728 0.062352162
-0.30362302 -0.25940153 0.062353469
-0.30383453 -0.25937927 0.062322434
-0.30403444 -0.25935081 0.062349163
-0.3042374 -0.25932655 0.06234125
-0.30445161 -0.25930607 0.062294051
-0.30465695 -0.25928333 0.06227228
-0.30484813 -0.25925022 0.062342897
-0.30509287 -0.25924736 0.062132843
-0.30526268 -0.25920215 0.062315486
-0.30547708 -0.25918499 0.062242903
-0.3056981 -0.25917187 0.062133364
-0.30591103 -0.25915426 0.0620654
-0.30610204 -0.25911859 0.062155627
-0.30630705 -0.2590965 0.06212924
-0.30651101 -0.2590712 0.062128253
-0.30672005 -0.25904909 0.062098391
-0.30692646 -0.25902545 0.06208238
-0.30712903 -0.25900233 0.062066402
-0.30733252 -0.25897709 0.062065408
-0.30753243 -0.25895244 0.06206328
-0.30773595 -0.25892738 0.062061135
-0.30795208 -0.25891045 0.061985083
-0.30815333 -0.2588841 0.061994493
-0.30834442 -0.25885403 0.06204202
-0.30855742 -0.25883552 0.061980985
-0.30876514 -0.2588166 0.061928049
-0.3089689 -0.25879225 0.061920129
-0.30917066 -0.25876662 0.061923765
-0.30936223 -0.25873405 0.061989766
-0.30957475 -0.25871894 0.061903335
-0.30977756 -0.25869426 0.061898887
-0.30998901 -0.25867882 0.061815936
-0.31018898 -0.25865236 0.061827652
-0.31039208 -0.25863126 0.061795503
-0.31059599 -0.2586078 0.061780669
-0.31079909 -0.25858384 0.061770454
-0.31099719 -0.25855622 0.061792571
-0.31120288 -0.25853756 0.061739638
-0.31140667 -0.2585144 0.061722495
-0.31161106 -0.25849181 0.061700732
-0.31181544 -0.25846934 0.061677814
-0.31201136 -0.25844368 0.061687246
-0.31221306 -0.25841928 0.061681651
-0.31241122 -0.25839213 0.061700299
-0.31261668 -0.25837091 0.061666988
-0.31278989 -0.25835094 0.061654605
-0.31298441 -0.25832787 0.061645582
-0.31318331 -0.25830853 0.061604224
-0.31341588 -0.25827545 0.061635409
-0.31357795 -0.25824988 0.061676156
-0.31380057 -0.25823337 0.061590843
-0.31396958 -0.25821027 0.061606172
-0.31418309 -0.25820082 0.061475895
-0.31438962 -0.25817445 0.06148066
-0.31459168 -0.25814408 0.06152007
-0.31483233 -0.25812259 0.061455429
-0.3150419 -0.25810692 0.061375946
-0.315238 -0.25808278 0.061373837
-0.31543091 -0.25805169 0.061427131
-0.31563604 -0.25803235 0.061379977
-0.31583714 -0.25800923 0.06136515
-0.31603244 -0.25798455 0.061367664
-0.31623146 -0.25795957 0.061369002
-0.31642842 -0.25793666 0.061356511
-0.31662983 -0.25791427 0.061335914
-0.3168177 -0.25787792 0.061434232
-0.31701589 -0.2578778 0.061247487
-0.31723037 -0.25784832 0.061268374
-0.31743416 -0.25783336 0.061188921
-0.3176364 -0.25781271 0.06115447
-0.31778613 -0.25777394 0.061307207
-0.31800681 -0.25775599 0.061234593
-0.31817785 -0.25773188 0.061255686
-0.31834447 -0.25769344 0.061389882
-0.31855214 -0.25769809 0.061158083
-0.31878251 -0.25770688 0.060873102
-0.31902975 -0.25767484 0.060882293
-0.31922618 -0.25763395 0.061007112
-0.31941599 -0.25759917 0.061091572
-0.3195816 -0.2575686 0.061166927
-0.31978357 -0.25755921 0.061047088
-0.32001236 -0.25753388 0.0610229
-0.3202084 -0.25750697 0.061041564
-0.32040578 -0.25748721 0.061004836
-0.32060477 -0.2574645 0.060988862
-0.3208032 -0.25744113 0.060978666
-0.32099602 -0.25741538 0.06099157
-0.32118154 -0.25739041 0.061005674
-0.32138443 -0.25737953 0.060896225
-0.32158613 -0.25734997 0.060929857
-0.32179224 -0.25733292 0.06086424
-0.32199091 -0.25731072 0.060844805
-0.32218948 -0.2572946 0.060779214
-0.32238272 -0.25726411 0.060827896
-0.32258272 -0.25724447 0.060787693
-0.32276791 -0.25722605 0.060752176
-0.32297054 -0.25719181 0.060820423
-0.32315922 -0.25717297 0.060784884
-0.3233389 -0.25715205 0.060773626
-0.32353246 -0.25714248 0.060663067
-0.32372034 -0.25712299 0.060633302
-0.32393345 -0.25710112 0.060597651
-0.32415256 -0.25707638 0.060578123
-0.32433349 -0.25705135 0.060596853
-0.32449535 -0.25702614 0.060635306
-0.32469976 -0.25701034 0.060561612
-0.32491148 -0.25697863 0.060602121
-0.3251124 -0.25695598 0.060583837
-0.32528925 -0.25693861 0.060548358
-0.32551047 -0.25690266 0.060611904
-0.3257249 -0.25687686 0.060605086
-0.32591441 -0.25686336 0.060528014
-0.3260833 -0.25685489 0.060432564
-0.32627019 -0.25682655 0.060470894
-0.32649136 -0.25679973 0.060465205
-0.32669291 -0.25679037 0.060345367
-0.32687125 -0.25675899 0.060414892
-0.32706463 -0.25672773 0.060469329
-0.32728153 -0.25671056 0.060394425
-0.32745856 -0.25667432 0.060502041
-0.32766753 -0.25665617 0.060442172
-0.32783812 -0.25664595 0.060358256
-0.32806388 -0.25661111 0.060409084
-0.32825559 -0.25658566 0.060420848
-0.3284393 -0.25657108 0.060357641
-0.32863829 -0.25655934 0.06025859
-0.32884169 -0.25652301 0.060341835
-0.32904315 -0.25650775 0.060267013
-0.32923701 -0.25649238 0.060200289
-0.32942289 -0.25645822 0.060283624
-0.32959938 -0.25643057 0.060326617
-0.32978117 -0.25641048 0.060307264
-0.32997626 -0.25640297 0.060179386
-0.33018428 -0.25636885 0.060241837
-0.33035514 -0.25634977 0.060224861
-0.33056274 -0.25633407 0.060147688
-0.33079606 -0.25629875 0.060195014
-0.33097801 -0.25628242 0.06014682
-0.33113942 -0.25624797 0.060255658
-0.33132982 -0.25624242 0.060117412
-0.331572 -0.25622046 0.060055077
-0.3317599 -0.25619623 0.06006109
-0.33194369 -0.25616631 0.060114425
-0.33214307 -0.25615025 0.060047682
-0.33232385 -0.25612646 0.060057189
-0.33253339 -0.25610518 0.060020402
-0.33271751 -0.25607735 0.060057584
-0.33292702 -0.25605834 0.060003486
-0.3330971 -0.2560336 0.060030356
-0.33329582 -0.25601807 0.059960146
-0.33348727 -0.25599828 0.059929218
-0.33364671 -0.25598186 0.059903052
-0.33386648 -0.25594732 0.059957374
-0.33405417 -0.2559315 0.059899919
-0.33426306 -0.25590983 0.059866596
-0.33445439 -0.25588521 0.059872583
-0.33465266 -0.25586274 0.059855472
-0.33483323 -0.25584155 0.059845358
-0.33501777 -0.25581384 0.059881389
-0.33523738 -0.25578734 0.059874546
-0.33541113 -0.25576413 0.059886396
-0.33560422 -0.25575811 0.059749298
-0.33582762 -0.25572738 0.059771292
-0.33602184 -0.25570753 0.059738025
-0.33621311 -0.25568321 0.059741713
-0.33639005 -0.25566188 0.059736244
-0.33660123 -0.2556442 0.059670597
-0.33678544 -0.2556203 0.059677776
-0.33695582 -0.25559643 0.05969771
-0.33714515 -0.25558329 0.059618328
-0.33736196 -0.2555514 0.059655353
-0.33753189 -0.25553033 0.05965453
-0.3377324 -0.25551152 0.059607394
-0.33792961 -0.25549164 0.059571818
-0.3381179 -0.25546509 0.05959513
-0.33831531 -0.25544411 0.059567634
-0.33852062 -0.25541851 0.05956779
-0.33869117 -0.25539494 0.059585426
-0.33888775 -0.25537679 0.059537157
-0.33907077 -0.25535789 0.059507422
-0.33928666 -0.2553311 0.059506368
-0.33948085 -0.25530869 0.059492726
-0.33967227 -0.25528404 0.05949872
-0.33985448 -0.25526738 0.059452832
-0.34003872 -0.25524408 0.059455402
-0.3402265 -0.25522032 0.059457943
-0.34042767 -0.25520739 0.059365813
-0.34060383 -0.25518766 0.059348796
-0.34079793 -0.25516513 0.059336316
-0.34099147 -0.255144 0.059313446
-0.34118494 -0.25511393 0.059358664
-0.34136593 -0.25509939 0.059297785
-0.34157056 -0.25507569 0.059284095
-0.34176138 -0.25505278 0.0592774
-0.34194306 -0.25502768 0.059296131
-0.34214303 -0.2549991 0.059323996
-0.34234673 -0.25496987 0.059353016
-0.34253654 -0.25495744 0.05926786
-0.34271884 -0.25493893 0.059235811
-0.34291843 -0.2549116 0.05925446
-0.34309873 -0.25490457 0.059137035
-0.3432956 -0.2548759 0.059168383
-0.34349427 -0.25486463 0.059065875
-0.34367719 -0.25483739 0.0590996
-0.34385818 -0.25482103 0.059052572
-0.34405854 -0.25479239 0.059080444
-0.34424055 -0.25477391 0.059048399
-0.34443843 -0.25475031 0.059040513
-0.3446328 -0.25472087 0.059079956
-0.34482601 -0.25469995 0.059055939
-0.34501913 -0.2546792 0.059030764
-0.34521759 -0.25465474 0.05902864
-0.34540614 -0.25462452 0.059079655
-0.34560186 -0.25459933 0.05908563
-0.34579015 -0.2545757 0.059087016
-0.34599492 -0.25455758 0.059030633
-0.34616509 -0.25456414 0.058819797
-0.34635794 -0.25453809 0.058835015
-0.34654266 -0.25450942 0.058877964
-0.34674779 -0.25447974 0.058909275
-0.34693822 -0.25445276 0.058933739
-0.34713396 -0.25442791 0.058937389
-0.34732598 -0.25440881 0.058900688
-0.34751463 -0.25439969 0.058791302
-0.34771091 -0.25437883 0.05876381
-0.34789658 -0.25436401 0.058700595
-0.34808245 -0.25434399 0.058676615
-0.3482641 -0.25432542 0.058645733
-0.34845203 -0.25430241 0.058642503
-0.3486495 -0.25427064 0.058696933
-0.34885693 -0.25422972 0.058811311
-0.34906274 -0.25420043 0.058839157
-0.34926143 -0.25418094 0.058798965
-0.34944686 -0.25417057 0.058702286
-0.34962168 -0.25416118 0.058607969
-0.34981665 -0.25413775 0.058601245
-0.35001367 -0.25410756 0.058644138
-0.3502112 -0.25408518 0.058627021
-0.3504028 -0.25405809 0.058651477
-0.35058695 -0.25404862 0.058549043
-0.35078073 -0.25402293 0.058560789
-0.35097897 -0.25399971 0.058549438
-0.35117826 -0.25397137 0.058576167
-0.35137185 -0.25395387 0.058525607
-0.35155514 -0.25393721 0.058478553
-0.35175192 -0.25390828 0.058512215
-0.35193512 -0.25389543 0.058436319
-0.35212106 -0.25387555 0.058411188
-0.35231856 -0.25384971 0.058420613
-0.35251805 -0.25382891 0.058389634
-0.35270518 -0.25381133 0.058346033
-0.35289243 -0.25379357 0.058303583
-0.35306963 -0.25377283 0.058293484
-0.35326645 -0.25374445 0.058322527
-0.35347322 -0.2537123 0.058371142
-0.35368022 -0.25368693 0.05836783
-0.35386771 -0.25366899 0.058326527
-0.3540605 -0.25364873 0.058297895
-0.35424486 -0.25362739 0.05828546
-0.35443097 -0.25361085 0.058234934
-0.35463291 -0.25358111 0.058269732
-0.35482946 -0.25355703 0.058266461
-0.35502714 -0.25353509 0.058245882
-0.35520387 -0.25352487 0.058156177
-0.3553879 -0.25350085 0.058164507
-0.3555699 -0.2534883 0.058087468
-0.35577786 -0.25346237 0.05808761
-0.35596418 -0.25344852 0.058016315
-0.35616732 -0.2534121 0.058100719
-0.35638064 -0.25337213 0.058202378
-0.35658294 -0.25335205 0.058163315
-0.35677615 -0.25333765 0.058089674
-0.35695273 -0.25332412 0.058025353
-0.35713464 -0.25330549 0.05799447
-0.35733634 -0.25327426 0.058040798
-0.35752705 -0.25325623 0.057997171
-0.35770917 -0.25324324 0.057923593
-0.35791928 -0.25320455 0.058018345
-0.35812479 -0.25317317 0.058062349
-0.35830128 -0.25316525 0.057955332
-0.35850707 -0.25313655 0.057978559
-0.35869589 -0.25312027 0.05792341
-0.35888746 -0.25309604 0.057925932
-0.35909817 -0.25306872 0.057934146
-0.35928023 -0.25305024 0.057902101
-0.35947388 -0.25303245 0.057853848
-0.35966945 -0.25301033 0.057836741
-0.3598606 -0.25298935 0.057815045
-0.36005077 -0.25296926 0.057787582
-0.36024794 -0.25294587 0.057778537
-0.36043498 -0.25292331 0.057773009
-0.36064509 -0.25289434 0.057793915
-0.36081812 -0.25288096 0.057731923
-0.36102426 -0.25285038 0.057768989
-0.36123139 -0.25282666 0.057752986
-0.36142018 -0.25281039 0.057697836
-0.36160758 -0.25279278 0.057654224
-0.36181334 -0.25276285 0.057686687
-0.36199847 -0.25274217 0.057668477
-0.36218616 -0.25272679 0.057607561
-0.36238617 -0.25269684 0.057645828
-0.36257955 -0.25267938 0.057595268
-0.36277223 -0.25266248 0.057541251
-0.36297086 -0.25263149 0.057588745
-0.36315832 -0.25261158 0.057562444
-0.36333615 -0.25260606 0.057435811
-0.36355156 -0.25256249 0.057562843
-0.36375871 -0.25253469 0.057577994
-0.36396265 -0.25250712 0.057594307
-0.36413229 -0.25249854 0.057498857
-0.36434025 -0.25247261 0.057499003
-0.3645207 -0.25245813 0.05743812
-0.36471459 -0.25242922 0.057474107
-0.3649466 -0.25239027 0.057550285
-0.36512664 -0.25238284 0.057436332
-0.36533928 -0.25234279 0.057539143
-0.36551198 -0.25234279 0.057375602
-0.36572281 -0.25231302 0.057402276
-0.36591318 -0.25229365 0.057369038
-0.36608979 -0.25227982 0.05730702
-0.3663083 -0.25224483 0.057365958
-0.3664847 -0.25223753 0.057254333
-0.36667886 -0.25221133 0.057269536
-0.36687604 -0.25218731 0.057265121
-0.36703986 -0.25218236 0.057147775
-0.3672334 -0.25215882 0.057143368
-0.36744455 -0.25212944 0.05716658
-0.36766446 -0.25209624 0.057210512
-0.36784452 -0.25208211 0.057147324
-0.36805966 -0.25205436 0.057154354
-0.36826697 -0.25203201 0.05712796
-0.36846039 -0.25200894 0.057120092
-0.36864462 -0.25199005 0.057089198
-0.36884549 -0.2519621 0.057111301
-0.36903721 -0.25193635 0.057125363
-0.36925152 -0.25190765 0.057140477
-0.36944348 -0.2518878 0.057109546
-0.36965644 -0.25186989 0.057043891
-0.3698236 -0.25185645 0.056987684
-0.37002569 -0.25182623 0.057025932
-0.37022418 -0.2518042 0.05700535
-0.37041789 -0.25179294 0.056907482
-0.3706333 -0.25176394 0.056923743
-0.37083974 -0.2517294 0.056990821
-0.37100112 -0.2517235 0.056882717
-0.3712118 -0.25169587 0.056893241
-0.37139118 -0.25168046 0.056840438
-0.37160999 -0.25164786 0.056880914
-0.37179533 -0.25163063 0.056836162
-0.37199116 -0.25160879 0.056816753
-0.37221304 -0.25157642 0.056852594
-0.37239176 -0.25156519 0.056768641
-0.37258625 -0.25154427 0.056743465
-0.37280613 -0.25151333 0.056770086
-0.37299126 -0.25149283 0.05675073
-0.37318298 -0.25147194 0.056727871
-0.37337947 -0.25144285 0.05676268
-0.37358671 -0.2514199 0.05674091
-0.37379777 -0.25139645 0.056719106
-0.37400118 -0.25137761 0.05666966
-0.3741613 -0.25136337 0.056626178
-0.37435943 -0.25133547 0.056650601
-0.37458265 -0.25130504 0.056670286
-0.3748025 -0.25127673 0.056677293
-0.3749617 -0.25127006 0.056577291
-0.37516996 -0.25123999 0.056608576
-0.37538022 -0.2512174 0.056581017
-0.37555265 -0.25120133 0.056539789
-0.37578538 -0.2511676 0.056575589
-0.3759844 -0.25114992 0.056521542
-0.37617415 -0.25112912 0.05649985
-0.3763859 -0.2511009 0.056513816
-0.37659961 -0.25106999 0.056546241
-0.37679619 -0.25105214 0.056495663
-0.37697059 -0.25103354 0.056471735
-0.37717244 -0.25100458 0.056500763
-0.3773703 -0.2509861 0.056453642
-0.37759539 -0.25096399 0.0564087
-0.37778917 -0.25094131 0.056397371
-0.37797379 -0.25092858 0.056319159
-0.37820464 -0.25088888 0.056402273
-0.37840745 -0.2508727 0.056333203
-0.37857115 -0.25085863 0.056285098
-0.37876785 -0.25082982 0.056317609
-0.37899181 -0.2508086 0.0562669
-0.37916607 -0.25079048 0.056239504
-0.3793869 -0.25075838 0.056274202
-0.37959778 -0.25073329 0.056265101
-0.37978572 -0.25071895 0.056196101
-0.37998 -0.25069502 0.056194004
-0.38017815 -0.25066906 0.056203425
-0.38039854 -0.25063765 0.056233514
-0.38059062 -0.2506243 0.056152955
-0.3807689 -0.2506136 0.056065544
-0.38099784 -0.25058094 0.05609674
-0.38120636 -0.25055295 0.056111887
-0.38142124 -0.25052479 0.056122378
-0.38160086 -0.25051194 0.056049962
-0.38178876 -0.25048727 0.056059435
-0.38201231 -0.25045484 0.056094117
-0.38222975 -0.25043017 0.056075752
-0.38242406 -0.25041139 0.05603442
-0.38262039 -0.2503916 0.055998847
-0.38280812 -0.25037029 0.055982925
-0.38301784 -0.25034824 0.055951908
-0.38322899 -0.25031963 0.055969343
-0.38341665 -0.25030729 0.055885352
-0.38363725 -0.25027552 0.05591774
-0.38385129 -0.25025004 0.055908624
-0.38405067 -0.25023049 0.055868417
-0.38423482 -0.25020841 0.055861756
-0.27642456 -0.26250815 0.064506941
-0.27663153 -0.26247504 0.06456247
-0.27691606 -0.26246116 0.064398378
-0.27712175 -0.26242793 0.064456217
-0.27735016 -0.26240143 0.064441249
-0.27758414 -0.26237485 0.064421631
-0.27780399 -0.26234651 0.064428627
-0.27804759 -0.2623224 0.064381279
-0.27826825 -0.26229441 0.064384818
-0.27850705 -0.26226935 0.064349025
-0.27873769 -0.26224396 0.064323671
-0.27898958 -0.26222229 0.064249739
-0.27922952 -0.26219937 0.064196631
-0.2794897 -0.26218155 0.064085737
-0.2796526 -0.26213992 0.064247638
-0.2799015 -0.26211801 0.06417834
-0.2801134 -0.26208857 0.064201526
-0.28030491 -0.26205403 0.064282514
-0.28050816 -0.26202244 0.064329982
-0.28071585 -0.26199046 0.064376272
-0.28098297 -0.26197526 0.064238809
-0.28125313 -0.26196107 0.06409093
-0.28144491 -0.2619268 0.064169608
-0.28166014 -0.26189706 0.064191632
-0.28191525 -0.26187941 0.064084217
-0.28214595 -0.26185551 0.064047322
-0.28237754 -0.26183197 0.064006947
-0.28260198 -0.26180506 0.063998923
-0.28286588 -0.26179039 0.063860327
-0.28305185 -0.26175487 0.063954026
-0.28325471 -0.26172397 0.063996881
-0.28348619 -0.26170087 0.063953049
-0.28370139 -0.26167342 0.063957766
-0.28392991 -0.26164812 0.063933574
-0.28414661 -0.26162127 0.063932508
-0.28436652 -0.26159537 0.063921042
-0.28461084 -0.26157644 0.063833304
-0.28481424 -0.26154608 0.063871533
-0.28501016 -0.26151356 0.063932881
-0.28526464 -0.26149631 0.063823164
-0.28548124 -0.2614699 0.063818648
-0.2857064 -0.26144609 0.063786387
-0.2859306 -0.26142207 0.063756436
-0.28613427 -0.26139045 0.063803896
-0.2863642 -0.2613683 0.063754313
-0.28658843 -0.26134461 0.063722059
-0.28681204 -0.26132083 0.06369096
-0.28703648 -0.2612974 0.063656397
-0.2872394 -0.26126754 0.063691169
-0.28745645 -0.26124033 0.063692413
-0.2876834 -0.26121795 0.063647449
-0.28790969 -0.26119551 0.063603655
-0.28812113 -0.26116854 0.063608378
-0.28835282 -0.26114801 0.063544936
-0.28855941 -0.26111966 0.063564688
-0.28878352 -0.2610952 0.063538201
-0.28900346 -0.26107126 0.063511737
-0.28921843 -0.26104584 0.063501462
-0.28941905 -0.2610158 0.063539699
-0.28960189 -0.26098704 0.063584961
-0.289895 -0.26098049 0.063357353
-0.2900764 -0.26094249 0.063474171
-0.29031894 -0.26092669 0.063364521
-0.29051721 -0.26089618 0.063408546
-0.29074067 -0.26087424 0.063363597
-0.2909717 -0.2608532 0.063304767
-0.29114562 -0.26081446 0.06343431
-0.29137561 -0.26079506 0.06336394
-0.29160365 -0.26077515 0.063299365
-0.29181731 -0.26075032 0.063285619
-0.29203138 -0.26072574 0.06326957
-0.29222101 -0.26069069 0.063356332
-0.2924349 -0.26066613 0.063340291
-0.29265997 -0.26064387 0.063296489
-0.29289305 -0.26062649 0.063207656
-0.29310033 -0.26059988 0.063213557
-0.2933152 -0.26057613 0.063190579
-0.29354262 -0.26055521 0.063134074
-0.29374969 -0.26052877 0.063138828
-0.29395181 -0.26050052 0.063162073
-0.29410246 -0.26047805 0.063190185
-0.29440653 -0.26046148 0.063028291
-0.29460189 -0.26043087 0.063075803
-0.29484007 -0.26041684 0.062956937
-0.29504082 -0.26038843 0.062982492
-0.29524475 -0.26035935 0.063010335
-0.29543602 -0.26032728 0.06307286
-0.29562122 -0.26029277 0.063159652
-0.29586613 -0.26028216 0.063008443
-0.29609361 -0.26026276 0.062940396
-0.2962949 -0.26023492 0.06296134
-0.29650638 -0.26021126 0.062940687
-0.29671356 -0.26018801 0.062921211
-0.29688391 -0.26017219 0.06287998
-0.29713377 -0.26014835 0.062824532
-0.29735535 -0.26011693 0.062853441
-0.29756898 -0.2600947 0.062820084
-0.29778588 -0.2600719 0.062787861
-0.29799333 -0.26004726 0.062778771
-0.29819027 -0.26001811 0.062813573
-0.29840666 -0.25999752 0.062765203
-0.29861158 -0.25996983 0.062781505
-0.29883021 -0.25995046 0.06272158
-0.29902759 -0.25992173 0.062752925
-0.29925135 -0.25990492 0.062668748
-0.29945862 -0.25987861 0.062672347
-0.29966772 -0.25985542 0.062650554
-0.29982951 -0.25982821 0.062703997
-0.30008462 -0.25980875 0.062610425
-0.30030236 -0.25978768 0.062564358
-0.30047566 -0.25975022 0.062684655
-0.30071342 -0.2597411 0.062528878
-0.30090889 -0.25970972 0.06258215
-0.30113488 -0.25969309 0.062494494
-0.30132946 -0.25966364 0.06253393
-0.30151957 -0.25963202 0.06259416
-0.30174899 -0.25961983 0.062469564
-0.30195686 -0.25959483 0.062462777
-0.30215576 -0.25956774 0.062480256
-0.30234787 -0.25953722 0.062530093
-0.30253065 -0.25951624 0.062516496
-0.30275136 -0.25950527 0.062390801
-0.30294412 -0.25947043 0.062472932
-0.30320707 -0.25946015 0.062302016
-0.30337155 -0.2594153 0.062486991
-0.3035984 -0.25940099 0.062380873
-0.30380803 -0.25938016 0.062340617
-0.303967 -0.25934693 0.062442526
-0.30419284 -0.25931755 0.062451806
-0.30439889 -0.25929248 0.062447332
-0.30463302 -0.25928563 0.062277712
-0.30480558 -0.25926757 0.062251486
-0.3050108 -0.25923982 0.06226778
-0.30524662 -0.25921407 0.062240094
-0.30543804 -0.25919414 0.062210303
-0.30562365 -0.25917357 0.062190935
-0.30587038 -0.25914934 0.062141255
-0.30607775 -0.25912592 0.062122934
-0.30626521 -0.2590934 0.062192403
-0.30648264 -0.25907618 0.062117483
-0.30668589 -0.25905323 0.062099181
-0.30689499 -0.25903127 0.062068157
-0.30709469 -0.25900635 0.062068328
-0.30730835 -0.25898746 0.06200958
-0.30749407 -0.25895393 0.062088292
-0.30765975 -0.25891882 0.062198251
-0.30785334 -0.25891274 0.062061146
-0.30812922 -0.25890329 0.061871707
-0.30832911 -0.25887623 0.061888032
-0.30852407 -0.25884596 0.061933234
-0.30869251 -0.25880092 0.062115878
-0.3089242 -0.25879514 0.061940499
-0.30913261 -0.25877401 0.061903711
-0.30933848 -0.25875425 0.061858848
-0.30954763 -0.25873393 0.061815135
-0.30974814 -0.25871074 0.061801456
-0.30993035 -0.25868085 0.061855946
-0.31011093 -0.25865588 0.061874673
-0.31032813 -0.25863868 0.061799765
-0.31051603 -0.25862539 0.061722688
-0.310765 -0.2585974 0.061699539
-0.310963 -0.25856984 0.061721653
-0.31115767 -0.25854295 0.061741464
-0.31136528 -0.25852269 0.061698902
-0.31155667 -0.25849667 0.061715268
-0.31171513 -0.25846821 0.061781421
-0.3119469 -0.25846377 0.061595656
-0.31216991 -0.25842959 0.061644189
-0.31236634 -0.25840446 0.061648987
-0.31257403 -0.25838509 0.061599508
-0.31276977 -0.25835961 0.061607786
-0.31296802 -0.25833276 0.061624117
-0.31317526 -0.25831693 0.061548099
-0.31337428 -0.25829089 0.061557502
-0.31357443 -0.2582694 0.061531134
-0.31377393 -0.25824392 0.061535928
-0.31397036 -0.25821942 0.061536118
-0.3141723 -0.25819618 0.061521284
-0.31434885 -0.25817627 0.061505415
-0.31455854 -0.25814906 0.06151361
-0.31476185 -0.25813115 0.061457232
-0.31495699 -0.25810209 0.061493203
-0.31517276 -0.2580846 0.061421752
-0.31538129 -0.25806829 0.061348036
-0.31556004 -0.25803551 0.061427929
-0.3157329 -0.25801665 0.061407469
-0.31593889 -0.25799841 0.061351068
-0.31613809 -0.25797766 0.061320093
-0.31636384 -0.25794283 0.061370909
-0.31656232 -0.25792155 0.061344545
-0.31670463 -0.25789267 0.061429244
-0.31695491 -0.25788334 0.06126301
-0.31715703 -0.25785783 0.061265469
-0.31736609 -0.25783557 0.061236758
-0.31756195 -0.25781217 0.061228871
-0.31776631 -0.25779384 0.061174795
-0.31796366 -0.25777239 0.061150752
-0.31812736 -0.25774011 0.061241098
-0.31835133 -0.25771719 0.061203077
-0.31855386 -0.2576974 0.061161697
-0.3187539 -0.25767958 0.061107632
-0.31894937 -0.25765169 0.061134368
-0.31914383 -0.25763229 0.061097644
-0.31934452 -0.25760603 0.061107047
-0.31953889 -0.25758681 0.061069172
-0.31974131 -0.25756291 0.061058942
-0.3199439 -0.25754449 0.061007176
-0.32014075 -0.25751871 0.061016597
-0.32029426 -0.25748751 0.061108161
-0.32048339 -0.25748852 0.060921457
-0.32071134 -0.25745738 0.060942259
-0.32091796 -0.25743464 0.060919315
-0.32111475 -0.25741479 0.060883738
-0.32129937 -0.25738308 0.060949765
-0.3215034 -0.2573511 0.060999535
-0.32170746 -0.25732487 0.061005458
-0.32185695 -0.25729829 0.061065879
-0.32204923 -0.25728387 0.060993388
-0.32224929 -0.25726378 0.060956638
-0.32243666 -0.25724828 0.060896877
-0.32264319 -0.2572394 0.060768932
-0.32285166 -0.25722143 0.060707904
-0.32304254 -0.25720006 0.060689665
-0.32327133 -0.25717136 0.06069085
-0.32347408 -0.25714412 0.060706012
-0.32362822 -0.25711179 0.060805634
-0.32382506 -0.25710166 0.060696211
-0.32407403 -0.25706819 0.060714602
-0.32426614 -0.25704986 0.060672119
-0.32443157 -0.25703162 0.060653992
-0.32463634 -0.25701639 0.060575686
-0.32480898 -0.25697419 0.060732923
-0.32503587 -0.25696626 0.060578331
-0.32522747 -0.25693992 0.060597017
-0.32541078 -0.25691187 0.060636505
-0.32560444 -0.25689864 0.060553633
-0.3257845 -0.25688055 0.060520437
-0.32599059 -0.25685319 0.06053327
-0.32619634 -0.25682494 0.060553029
-0.32636571 -0.25681821 0.060443737
-0.32658207 -0.25678879 0.060462296
-0.32680896 -0.25675747 0.060485408
-0.32700554 -0.25673494 0.060470596
-0.32720196 -0.25671208 0.060458094
-0.32738793 -0.25669146 0.060438722
-0.32758051 -0.25666866 0.0604297
-0.32778591 -0.25665137 0.060366381
-0.32798183 -0.25662786 0.060359653
-0.3281627 -0.25659084 0.060469538
-0.32836729 -0.25658476 0.060321987
-0.32856262 -0.25655946 0.060329109
-0.32874733 -0.2565358 0.060333967
-0.32894716 -0.25651392 0.060311068
-0.32914913 -0.256486 0.060332008
-0.32933083 -0.25646514 0.06031841
-0.32951772 -0.25645167 0.060243651
-0.32973045 -0.25642303 0.060259916
-0.32989296 -0.25639817 0.060294889
-0.33009103 -0.25638789 0.060185451
-0.33029523 -0.25635254 0.060260601
-0.33050585 -0.25633264 0.060212258
-0.33068433 -0.2563166 0.06016523
-0.33087665 -0.25629714 0.060130827
-0.33105102 -0.25627917 0.060102277
-0.3312535 -0.25625589 0.060087439
-0.33144045 -0.25622344 0.060156912
-0.33164272 -0.2561979 0.06015937
-0.3318496 -0.25618351 0.060072973
-0.33206278 -0.25616145 0.06003847
-0.33223647 -0.25613916 0.06004338
-0.33242133 -0.25612324 0.0599894
-0.33261999 -0.25610134 0.059967656
-0.33282211 -0.25607902 0.059945896
-0.33300635 -0.25605464 0.059956525
-0.33319765 -0.2560285 0.059974052
-0.33338559 -0.25600958 0.059939668
-0.33356631 -0.25599128 0.059907623
-0.33376116 -0.25596985 0.059885897
-0.33398429 -0.25594431 0.059868645
-0.33416861 -0.25591585 0.059910439
-0.33435625 -0.25589684 0.059877206
-0.334537 -0.25587276 0.059889015
-0.33472469 -0.25585037 0.059881173
-0.33492956 -0.25583455 0.059807464
-0.33514184 -0.25581065 0.059787966
-0.33532858 -0.25579813 0.059706278
-0.33552688 -0.25577217 0.059715688
-0.33570796 -0.25574425 0.059756346
-0.3358787 -0.25571612 0.059808586
-0.33605802 -0.25570434 0.059728086
-0.33626491 -0.25569344 0.059615146
-0.33648798 -0.25566441 0.059624441
-0.33668774 -0.255629 0.059704229
-0.3368887 -0.2556091 0.059665166
-0.33706632 -0.25558341 0.059691988
-0.33724886 -0.25556913 0.05962763
-0.33743405 -0.25554025 0.059671715
-0.33763814 -0.25552103 0.059624564
-0.33782846 -0.25550121 0.05959478
-0.33801603 -0.25547796 0.059593864
-0.33823815 -0.25545406 0.059565075
-0.33843306 -0.25542882 0.059572194
-0.33862537 -0.25541425 0.059500866
-0.33880195 -0.25539356 0.05949077
-0.33900058 -0.25536713 0.059503645
-0.33918124 -0.25534412 0.059507377
-0.33937234 -0.25532058 0.059505284
-0.33956915 -0.25530073 0.059469696
-0.33975339 -0.25528851 0.059388027
-0.33995491 -0.25525305 0.059466653
-0.34014377 -0.25522599 0.059493419
-0.34031674 -0.25521639 0.05940257
-0.34051833 -0.25519183 0.059398118
-0.34069961 -0.2551575 0.059487231
-0.34090316 -0.25514686 0.059375465
-0.34107277 -0.25513583 0.059298474
-0.34128785 -0.25510219 0.059350491
-0.34146866 -0.25508797 0.059287298
-0.34167942 -0.25505713 0.059322033
-0.34186634 -0.25503579 0.059307266
-0.34206235 -0.25500858 0.059328232
-0.34224305 -0.25499406 0.05926735
-0.34242752 -0.25498608 0.059153356
-0.34266081 -0.25495017 0.059205294
-0.34285593 -0.25491777 0.059266645
-0.34301725 -0.25490856 0.059183925
-0.34319669 -0.25489587 0.059110351
-0.34341335 -0.25486764 0.059119672
-0.34360316 -0.25484002 0.059149899
-0.34379947 -0.2548196 0.059118934
-0.34398463 -0.25480151 0.059081107
-0.34417307 -0.25477692 0.059089404
-0.34436229 -0.25475729 0.059059635
-0.34457564 -0.25472322 0.059116282
-0.34475133 -0.25471041 0.059047341
-0.34492013 -0.25469783 0.05898305
-0.34512159 -0.25467375 0.058975134
-0.3453227 -0.25465032 0.05896261
-0.34551692 -0.25462747 0.058952428
-0.34569758 -0.2545996 0.058993079
-0.34589553 -0.25457612 0.05898403
-0.34607571 -0.25456047 0.058932371
-0.34626889 -0.25454485 0.058867961
-0.3464604 -0.2545211 0.058867026
-0.34665635 -0.25449029 0.058915682
-0.34683979 -0.25447437 0.058862858
-0.34704238 -0.2544488 0.058865331
-0.34723732 -0.25442508 0.058860905
-0.34742093 -0.25440869 0.058811545
-0.34762308 -0.25438392 0.058808245
-0.3478165 -0.25436252 0.058787677
-0.34800637 -0.25434157 0.058767136
-0.34819302 -0.25432056 0.058750059
-0.3483828 -0.25429505 0.058764134
-0.34857816 -0.25427553 0.058727406
-0.34877539 -0.25425336 0.05870913
-0.34897342 -0.25422561 0.058732383
-0.34915897 -0.25421065 0.05867032
-0.34934062 -0.25419649 0.058605965
-0.34953746 -0.25416616 0.058649998
-0.34973526 -0.25413477 0.058700956
-0.3499268 -0.25412866 0.058566168
-0.35012165 -0.25409296 0.0586529
-0.35031274 -0.25407472 0.058610424
-0.35051122 -0.25404707 0.058632538
-0.35069662 -0.25403592 0.058541618
-0.35089454 -0.25401306 0.058527961
-0.35108411 -0.25399655 0.058473945
-0.35127705 -0.25396806 0.058507618
-0.35145953 -0.25394848 0.058483642
-0.35164419 -0.25393772 0.058390427
-0.35183519 -0.25391176 0.058406796
-0.35203558 -0.25388235 0.058440432
-0.3522197 -0.25387198 0.058344908
-0.35239533 -0.25386024 0.058267891
-0.35260022 -0.25382587 0.058334965
-0.35281077 -0.25378898 0.058415856
-0.35300869 -0.25375229 0.0585072
-0.35320938 -0.25373742 0.058430061
-0.35339442 -0.25371873 0.058396842
-0.35358429 -0.25369823 0.058372833
-0.35378367 -0.25367427 0.058366086
-0.35397965 -0.2536574 0.058308583
-0.35416463 -0.25363871 0.058275364
-0.35435075 -0.25361884 0.058250219
-0.35452971 -0.25360972 0.058150105
-0.35471341 -0.25359225 0.058108822
-0.3549304 -0.25355348 0.058197759
-0.35512578 -0.25352743 0.058210649
-0.35532948 -0.25349626 0.058254648
-0.35552108 -0.25347736 0.058216788
-0.3556909 -0.25347075 0.058106333
-0.35586551 -0.25346228 0.058005087
-0.35608521 -0.25342488 0.058081321
-0.35627651 -0.25340313 0.058065385
-0.35646823 -0.25338104 0.058051746
-0.35665753 -0.25335526 0.058068134
-0.35685611 -0.25332975 0.058074083
-0.35703909 -0.25331602 0.058005102
-0.35723865 -0.25328672 0.058038738
-0.35743293 -0.25326824 0.057995096
-0.3576206 -0.25324437 0.057998784
-0.35781214 -0.25321984 0.058003619
-0.35800666 -0.25320122 0.057961125
-0.3581993 -0.2531758 0.057971716
-0.3583951 -0.25315046 0.057978839
-0.35858864 -0.25312996 0.05795135
-0.35878858 -0.25310105 0.057981513
-0.35897839 -0.25308663 0.057911359
-0.35917041 -0.25306755 0.057874646
-0.35935751 -0.25304464 0.05787142
-0.35953957 -0.25303149 0.057798982
-0.35973436 -0.25300732 0.057798028
-0.35992068 -0.25299045 0.0577498
-0.36012989 -0.25295419 0.057827238
-0.36032841 -0.25292972 0.057825111
-0.36052594 -0.2529113 0.05777799
-0.36071065 -0.25289583 0.057720538
-0.3608892 -0.2528778 0.057688512
-0.36107501 -0.25285888 0.057656448
-0.36128783 -0.25282291 0.057728097
-0.36149594 -0.25279346 0.057754762
-0.36166775 -0.25278598 0.05764892
-0.36185795 -0.2527636 0.057638757
-0.36205214 -0.25274545 0.057592805
-0.36223316 -0.25272802 0.057553835
-0.36243007 -0.25270772 0.057521719
-0.36262548 -0.25268379 0.057518445
-0.36282656 -0.25265551 0.057542846
-0.36304617 -0.25261536 0.057639852
-0.36322942 -0.25260812 0.057521254
-0.36342543 -0.25258869 0.057483371
-0.36360341 -0.25256905 0.057464037
-0.36378971 -0.25254777 0.057449274
-0.3640036 -0.25251031 0.057531301
-0.36421028 -0.25248984 0.057491057
-0.36439946 -0.25247338 0.057437055
-0.36459804 -0.25244769 0.057444155
-0.36477202 -0.25243798 0.057353295
-0.36498079 -0.25240266 0.057423811
-0.3652021 -0.25237384 0.057433113
-0.36538106 -0.25236046 0.057365309
-0.3655754 -0.25234032 0.057334356
-0.36576188 -0.25231934 0.057317283
-0.36595628 -0.25229704 0.057302482
-0.3661294 -0.25228348 0.057241637
-0.36634675 -0.25224072 0.057360578
-0.36655062 -0.25221834 0.057337649
-0.36673242 -0.25220931 0.05723406
-0.36692384 -0.25218514 0.057236586
-0.36713135 -0.25215816 0.0572448
-0.36731389 -0.25214025 0.057208136
-0.36751598 -0.25211716 0.057192136
-0.36771354 -0.25209722 0.057156555
-0.36790502 -0.25207531 0.05714177
-0.36810905 -0.25204697 0.057163842
-0.36829346 -0.2520279 0.057134088
-0.36848938 -0.25200316 0.057136592
-0.36867821 -0.25198519 0.057094123
-0.36887211 -0.25196388 0.057072401
-0.36907402 -0.25193933 0.057067957
-0.36925727 -0.25192511 0.057002433
-0.36947221 -0.25189206 0.057049848
-0.36967102 -0.25186971 0.057031564
-0.36984703 -0.25186214 0.056922231
-0.37007052 -0.25182578 0.056986909
-0.37027115 -0.25180045 0.056989387
-0.37045562 -0.25177789 0.056986175
-0.37065738 -0.25175196 0.056992114
-0.37083265 -0.25174859 0.056851625
-0.37105283 -0.25171673 0.056885157
-0.37123576 -0.25169346 0.056888882
-0.37143949 -0.25166652 0.056900579
-0.37161663 -0.25165623 0.056810852
-0.37183496 -0.25162217 0.056862861
-0.37201703 -0.25160888 0.056791581
-0.37222248 -0.25158113 0.056807883
-0.37243709 -0.2515533 0.056816064
-0.37263605 -0.25152969 0.056807011
-0.37282825 -0.25151026 0.056772597
-0.37302557 -0.25148594 0.056770485
-0.3732242 -0.25146267 0.056759123
-0.37342271 -0.25144491 0.056706227
-0.37361634 -0.25142118 0.05670296
-0.37380093 -0.2514047 0.056653593
-0.37399763 -0.25137922 0.056660712
-0.37420559 -0.25135422 0.056653917
-0.37440062 -0.25133336 0.056627579
-0.37460157 -0.25131255 0.056595434
-0.37480569 -0.25128648 0.056600206
-0.37499437 -0.25126946 0.056550819
-0.37520179 -0.25124329 0.056553259
-0.37540972 -0.25121689 0.056556851
-0.3756094 -0.25119367 0.056544334
-0.37580779 -0.25117117 0.056527205
-0.37601388 -0.25114942 0.056497358
-0.37620085 -0.25113186 0.056453735
-0.3764064 -0.25110379 0.056472342
-0.37662929 -0.25107601 0.056472406
-0.37682727 -0.25105238 0.056464508
-0.37701905 -0.25103557 0.056410495
-0.37721741 -0.25100687 0.056440681
-0.37742415 -0.25098017 0.056447741
-0.37761748 -0.25096425 0.05638564
-0.37780496 -0.25094831 0.056329325
-0.37802133 -0.25091645 0.056366347
-0.37822086 -0.2508972 0.056323826
-0.37841749 -0.25087312 0.056320556
-0.37864175 -0.25084364 0.056332141
-0.37882057 -0.25082937 0.05627127
-0.37903863 -0.25080019 0.056286346
-0.37922683 -0.25078246 0.056242734
-0.37941754 -0.25076658 0.056182954
-0.37962171 -0.25074035 0.056188866
-0.37983814 -0.25071079 0.056208584
-0.38004631 -0.25068724 0.056190256
-0.38023198 -0.25067258 0.056125879
-0.38047045 -0.25063312 0.056199707
-0.38066059 -0.25061926 0.056124929
-0.38087067 -0.2505888 0.056157358
-0.38109869 -0.25055978 0.056162015
-0.38127327 -0.25054953 0.056074612
-0.38146552 -0.25052553 0.05607482
-0.38167435 -0.25050512 0.056032259
-0.38189033 -0.25047803 0.056033503
-0.38210574 -0.25044981 0.056043994
-0.3823235 -0.25041747 0.056083307
-0.38251621 -0.25040102 0.056025818
-0.38270816 -0.25038499 0.055966035
-0.38294557 -0.25034887 0.05601564
-0.38312781 -0.25033188 0.055972047
-0.38332456 -0.25031203 0.055936471
-0.3835488 -0.25028133 0.055957288
-0.38373026 -0.25027069 0.055866402
-0.38393652 -0.25024331 0.055879235
-0.38415891 -0.25021085 0.055915065
-0.27650911 -0.26249731 0.064509198
-0.27671999 -0.26246661 0.06454277
-0.27694324 -0.26243877 0.064542845
-0.27718508 -0.26241532 0.064492054
-0.27744889 -0.26239854 0.064369641
-0.27765429 -0.26236683 0.064415932
-0.27787736 -0.26233932 0.064413697
-0.27809179 -0.26230985 0.064434573
-0.27834764 -0.26229027 0.064341038
-0.27856207 -0.26226097 0.064360753
-0.27877888 -0.26223376 0.064362004
-0.27900168 -0.26220661 0.06435746
-0.27926391 -0.26218912 0.064241968
-0.2794849 -0.2621617 0.064240895
-0.27967253 -0.26212615 0.064333417
-0.27988797 -0.26209745 0.064347364
-0.28012881 -0.26207671 0.064276978
-0.28036648 -0.26205376 0.06422621
-0.28058404 -0.26202586 0.064232066
-0.28082994 -0.26200527 0.064155884
-0.28103858 -0.26197681 0.064174481
-0.28125873 -0.26194981 0.064171106
-0.28149572 -0.26192725 0.064118035
-0.28174263 -0.26190743 0.064034924
-0.28195822 -0.26188266 0.064018883
-0.28215274 -0.2618587 0.064016782
-0.28238285 -0.26182377 0.0640641
-0.28262615 -0.26180348 0.063987941
-0.2828238 -0.26177108 0.064046964
-0.28304958 -0.26174626 0.06402164
-0.28328714 -0.26172638 0.063947804
-0.28350812 -0.26170048 0.063935183
-0.28373042 -0.26167506 0.06391795
-0.28394946 -0.2616488 0.063909963
-0.28416505 -0.26162329 0.063899688
-0.28439981 -0.26160163 0.063842021
-0.28461409 -0.2615743 0.06384673
-0.28481519 -0.26154327 0.063891895
-0.28502077 -0.2615152 0.063910499
-0.2852549 -0.26149377 0.063851684
-0.28550628 -0.26147747 0.063737407
-0.28573784 -0.2614556 0.063684367
-0.28594401 -0.26142806 0.063698366
-0.2861515 -0.2613993 0.06372042
-0.28637689 -0.2613759 0.063684717
-0.28659201 -0.26134953 0.063681357
-0.28680438 -0.26132411 0.063673407
-0.28704754 -0.26130641 0.063577622
-0.28726056 -0.26127967 0.063578889
-0.28745407 -0.26124704 0.063643701
-0.28766918 -0.26122278 0.063624196
-0.28791949 -0.26120785 0.063500702
-0.28811961 -0.26117742 0.063542403
-0.28833318 -0.26115122 0.063539051
-0.28858668 -0.26113954 0.063387848
-0.28876132 -0.26110119 0.06351389
-0.28897744 -0.26107606 0.063500151
-0.28920081 -0.26105335 0.063460991
-0.28942189 -0.26103005 0.063428767
-0.28963432 -0.261004 0.063425422
-0.28986409 -0.26098555 0.063348167
-0.29007843 -0.26096034 0.063336737
-0.29030019 -0.26093769 0.063298747
-0.29050228 -0.26090854 0.063328907
-0.29071477 -0.26088294 0.063322097
-0.29094574 -0.26086372 0.063249454
-0.29114124 -0.26083431 0.063287728
-0.29135063 -0.2608079 0.063290164
-0.29157275 -0.26078597 0.063246399
-0.29179108 -0.26076284 0.063215338
-0.29195052 -0.26073942 0.063242249
-0.29219276 -0.26070637 0.063264139
-0.29241404 -0.26068452 0.063220382
-0.29262781 -0.26066014 0.063203178
-0.29285607 -0.2606411 0.063131705
-0.29306942 -0.26061678 0.063114509
-0.29327592 -0.26059192 0.063107744
-0.29348245 -0.26056525 0.0631148
-0.29370049 -0.26054293 0.063077971
-0.2939046 -0.26051548 0.063093141
-0.29411587 -0.2604908 0.063080564
-0.29432243 -0.26046443 0.063085333
-0.29453549 -0.26044062 0.06306468
-0.2947436 -0.26041496 0.063062511
-0.29496962 -0.2603983 0.062974893
-0.29515848 -0.26036534 0.063046642
-0.29537171 -0.26034191 0.063022532
-0.2956098 -0.2603285 0.062899083
-0.29583526 -0.26031026 0.06282416
-0.29604715 -0.26028672 0.062802359
-0.29620537 -0.26024964 0.062934265
-0.29641819 -0.26023266 0.062861696
-0.29666519 -0.26020947 0.062803969
-0.29686934 -0.2601831 0.062811047
-0.29706779 -0.2601544 0.062841222
-0.29729334 -0.26013917 0.062743224
-0.29748702 -0.2601065 0.062808037
-0.29769295 -0.26008111 0.062805876
-0.29789463 -0.26005399 0.062821046
-0.29812592 -0.26003972 0.062710322
-0.29832214 -0.26001039 0.062747441
-0.29853854 -0.25998992 0.062697932
-0.29866463 -0.25995547 0.062840365
-0.29895443 -0.25996783 0.062472105
-0.2991448 -0.25993404 0.062548473
-0.29937497 -0.25990292 0.062566966
-0.29953557 -0.25987086 0.062658459
-0.29978192 -0.25984502 0.062621504
-0.29999688 -0.25982472 0.062571995
-0.30021361 -0.25980544 0.062513262
-0.30039614 -0.25977021 0.062608123
-0.3005968 -0.25974351 0.06262099
-0.30082163 -0.2597284 0.062522992
-0.30101147 -0.25969663 0.062584363
-0.3012054 -0.25966457 0.062644549
-0.30143273 -0.25965109 0.062531553
-0.30163938 -0.25964856 0.062355194
-0.30185896 -0.25961313 0.062416419
-0.30207705 -0.25959337 0.062359981
-0.30227259 -0.25956473 0.062392484
-0.30248174 -0.25954303 0.062359162
-0.30268455 -0.25951821 0.062355861
-0.30288035 -0.2594898 0.062386055
-0.30309281 -0.25947013 0.062334262
-0.3032873 -0.25944117 0.062370226
-0.30349803 -0.25942081 0.062325366
-0.30370113 -0.25939652 0.062317453
-0.30391583 -0.25937858 0.062250659
-0.30412692 -0.25935635 0.062219635
-0.30432099 -0.25932741 0.062255599
-0.30453232 -0.25930804 0.062202662
-0.30472448 -0.25927815 0.062247865
-0.30492866 -0.25925496 0.062230717
-0.3051289 -0.25922966 0.062233198
-0.30534238 -0.25921199 0.062165253
-0.30551526 -0.25919193 0.062154032
-0.30572805 -0.2591663 0.062147222
-0.30593789 -0.25913376 0.062195804
-0.30615386 -0.25911549 0.062130153
-0.3063581 -0.25909305 0.062107235
-0.30659074 -0.25908789 0.061926141
-0.30674666 -0.2590608 0.061984211
-0.3069374 -0.25902501 0.062075578
-0.30717003 -0.25900131 0.062035218
-0.30736989 -0.2589767 0.062033094
-0.30757248 -0.25895384 0.062014792
-0.30778319 -0.25893348 0.061969928
-0.30798945 -0.25891322 0.061928548
-0.30818391 -0.25888547 0.061955288
-0.30839413 -0.25886804 0.061888505
-0.30859444 -0.25884429 0.061879456
-0.30879942 -0.25882372 0.06184154
-0.30900043 -0.25880063 0.061826717
-0.30919698 -0.25877458 0.061838448
-0.30939215 -0.25874764 0.061858267
-0.30958745 -0.25872979 0.061808869
-0.30979589 -0.2587032 0.061813619
-0.31000057 -0.25868312 0.061772242
-0.31019312 -0.25865453 0.061807059
-0.3103925 -0.25863087 0.061798014
-0.31060898 -0.25861666 0.061701216
