# .PCD v0.7 - Point Cloud Data file format
VERSION 0.7
FIELDS x y z
SIZE 4 4 4
TYPE F F F
COUNT 1 1 1
WIDTH 892
HEIGHT 1
VIEWPOINT 0 0 0 1 0 0 0
POINTS 892
DATA ascii
-0.37202078 -0.27142376 0.060365058
-0.37222177 -0.27139926 0.060362902
-0.37242547 -0.27137646 0.060345739
-0.37263629 -0.27135816 0.060289346
-0.37283975 -0.27133274 0.060291778
-0.37304595 -0.27131185 0.060258463
-0.37325051 -0.27129006 0.060233228
-0.37345576 -0.27127168 0.06018262
-0.37364992 -0.27124909 0.060172427
-0.37384692 -0.27121419 0.06024985
-0.37402681 -0.271191 0.060257025
-0.37424603 -0.27116486 0.060250163
-0.37445155 -0.27115893 0.060108464
-0.37467426 -0.27113253 0.060100432
-0.37487274 -0.27110755 0.06010405
-0.37506646 -0.27107936 0.060135368
-0.37527198 -0.27105632 0.060118206
-0.37547639 -0.27103567 0.060084894
-0.37567097 -0.27101433 0.060065467
-0.37588412 -0.27099401 0.060021743
-0.37607342 -0.27096286 0.060078446
-0.37626201 -0.27094367 0.060048684
-0.3764782 -0.27091652 0.060052216
-0.37668213 -0.27089623 0.060016602
-0.37689078 -0.27087963 0.059949838
-0.37709758 -0.27086183 0.059893452
-0.3772856 -0.27083638 0.059909813
-0.37748194 -0.27080753 0.059943423
-0.37768966 -0.27078426 0.059926242
-0.37789148 -0.27076313 0.059898712
-0.37808955 -0.27073914 0.059895419
-0.37829658 -0.27072242 0.059830956
-0.37848669 -0.2706956 0.059855372
-0.37868002 -0.27067488 0.059832502
-0.37886775 -0.27064961 0.059847709
-0.37905857 -0.27062699 0.059840992
-0.37928912 -0.27060977 0.059759125
-0.37948486 -0.27058446 0.059767365
-0.3796697 -0.27056777 0.059722628
-0.37988004 -0.27054086 0.059729651
-0.38009128 -0.27051479 0.059729747
-0.3802667 -0.2704975 0.05969774
-0.3804653 -0.27047139 0.059709422
-0.38067949 -0.27044827 0.059685297
-0.38087127 -0.27042744 0.059664741
-0.38106069 -0.27040449 0.059661489
-0.38126951 -0.27038833 0.059591252
-0.38148618 -0.27035639 0.059629381
-0.38167754 -0.27033162 0.059637651
-0.38187483 -0.27031672 0.059568629
-0.38206753 -0.27028945 0.059594184
-0.38227701 -0.27026674 0.059571229
-0.38247535 -0.27024934 0.059519511
-0.38267073 -0.27022916 0.059490852
-0.38287884 -0.27020553 0.059475977
-0.38307306 -0.27018437 0.05945541
-0.3832539 -0.27016202 0.059455659
-0.3834722 -0.27013662 0.059444189
-0.38367131 -0.27011678 0.059409752
-0.38384157 -0.27008736 0.059471171
-0.38405642 -0.27007189 0.05939053
-0.38423908 -0.27005199 0.059371173
-0.38446051 -0.27002624 0.059359688
-0.38461462 -0.27000117 0.059403889
-0.38481516 -0.26998383 0.059349842
-0.3850314 -0.26996171 0.059316479
-0.38522282 -0.26994342 0.059277467
-0.38541064 -0.26992086 0.059273072
-0.38561618 -0.26989579 0.059270892
-0.38582504 -0.26987505 0.059234105
-0.38601151 -0.26985613 0.059204344
-0.38620046 -0.26983544 0.059184954
-0.38639653 -0.26980871 0.059203573
-0.38659674 -0.26978222 0.05921641
-0.38678318 -0.2697584 0.059222393
-0.38696396 -0.26973763 0.05921112
-0.38717148 -0.26972166 0.059140891
-0.38740149 -0.2696991 0.059098233
-0.38757569 -0.26968056 0.059076607
-0.38777044 -0.26965809 0.059065253
-0.38795847 -0.26963139 0.059090838
-0.38814765 -0.26960641 0.05910258
-0.38834324 -0.2695854 0.059079688
-0.38855407 -0.26956427 0.059044041
-0.38874429 -0.26954123 0.059040785
-0.38894615 -0.26951838 0.059025951
-0.38913611 -0.26950154 0.058977723
-0.3893317 -0.26947483 0.058996346
-0.38952664 -0.26945376 0.058974616
-0.389723 -0.26943535 0.058932126
-0.38990605 -0.26940688 0.058975026
-0.3901011 -0.26938641 0.058948681
-0.3903161 -0.26936778 0.058891106
-0.39050192 -0.26934466 0.058892488
-0.39069334 -0.26932511 0.058862701
-0.39089718 -0.26930025 0.058860525
-0.39108035 -0.26927966 0.058845781
-0.39127472 -0.26925898 0.058821749
-0.39145488 -0.26922405 0.058914244
-0.3916502 -0.26921383 0.05881295
-0.39185935 -0.26919305 0.058776163
-0.39205116 -0.26916716 0.058792494
-0.39224803 -0.26915324 0.058716562
-0.39243901 -0.2691347 0.058679871
-0.39263672 -0.26910523 0.058716934
-0.39282763 -0.26908687 0.058679074
-0.39301664 -0.26906383 0.058676984
-0.39320809 -0.26903731 0.058697928
-0.39341229 -0.26901525 0.058675006
-0.39360517 -0.26899284 0.058664821
-0.39380589 -0.26897186 0.058637299
-0.39399546 -0.26895112 0.05861789
-0.39418885 -0.26893085 0.058591567
-0.39438018 -0.26890421 0.058613665
-0.394573 -0.26888242 0.058598869
-0.39476651 -0.26886326 0.058564462
-0.39497125 -0.26884526 0.058511544
-0.39515668 -0.26882422 0.058497936
-0.39534998 -0.26880556 0.058460079
-0.39553154 -0.26878422 0.058452249
-0.39572793 -0.26876393 0.058423594
-0.39591989 -0.2687405 0.058421481
-0.3961193 -0.26871794 0.058406644
-0.3963176 -0.26869011 0.058431022
-0.39651391 -0.26867062 0.058396608
-0.39669138 -0.26864788 0.058402635
-0.39689139 -0.26862949 0.058356669
-0.39708653 -0.26860461 0.058362611
-0.39727068 -0.26857853 0.058387056
-0.39746353 -0.26856244 0.058330752
-0.39765885 -0.26853877 0.058327459
-0.39785802 -0.26851735 0.058304563
-0.39805371 -0.26849744 0.058273606
-0.39823896 -0.26848149 0.058223091
-0.39844486 -0.26845795 0.058209386
-0.39863604 -0.26843053 0.058237255
-0.39882812 -0.26841375 0.05818671
-0.39900905 -0.26839265 0.058177739
-0.39919701 -0.26837021 0.058172185
-0.39938816 -0.26834059 0.058216199
-0.39959046 -0.26831862 0.058194432
-0.39978558 -0.26829815 0.058168098
-0.39997354 -0.26827681 0.058154467
-0.40015802 -0.26826665 0.058062453
-0.4003529 -0.26824021 0.058079932
-0.40054423 -0.26821831 0.058067445
-0.40074265 -0.26819444 0.058062989
-0.40093055 -0.26816773 0.058088578
-0.40112525 -0.26814952 0.058046091
-0.40131646 -0.26812828 0.058028989
-0.4015041 -0.26810744 0.058011916
-0.40169892 -0.26808384 0.058008634
-0.40190089 -0.26805827 0.058013387
-0.40209159 -0.26804197 0.057960548
-0.40228599 -0.26802206 0.057930749
-0.40248764 -0.2679992 0.057915904
-0.4026747 -0.26798147 0.057876922
-0.40287343 -0.26795328 0.057903595
-0.40306467 -0.26792949 0.057904951
-0.40324965 -0.26790112 0.057945535
-0.40344352 -0.26788348 0.057899598
-0.40362707 -0.26786473 0.057871006
-0.40382031 -0.26784986 0.057805464
-0.40401778 -0.2678299 0.057773352
-0.40420187 -0.26780701 0.05777473
-0.40439257 -0.26778579 0.057757642
-0.40459073 -0.26776165 0.057755496
-0.40476918 -0.2677331 0.057803035
-0.40496942 -0.26771548 0.057751298
-0.40515524 -0.26770025 0.057695027
-0.40533933 -0.26767749 0.057695258
-0.40553215 -0.26764721 0.057742719
-0.40572762 -0.26762053 0.057761341
-0.4059104 -0.26760313 0.057723533
-0.40610915 -0.26758966 0.057642981
-0.40631166 -0.26756227 0.057660416
-0.40651232 -0.26754144 0.057631742
-0.40668583 -0.26753137 0.057549007
-0.40686968 -0.26750928 0.05754463
-0.40705758 -0.26749584 0.057473358
-0.40726033 -0.2674678 0.057495404
-0.40744933 -0.2674405 0.057524435
-0.40763849 -0.2674228 0.057483137
-0.40783536 -0.26739281 0.057524811
-0.40803891 -0.26737255 0.057489209
-0.40822178 -0.26734427 0.057530951
-0.40840757 -0.26732635 0.057494275
-0.40860993 -0.26729172 0.057564754
-0.40885982 -0.26724842 0.057655759
-0.40904728 -0.26722667 0.057645593
-0.40924683 -0.26719207 0.057718396
-0.40944245 -0.26715147 0.057838496
-0.40964705 -0.26711419 0.057926256
-0.40984544 -0.26707625 0.058024429
-0.41003209 -0.26704261 0.058101911
-0.41021904 -0.26700875 0.058180541
-0.41044024 -0.26696691 0.058286667
-0.41064018 -0.26692799 0.058390599
-0.41084358 -0.26688942 0.058488749
-0.41102353 -0.26685819 0.058554728
-0.41122636 -0.26681513 0.05868632
-0.41142124 -0.26678172 0.058754526
-0.41163999 -0.2667416 0.058850292
-0.41184816 -0.26670292 0.058944959
-0.41205281 -0.26666516 0.059036184
-0.41225284 -0.2666302 0.05911129
-0.41245723 -0.26658773 0.059237108
-0.41265723 -0.2665537 0.059305288
-0.41286719 -0.26650849 0.059446074
-0.41307217 -0.26646674 0.059566118
-0.3433066 -0.27465418 0.062652461
-0.3435148 -0.27462292 0.062692933
-0.34368438 -0.27460054 0.062703617
-0.34398413 -0.2745721 0.062641032
-0.34420958 -0.27454382 0.062644519
-0.34444809 -0.27452037 0.06260068
-0.34460059 -0.27447546 0.06279128
-0.3449094 -0.27446991 0.062553436
-0.34515402 -0.27444685 0.062501498
-0.34536958 -0.27441803 0.062517717
-0.34564495 -0.27440935 0.062333062
-0.34581852 -0.27436987 0.062464766
-0.34605357 -0.27434006 0.062470511
-0.3462069 -0.27430624 0.062579267
-0.34650388 -0.27428654 0.062455595
-0.34671423 -0.27425677 0.06248337
-0.34692407 -0.2742269 0.062512301
-0.34721011 -0.27421755 0.062322978
-0.34741786 -0.27418575 0.062368058
-0.34767389 -0.2741687 0.062261883
-0.34785691 -0.27413183 0.062365875
-0.34810513 -0.27411291 0.062280495
-0.3483206 -0.27408347 0.062301323
-0.34854922 -0.27405936 0.062271375
-0.34877405 -0.27403429 0.062251806
-0.34895301 -0.27400947 0.062271673
-0.34917262 -0.27398473 0.06225444
-0.34938037 -0.27395672 0.062271856
-0.34968957 -0.27393803 0.062129684
-0.34990698 -0.27391136 0.062128603
-0.35012442 -0.27388307 0.062139049
-0.35037076 -0.27386501 0.062049057
-0.3505879 -0.27383852 0.06204683
-0.35081276 -0.27381438 0.062020347
-0.35101473 -0.27378187 0.062075831
-0.35124072 -0.27375823 0.062044732
-0.35146904 -0.27373543 0.062005565
-0.35168707 -0.2737096 0.061997563
-0.35193619 -0.27369165 0.061904106
-0.35214084 -0.27366197 0.061936516
-0.35235715 -0.27363589 0.061931983
-0.35258237 -0.27361268 0.061898582
-0.35278121 -0.27357957 0.061961006
-0.35302114 -0.27356118 0.061879113
-0.35323343 -0.27353418 0.061884984
-0.35344449 -0.27350685 0.061894309
-0.35367358 -0.27348363 0.061857432
-0.35389137 -0.27345863 0.061843671
-0.35410756 -0.27343321 0.061834529
-0.35429651 -0.27340609 0.061862409
-0.3545174 -0.27338591 0.06181059
-0.35478392 -0.2733649 0.061723962
-0.3549664 -0.2733286 0.061824493
-0.35519236 -0.27330688 0.061779566
-0.35544971 -0.27329406 0.061641116
-0.35563371 -0.27325839 0.06173588
-0.35585648 -0.27323595 0.061699033
-0.3560679 -0.27320966 0.061700292
-0.35630995 -0.2731978 0.06156883
-0.35651821 -0.27316514 0.061619662
-0.35672104 -0.27313614 0.061648626
-0.35697913 -0.27312672 0.061484806
-0.35717064 -0.273092 0.061565701
-0.3573885 -0.27306861 0.06154041
-0.3575882 -0.27304441 0.061537109
-0.35779622 -0.27301571 0.061559141
-0.35803232 -0.27299353 0.061508402
-0.35828504 -0.27298334 0.06135498
-0.35848215 -0.27295285 0.061400108
-0.35868448 -0.27293006 0.061384119
-0.35889915 -0.2729004 0.061407261
-0.35910398 -0.2728729 0.061423529
-0.35926723 -0.2728413 0.061506875
-0.3595542 -0.27283359 0.061304867
-0.35973766 -0.27281186 0.061298192
-0.3599773 -0.27278039 0.061311983
-0.36017558 -0.27275068 0.061350197
-0.36038572 -0.27272567 0.061343383
-0.36061752 -0.27270734 0.061268456
-0.36083603 -0.27268589 0.061228186
-0.36104554 -0.27265891 0.061236359
-0.36125463 -0.27263388 0.061230712
-0.36147162 -0.27261215 0.061193895
-0.36168072 -0.27258727 0.061187096
-0.36188817 -0.27255976 0.061201058
-0.36211571 -0.27254272 0.061120383
-0.36230946 -0.27250963 0.061187427
-0.36251938 -0.27248544 0.061174862
-0.36274385 -0.27246752 0.06110343
-0.36295426 -0.27244374 0.061087392
-0.3631666 -0.2724188 0.061078273
-0.36337411 -0.27239397 0.061072633
-0.36357331 -0.27236557 0.061100461
-0.3638095 -0.27235997 0.060928673
-0.36401486 -0.2723237 0.061008353
-0.36422119 -0.27229869 0.061005019
-0.36444196 -0.27227807 0.060956657
-0.36464247 -0.27225059 0.060976408
-0.36485302 -0.27222556 0.060969606
-0.36506608 -0.27220398 0.060935117
-0.36527467 -0.27218044 0.060919099
-0.36548251 -0.27215666 0.060905382
-0.36569828 -0.27213445 0.060873188
-0.36590794 -0.27211171 0.06085024
-0.36612433 -0.27209005 0.060813423
-0.36632395 -0.27206272 0.06083319
-0.36654025 -0.2720412 0.060795225
-0.36674535 -0.27201667 0.060789596
-0.36694765 -0.27198851 0.060812797
-0.36714998 -0.27196273 0.060818709
-0.36736611 -0.2719416 0.060778446
-0.36758479 -0.27192423 0.060708188
-0.3677974 -0.27190396 0.060664479
-0.36800289 -0.2718778 0.060670383
-0.3682082 -0.27185404 0.060658988
-0.36841714 -0.27182981 0.060647573
-0.36863023 -0.27181029 0.060598094
-0.36884055 -0.27178699 0.060578607
-0.36905247 -0.27176714 0.060532592
-0.36924759 -0.27173594 0.060584649
-0.36944696 -0.27171448 0.060561761
-0.36966276 -0.27168956 0.060549162
-0.36988428 -0.27167547 0.060452379
-0.37008685 -0.27164856 0.060466364
-0.37028536 -0.27162197 0.060481519
-0.37049562 -0.2715995 0.060456268
-0.37068006 -0.27156502 0.060541801
-0.37090644 -0.27155191 0.060433477
-0.37112194 -0.27153543 0.060359776
-0.37131852 -0.27150545 0.060401451
-0.37152115 -0.27148169 0.06039238
-0.37173486 -0.27146193 0.060344055
-0.37192738 -0.27143231 0.060386896
-0.37213817 -0.271411 0.060352422
-0.37233642 -0.27138492 0.060364116
-0.37254754 -0.27136409 0.060326178
-0.37276027 -0.27134714 0.060258262
-0.37296337 -0.27132156 0.060261868
-0.37316728 -0.27129939 0.060240105
-0.3733739 -0.27127624 0.060222939
-0.37355167 -0.27126294 0.060159806
-0.37377876 -0.27122766 0.060212858
-0.37395027 -0.27119619 0.060288087
-0.37413466 -0.27117023 0.060311384
-0.37439662 -0.27116099 0.060142923
-0.37455642 -0.27113631 0.060179025
-0.37478629 -0.27112073 0.060085654
-0.37500006 -0.2710855 0.060150303
-0.37520209 -0.27106306 0.060132008
-0.37540883 -0.27104101 0.060106777
-0.37560588 -0.2710214 0.060072362
-0.37581626 -0.27099606 0.060067862
-0.3760196 -0.27097505 0.060038038
-0.37618306 -0.27094394 0.060117923
-0.37640616 -0.27092808 0.060032655
-0.37661669 -0.27090004 0.060047746
-0.37682775 -0.27088517 0.059966005
-0.37703475 -0.27086437 0.059931546
-0.37722883 -0.27085 0.059861422
-0.37743279 -0.27081409 0.059939951
-0.37763348 -0.27079198 0.059920501
-0.37782744 -0.27076802 0.059920691
-0.37803435 -0.27074435 0.059906982
-0.37824452 -0.27072677 0.059845991
-0.37843943 -0.27070048 0.059862323
-0.3786279 -0.27067924 0.059847549
-0.37882155 -0.27065548 0.059846587
-0.37901103 -0.27062827 0.059874468
-0.37922633 -0.27061227 0.059797317
-0.37943786 -0.27058977 0.059770904
-0.379628 -0.27056691 0.059766497
-0.37981933 -0.27054518 0.059752874
-0.38004574 -0.27051786 0.059748292
-0.38022175 -0.27050114 0.059711672
-0.38041258 -0.27047551 0.059726864
-0.38063568 -0.27044925 0.059717689
-0.38083348 -0.27043018 0.05967867
-0.38102028 -0.27040866 0.059667364
-0.38121501 -0.27038699 0.059650265
-0.3814224 -0.27036184 0.059646923
-0.38163742 -0.27033228 0.05966891
-0.38183686 -0.27031949 0.059582617
-0.38202718 -0.27029392 0.059597809
-0.38223186 -0.27027056 0.059584111
-0.38243142 -0.27025032 0.059551995
-0.38261577 -0.27023134 0.059524558
-0.38284123 -0.27020887 0.059485406
-0.38303769 -0.27018586 0.059476361
-0.38321996 -0.27016506 0.059463929
-0.38343742 -0.27013886 0.059459388
-0.38363883 -0.27012154 0.059404202
-0.38381624 -0.27009124 0.05946558
-0.38403246 -0.27007294 0.059404559
-0.38421708 -0.27005073 0.059400182
-0.3844153 -0.27003053 0.059369221
-0.38459158 -0.26999876 0.059442129
-0.38479248 -0.26998186 0.059384644
-0.38500026 -0.26996392 0.05932828
-0.38518956 -0.26994798 0.059274308
-0.38538209 -0.26991659 0.059329838
-0.38558131 -0.26989847 0.059282735
-0.38580027 -0.26987553 0.059252836
-0.38598141 -0.26985487 0.059240408
-0.38617057 -0.26983452 0.059218716
-0.38636714 -0.26981369 0.059193533
-0.38657805 -0.26978591 0.059206314
-0.38676846 -0.26976225 0.059207678
-0.38695496 -0.26973319 0.059251707
-0.38714418 -0.26971895 0.059185065
-0.38736421 -0.26969892 0.059133243
-0.38755834 -0.2696811 0.059088472
-0.38774508 -0.26965833 0.05908639
-0.38794374 -0.26963013 0.059113078
-0.38813421 -0.26960725 0.059108671
-0.38834012 -0.26958433 0.059090354
-0.3885324 -0.26956454 0.059061732
-0.3887305 -0.2695418 0.059049226
-0.3889313 -0.2695173 0.059047073
-0.38912472 -0.2694999 0.059
-0.38931796 -0.26947585 0.059001349
-0.3895098 -0.26945609 0.058972728
-0.38971215 -0.2694349 0.058945209
-0.38989565 -0.2694073 0.058981188
-0.39008906 -0.26938391 0.058977917
-0.39030463 -0.26936644 0.058911145
-0.3904905 -0.26934347 0.058911368
-0.39067814 -0.26932406 0.058883928
-0.39088386 -0.26930308 0.058851775
-0.39106971 -0.26928043 0.058849707
-0.39126703 -0.26925811 0.058834884
-0.39145643 -0.26922697 0.058891587
-0.39163855 -0.26920447 0.058891837
-0.3918553 -0.26919222 0.058785863
-0.39204946 -0.26916319 0.05882293
-0.39223909 -0.26915002 0.058748212
-0.39243522 -0.26913494 0.058681536
-0.392629 -0.26910517 0.058724374
-0.39282289 -0.26908499 0.058696903
-0.39301109 -0.26906002 0.058709797
-0.39321116 -0.26903671 0.058699578
-0.39340082 -0.26901579 0.058681354
-0.39360458 -0.26899284 0.058665346
-0.39380935 -0.26897308 0.058625139
-0.3939985 -0.2689513 0.058613826
-0.39418748 -0.26892903 0.058605969
-0.39438292 -0.26890394 0.058613069
-0.39458215 -0.26887918 0.058614384
-0.39477196 -0.26886016 0.058582321
-0.39496675 -0.26884618 0.058508724
-0.39515471 -0.26882124 0.058521621
-0.39534467 -0.26880392 0.05847688
-0.39553288 -0.26878002 0.058481708
-0.39572504 -0.26875737 0.058473833
-0.39592466 -0.26873559 0.058453243
-0.3961173 -0.26871556 0.058425769
-0.39631963 -0.26868993 0.058430526
-0.39651594 -0.26867074 0.058393821
-0.39669627 -0.26864433 0.058424052
-0.3968896 -0.26862946 0.058358539
-0.39708483 -0.2686055 0.058357567
-0.39727572 -0.26857671 0.058395814
-0.39747211 -0.2685605 0.058337197
-0.39765975 -0.26853383 0.058362778
-0.39785945 -0.2685169 0.058306456
-0.39805141 -0.26849648 0.058282446
-0.39823988 -0.2684778 0.058249235
-0.39844257 -0.2684586 0.058206722
-0.39864093 -0.26843205 0.058221873
-0.39882198 -0.26841265 0.058200233
-0.39900625 -0.26838863 0.058209687
-0.39919782 -0.26836732 0.058192596
-0.39939252 -0.26833758 0.058234289
-0.39958769 -0.26831773 0.058203343
-0.39978278 -0.26829758 0.058174711
-0.39997426 -0.26827818 0.058143783
-0.40016216 -0.26826364 0.058080606
-0.40035343 -0.26823702 0.058102708
-0.40054828 -0.26821515 0.058086757
-0.40074307 -0.26819408 0.058065038
-0.400938 -0.26816574 0.058096349
-0.40112567 -0.26814586 0.058072358
-0.40132019 -0.26812848 0.058024127
-0.40151143 -0.26810467 0.058025483
-0.40170622 -0.26808062 0.058025673
-0.40190095 -0.26805735 0.058020085
-0.40209869 -0.26804018 0.057967231
-0.40228951 -0.26802057 0.057938617
-0.40249094 -0.26799884 0.057915717
-0.40267438 -0.26798201 0.057873309
-0.40287304 -0.26795352 0.057902291
-0.40305716 -0.2679306 0.057903681
-0.4032599 -0.26789892 0.057952244
-0.40345362 -0.26788193 0.057901707
-0.40363714 -0.26786304 0.057874288
-0.40381634 -0.26784879 0.057816908
-0.40401718 -0.26782888 0.057781331
-0.40420488 -0.26780489 0.05778731
-0.40439877 -0.26778474 0.05775984
-0.40459335 -0.26776102 0.05775772
-0.40477172 -0.26773247 0.057805251
-0.40497211 -0.26771387 0.057760451
-0.40515804 -0.26769802 0.057708807
-0.40533826 -0.26767686 0.057700992
-0.40553477 -0.2676453 0.0577542
-0.40572989 -0.26761979 0.05776475
-0.40590999 -0.2675994 0.057751179
-0.40611127 -0.26758891 0.057646431
-0.40631336 -0.26756287 0.057654649
-0.40651029 -0.26754278 0.057623699
-0.40668482 -0.2675291 0.057566337
-0.40686852 -0.26750734 0.057559665
-0.4070521 -0.26749668 0.057472304
-0.40725508 -0.26746765 0.057501264
-0.40745088 -0.26744014 0.057525657
-0.40763634 -0.26742321 0.057482075
-0.40783352 -0.26739207 0.057531826
-0.40803054 -0.26737106 0.057507787
-0.40821964 -0.26734406 0.057534508
-0.40840232 -0.26732525 0.057507094
-0.40860829 -0.26728988 0.057579845
-0.40885359 -0.26724949 0.057653554
-0.40904519 -0.26722565 0.057654906
-0.40924099 -0.26719183 0.057725407
-0.40943635 -0.26715174 0.057842024
-0.40963715 -0.26711524 0.057927482
-0.40983927 -0.26707637 0.058029074
-0.41002229 -0.26704317 0.058106557
-0.41020966 -0.26700833 0.058192082
-0.41042978 -0.26696852 0.058284361
-0.41063005 -0.26692876 0.05839403
-0.4108299 -0.2668905 0.058493331
-0.41101333 -0.26685882 0.058559276
-0.41122308 -0.26681522 0.058688495
-0.4114075 -0.26678246 0.058761358
-0.41162947 -0.26674244 0.058853634
-0.41183364 -0.26670489 0.058943681
-0.412038 -0.26666749 0.059032589
-0.412242 -0.26663125 0.059113417
-0.41244641 -0.26658863 0.059240364
-0.41264227 -0.26655588 0.059302792
-0.41285211 -0.2665107 0.059443541
-0.41305703 -0.26646897 0.059563555
-0.34312016 -0.2746754 0.06266544
-0.34332412 -0.27464309 0.062717497
-0.34349886 -0.27461278 0.0627812
-0.34378597 -0.27458876 0.062697999
-0.34403595 -0.27456644 0.06263572
-0.34427664 -0.27454194 0.062597685
-0.34446794 -0.27450678 0.062682062
-0.34469929 -0.2744801 0.062668279
-0.34497204 -0.27446559 0.06252867
-0.34519434 -0.27443686 0.062537983
-0.34543151 -0.27441362 0.062494196
-0.34564742 -0.27440369 0.062372148
-0.34588665 -0.2743609 0.06246898
-0.34607065 -0.27432251 0.062583357
-0.34631461 -0.27430141 0.062517643
-0.34653616 -0.27427611 0.062502757
-0.34674737 -0.27424181 0.062562838
-0.34706655 -0.27423957 0.062291607
-0.34725896 -0.27420521 0.062369071
-0.34752369 -0.27418882 0.062250238
-0.34770465 -0.27415144 0.062360018
-0.34794 -0.27412727 0.062324323
-0.34817213 -0.274104 0.062285181
-0.34839109 -0.27407554 0.062295657
-0.34861758 -0.27405089 0.062271524
-0.34883302 -0.2740216 0.062291242
-0.34901419 -0.27399415 0.062328413
-0.34923849 -0.27397403 0.062273175
-0.34948719 -0.2739462 0.062252391
-0.34978211 -0.27393177 0.062091928
-0.34997484 -0.27389801 0.062164776
-0.35021242 -0.27387565 0.062114075
-0.35045615 -0.27385521 0.062043756
-0.35066393 -0.2738243 0.062081948
-0.35090527 -0.27380511 0.06200473
-0.3511079 -0.27377281 0.062057935
-0.35134229 -0.2737518 0.062000334
-0.3515625 -0.27372491 0.061998133
-0.35178846 -0.27369985 0.061977461
-0.35201454 -0.27367494 0.061955631
-0.35223091 -0.27364886 0.061951146
-0.35245875 -0.27362466 0.061922394
-0.35266089 -0.27359432 0.06196177
-0.35289228 -0.27357143 0.061920326
-0.35309929 -0.27354097 0.061956227
-0.35332948 -0.27351794 0.061917085
-0.35355222 -0.27349436 0.061888363
-0.35377619 -0.27346957 0.061867692
-0.35399464 -0.27344307 0.061864346
-0.35421643 -0.27341774 0.061849464
-0.35439363 -0.27338856 0.061902788
-0.35467967 -0.27337745 0.061726227
-0.35489529 -0.2733486 0.061742485
-0.35507441 -0.27330941 0.061867263
-0.35534436 -0.27330074 0.061687324
-0.35558116 -0.27328116 0.061617039
-0.35576847 -0.27324662 0.061700284
-0.35598719 -0.27322105 0.061690018
-0.35620874 -0.27319652 0.061669365
-0.35640961 -0.27317044 0.061678782
-0.35661763 -0.27313763 0.06173081
-0.35687584 -0.2731263 0.061580893
-0.35706392 -0.27310529 0.061565012
-0.35731202 -0.27307576 0.061556906
-0.35750353 -0.27304295 0.061624002
-0.35773572 -0.27302295 0.061560646
-0.35793778 -0.27299973 0.061548159
-0.35818639 -0.27299371 0.06136832
-0.35840759 -0.27295676 0.061438728
-0.35860234 -0.27294075 0.061380163
-0.35880986 -0.27290452 0.061457552
-0.35903823 -0.27287617 0.061458766
-0.35922521 -0.27283996 0.061554685
-0.35947642 -0.27283219 0.061385214
-0.35968024 -0.27282217 0.061274745
-0.35988024 -0.27279508 0.061292235
-0.36011812 -0.27275309 0.061384458
-0.36033919 -0.27273035 0.061351128
-0.36056289 -0.2727108 0.061292432
-0.36077258 -0.2726838 0.061300658
-0.36098334 -0.27265728 0.061304256
-0.36119938 -0.27263299 0.06128709
-0.36141825 -0.27261195 0.061243396
-0.36163032 -0.27258623 0.061240084
-0.36184281 -0.27256078 0.061234459
-0.36207014 -0.27254155 0.061169978
-0.36227989 -0.27251723 0.061158601
-0.36248288 -0.27248803 0.06118875
-0.36268803 -0.27246192 0.061194688
-0.36293218 -0.27245042 0.06105867
-0.3631359 -0.27242178 0.061084203
-0.36334127 -0.27239388 0.061102822
-0.3635529 -0.2723709 0.061079912
-0.36373666 -0.27234864 0.06107673
-0.3639932 -0.27232853 0.060992517
-0.36419445 -0.27229908 0.061026134
-0.36441028 -0.27227843 0.060982458
-0.36461133 -0.27224901 0.061016075
-0.3648178 -0.2722221 0.061026618
-0.36504745 -0.27220589 0.060937919
-0.36526084 -0.27218461 0.06090118
-0.36545852 -0.27215385 0.060947489
-0.36567184 -0.27213272 0.060909588
-0.36588663 -0.27211013 0.060880899
-0.36610487 -0.27208936 0.060836062
-0.36632469 -0.27206948 0.060783148
-0.3665213 -0.27204075 0.060815629
-0.36673814 -0.27201965 0.060774259
-0.36693227 -0.27198982 0.060817122
-0.36714292 -0.27196586 0.060802296
-0.36736023 -0.27194536 0.060756296
-0.36756501 -0.27191862 0.060766853
-0.36776438 -0.27189636 0.060749762
-0.36798468 -0.27187297 0.060722202
-0.36819693 -0.27185273 0.060678542
-0.36841273 -0.27183208 0.060634866
-0.36861783 -0.27180597 0.060640801
-0.36882982 -0.27178356 0.060613282
-0.36904007 -0.27176282 0.060575396
-0.36924478 -0.27173674 0.060581334
-0.36943853 -0.27170727 0.060621902
-0.36965722 -0.27168643 0.060577065
-0.36987334 -0.27166936 0.060506869
-0.37008828 -0.2716493 0.06045974
-0.37028146 -0.2716172 0.060519911
-0.37049425 -0.27159613 0.06048201
-0.37068528 -0.27156541 0.06053412
-0.37090117 -0.27154633 0.060478911
-0.37112063 -0.2715295 0.0604041
-0.37132126 -0.27150187 0.060425036
-0.37152764 -0.27148032 0.060396388
-0.37173295 -0.27145562 0.060391959
-0.37193486 -0.27142891 0.06040483
-0.37213933 -0.27140382 0.060403846
-0.37234235 -0.27138063 0.060390197
-0.37254959 -0.27135739 0.060373075
-0.37277254 -0.27134678 0.060249835
-0.37297302 -0.27131963 0.060267322
-0.37317231 -0.27129453 0.060270987
-0.37336919 -0.27126801 0.060287319
-0.37354201 -0.27124867 0.060272668
-0.37376752 -0.27122366 0.060252
-0.37397963 -0.27119291 0.060285565
-0.37417394 -0.27116194 0.060336508
-0.3743934 -0.27115062 0.060221352
-0.37455902 -0.27112398 0.060266666
-0.37476635 -0.27110785 0.060197674
-0.37500736 -0.27108222 0.060167708
-0.37520662 -0.2710579 0.060165606
-0.37541276 -0.27103543 0.060143873
-0.3756066 -0.27101353 0.060129113
-0.37581849 -0.27098927 0.060115427
-0.37603194 -0.27097237 0.060046412
-0.37622371 -0.27094001 0.060110033
-0.37642887 -0.27092049 0.060067557
-0.37663478 -0.27089852 0.060042378
-0.37684155 -0.27088058 0.05998721
-0.37704453 -0.27085993 0.059955128
-0.37722448 -0.2708413 0.059928909
-0.37743318 -0.27081552 0.059929065
-0.37764198 -0.27078989 0.059928067
-0.37782893 -0.27076378 0.059950233
-0.37804419 -0.27074003 0.059929602
-0.37825432 -0.27072245 0.059868675
-0.37845176 -0.27069822 0.059867732
-0.37864378 -0.27067307 0.059878334
-0.37883744 -0.27064928 0.059877411
-0.37904465 -0.27062291 0.059883337
-0.3792344 -0.27060655 0.059831724
-0.37944901 -0.2705867 0.059783444
-0.37964335 -0.27056029 0.059800953
-0.37982944 -0.27053398 0.05982542
-0.380061 -0.27051851 0.059729807
-0.38024673 -0.27049571 0.059728913
-0.38042468 -0.27046597 0.059785698
-0.38064525 -0.2704449 0.059740849
-0.38084817 -0.27042675 0.059690319
-0.3810454 -0.2704035 0.059682459
-0.38123521 -0.27037719 0.059703451
-0.38144976 -0.27035496 0.059672464
-0.38165426 -0.27033508 0.059633449
-0.38184154 -0.27031446 0.059615262
-0.38204789 -0.27028865 0.059617735
-0.38225341 -0.27026609 0.059597164
-0.38245484 -0.27024785 0.059548952
-0.38265064 -0.27022398 0.059546851
-0.38284695 -0.27020493 0.059509039
-0.38305193 -0.27018243 0.05948846
-0.38323301 -0.27016038 0.059486449
-0.38345426 -0.27013826 0.05944851
-0.3836495 -0.27011871 0.059415303
-0.38383099 -0.27008852 0.059472065
-0.38402617 -0.27007359 0.059405446
-0.38421395 -0.27004594 0.059437968
-0.38441604 -0.27002555 0.059404731
-0.38462621 -0.26999614 0.059430238
-0.38480246 -0.26997843 0.059400573
-0.38500732 -0.2699618 0.059337363
-0.38519201 -0.26994026 0.059328414
-0.38539815 -0.26991099 0.059356242
-0.38559747 -0.26989299 0.059308037
-0.38580626 -0.26987228 0.059271313
-0.38598976 -0.26984957 0.059271589
-0.38618001 -0.26983064 0.059238408
-0.38638136 -0.26981097 0.059200555
-0.38658294 -0.26978654 0.059197295
-0.38678309 -0.26976025 0.059209023
-0.38697234 -0.26972958 0.059262283
-0.38715598 -0.26971304 0.059217606
-0.38737801 -0.26969591 0.059142783
-0.38756511 -0.26967925 0.059095792
-0.38775247 -0.26965165 0.059128314
-0.38795343 -0.26962698 0.059127357
-0.38813862 -0.2696079 0.059099972
-0.38835055 -0.2695885 0.059050545
-0.38853726 -0.26956606 0.059046194
-0.38873336 -0.26954025 0.05905794
-0.38893977 -0.2695187 0.059029289
-0.3891269 -0.26949731 0.059016876
-0.38932934 -0.26947594 0.058990549
-0.38951617 -0.26945424 0.058980435
-0.38971061 -0.2694326 0.058963373
-0.38990578 -0.26940548 0.058985487
-0.39009756 -0.2693862 0.058953453
-0.3903082 -0.2693668 0.058905192
-0.39049995 -0.26934057 0.058923874
-0.39068803 -0.26932207 0.058889549
-0.3908948 -0.26930332 0.058840156
-0.39108366 -0.26927918 0.058846176
-0.39127323 -0.26925656 0.058840647
-0.39147091 -0.26922709 0.058877744
-0.39164883 -0.26920381 0.058887269
-0.39186546 -0.26919144 0.058782503
-0.39205185 -0.26916191 0.058830023
-0.39224488 -0.26914802 0.058757637
-0.39243698 -0.26913232 0.058699094
-0.39263538 -0.26910481 0.0587212
-0.39282504 -0.26908359 0.058705308
-0.39302048 -0.26905802 0.058715906
-0.39321747 -0.26903668 0.058694214
-0.39341038 -0.26901457 0.058681771
-0.39360791 -0.26899523 0.058645088
-0.39380884 -0.26897529 0.05860956
-0.3939977 -0.26895273 0.058604039
-0.39419258 -0.26892596 0.058623858
-0.39439562 -0.26890168 0.058618277
-0.39459211 -0.26888022 0.058597751
-0.39477795 -0.26886058 0.058573812
-0.39497596 -0.26884511 0.058508322
-0.39515668 -0.2688207 0.058523588
-0.39534974 -0.26880142 0.058490399
-0.39553812 -0.26877832 0.058489501
-0.39573738 -0.26875496 0.058480479
-0.39593318 -0.26873264 0.058466874
-0.3961263 -0.26871493 0.058422148
-0.39632145 -0.26869005 0.058428131
-0.39652097 -0.26866901 0.058401823
-0.39670858 -0.26864284 0.058423981
-0.39689821 -0.26862791 0.058361985
-0.39709318 -0.2686024 0.058372587
-0.39729121 -0.26857337 0.058406208
-0.39747673 -0.26855707 0.058358073
-0.39767551 -0.26853296 0.058354814
-0.39787525 -0.26851699 0.058291629
-0.39806345 -0.26849562 0.058278047
-0.39825559 -0.26847818 0.058232173
-0.39845464 -0.26845929 0.05819089
-0.39864933 -0.26843253 0.058210708
-0.39883348 -0.26840788 0.058224808
-0.39902478 -0.26838249 0.058237728
-0.39922327 -0.26835701 0.058244843
-0.39941105 -0.26833159 0.058261238
-0.39961359 -0.26831841 0.058174983
-0.3998014 -0.268296 0.058169477
-0.39999637 -0.26827586 0.058140881
-0.40018064 -0.26825798 0.058105424
-0.40037897 -0.26822731 0.058150589
-0.40057024 -0.26821047 0.058101263
-0.40076849 -0.26819134 0.058062278
-0.40095991 -0.26816121 0.058109775
-0.40115449 -0.26814362 0.058062743
-0.40134916 -0.26812178 0.058046833
-0.40154728 -0.26809999 0.058027439
-0.40173832 -0.26807907 0.058008086
-0.40194008 -0.26805475 0.058003664
-0.40212771 -0.26803157 0.058003929
-0.4023287 -0.26801544 0.057940725
-0.40251896 -0.26800013 0.057881031
-0.40271342 -0.26797736 0.057872038
-0.4029049 -0.26795021 0.057897639
-0.40309662 -0.2679221 0.057930142
-0.40330908 -0.2678954 0.05793374
-0.40349555 -0.26787993 0.057878673
-0.40368685 -0.26785517 0.057886988
-0.40386307 -0.26783779 0.057855025
-0.40405235 -0.26782453 0.057781503
-0.4042542 -0.26779863 0.057788614
-0.40443751 -0.26777929 0.057764683
-0.40463617 -0.2677522 0.057783335
-0.40483215 -0.26772198 0.05782735
-0.40502104 -0.26770845 0.057756141
-0.40520835 -0.2676864 0.057748333
-0.40539739 -0.26765719 0.057791222
-0.4055993 -0.26763177 0.057794861
-0.40579119 -0.26760551 0.057813548
-0.40597528 -0.26759589 0.057718158
-0.40618187 -0.2675781 0.05766185
-0.40637845 -0.26755917 0.057622872
-0.40656149 -0.26753971 0.057600103
-0.40674645 -0.26751384 0.057622269
-0.4069306 -0.26749074 0.057624847
-0.40712205 -0.26747674 0.057554774
-0.40732524 -0.26745763 0.057511158
-0.40751556 -0.26743615 0.057496417
-0.4077214 -0.26739937 0.057579584
-0.40791798 -0.26737964 0.057546362
-0.4081043 -0.26736009 0.05752128
-0.40829611 -0.26733482 0.057533033
-0.40849936 -0.26729754 0.057621971
-0.40874153 -0.26726481 0.057642713
-0.40893942 -0.26723355 0.057692479
-0.40912041 -0.26720282 0.057753857
-0.4093321 -0.26716354 0.057849668
-0.40952981 -0.26712617 0.057944383
-0.40973857 -0.26708728 0.058040209
-0.40992275 -0.26705125 0.058137301
-0.41011676 -0.26701638 0.058217056
-0.41033247 -0.26697868 0.058297854
-0.41054046 -0.26693657 0.058417886
-0.41074434 -0.26689667 0.058525257
-0.41092488 -0.26686394 0.058601618
-0.41114482 -0.26681986 0.058725052
-0.41132998 -0.26678562 0.058808304
-0.41154417 -0.26674747 0.058893718
-0.41175973 -0.26670727 0.058992967
-0.41196352 -0.26667088 0.059074983
-0.41216746 -0.26663461 0.05915584
-0.41237226 -0.26659116 0.059288569
-0.41256979 -0.26655537 0.059371766
-0.41277847 -0.26651809 0.059456058
