# .PCD v0.7 - Point Cloud Data file format
VERSION 0.7
FIELDS x y z
SIZE 4 4 4
TYPE F F F
COUNT 1 1 1
WIDTH 1269
HEIGHT 1
VIEWPOINT 0 0 0 1 0 0 0
POINTS 1269
DATA ascii
-0.19065852 -0.28417897 0.054056853
-0.19085729 -0.28422803 0.054089759
-0.19104838 -0.28428483 0.054052338
-0.1912338 -0.28433749 0.054033391
-0.19141544 -0.28438932 0.05401329
-0.19161032 -0.28443784 0.054042757
-0.19180597 -0.2844899 0.054047983
-0.19197449 -0.28454876 0.053951815
-0.19216144 -0.28460121 0.053937472
-0.19234055 -0.28465381 0.053907011
-0.19254407 -0.28470415 0.053939901
-0.19273318 -0.28475624 0.053932473
-0.19291069 -0.28481287 0.053869724
-0.19310442 -0.28486574 0.053865738
-0.19330822 -0.28491807 0.053884793
-0.19348514 -0.28496781 0.053870477
-0.19366239 -0.2850228 0.053819254
-0.19385685 -0.28507566 0.053816427
-0.1940439 -0.28513023 0.053787086
-0.19423369 -0.28518251 0.053779654
-0.19440722 -0.28523487 0.05373998
-0.194612 -0.28528571 0.053771719
-0.1948 -0.28534538 0.053707782
-0.19498593 -0.2853969 0.053698059
-0.19517186 -0.28544506 0.053712543
-0.1953477 -0.28550047 0.053655565
-0.19554286 -0.28554854 0.053688481
-0.19575213 -0.2856006 0.053720206
-0.19591507 -0.285662 0.053595219
-0.19610584 -0.28571114 0.053612001
-0.19632109 -0.28576225 0.053662166
-0.19651042 -0.28582177 0.053601686
-0.19667722 -0.28586912 0.053585082
-0.19686207 -0.28592291 0.053556908
-0.1970529 -0.28597403 0.053559862
-0.19721118 -0.28602627 0.053491391
-0.19744666 -0.2860758 0.053592239
-0.19761524 -0.28613916 0.053463776
-0.19781041 -0.28619128 0.053467866
-0.19799353 -0.28624237 0.05345583
-0.198199 -0.28630081 0.053434521
-0.19840586 -0.28634951 0.053485859
-0.19856568 -0.28640473 0.053398941
-0.19875093 -0.28645721 0.053381141
-0.19897024 -0.28650877 0.053435899
-0.19913593 -0.28656304 0.053367414
-0.19934046 -0.28661719 0.053374939
-0.19951823 -0.28667262 0.053321406
-0.19971681 -0.28672162 0.053354308
-0.19990218 -0.28677592 0.053323835
-0.20010856 -0.28682849 0.05334634
-0.20028812 -0.28688681 0.053275507
-0.20047484 -0.28694096 0.053248476
-0.200671 -0.28699526 0.053238727
-0.20086253 -0.28704575 0.053247437
-0.20105284 -0.28709799 0.053241152
-0.20123316 -0.28715473 0.053183004
-0.20144674 -0.28720975 0.053202033
-0.20166807 -0.28726524 0.05323258
-0.20185409 -0.2873213 0.053190552
-0.20201154 -0.28737685 0.053096723
-0.20218609 -0.28742114 0.053117003
-0.20239624 -0.28747842 0.053112976
-0.20259023 -0.2875379 0.053061713
-0.20274889 -0.28758594 0.053024389
-0.20296448 -0.28763825 0.053066477
-0.20316188 -0.28769594 0.053034797
-0.20334865 -0.2877405 0.053076971
-0.2035504 -0.28780064 0.053036064
-0.20375016 -0.28785673 0.053020529
-0.20391706 -0.2879068 0.052984331
-0.20410272 -0.28796181 0.052949235
-0.20427172 -0.2880131 0.052908413
-0.20453648 -0.28807166 0.053001113
-0.20471227 -0.2881251 0.052957963
-0.20487677 -0.28818128 0.052873343
-0.20508766 -0.28823218 0.052916594
-0.20530394 -0.28829384 0.052892946
-0.20548914 -0.28834775 0.052864768
-0.20567331 -0.28840041 0.052843511
-0.20589292 -0.28846186 0.052827924
-0.20608941 -0.2885161 0.052819323
-0.20628978 -0.28856722 0.052840695
-0.2064434 -0.28862044 0.052756093
-0.20663007 -0.28867441 0.052730221
-0.2068398 -0.28872615 0.052765407
-0.20701674 -0.2887812 0.052713029
-0.20719305 -0.28883222 0.052688334
-0.20742524 -0.2888847 0.052761521
-0.20761944 -0.28894907 0.052675653
-0.2078038 -0.28900081 0.052661318
-0.20796126 -0.28905508 0.052576706
-0.20818666 -0.28910318 0.052668355
-0.20840994 -0.2891677 0.052637771
-0.20859917 -0.28922188 0.052615352
-0.20880646 -0.28927857 0.052610174
-0.20902233 -0.28933722 0.05260729
-0.11737111 -0.26793975 0.028611066
-0.11756456 -0.26800358 0.02852756
-0.11776003 -0.26806909 0.028435979
-0.11795233 -0.26812956 0.028374393
-0.11813947 -0.26818928 0.028308207
-0.1183232 -0.26824522 0.028262779
-0.11849912 -0.26829836 0.028221978
-0.1186789 -0.26835161 0.028188096
-0.1188513 -0.26840094 0.028168062
-0.11903465 -0.26845706 0.028120324
-0.11920394 -0.26850426 0.028109524
-0.11937812 -0.26855373 0.028091794
-0.11954838 -0.26860183 0.028076382
-0.11971658 -0.26864696 0.028078264
-0.11988209 -0.26869315 0.028067473
-0.12005599 -0.26874125 0.028058972
-0.12021484 -0.26878098 0.028081633
-0.12038086 -0.26882473 0.028089289
-0.12054449 -0.26886976 0.028083112
-0.12070738 -0.26891121 0.028101154
-0.1208673 -0.2689504 0.028129581
-0.12101527 -0.2689819 0.028190322
-0.12117095 -0.26901627 0.028245281
-0.12132169 -0.26904833 0.028307166
-0.1214731 -0.26908091 0.028366746
-0.12162393 -0.269113 0.028428629
-0.12177268 -0.26914501 0.028487058
-0.12191924 -0.26917213 0.028576627
-0.12206351 -0.26919892 0.028663902
-0.12220816 -0.26922598 0.028750015
-0.12234899 -0.26925153 0.028839599
-0.12248939 -0.26927501 0.028943021
-0.12262957 -0.26929989 0.029036064
-0.12277605 -0.26932487 0.029140629
-0.12290853 -0.26934335 0.029264815
-0.12304456 -0.26936296 0.029387854
-0.12317456 -0.26937914 0.029523585
-0.12331408 -0.26939967 0.029646613
-0.12344528 -0.2694149 0.02979156
-0.12358484 -0.2694284 0.029965317
-0.12368328 -0.269416 0.030245259
-0.12381069 -0.26943439 0.03036024
-0.12393565 -0.26944715 0.030510971
-0.12405716 -0.26945156 0.030714761
-0.11869691 -0.26395714 0.059797019
-0.11891118 -0.26402146 0.05975036
-0.11913738 -0.26409414 0.059666775
-0.11934192 -0.26414797 0.05967664
-0.11956201 -0.26421565 0.059617292
-0.11974587 -0.26425362 0.059700992
-0.11995986 -0.26431611 0.059667021
-0.12016875 -0.26437417 0.05965497
-0.12037923 -0.26443377 0.059634846
-0.12058173 -0.26448867 0.059633188
-0.12079033 -0.26454678 0.059619978
-0.1210025 -0.26460832 0.059589468
-0.12120923 -0.26466498 0.059583187
-0.12141553 -0.26472378 0.059560768
-0.12162732 -0.26478535 0.059529111
-0.12183255 -0.26484099 0.059527434
-0.12203933 -0.26489815 0.059517696
-0.12224294 -0.26495492 0.059504509
-0.1224599 -0.26502192 0.059444007
-0.12268297 -0.26509488 0.059352353
-0.12286673 -0.26513073 0.059451066
-0.12306544 -0.26518333 0.059458636
-0.12327775 -0.26524648 0.0594166
-0.1234757 -0.26529852 0.059426479
-0.12370571 -0.26537913 0.0592933
-0.12391281 -0.26545596 0.059142895
-0.12411831 -0.26549497 0.059261139
-0.1243084 -0.26553977 0.059307948
-0.12450697 -0.26559296 0.059310906
-0.12465867 -0.26564232 0.059250563
-0.12490934 -0.26570749 0.059268385
-0.12512662 -0.26576892 0.059248243
-0.12533656 -0.26583129 0.059207365
-0.12554108 -0.26589105 0.059174567
-0.12573814 -0.26594061 0.0592006
-0.12594488 -0.26600289 0.059153959
-0.12615252 -0.26606351 0.059121154
-0.12635846 -0.26612255 0.059096422
-0.12655488 -0.26617178 0.059123602
-0.126755 -0.26622778 0.059109274
-0.12695822 -0.26628432 0.059097238
-0.12715501 -0.26633701 0.059100203
-0.12736078 -0.26639646 0.05907201
-0.12755835 -0.26644731 0.059089962
-0.12776697 -0.2665101 0.059043329
-0.1279652 -0.26656479 0.05903475
-0.12817965 -0.26663432 0.058951203
-0.12837557 -0.26668677 0.058954172
-0.12858292 -0.26674891 0.058909841
-0.1287761 -0.26679856 0.058927801
-0.12897608 -0.26685277 0.05892615
-0.12918288 -0.26691473 0.058881819
-0.12937549 -0.26696086 0.058923997
-0.12957278 -0.26701546 0.058914289
-0.12977631 -0.26707417 0.058887258
-0.12997805 -0.26713413 0.058847554
-0.13018085 -0.2671923 0.058822829
-0.13037504 -0.26724383 0.058829263
-0.1305864 -0.26731235 0.058746867
-0.13077706 -0.26735663 0.058798276
-0.13096634 -0.26740924 0.058787428
-0.13115084 -0.2674596 0.058783509
-0.13132927 -0.2674993 0.058844168
-0.13152674 -0.26756552 0.058751434
-0.13177173 -0.26763526 0.058725461
-0.13197288 -0.2676962 0.058677673
-0.1321647 -0.26774225 0.058718704
-0.1323763 -0.26781309 0.058620177
-0.13257444 -0.26786727 0.058615066
-0.13276888 -0.26792046 0.058609962
-0.13296378 -0.26797071 0.058626782
-0.13315803 -0.26802388 0.058621675
-0.13336106 -0.26808482 0.058577355
-0.13353637 -0.26813206 0.058578067
-0.13374825 -0.26819381 0.05854525
-0.13395174 -0.26825216 0.058520537
-0.1341458 -0.26830187 0.058539644
-0.13434498 -0.26836246 0.058490727
-0.13454811 -0.26842475 0.05843718
-0.13473742 -0.26847219 0.058463223
-0.13493344 -0.26852503 0.058463886
-0.13512766 -0.26857942 0.058449566
-0.13532701 -0.26863715 0.058421399
-0.13550951 -0.26869163 0.058384042
-0.13571896 -0.26875591 0.058328174
-0.13590725 -0.26881498 0.058268901
-0.13608119 -0.26886183 0.058269612
-0.13627192 -0.26890361 0.058339473
-0.13646185 -0.2689527 0.058355145
-0.13668802 -0.26901251 0.058363803
-0.13688694 -0.26907092 0.058329873
-0.13708302 -0.26912969 0.058287866
-0.13728222 -0.269189 0.05824817
-0.13746713 -0.26923993 0.058240786
-0.13766488 -0.26929274 0.058244899
-0.13786507 -0.26935887 0.058157925
-0.13805448 -0.26940331 0.05820588
-0.13823982 -0.26944587 0.058259606
-0.13844368 -0.26951396 0.058165707
-0.13863795 -0.26957142 0.058129475
-0.13882793 -0.26962197 0.058134768
-0.1390226 -0.26968053 0.058091618
-0.13920914 -0.2697356 0.058057711
-0.13939798 -0.26978454 0.058072224
-0.13959971 -0.2698352 0.058099404
-0.13977847 -0.26988223 0.058108173
-0.13998772 -0.26995194 0.0580131
-0.14018077 -0.27000892 0.057978034
-0.14037448 -0.27006194 0.057972938
-0.14055991 -0.27010515 0.058022056
-0.14071344 -0.27014485 0.058034353
-0.14094186 -0.27021253 0.057991114
-0.14109378 -0.27024347 0.058063384
-0.14131029 -0.27032381 0.05790602
-0.14152084 -0.27038103 0.057903193
-0.14170846 -0.27042887 0.057923481
-0.14190497 -0.27048871 0.057874557
-0.14210026 -0.27055272 0.057793364
-0.14225368 -0.27060604 0.057707652
-0.14244115 -0.27064773 0.05777175
-0.1426588 -0.27070159 0.057806954
-0.1428352 -0.27074558 0.057833031
-0.14303793 -0.27080724 0.057782941
-0.14323975 -0.27086726 0.057743233
-0.14343177 -0.27091914 0.057742763
-0.14362031 -0.27097026 0.057741132
-0.14379738 -0.27102372 0.057700336
-0.14397636 -0.27106696 0.057736784
-0.14418462 -0.27112886 0.05769591
-0.14438246 -0.27118844 0.057651602
-0.14457005 -0.271238 0.057659201
-0.14475366 -0.27128538 0.057674889
-0.14492625 -0.27133682 0.057639867
-0.14511172 -0.27138951 0.057620946
-0.14529364 -0.27144125 0.057602044
-0.14548947 -0.27150607 0.057516232
-0.1456939 -0.27155986 0.057526097
-0.14587429 -0.27160797 0.057530265
-0.1460658 -0.27166116 0.05751941
-0.14627366 -0.27171606 0.057528116
-0.14643316 -0.27175868 0.057531167
-0.14660506 -0.27181077 0.057490386
-0.14679775 -0.27186877 0.057447247
-0.14700399 -0.27192998 0.057407524
-0.14719275 -0.27197504 0.057449713
-0.14737184 -0.27201974 0.057475783
-0.14756046 -0.27207601 0.057437267
-0.1477365 -0.27212152 0.057451814
-0.14792283 -0.27218229 0.057376407
-0.14811873 -0.27223012 0.057412807
-0.14830144 -0.27229056 0.057332799
-0.14851813 -0.27235875 0.057263065
-0.14869341 -0.27240211 0.057291452
-0.14890718 -0.27245778 0.05730591
-0.14907266 -0.2725009 0.057317026
-0.14923596 -0.27254954 0.05728434
-0.14946046 -0.27261052 0.057281464
-0.14965709 -0.27266288 0.057286739
-0.1498275 -0.27271613 0.057234425
-0.15000315 -0.27276185 0.057246678
-0.15019059 -0.27281988 0.057193168
-0.15038732 -0.27287433 0.057183448
-0.15058357 -0.27292594 0.057193331
-0.15073487 -0.27296409 0.057212565
-0.15090844 -0.2730211 0.057139486
-0.15110956 -0.2730875 0.057052501
-0.15131512 -0.27313405 0.057116561
-0.15150084 -0.27318233 0.057129934
-0.15167248 -0.27322325 0.057168707
-0.15185967 -0.27329054 0.057048324
-0.15203533 -0.27334172 0.057021365
-0.15223151 -0.27339825 0.056995507
-0.15241697 -0.27344534 0.057016946
-0.15259904 -0.2734918 0.057036098
-0.15278147 -0.27355009 0.056971077
-0.15296684 -0.27359426 0.057013273
-0.15314555 -0.27364624 0.056986302
-0.15334827 -0.27371579 0.056879718
-0.15354389 -0.27376577 0.056899983
-0.15371871 -0.27382714 0.056798078
-0.15389732 -0.27386257 0.056889884
-0.1541063 -0.27392754 0.056828253
-0.15430886 -0.2739765 0.056869246
-0.15448712 -0.27402613 0.05685842
-0.15465854 -0.27407295 0.056854535
-0.15484336 -0.27412739 0.05682179
-0.15501143 -0.2741712 0.056832898
-0.15523677 -0.27424204 0.056760848
-0.15542194 -0.27428985 0.056776531
-0.15558665 -0.27433181 0.056794569
-0.1557878 -0.27439433 0.056735262
-0.1559653 -0.27444664 0.056703687
-0.15614657 -0.27449676 0.056695156
-0.1563383 -0.27454808 0.056698136
-0.15653975 -0.27460557 0.056675725
-0.15671383 -0.27465519 0.056656845
-0.15689485 -0.27470589 0.056643706
-0.15705878 -0.27475163 0.056632921
-0.15725169 -0.27481452 0.056555185
-0.15744895 -0.27487281 0.05651895
-0.157627 -0.27491915 0.056531191
-0.15781234 -0.27498129 0.056444246
-0.15799917 -0.27502102 0.056521032
-0.15819167 -0.27506807 0.056556303
-0.15837258 -0.27511775 0.056550082
-0.15855914 -0.27517363 0.056510415
-0.15875879 -0.27523482 0.056458022
-0.15893371 -0.27527919 0.056478344
-0.15910789 -0.27532628 0.056477908
-0.15928793 -0.27537829 0.056453243
-0.159484 -0.27543786 0.056405485
-0.15966758 -0.2754899 0.05638773
-0.1598648 -0.27553469 0.05644834
-0.16005038 -0.27559158 0.056399457
-0.16024353 -0.27564794 0.056368992
-0.1604142 -0.27569392 0.056369714
-0.16058995 -0.27574623 0.056334682
-0.16079435 -0.27580225 0.056328412
-0.1609748 -0.27585199 0.056321044
-0.16114464 -0.27589983 0.056306783
-0.16133896 -0.27595267 0.056303985
-0.16152439 -0.27600822 0.056264322
-0.16171326 -0.2760644 0.056226958
-0.16189605 -0.27610883 0.05626224
-0.16205524 -0.27614641 0.05630105
-0.16224635 -0.27620575 0.056245223
-0.16243193 -0.276245 0.056323159
-0.16262148 -0.27630714 0.056244284
-0.16278793 -0.27635357 0.056233492
-0.16298008 -0.27641752 0.05614654
-0.16316888 -0.27647287 0.056114934
-0.1633499 -0.276521 0.056120239
-0.16352879 -0.27657288 0.056094427
-0.16373059 -0.27661923 0.056152727
-0.16390045 -0.27668616 0.056001261
-0.16409917 -0.27673119 0.056063026
-0.16427527 -0.27678087 0.0560476
-0.16445178 -0.27682987 0.056037933
-0.16465966 -0.27688605 0.056037411
-0.16482672 -0.27693713 0.055994332
-0.16502306 -0.27698651 0.056020357
-0.1651863 -0.27703124 0.056015342
-0.16537282 -0.27708906 0.055961836
-0.16556725 -0.27714127 0.055963658
-0.16573901 -0.27719668 0.055898655
-0.16591917 -0.277246 0.055893596
-0.16610195 -0.27729732 0.055879302
-0.16628796 -0.27735513 0.055824649
-0.16647272 -0.2774038 0.055833407
-0.16666014 -0.27744916 0.055870987
-0.16682939 -0.27750179 0.055820987
-0.16702469 -0.27755296 0.055832025
-0.16721123 -0.27759969 0.055858083
-0.16740355 -0.27765456 0.055836845
-0.16757996 -0.27770832 0.055792585
-0.16776265 -0.27775961 0.055778291
-0.16795775 -0.27781123 0.055785879
-0.16812247 -0.27785894 0.055762406
-0.16829491 -0.27791679 0.055681262
-0.16850032 -0.27796188 0.055755701
-0.1686956 -0.278027 0.055666432
-0.16887559 -0.27808544 0.055595648
-0.16904727 -0.27812573 0.055639029
-0.1692218 -0.27818078 0.055582099
-0.16941772 -0.2782273 0.055627726
-0.16959795 -0.27827665 0.055622667
-0.16977464 -0.2783252 0.055616457
-0.16997363 -0.27838588 0.055566378
-0.17015423 -0.27843484 0.055564776
-0.17033681 -0.2784861 0.055550486
-0.17050207 -0.27853703 0.055505104
-0.17066878 -0.27858257 0.055501219
-0.17086861 -0.27864218 0.055460367
-0.17106676 -0.27869928 0.055434506
-0.17126516 -0.27874839 0.055466291
-0.17143361 -0.27880019 0.055420902
-0.17160691 -0.27884781 0.05541471
-0.17178699 -0.27889359 0.055435017
-0.17196791 -0.2789388 0.055461079
-0.1721786 -0.27900055 0.055425968
-0.17236651 -0.27905488 0.055400122
-0.17255148 -0.2791079 0.055377755
-0.17273398 -0.27916285 0.055336945
-0.17290102 -0.27921185 0.055308856
-0.17307812 -0.27926725 0.055254217
-0.17324634 -0.27931526 0.055235352
-0.17345119 -0.27936727 0.055259053
-0.17363635 -0.27941665 0.055263199
-0.17380756 -0.27946261 0.05526508
-0.17399885 -0.27951109 0.055287659
-0.17416893 -0.27956462 0.055233046
-0.17434919 -0.27962086 0.055178396
-0.17453124 -0.27966926 0.055183712
-0.17472525 -0.27971286 0.05524664
-0.17491521 -0.27976903 0.055211574
-0.17510875 -0.27982277 0.055200718
-0.17528868 -0.27986965 0.055212948
-0.17547423 -0.27993485 0.055104099
-0.17564845 -0.27998227 0.055101354
-0.1758382 -0.28003228 0.055110108
-0.17601794 -0.2800855 0.055076227
-0.17618833 -0.28012624 0.055113845
-0.17636846 -0.2801913 0.05499579
-0.17656879 -0.28024399 0.055005666
-0.17673092 -0.28029871 0.05492685
-0.17691229 -0.28034791 0.054925244
-0.17708556 -0.28039601 0.054915585
-0.17727657 -0.28045133 0.054888591
-0.17746705 -0.2804983 0.054920398
-0.17764154 -0.28054866 0.054896899
-0.17781687 -0.28060424 0.054837666
-0.17800513 -0.28064981 0.054875247
-0.17818791 -0.28070131 0.054859791
-0.17837223 -0.2807492 0.054873168
-0.17856938 -0.28079861 0.054900348
-0.17875758 -0.2808474 0.054914873
-0.1789377 -0.28090042 0.05488329
-0.17912205 -0.28095666 0.054836709
-0.17929725 -0.28100947 0.054797061
-0.17948021 -0.28105569 0.05481967
-0.17968984 -0.28109935 0.054912541
-0.17989197 -0.28115478 0.054906264
-0.18005691 -0.28121269 0.054810155
-0.18022662 -0.28127331 0.054703657
-0.18041599 -0.28131679 0.054758519
-0.18061621 -0.28137314 0.054741882
-0.18078575 -0.28142858 0.054672275
-0.18099201 -0.28147212 0.054759387
-0.18117294 -0.28152487 0.054731261
-0.1813397 -0.28158647 0.054612093
-0.18151407 -0.28163713 0.054586284
-0.18170048 -0.28168494 0.054604262
-0.18188483 -0.28173861 0.054576136
-0.18205674 -0.28178796 0.054554954
-0.1822639 -0.28183672 0.054606311
-0.18245925 -0.28188825 0.054615051
-0.18264031 -0.28194103 0.054586925
-0.18282771 -0.28199118 0.054589912
-0.18300542 -0.28204772 0.054528363
-0.18320151 -0.2820991 0.054539401
-0.18338189 -0.28215683 0.054474384
-0.18355808 -0.28220928 0.054439351
-0.18374366 -0.28225574 0.054465413
-0.18392852 -0.28230938 0.054438427
-0.18409984 -0.28236145 0.054396488
-0.18429214 -0.28241006 0.054420222
-0.18445401 -0.28246567 0.054334499
-0.18464148 -0.28251395 0.054351326
-0.1848354 -0.28256875 0.054333542
-0.1850307 -0.28262091 0.054337662
-0.1852017 -0.2826753 0.05427843
-0.18539056 -0.28272328 0.054299872
-0.18557116 -0.28277642 0.054268286
-0.18575281 -0.2828292 0.054241307
-0.18594015 -0.28287789 0.054254677
-0.18613952 -0.28292683 0.05428993
-0.18632971 -0.28298318 0.054253701
-0.18650782 -0.28303516 0.054225594
-0.18670867 -0.28308803 0.054235466
-0.18688715 -0.28314203 0.054193512
-0.18706271 -0.28318867 0.054198831
-0.18725243 -0.28324732 0.054145318
-0.18744454 -0.283297 0.054160982
-0.18763439 -0.2833454 0.054181263
-0.18780011 -0.28340143 0.054100141
-0.1879849 -0.28345555 0.054069694
-0.18816912 -0.2835018 0.054094605
-0.18837321 -0.28355214 0.054128688
-0.18854541 -0.28360814 0.054060221
-0.1887338 -0.28366131 0.054043613
-0.18891773 -0.28370988 0.054051224
-0.1890977 -0.28376752 0.053986207
-0.18927741 -0.28381544 0.053990368
-0.18947618 -0.28386772 0.054000247
-0.18961594 -0.28392893 0.053831562
-0.18982618 -0.28396842 0.053955555
-0.19002636 -0.28402621 0.053928539
-0.19020638 -0.28408 0.053891186
-0.19039486 -0.28412771 0.05391378
-0.19058372 -0.28418484 0.053869497
-0.19075361 -0.28423575 0.053833321
-0.19094118 -0.28428388 0.053851306
-0.19115457 -0.28433657 0.05388651
-0.19133449 -0.28439608 0.053807661
-0.19151063 -0.28444546 0.053794533
-0.19169588 -0.2844981 0.053775623
-0.19187197 -0.28454939 0.05374866
-0.19207194 -0.28459844 0.053783912
-0.19226687 -0.28465611 0.053747684
-0.19243191 -0.28471193 0.053666547
-0.19262621 -0.28476074 0.053692587
-0.19281153 -0.28481355 0.053672515
-0.19299302 -0.28486198 0.053676683
-0.19319807 -0.28491563 0.053688854
-0.19337432 -0.28496888 0.053648055
-0.19355965 -0.28502008 0.053639524
-0.19375278 -0.28507307 0.053633273
-0.19393429 -0.28512871 0.053585548
-0.1941206 -0.28517634 0.053604677
-0.19430779 -0.28523079 0.053576544
-0.19449516 -0.28528863 0.053524189
-0.19470137 -0.28533906 0.053561721
-0.19487767 -0.28538734 0.053556662
-0.19507995 -0.28544217 0.053555004
-0.19526976 -0.28550133 0.05349803
-0.19546548 -0.28555086 0.053521756
-0.19563904 -0.28560659 0.053457908
-0.19581968 -0.28565589 0.053453997
-0.19599332 -0.28570828 0.05341436
-0.1961832 -0.28576249 0.053393133
-0.19637391 -0.2858116 0.053409949
-0.19655302 -0.28586468 0.053376071
-0.19674657 -0.28591666 0.053377885
-0.19696014 -0.28596988 0.05340964
-0.19713032 -0.28602472 0.053345799
-0.19734275 -0.28607666 0.053384468
-0.19750984 -0.28613529 0.053287193
-0.19768141 -0.28618342 0.053274088
-0.19787352 -0.28623277 0.053292051
-0.19806102 -0.28628939 0.053248923
-0.19827168 -0.28634521 0.053256474
-0.1984372 -0.28640246 0.053166121
-0.19862607 -0.28645414 0.05316104
-0.19880275 -0.28649691 0.053196341
-0.19899608 -0.2865527 0.05317048
-0.19920249 -0.28661105 0.053151518
-0.19939953 -0.28665853 0.053192534
-0.19958945 -0.28671962 0.053121731
-0.19977507 -0.28677061 0.053115502
-0.19996336 -0.28682581 0.053083897
-0.20014538 -0.28687435 0.05308805
-0.20035471 -0.28692645 0.053119816
-0.20052713 -0.28698573 0.053028297
-0.20071958 -0.2870374 0.053030126
-0.20089549 -0.28709009 0.052992783
-0.20111489 -0.28714249 0.053041808
-0.20129347 -0.28719637 0.053001013
-0.20148855 -0.28724939 0.052998215
-0.20171753 -0.28730968 0.053009175
-0.2019093 -0.28736776 0.052963734
-0.20208573 -0.28742057 0.052926391
-0.20227152 -0.28746918 0.052937455
-0.20245478 -0.28751966 0.052930079
-0.20265846 -0.28757778 0.052907661
-0.20283109 -0.28762826 0.052879557
-0.2030099 -0.28768238 0.052837603
-0.20318711 -0.28773379 0.052811794
-0.20341262 -0.28778929 0.052850436
-0.2035986 -0.28784403 0.052817687
-0.20378754 -0.28789559 0.052813757
-0.20395252 -0.28794578 0.052772988
-0.20416075 -0.28800511 0.052750558
-0.2043535 -0.28806347 0.052705105
-0.20455366 -0.28811386 0.052731127
-0.20474692 -0.28816658 0.052727185
-0.20494734 -0.28821993 0.052732449
-0.20511311 -0.28827727 0.052642096
-0.20530283 -0.28832629 0.052657768
-0.2055048 -0.28838104 0.052656114
-0.20569719 -0.28843686 0.052627955
-0.20588937 -0.28849554 0.052579045
-0.20607461 -0.28854528 0.052580893
-0.20629287 -0.28859305 0.052661054
-0.20645934 -0.28865311 0.052552253
-0.20664398 -0.2887072 0.052521817
-0.20686217 -0.28876069 0.052560471
-0.20707388 -0.28881904 0.052551873
-0.20727399 -0.28887585 0.052531771
-0.20744845 -0.28892702 0.052502513
-0.20764641 -0.28898275 0.052485872
-0.20783213 -0.28903967 0.052436989
-0.20800593 -0.28909099 0.052405421
-0.20821908 -0.28914684 0.052417561
-0.20841116 -0.28919792 0.052422851
-0.20860229 -0.28925586 0.05237741
-0.20880055 -0.28931183 0.052359618
-0.20901528 -0.28936648 0.052383292
-0.11688899 -0.26781228 0.028592072
-0.11709115 -0.26788199 0.028483201
-0.11728446 -0.2679469 0.028391644
-0.11747387 -0.26800916 0.028311629
-0.11765903 -0.26806706 0.028254688
-0.11783973 -0.26812184 0.028211594
-0.1180222 -0.26817515 0.028182335
-0.11820374 -0.26823223 0.028124243
-0.1183771 -0.268282 0.028103076
-0.11855061 -0.26833192 0.028080758
-0.11872698 -0.26838264 0.028058432
-0.118898 -0.26843238 0.028032664
-0.11907253 -0.2684834 0.028004574
-0.11923917 -0.26852858 0.028003018
-0.11940609 -0.26857257 0.0280107
-0.11957376 -0.26861867 0.028004535
-0.11974312 -0.26866767 0.027981069
-0.11990719 -0.26871118 0.027986448
-0.12006413 -0.26875088 0.028005686
-0.12022537 -0.26879236 0.028020291
-0.12037487 -0.26882491 0.028076438
-0.12053485 -0.26886395 0.028106043
-0.12069079 -0.2688984 0.028161025
-0.12084126 -0.26893169 0.02821371
-0.12099017 -0.26896372 0.028272169
-0.12113625 -0.26899359 0.028341012
-0.12128639 -0.269025 0.028406385
-0.12142949 -0.26905245 0.028486766
-0.12157783 -0.26908082 0.028570589
-0.12171648 -0.26910463 0.028668275
-0.12185894 -0.26913142 0.028752126
-0.12200546 -0.26915976 0.028832495
-0.12214325 -0.26918274 0.028934792
-0.12228245 -0.26920509 0.029044015
-0.12242331 -0.26922873 0.029147465
-0.12255828 -0.26924914 0.029262457
-0.12269107 -0.26926771 0.029386684
-0.12282348 -0.26928583 0.02951321
-0.12296093 -0.26930627 0.029632814
-0.12309172 -0.26932284 0.029767424
-0.12322596 -0.26933873 0.029913552
-0.12334456 -0.26934496 0.03009893
-0.12346027 -0.26934683 0.030309681
-0.12357166 -0.26934662 0.030527353
-0.11806788 -0.26381052 0.059630603
-0.11827253 -0.26386613 0.059627809
-0.1184851 -0.26392871 0.059590403
-0.11870067 -0.26399177 0.0595553
-0.11891567 -0.26405677 0.059505209
-0.11912172 -0.26411182 0.059509329
-0.11932544 -0.26416719 0.059506547
-0.11953084 -0.26422414 0.059495673
-0.11974127 -0.26428568 0.059461743
-0.11994979 -0.26434332 0.05945202
-0.12014642 -0.26439276 0.059478082
-0.12036103 -0.26445603 0.059439518
-0.12056961 -0.26451641 0.059410192
-0.12077743 -0.26457387 0.059400469
-0.12098408 -0.26463276 0.059378076
-0.12119876 -0.26469913 0.059317596
-0.12140324 -0.26475629 0.059303276
-0.1216125 -0.26481557 0.059283186
-0.12180637 -0.26486316 0.059317313
-0.12202552 -0.26493186 0.059248768
-0.12222591 -0.26498568 0.059250593
-0.12242652 -0.26503733 0.059268579
-0.12263691 -0.26510075 0.059220798
-0.12283781 -0.26515538 0.059218012
-0.12304799 -0.26521891 0.059169084
-0.12325178 -0.26527399 0.059168603
-0.12345338 -0.2653296 0.059160046
-0.12365921 -0.26538682 0.059148036
-0.12386255 -0.26544434 0.059129097
-0.12405111 -0.26551101 0.05901565
-0.12420098 -0.26553738 0.059116766
-0.12447372 -0.2656135 0.059098817
-0.12467995 -0.26567438 0.05906143
-0.12488478 -0.26573133 0.059049416
-0.12508619 -0.26578769 0.059035104
-0.12528506 -0.26584157 0.059033476
-0.12548986 -0.26590157 0.05899955
-0.1256966 -0.26596099 0.058973696
-0.12590483 -0.2660248 0.058919001
-0.12610544 -0.2660782 0.058924299
-0.12630963 -0.2661382 0.058889214
-0.12651582 -0.26619762 0.058862209
-0.12670243 -0.26623952 0.058922879
-0.12691265 -0.26630342 0.058871642
-0.12710613 -0.26635265 0.058893092
-0.12731555 -0.26641598 0.058844164
-0.12751806 -0.26647502 0.058812555
-0.12770887 -0.26651874 0.058868606
-0.12791762 -0.26658478 0.058798924
-0.12810233 -0.2666249 0.058868829
-0.12831321 -0.26669359 0.05878415
-0.12851697 -0.26675171 0.058761761
-0.12872112 -0.26681346 0.058713995
-0.12892164 -0.26686829 0.058708906
-0.12911804 -0.2669217 0.058706135
-0.12932487 -0.26698384 0.058660671
-0.12951261 -0.26702768 0.058709811
-0.12972094 -0.26709184 0.058652811
-0.12992029 -0.26714909 0.058628127
-0.13011999 -0.26720369 0.058623046
-0.1303183 -0.26726002 0.058602974
-0.13051261 -0.2673085 0.058631338
-0.13071243 -0.26736683 0.058599725
-0.13090333 -0.26741475 0.058625799
-0.13107145 -0.26746547 0.05858735
-0.13131957 -0.26754871 0.058470286
-0.13152151 -0.26761034 0.058419071
-0.13170758 -0.26764941 0.058499359
-0.13190086 -0.26770067 0.058505811
-0.13209809 -0.2677604 0.05845923
-0.13230245 -0.26781866 0.058436833
-0.13249767 -0.26787269 0.05842714
-0.13270409 -0.26793748 0.058362074
-0.13289772 -0.26798981 0.05836162
-0.13308193 -0.26804101 0.058350801
-0.13329408 -0.26810285 0.058318019
-0.13348348 -0.26815003 0.058346398
-0.13368291 -0.26820666 0.058326319
-0.13387536 -0.2682617 0.058303952
-0.13407731 -0.26831821 0.05828964
-0.13426378 -0.26836169 0.058338784
-0.1344673 -0.26842439 0.058282953
-0.13466527 -0.26848367 0.058240965
-0.13486101 -0.26854008 0.05821513
-0.1350553 -0.26859468 0.058199689
-0.13525036 -0.26864642 0.058206134
-0.13544472 -0.26870137 0.058188383
-0.13564846 -0.26876572 0.058121014
-0.13584605 -0.26882571 0.058073267
-0.13602839 -0.26886374 0.058153555
-0.13622496 -0.26892248 0.058112733
-0.13641545 -0.26896819 0.058153793
-0.13661829 -0.26903665 0.0580553
-0.13681266 -0.26908836 0.058060601
-0.13700715 -0.26914477 0.058032468
-0.13719642 -0.26919335 0.058050469
-0.13739228 -0.26925221 0.058007337
-0.13758409 -0.26930037 0.05803341
-0.13778114 -0.26936147 0.05797644
-0.13797487 -0.26941288 0.057982892
-0.13816904 -0.26946983 0.057950154
-0.13834941 -0.26951891 0.057947412
-0.13854927 -0.26957098 0.057960778
-0.13871711 -0.26961908 0.057940774
-0.13894182 -0.26968831 0.057879131
-0.13911982 -0.26973382 0.057897165
-0.139311 -0.2697919 0.057850584
-0.13951428 -0.2698454 0.057860482
-0.13968232 -0.26989466 0.057832409
-0.1398485 -0.26993009 0.057900049
-0.14010197 -0.27002588 0.057703413
-0.14028101 -0.27007955 0.057664935
-0.14044535 -0.27011177 0.057752185
-0.1406358 -0.27015892 0.05778287
-0.1408328 -0.27020702 0.057819299
-0.1410453 -0.27026749 0.057796888
-0.14123207 -0.27033111 0.057701893
-0.1414016 -0.27037308 0.057729162
-0.14162521 -0.27044442 0.057650216
-0.14181079 -0.27048832 0.057694755
-0.14198479 -0.27053967 0.057663206
-0.14217067 -0.27059054 0.057658151
-0.14232408 -0.27061802 0.057758112
-0.14256154 -0.27070099 0.05762263
-0.14275582 -0.27075735 0.0575945
-0.14294085 -0.27080703 0.057596363
-0.14312714 -0.27085271 0.057629362
-0.14331003 -0.27091175 0.05755974
-0.14351471 -0.27097172 0.057525821
-0.14369202 -0.27102575 0.057481579
-0.14387473 -0.27107817 0.057459239
-0.14406905 -0.2711212 0.057526816
-0.14426415 -0.27118933 0.057415653
-0.14447132 -0.27124932 0.057386328
-0.14466809 -0.27129883 0.057412386
-0.14485653 -0.27135101 0.057402719
-0.14504312 -0.2713984 0.057424188
-0.14519963 -0.27144068 0.057423808
-0.14538966 -0.27149782 0.05738185
-0.14557724 -0.27155733 0.057317983
-0.14577854 -0.27161142 0.057319809
-0.14597788 -0.27165967 0.057359699
-0.14613685 -0.27170053 0.057374313
-0.14632827 -0.27176365 0.057291992
-0.14653282 -0.27181861 0.057293806
-0.14671472 -0.27187258 0.057258777
-0.14690517 -0.27192342 0.057262942
-0.14709508 -0.27198371 0.057197921
-0.14728725 -0.27204126 0.057157107
-0.14748272 -0.27208784 0.057201616
-0.14766355 -0.27213961 0.057180431
-0.14784966 -0.27218717 0.05719959
-0.14802851 -0.27224448 0.057134598
-0.14821596 -0.27229804 0.057113394
-0.14841688 -0.2723541 0.057100229
-0.14861912 -0.27241644 0.057044405
-0.14880818 -0.27246368 0.057071626
-0.14899836 -0.27251619 0.05706311
-0.14918301 -0.27255744 0.057124935
-0.14932241 -0.2725842 0.057203025
-0.14951503 -0.272668 0.056974243
-0.14972238 -0.27272645 0.056956455
-0.14992052 -0.27276942 0.057032093
-0.15008709 -0.27282083 0.056985576
-0.1502883 -0.27288356 0.056925133
-0.15045854 -0.27291593 0.05702275
-0.1506388 -0.2729722 0.056968119
-0.15083343 -0.27303842 0.056869645
-0.1510087 -0.27308336 0.056886531
-0.15120178 -0.27313891 0.056861855
-0.15138243 -0.27317074 0.056983657
-0.15157278 -0.27323309 0.056904797
-0.15175557 -0.2732881 0.056864008
-0.15194556 -0.27335098 0.056780532
-0.15213494 -0.27340811 0.056737415
-0.15233065 -0.2734594 0.056748483
-0.1525085 -0.27349043 0.056870289
-0.15268755 -0.2735475 0.056807596
-0.15286675 -0.27361727 0.056653805
-0.15307936 -0.27366734 0.056706347
-0.15325783 -0.27371669 0.056697853
-0.15345341 -0.27376971 0.056696236
-0.15363179 -0.27382049 0.05667736
-0.15384769 -0.27388844 0.056607664
-0.15402274 -0.27392823 0.056661446
-0.15419762 -0.27397516 0.056663338
-0.15437904 -0.27403027 0.056619093
-0.1545779 -0.27408242 0.056630153
-0.15475231 -0.27413517 0.056589376
-0.15494022 -0.27419284 0.056539349
-0.15512489 -0.27424565 0.056518149
-0.15530412 -0.27428091 0.05661229
-0.15549171 -0.27433962 0.056554183
-0.15568635 -0.27439687 0.056520283
-0.15586792 -0.27444449 0.056530226
-0.15605879 -0.27450234 0.056484811
-0.15624648 -0.27455643 0.056460142
-0.15643089 -0.27460834 0.056444716
-0.1566148 -0.27466285 0.056409694
-0.15679896 -0.27471536 0.056389648
-0.15696333 -0.27477777 0.056260109
-0.15713957 -0.27481398 0.05634157
-0.15732731 -0.27484787 0.056462202
-0.1575384 -0.27490941 0.056429408
-0.15773128 -0.27497083 0.05636207
-0.15791145 -0.2750237 0.056331668
-0.1580967 -0.27507022 0.056356598
-0.15827236 -0.27512604 0.056296214
-0.15845637 -0.27517739 0.056284245
-0.15866069 -0.27523467 0.056268774
-0.15883271 -0.27527618 0.05630412
-0.159023 -0.27533099 0.056279447
-0.15919188 -0.27538306 0.056232926
-0.15937524 -0.27543581 0.056209423
-0.15954547 -0.27548307 0.0561998
-0.15973534 -0.27553824 0.056171671
-0.15993336 -0.27559128 0.056174662
-0.16013601 -0.27565214 0.056130365
-0.16031098 -0.27569637 0.056151863
-0.16049567 -0.27574486 0.056161799
-0.16067621 -0.27580389 0.056087576
-0.16083956 -0.27584884 0.056081418
-0.16105343 -0.27589092 0.056193918
-0.16120286 -0.27592424 0.056244306
-0.16138728 -0.2759999 0.056058213
-0.16160685 -0.27606422 0.05602194
-0.1617898 -0.27610806 0.056061871
-0.16196385 -0.27616277 0.056006111
-0.16214024 -0.27621236 0.055991855
-0.16234201 -0.27626529 0.056002904
-0.16252099 -0.27631736 0.055975962
-0.16269672 -0.27636805 0.055952478
-0.16287829 -0.27641502 0.05596704
-0.16305988 -0.27646923 0.055929706
-0.16323286 -0.27652466 0.055867031
-0.16342723 -0.2765767 0.05587003
-0.16362925 -0.27662921 0.05588454
-0.16380648 -0.27667695 0.055885278
-0.16398622 -0.27672711 0.05587332
-0.16416492 -0.27677894 0.055847529
-0.16436577 -0.27683979 0.055799775
-0.16452748 -0.2768867 0.055776328
-0.16473334 -0.2769396 0.055795439
-0.16492715 -0.27699855 0.055747703
-0.16510324 -0.27704197 0.055777267
-0.16527592 -0.27708462 0.055805691
-0.16545488 -0.2771357 0.055785667
-0.16562782 -0.27719513 0.055694155
-0.16581813 -0.27724719 0.055689089
-0.16600785 -0.27730006 0.055677108
-0.16619726 -0.27735335 0.055661675
-0.16637148 -0.27740493 0.05562897
-0.1665342 -0.27745003 0.055620514
-0.16674301 -0.27750483 0.055631548
-0.1669247 -0.27755731 0.055606902
-0.16710083 -0.27760634 0.055596113
-0.16727203 -0.27766129 0.055533439
-0.16746132 -0.27770954 0.055553742
-0.16764037 -0.27776003 0.055538327
-0.16781922 -0.27780592 0.055555206
-0.16801226 -0.27785972 0.055543214
-0.16821153 -0.27791598 0.055525437
-0.16841012 -0.27796835 0.055534199
-0.168571 -0.27802002 0.055475011
-0.16876046 -0.27806848 0.055494163
-0.16893999 -0.27811846 0.055483356
-0.16911645 -0.27817592 0.055412602
-0.16929971 -0.27822208 0.05543638
-0.1694831 -0.27827677 0.055399045
-0.16966714 -0.27832651 0.055398606
-0.16984423 -0.27836618 0.055457003
-0.17003071 -0.27843037 0.055357389
-0.17021996 -0.27848762 0.055313122
-0.17038001 -0.27854323 0.055223953
-0.17057055 -0.27859101 0.055250023
-0.17077611 -0.2786493 0.055229928
-0.17095552 -0.27869922 0.055219121
-0.171132 -0.27875173 0.055184118
-0.17131665 -0.27879328 0.055243645
-0.17151149 -0.2788493 0.055218965
-0.17167893 -0.27890179 0.055166677
-0.17187037 -0.27895302 0.055169687
-0.17207254 -0.27901039 0.055149604
-0.17225359 -0.27906638 0.055098429
-0.17242061 -0.27911168 0.055096887
-0.17261404 -0.27916506 0.055088352
-0.17278609 -0.27921364 0.055072956
-0.17296714 -0.27926242 0.055073686
-0.17315155 -0.27931917 0.055023663
-0.17332724 -0.27936503 0.055034772
-0.17352097 -0.27942172 0.055003185
-0.17368764 -0.2794674 0.054998171
-0.17387956 -0.27951524 0.055026542
-0.17406307 -0.27956918 0.054994982
-0.17424111 -0.27962354 0.054949585
-0.17444409 -0.27967054 0.055005603
-0.1746213 -0.27972549 0.054954454
-0.17479193 -0.27978474 0.054859489
-0.17497116 -0.27983496 0.054846384
-0.17515056 -0.27988824 0.054811362
-0.17533284 -0.27993333 0.054840911
-0.17552483 -0.27998167 0.054865826
-0.17571332 -0.28002924 0.054889597
-0.17590356 -0.28007889 0.054901827
-0.17609048 -0.2801246 0.054935981
-0.17627682 -0.28018281 0.05487904
-0.1764484 -0.28024089 0.054794449
-0.17663917 -0.28030223 0.054723658
-0.17682058 -0.28034836 0.054743979
-0.17697223 -0.28040028 0.054665208
-0.17719691 -0.28044766 0.054760393
-0.17738794 -0.28049719 0.054774933
-0.17756921 -0.28055519 0.054709923
-0.17774132 -0.28060684 0.05467261
-0.17792554 -0.28065741 0.054666411
-0.1781152 -0.28070787 0.054671727
-0.1783146 -0.28075868 0.05469317
-0.17848611 -0.28080794 0.054672007
-0.17866065 -0.28086102 0.054628924
-0.1788681 -0.28091869 0.054616902
-0.17903617 -0.280967 0.054595746
-0.17922769 -0.28102213 0.054571074
-0.17941149 -0.28107053 0.054579861
-0.17958596 -0.28112361 0.054536786
-0.1797761 -0.28117418 0.054542098
-0.17995822 -0.28122613 0.054522067
-0.18014812 -0.2812821 0.054488178
-0.18032941 -0.2813319 0.054481976
-0.18051398 -0.28138274 0.054474626
-0.18071033 -0.28143066 0.054511067
-0.18088508 -0.28148109 0.054487586
-0.18106365 -0.28153482 0.054447956
-0.18125173 -0.28158918 0.054422144
-0.18144409 -0.28164163 0.054418221
-0.18161669 -0.28169549 0.054365922
-0.18180656 -0.28174424 0.054383922
-0.18199381 -0.28179902 0.054353502
-0.18215184 -0.28186145 0.054211289
-0.182312 -0.28191325 0.054149795
-0.18249577 -0.28195986 0.054171272
-0.18271717 -0.28200042 0.054309122
-0.1829043 -0.28205532 0.054277539
-0.18307976 -0.28211027 0.054222934
-0.18326999 -0.2821593 0.054239776
-0.18346035 -0.28220832 0.054256625
-0.18366738 -0.28225321 0.054335698
-0.18387163 -0.2823039 0.054367505
-0.18404388 -0.28236473 0.054264471
-0.18422954 -0.2824226 0.054208677
-0.18440226 -0.28247634 0.054157525
-0.18457128 -0.28252473 0.05413752
-0.18476133 -0.28258091 0.054102484
-0.18494156 -0.28263187 0.054085903
-0.18513793 -0.28268141 0.054110818
-0.18533452 -0.28273967 0.054073453
-0.18552108 -0.28278849 0.054084532
-0.18568952 -0.28284153 0.054029945
-0.18585071 -0.28289923 0.053928085
-0.18605836 -0.28294939 0.053970255
-0.18624498 -0.28300047 0.0539652
-0.18644175 -0.2830461 0.054018933
-0.18658808 -0.28311485 0.053808719
-0.18675977 -0.28316253 0.053799082
-0.18695463 -0.28320894 0.053843595
-0.18717706 -0.28326103 0.05390073
-0.1873579 -0.28331214 0.053884152
-0.18755667 -0.28336376 0.05389867
-0.18774529 -0.28341457 0.053899378
-0.18793753 -0.28347039 0.053871252
-0.18812633 -0.28352123 0.053871959
-0.18831685 -0.28357562 0.053850748
-0.18848281 -0.28362542 0.053814612
-0.18867519 -0.28368127 0.053786475
-0.18885493 -0.28372905 0.053791814
-0.18904243 -0.28378245 0.053771771
-0.1892221 -0.28383228 0.053762123
-0.18942368 -0.28388563 0.053769715
-0.18960613 -0.28393671 0.053756602
-0.18978573 -0.28399053 0.05371812
-0.18997648 -0.28404319 0.053709596
-0.19016753 -0.28409964 0.053674545
-0.19033849 -0.28414825 0.053656843
-0.19052431 -0.2841967 0.053669095
-0.1907312 -0.28424716 0.053707808
-0.19090983 -0.28430697 0.053624358
-0.19108261 -0.28435898 0.053585894
-0.191256 -0.2844108 0.05354974
-0.19144273 -0.28446111 0.053550445
-0.19165657 -0.28451198 0.053599525
-0.19184402 -0.28456408 0.053588707
-0.19202304 -0.28462192 0.053520244
-0.19219179 -0.28467861 0.053440284
-0.19239624 -0.28472486 0.053504374
-0.1925711 -0.28478369 0.053420927
-0.19276087 -0.28482822 0.053468909
-0.19295031 -0.28487828 0.053476535
-0.19314313 -0.28493473 0.053444948
-0.19331345 -0.28498927 0.053383425
-0.19349058 -0.28503874 0.053371478
-0.19369233 -0.28508973 0.053396367
-0.19388971 -0.2851418 0.053405128
-0.19406191 -0.28520116 0.053312469
-0.19425885 -0.28525165 0.053331602
-0.19443096 -0.28529897 0.053325422
-0.19463456 -0.28535333 0.053329561
-0.19483152 -0.28540576 0.053334855
-0.19500661 -0.2854611 0.053276781
-0.19520646 -0.28551304 0.053291306
-0.19539124 -0.28556809 0.053253964
-0.19557524 -0.28561831 0.053250074
-0.19576526 -0.28567237 0.053230021
-0.19593489 -0.28572384 0.053189259
-0.1961056 -0.2857751 0.05315195
-0.19630928 -0.28582662 0.053176831
-0.1964989 -0.28588092 0.053154483
-0.19669427 -0.28593579 0.053139027
-0.19686764 -0.28598666 0.053109787
-0.1970574 -0.28603777 0.053110484
-0.19726154 -0.28609118 0.053122692
-0.19745629 -0.28614798 0.053092249
-0.19763389 -0.28620142 0.053052623
-0.19781801 -0.28625053 0.053056803
-0.19799064 -0.28630811 0.052977979
-0.19820091 -0.28635755 0.053030517
-0.19838744 -0.28641117 0.053007014
-0.19857009 -0.28646389 0.052982364
-0.1987586 -0.28651723 0.052964628
-0.19896269 -0.28656808 0.052995276
-0.19914088 -0.28662634 0.052922208
-0.19932778 -0.28667539 0.052932136
-0.19951533 -0.28672752 0.052921321
-0.19972387 -0.28678563 0.052908137
-0.19990751 -0.28683847 0.052884646
-0.20009482 -0.28689229 0.052861139
-0.20028429 -0.28693822 0.052898739
-0.20049924 -0.28700015 0.052870553
-0.20066014 -0.28705502 0.052788302
-0.20086099 -0.28710094 0.052847795
-0.20103426 -0.28715405 0.052802414
-0.2012409 -0.28721133 0.052791543
-0.20142165 -0.28726336 0.052768048
-0.20161001 -0.28731588 0.052756071
-0.20177819 -0.28736678 0.052716468
-0.20198306 -0.28742006 0.05273097
-0.20218813 -0.28747341 0.052745473
-0.20239103 -0.28753594 0.052689645
-0.2025671 -0.28758737 0.052661553
-0.20275685 -0.28763703 0.052672636
-0.20294362 -0.28769007 0.052653741
-0.20315073 -0.28774637 0.052650951
-0.20330936 -0.28780013 0.052572154
-0.20348786 -0.28785142 0.052549824
-0.20369822 -0.28790313 0.052586228
-0.20389235 -0.28796121 0.052545406
-0.20406139 -0.28801093 0.052516185
-0.20426629 -0.28805923 0.052566428
-0.20447776 -0.28812391 0.052511737
-0.20469168 -0.28818268 0.052504309
-0.20486663 -0.28823045 0.052500434
-0.20504633 -0.28828335 0.052468874
-0.20523492 -0.28834087 0.052421153
-0.20543957 -0.28839248 0.052447192
-0.20562139 -0.28844807 0.052400626
-0.20580727 -0.28849766 0.052404799
-0.20601334 -0.28856039 0.052353576
-0.20622979 -0.2886152 0.052379582
-0.20641449 -0.2886582 0.05242873
-0.20658384 -0.28871521 0.052347615
-0.20679832 -0.28877318 0.052347105
-0.20695876 -0.28882694 0.052271776
-0.20717727 -0.28888056 0.052310456
-0.20736954 -0.28893539 0.052289248
-0.20755386 -0.28898698 0.052276127
-0.20771709 -0.28904054 0.052207708
-0.2079193 -0.28909728 0.052192234
-0.20813365 -0.28914896 0.052236706
-0.20833933 -0.28921351 0.05217164
-0.20853639 -0.2892642 0.052189626
-0.20873335 -0.2893163 0.052197229
-0.20889816 -0.28936854 0.052141488
-0.11658186 -0.26774022 0.028514205
-0.11678098 -0.26780879 0.028407628
-0.11697176 -0.26787013 0.028336825
-0.11715829 -0.26792857 0.02827872
-0.11734275 -0.26798564 0.02822639
-0.11752903 -0.2680456 0.02815675
-0.11770765 -0.26809868 0.028121732
-0.11788392 -0.26815018 0.028093638
-0.11805926 -0.26820108 0.028067846
-0.11823611 -0.26825321 0.028036291
-0.11840996 -0.26830471 0.028003596
-0.11858432 -0.26835373 0.027989343
-0.11875539 -0.26840189 0.027975099
-0.11891986 -0.26844522 0.027982788
-0.11908187 -0.26848674 0.027998552
-0.11925377 -0.26853576 0.027979698
-0.11941078 -0.26857516 0.028001234
-0.11957476 -0.26861835 0.028008923
-0.11973827 -0.26866123 0.028017763
-0.1198948 -0.2686989 0.028050838
-0.12005373 -0.26873991 0.028064311
-0.12021141 -0.26877546 0.028114676
-0.12036198 -0.2688086 0.028168533
-0.12051095 -0.26884052 0.028228151
-0.1206692 -0.26887959 0.028254302
-0.12081373 -0.26890805 0.028330088
-0.1209577 -0.26893604 0.028408173
-0.12110418 -0.26896438 0.028488554
-0.12124613 -0.2689907 0.028574724
-0.1213903 -0.26901716 0.028664339
-0.12152873 -0.26904058 0.028764356
-0.12166853 -0.26906505 0.028859749
-0.12180878 -0.26908818 0.028965522
-0.12194857 -0.26911086 0.029073602
-0.12208577 -0.269133 0.029180538
-0.12222011 -0.26915279 0.029299011
-0.12235285 -0.26917115 0.029424408
-0.12248657 -0.26918691 0.029570566
-0.12261917 -0.26920491 0.029698271
-0.12275518 -0.26922226 0.029837497
-0.1228486 -0.26920128 0.030169429
-0.122962 -0.26920977 0.030328318
-0.12307666 -0.26921234 0.030532181
-0.11770137 -0.26373363 0.059472136
-0.11791741 -0.26379877 0.059423186
-0.11812118 -0.26385352 0.059425011
-0.11833076 -0.2639111 0.059417598
-0.11853585 -0.26396719 0.059412502
-0.11875258 -0.2640312 0.059372783
-0.11895222 -0.26408273 0.05938961
-0.11916712 -0.26414773 0.059339508
-0.11937936 -0.26421052 0.059299793
-0.11959094 -0.2642706 0.059278548
-0.11979439 -0.26432589 0.059275754
-0.11999473 -0.26437616 0.059302967
-0.12020843 -0.26444083 0.059252869
-0.12040937 -0.26449418 0.059259318
-0.12062132 -0.26455754 0.059214991
-0.12083022 -0.26461592 0.059200659
-0.12103795 -0.26467574 0.059173644
-0.12124496 -0.26473507 0.059148937
-0.12144435 -0.2647875 0.059158847
-0.12165891 -0.26485157 0.059114516
-0.12186094 -0.26490664 0.059110578
-0.12206654 -0.2649627 0.059106633
-0.122276 -0.26502493 0.059065774
-0.12247753 -0.26507986 0.05906184
-0.12268037 -0.26513612 0.059050985
-0.12288319 -0.26518998 0.059057422
-0.12309439 -0.26525444 0.059003875
-0.12330461 -0.26531556 0.058972239
-0.12347709 -0.26535335 0.059035264
-0.12371099 -0.26542988 0.058938995
-0.12390454 -0.26547787 0.058969676
-0.12411946 -0.26554412 0.058910348
-0.12431596 -0.26559514 0.058924884
-0.12451642 -0.26565009 0.05891864
-0.12472028 -0.26570857 0.058893941
-0.12492587 -0.2657662 0.05887847
-0.12513089 -0.26582611 0.058845691
-0.12535292 -0.26590329 0.05872177
-0.12554358 -0.26594904 0.058762833
-0.12574346 -0.26600143 0.058773898
-0.12594067 -0.26605392 0.058779202
-0.12613544 -0.26610398 0.058797188
-0.12634692 -0.26617143 0.058722883
-0.12652245 -0.26620167 0.05884587
-0.12674615 -0.26627931 0.058721945
-0.12694991 -0.26633918 0.058686867
-0.12715182 -0.26639727 0.058661014
-0.12734972 -0.26644835 0.058677845
-0.12755093 -0.26650593 0.058654308
-0.12773253 -0.26655725 0.058637738
-0.1279529 -0.26661807 0.058627993
-0.12815773 -0.26668003 0.05858022
-0.12835395 -0.26673272 0.058582064
-0.12854718 -0.26678222 0.058601215
-0.12874953 -0.26684186 0.058564987
-0.12895799 -0.26690543 0.058512595
-0.12915537 -0.26695991 0.05850406
-0.12933207 -0.26700667 0.058510572
-0.12954757 -0.26706618 0.058500826
-0.12975559 -0.26712996 0.058446139
-0.12995133 -0.26718301 0.058444515
-0.13011457 -0.26722422 0.0584649
-0.13033257 -0.2673066 0.058295995
-0.13055345 -0.26735696 0.058362372
-0.13074355 -0.26740384 0.05839422
-0.13094221 -0.26746088 0.058369525
-0.13114068 -0.26751789 0.058344841
-0.13134089 -0.26757377 0.058331683
-0.13153566 -0.26762655 0.058330074
-0.13173319 -0.26768282 0.058308847
-0.13192655 -0.26773411 0.058315307
-0.13212597 -0.267793 0.058279086
-0.13231732 -0.26784196 0.058298245
-0.13252115 -0.26790315 0.058253944
-0.13272102 -0.26796311 0.058210798
-0.13290091 -0.2680122 0.058206908
-0.13310839 -0.26807499 0.05815798
-0.13331562 -0.26813406 0.058135584
-0.13350649 -0.26819044 0.058100533
-0.13369676 -0.26823127 0.058176208
-0.13389792 -0.26829398 0.058115758
-0.13409427 -0.26834673 0.058117606
-0.13427433 -0.26840454 0.058051437
-0.13442083 -0.26842871 0.05816181
