# .PCD v0.7 - Point Cloud Data file format
VERSION 0.7
FIELDS x y z
SIZE 4 4 4
TYPE F F F
COUNT 1 1 1
WIDTH 1158
HEIGHT 1
VIEWPOINT 0 0 0 1 0 0 0
POINTS 1158
DATA ascii
-0.044961251 -0.34204188 0.032063838
-0.045114554 -0.34213912 0.032053672
-0.045274016 -0.34224319 0.032022651
-0.045427792 -0.34234139 0.032007843
-0.045586143 -0.34244409 0.031981457
-0.04574094 -0.34254408 0.031958558
-0.045903064 -0.34265029 0.031924054
-0.046059582 -0.3427532 0.031888422
-0.046218887 -0.34285799 0.031851634
-0.046377048 -0.3429637 0.03180328
-0.046536859 -0.34306964 0.031760696
-0.046697915 -0.34317765 0.03170887
-0.046854161 -0.34328103 0.031668618
-0.047012717 -0.34338814 0.031612169
-0.047178164 -0.34350106 0.031545289
-0.047340631 -0.34361473 0.031459924
-0.048363753 -0.34435111 0.030778693
-0.048520293 -0.34446025 0.030699143
-0.048681572 -0.34456643 0.030661179
-0.048839666 -0.34466487 0.030663686
-0.04898721 -0.3447572 0.030662797
-0.049129359 -0.34484351 0.030680425
-0.049269203 -0.34492889 0.0306946
-0.049392708 -0.34499842 0.030748181
-0.049557634 -0.34510872 0.030697484
-0.049706329 -0.34519765 0.03072547
-0.049850002 -0.34528393 0.030750031
-0.050001249 -0.34538022 0.030737551
-0.050128318 -0.34544408 0.030846588
-0.050278325 -0.34555328 0.030738186
-0.050440028 -0.34566203 0.030684032
-0.05058746 -0.34574917 0.030718967
-0.050748251 -0.34585062 0.030712213
-0.050886787 -0.34593451 0.030731022
-0.051024564 -0.34601709 0.030755619
-0.051167272 -0.34610856 0.030739723
-0.051309388 -0.34619269 0.030772386
-0.051450588 -0.34627843 0.03079002
-0.05159663 -0.34637624 0.030744061
-0.051756918 -0.34648082 0.030713037
-0.051905438 -0.34657374 0.030712131
-0.052052632 -0.34666768 0.030698525
-0.05221124 -0.346773 0.030654795
-0.052356917 -0.3468678 0.030628484
-0.052528039 -0.34697339 0.030637847
-0.052687794 -0.3470816 0.030579086
-0.052824594 -0.34717032 0.030556291
-0.052969404 -0.34726769 0.030508026
-0.053124517 -0.34737116 0.030462004
-0.053290755 -0.34748244 0.030410137
-0.053440467 -0.34758303 0.03036068
-0.053600702 -0.34770125 0.030233726
-0.053754918 -0.34781158 0.030135697
-0.053906344 -0.34791291 0.030088544
-0.054059088 -0.348021 0.02999977
-0.05421719 -0.34813672 0.029880911
-0.054373182 -0.34825245 0.029752828
-0.054531574 -0.34836984 0.029623561
-0.05468462 -0.34848043 0.029518608
-0.054845452 -0.34860411 0.029355813
-0.05499845 -0.34871566 0.029243927
-0.055153329 -0.34882772 0.029136647
-0.055306092 -0.34893978 0.029020134
-0.055459868 -0.3490546 0.028888587
-0.055612341 -0.34916714 0.028767448
-0.055766791 -0.34928042 0.028649773
-0.055915788 -0.34938616 0.028561022
-0.056069784 -0.34949946 0.028441034
-0.056217518 -0.3496033 0.028360385
-0.056373641 -0.34972271 0.028206866
-0.05652466 -0.34983531 0.028078802
-0.056677356 -0.34994799 0.027957672
-0.056823622 -0.35005039 0.027880497
-0.056977496 -0.35016707 0.027736237
-0.057127297 -0.35027927 0.027605867
-0.057279944 -0.35039437 0.027467396
-0.057419077 -0.35048094 0.027470022
-0.057570688 -0.35059458 0.027337339
-0.057723127 -0.35071614 0.027152626
-0.058320869 -0.35116902 0.02659535
-0.058459915 -0.35125834 0.026578322
-0.058612637 -0.35138059 0.026390143
-0.058760844 -0.35149109 0.02626441
-0.058909014 -0.35160801 0.026093606
-0.05905439 -0.35171199 0.026001409
-0.059185244 -0.35177955 0.02610117
-0.060439672 -0.35189286 0.030809468
-0.060581632 -0.35198218 0.030805137
-0.06072529 -0.35206994 0.030819289
-0.060866047 -0.35215506 0.030839249
-0.061010342 -0.35224533 0.03083837
-0.061151959 -0.35233396 0.030837508
-0.061297275 -0.35241091 0.030934878
-0.06143672 -0.35250887 0.030858906
-0.061581645 -0.35262129 0.030705452
-0.061726429 -0.35272488 0.030613258
-0.061868571 -0.35282767 0.030515302
-0.062015161 -0.35293123 0.030431192
-0.062164612 -0.35302806 0.030407172
-0.062303152 -0.35310552 0.030471053
-0.062440194 -0.35317513 0.030583499
-0.062579975 -0.35325783 0.030616166
-0.0627231 -0.35334593 0.030625703
-0.06286411 -0.35343516 0.030617911
-0.063006967 -0.35352206 0.030634383
-0.063147664 -0.35360995 0.030634688
-0.063290887 -0.35369924 0.03063613
-0.063431412 -0.35378653 0.030639902
-0.063577436 -0.35387921 0.030629767
-0.063721262 -0.35397348 0.030598849
-0.063874938 -0.35412282 0.030224573
-0.06401094 -0.35423428 0.030038804
-0.064150833 -0.35432279 0.030031018
-0.064290501 -0.35440987 0.030032493
-0.064434975 -0.35449713 0.030053573
-0.064577416 -0.35458809 0.030039992
-0.064719483 -0.35467583 0.030047223
-0.064856797 -0.35476521 0.030022122
-0.064996988 -0.35486069 0.029966939
-0.06514129 -0.35494769 0.029989183
-0.065280929 -0.35503852 0.02996406
-0.065420263 -0.35512573 0.029963221
-0.065564662 -0.35521507 0.029969275
-0.065706506 -0.35530385 0.02996842
-0.065848373 -0.3553941 0.029957157
-0.065985367 -0.35549217 0.029869638
-0.066127039 -0.35558295 0.02985375
-0.066268504 -0.35566458 0.029901434
-0.066410057 -0.3557477 0.02993872
-0.066549078 -0.35583192 0.029957527
-0.066690706 -0.35591561 0.029991345
-0.066832349 -0.35600176 0.030007824
-0.066976652 -0.35608581 0.030050874
-0.067115858 -0.35616732 0.030089326
-0.06725771 -0.35625014 0.030130077
-0.06739711 -0.35632998 0.030181237
-0.067541845 -0.35641167 0.030242778
-0.067684047 -0.35649273 0.0302974
-0.067826569 -0.3565709 0.030373979
-0.067966513 -0.35664925 0.030437853
-0.068112098 -0.356727 0.030530604
-0.068255253 -0.35680357 0.030621044
-0.068398483 -0.3568812 0.03070455
-0.068545051 -0.35695562 0.030825026
-0.068689354 -0.35702813 0.030948989
-0.068834044 -0.35709974 0.031081034
-0.068979442 -0.35716867 0.031235034
-0.069127806 -0.35723913 0.03139133
-0.069277212 -0.35730562 0.03157999
-0.075440973 -0.35800776 0.053693473
-0.075611122 -0.35810781 0.053737521
-0.075777337 -0.35821462 0.053716861
-0.075948335 -0.35831356 0.053772464
-0.07609611 -0.3584159 0.053702213
-0.076262228 -0.35853583 0.053589087
-0.076419428 -0.35863617 0.053574268
-0.076567404 -0.35872447 0.053603422
-0.076753139 -0.35884023 0.053605758
-0.076914251 -0.35895354 0.053516932
-0.07709004 -0.35905844 0.053551704
-0.077251419 -0.35914692 0.05363857
-0.077434234 -0.35926658 0.053600468
-0.077574089 -0.35936579 0.053517554
-0.077753067 -0.35947269 0.053552303
-0.07792145 -0.3595871 0.053487711
-0.078074105 -0.35968131 0.053496029
-0.078224972 -0.35978311 0.0534431
-0.078379065 -0.35988101 0.053431764
-0.078550227 -0.35999158 0.053406447
-0.078723148 -0.3601054 0.053366102
-0.078872651 -0.36020291 0.053337451
-0.079046264 -0.36030033 0.053415
-0.079225771 -0.36041218 0.053417385
-0.079372667 -0.36051726 0.053324025
-0.079550497 -0.36061588 0.053411946
-0.079729311 -0.36072841 0.053406239
-0.079869859 -0.3608391 0.05324588
-0.080069177 -0.36095113 0.053333666
-0.080222443 -0.3610495 0.053315401
-0.080393679 -0.36115947 0.053294711
-0.080548197 -0.36125666 0.053290308
-0.080704197 -0.36135706 0.053269707
-0.080880187 -0.36147624 0.053205069
-0.081041746 -0.36157191 0.053242236
-0.081204422 -0.3616755 0.053228527
-0.081374668 -0.36178172 0.053229809
-0.081539407 -0.36189222 0.053176798
-0.081703857 -0.36199859 0.053151529
-0.081880279 -0.36211258 0.053125028
-0.082052536 -0.36222136 0.053117052
-0.082218349 -0.36232662 0.053105637
-0.082368426 -0.36241871 0.053117439
-0.082541227 -0.36253113 0.05308634
-0.082700573 -0.36262491 0.053126987
-0.082846388 -0.36272389 0.053071775
-0.083033882 -0.36283824 0.053091448
-0.083191052 -0.36294517 0.053030387
-0.083353907 -0.36304837 0.053020157
-0.083505407 -0.36314729 0.052990343
-0.083658487 -0.36325264 0.052922376
-0.083832413 -0.36335292 0.052981418
-0.083997883 -0.36345828 0.052967701
-0.08417549 -0.36355674 0.053055625
-0.084356189 -0.36367887 0.052990951
-0.084501915 -0.36375588 0.05308947
-0.084664099 -0.36385262 0.053122006
-0.08483135 -0.36395726 0.053120993
-0.084991522 -0.36405864 0.053111941
-0.085144259 -0.36416721 0.053019699
-0.085299402 -0.36427781 0.052923977
-0.085459039 -0.36438262 0.052888326
-0.085616812 -0.36449832 0.05276832
-0.08576566 -0.36460465 0.052674949
-0.085942626 -0.3647078 0.052727044
-0.086107083 -0.36482322 0.052638203
-0.086298048 -0.36493334 0.052702926
-0.086449534 -0.36502534 0.052721661
-0.086644173 -0.36515009 0.05269967
-0.086793102 -0.36525267 0.052632887
-0.086945802 -0.36534113 0.052681658
-0.087110922 -0.36545584 0.052600905
-0.087262176 -0.36555114 0.052595358
-0.087443084 -0.36565658 0.052648589
-0.087594256 -0.36576715 0.052535553
-0.087776877 -0.36587813 0.052557562
-0.08793661 -0.3659735 0.052588958
-0.088100806 -0.36608216 0.052546348
-0.088260472 -0.3661806 0.052555788
-0.088407867 -0.36628896 0.052441623
-0.088588491 -0.36638635 0.052550323
-0.088757649 -0.36649913 0.052500755
-0.088928334 -0.36660281 0.05252168
-0.089087114 -0.36671582 0.052424788
-0.089259475 -0.36682466 0.052416801
-0.089417197 -0.36692104 0.052432023
-0.089568399 -0.36702487 0.05236638
-0.089742184 -0.36713609 0.052347988
-0.089914925 -0.36723399 0.052418608
-0.090073183 -0.36734667 0.052321706
-0.090254642 -0.36746401 0.052294023
-0.090399355 -0.36755851 0.052265402
-0.090548612 -0.36765456 0.052246004
-0.090727568 -0.36775929 0.052295782
-0.090882406 -0.3678593 0.052272882
-0.09105175 -0.36796644 0.052263763
-0.091218263 -0.36806387 0.052310139
-0.091377281 -0.36817589 0.052221328
-0.091547176 -0.36828551 0.052197177
-0.091695473 -0.36838686 0.052136179
-0.091877639 -0.36849147 0.052200954
-0.09203431 -0.36860368 0.052100606
-0.092189893 -0.36869854 0.052116994
-0.092359185 -0.36880088 0.052141406
-0.092535064 -0.36891192 0.052133396
-0.092691705 -0.36901897 0.052068874
-0.092849776 -0.36912334 0.052029777
-0.093020059 -0.36922807 0.052041449
-0.093194522 -0.36933461 0.052058883
-0.093335196 -0.36943448 0.051974811
-0.093493544 -0.36953637 0.051954206
-0.093661472 -0.36963454 0.052001733
-0.093848392 -0.36973488 0.05211734
-0.094040759 -0.36984637 0.052178591
-0.09418948 -0.36996132 0.052023955
-0.094313622 -0.37006304 0.051854447
-0.094489254 -0.3701629 0.051923886
-0.094671398 -0.37026897 0.051978268
-0.094828174 -0.37037349 0.051932234
-0.094980784 -0.37048069 0.051849242
-0.09514828 -0.37058401 0.051858634
-0.095320515 -0.37068915 0.051876087
-0.095491484 -0.3707945 0.0518866
-0.095626965 -0.37089869 0.051749393
-0.095791467 -0.37100461 0.051727589
-0.095968544 -0.37110949 0.051768124
-0.096138053 -0.37121508 0.05177056
-0.096286461 -0.37132224 0.051669098
-0.09644112 -0.3714225 0.051643889
-0.096623331 -0.37152514 0.051722538
-0.096805513 -0.3716301 0.051785011
-0.096984632 -0.37174168 0.051787384
-0.097129025 -0.37184685 0.05168248
-0.097288817 -0.37195113 0.051651455
-0.097438678 -0.3720538 0.051588137
-0.09761294 -0.37216151 0.051596329
-0.0977851 -0.37226531 0.051623024
-0.097949773 -0.37237146 0.051600058
-0.098111652 -0.37247574 0.05157828
-0.098276742 -0.37257788 0.051585361
-0.098436981 -0.37268424 0.051541626
-0.09858039 -0.37278897 0.051435575
-0.098757327 -0.37289295 0.051481888
-0.098938048 -0.37299895 0.051530495
-0.099098571 -0.37310532 0.051487908
-0.099254414 -0.37321174 0.051424552
-0.099421665 -0.37331805 0.051411979
-0.099582255 -0.37342051 0.05139713
-0.099766441 -0.37352687 0.051458426
-0.099935517 -0.37363333 0.051452786
-0.1000988 -0.37373978 0.051421743
-0.10024964 -0.37384421 0.051350318
-0.1004137 -0.37395066 0.051322736
-0.10057753 -0.37405333 0.051320583
-0.10075399 -0.37416196 0.051332228
-0.10091862 -0.37426662 0.05131967
-0.10107765 -0.37437305 0.051270157
-0.10124595 -0.37447786 0.051272605
-0.10141162 -0.3745845 0.051250793
-0.10157894 -0.37468937 0.051248629
-0.10173406 -0.37479383 0.051195674
-0.10191613 -0.37490299 0.051228095
-0.10208087 -0.37500972 0.05120166
-0.10224539 -0.3751128 0.051199511
-0.10241417 -0.37522155 0.051176518
-0.10257048 -0.37532613 0.051128186
-0.10274685 -0.37543353 0.051147915
-0.10290261 -0.37553808 0.051097274
-0.10307192 -0.37564516 0.051088154
-0.10323526 -0.37575018 0.051067516
-0.10339631 -0.37585506 0.051037639
-0.1035791 -0.37596664 0.05105618
-0.10374764 -0.37607211 0.051055159
-0.10390633 -0.37617865 0.051003337
-0.10406889 -0.37628204 0.05099079
-0.10423759 -0.37639105 0.050965495
-0.10440941 -0.37649694 0.050976016
-0.10457431 -0.37660572 0.050935715
-0.10475118 -0.37671211 0.050964691
-0.10490961 -0.37681702 0.050923277
-0.10506619 -0.37692174 0.050874934
-0.10523164 -0.3770256 0.050871626
-0.10542668 -0.37713727 0.050943259
-0.1055782 -0.37724492 0.05085218
-0.10575108 -0.37734964 0.050875403
-0.10591818 -0.37745884 0.050842024
-0.10607652 -0.3775622 0.050811011
-0.10624875 -0.37767029 0.050807662
-0.10642392 -0.37778041 0.050803129
-0.10661409 -0.37789544 0.05082972
-0.10674909 -0.37799311 0.050736431
-0.1069214 -0.37809977 0.050743476
-0.10709552 -0.37820509 0.050767846
-0.10725039 -0.37831303 0.050689466
-0.1074116 -0.37841853 0.050656121
-0.1075822 -0.37852678 0.050644681
-0.10774966 -0.37862989 0.050655227
-0.1079205 -0.37874141 0.050621822
-0.10809383 -0.37884855 0.050630022
-0.10825764 -0.37895766 0.050582796
-0.10841899 -0.37906176 0.05055986
-0.10859694 -0.37917277 0.050561089
-0.10876879 -0.37928146 0.050551951
-0.10893352 -0.37938768 0.050528996
-0.10909968 -0.3794941 0.050510649
-0.10926545 -0.379599 0.050501548
-0.10943674 -0.3797093 0.050478555
-0.10961274 -0.37981731 0.050492506
-0.1097686 -0.37992388 0.050427988
-0.10994862 -0.3800326 0.050454639
-0.11012962 -0.38014454 0.05046279
-0.11028446 -0.38024801 0.050415616
-0.11043409 -0.38035366 0.050330326
-0.11061949 -0.38046044 0.050393932
-0.11078788 -0.38057059 0.050359394
-0.11096696 -0.3806825 0.050359465
-0.11112805 -0.38078561 0.050342299
-0.11127487 -0.38088933 0.050258186
-0.1114277 -0.38099402 0.050193697
-0.11159854 -0.38110173 0.050186872
-0.11180374 -0.38121828 0.050268851
-0.11197677 -0.3813251 0.050278202
-0.11213596 -0.38143244 0.050222911
-0.11231902 -0.38154253 0.050253011
-0.11245845 -0.38164642 0.050135426
-0.11264691 -0.38175759 0.050181672
-0.11280437 -0.3818647 0.050120607
-0.112985 -0.38197461 0.050141476
-0.11313994 -0.38208127 0.050072342
-0.11334928 -0.38219661 0.050180878
-0.1134897 -0.38230062 0.05006675
-0.1137026 -0.38241687 0.050184511
-0.11383167 -0.38251871 0.050035778
-0.11402646 -0.38263172 0.050097015
-0.11416219 -0.38273478 0.049969051
-0.11434852 -0.38284627 0.050003748
-0.11450355 -0.38295168 0.049943864
-0.11469922 -0.38306653 0.049995847
-0.11487839 -0.38317683 0.05000747
-0.11504114 -0.38328525 0.049960248
-0.11521861 -0.38339534 0.049966108
-0.11539324 -0.38350624 0.04995349
-0.11554949 -0.38361341 0.049886655
-0.11572142 -0.38372248 0.049875215
-0.11591928 -0.38383839 0.049929492
-0.11606927 -0.38394296 0.049853455
-0.11626832 -0.38405928 0.049910039
-0.1164228 -0.38416484 0.049846679
-0.11659619 -0.38427579 0.049828298
-0.11675998 -0.38438341 0.049791474
-0.11693922 -0.38449574 0.049789228
-0.1171202 -0.38460717 0.049800847
-0.1172969 -0.38471904 0.04979052
-0.11745656 -0.38482586 0.049741007
-0.11761419 -0.38493356 0.049676478
-0.11778171 -0.38504219 0.049648885
-0.11797988 -0.38515779 0.049706623
-0.11814187 -0.38526523 0.049662877
-0.11830969 -0.38537538 0.049626026
-0.11847972 -0.38548473 0.049604189
-0.11866774 -0.38560089 0.049613453
-0.11883758 -0.3857103 0.049590465
-0.11901666 -0.3858245 0.049574345
-0.11918537 -0.38593501 0.049538653
-0.11937623 -0.38605082 0.049562924
-0.11952686 -0.3861571 0.049477629
-0.11974776 -0.38627771 0.049599972
-0.11989155 -0.38638365 0.049486976
-0.12005615 -0.3864921 0.049447831
-0.12023579 -0.3866055 0.049439814
-0.12041834 -0.38671839 0.049447946
-0.12061016 -0.38683745 0.04945372
-0.12077475 -0.38694602 0.049413424
-0.12094729 -0.38705665 0.049393885
-0.12111141 -0.38716641 0.049343184
-0.035569865 -0.33604982 0.032930609
-0.035737295 -0.33615527 0.032924965
-0.035902593 -0.33626348 0.032890446
-0.036065653 -0.33636731 0.032876745
-0.036226325 -0.33646834 0.032872293
-0.036390085 -0.33657148 0.032866683
-0.036551796 -0.33667397 0.032856446
-0.036721162 -0.33678424 0.032825377
-0.036882773 -0.33688685 0.032813989
-0.037043944 -0.33698905 0.032803763
-0.037205208 -0.33709142 0.032792378
-0.037370298 -0.33719689 0.032776348
-0.037534639 -0.33730334 0.032749929
-0.037697777 -0.33740658 0.032740846
-0.037858851 -0.33750916 0.032727156
-0.038020611 -0.3376109 0.0327227
-0.038183838 -0.33771828 0.032684736
-0.038348164 -0.3378216 0.032680262
-0.038503069 -0.3379187 0.032678168
-0.038665444 -0.33802164 0.032667927
-0.038825735 -0.33812392 0.032653093
-0.03898837 -0.3382293 0.032626681
-0.039149225 -0.33833063 0.032621078
-0.039312638 -0.33843535 0.032602746
-0.039470278 -0.33853465 0.032597162
-0.039631389 -0.33863661 0.032588098
-0.039794799 -0.33874366 0.032553587
-0.039953642 -0.33884487 0.032539912
-0.040110148 -0.33894509 0.032522783
-0.0402718 -0.33904624 0.032521792
-0.040431786 -0.33915129 0.032486152
-0.040591661 -0.33925232 0.032478251
-0.040748201 -0.33935308 0.032457653
-0.040904645 -0.33945179 0.032450914
-0.041066226 -0.33955342 0.032446466
-0.041225277 -0.33965787 0.03241083
-0.041383773 -0.33975968 0.032391377
-0.041543961 -0.33985975 0.032391556
-0.041698594 -0.33995867 0.032375593
-0.041855481 -0.34005865 0.032361925
-0.042019717 -0.34016454 0.032338973
-0.042173635 -0.34026283 0.032324173
-0.042333979 -0.34036365 0.032319725
-0.042489361 -0.34046417 0.03229567
-0.042645235 -0.34056339 0.032283165
-0.042803992 -0.34066665 0.032254461
-0.042959381 -0.34076324 0.032258134
-0.043116298 -0.34086424 0.032237537
-0.043273974 -0.34096423 0.032227334
-0.043427948 -0.34106353 0.032205593
-0.043586791 -0.34116539 0.032187298
-0.043743268 -0.34126627 0.032165542
-0.043897435 -0.34136176 0.032171536
-0.044052172 -0.34146041 0.032157883
-0.044208828 -0.34156418 0.03211648
-0.044363827 -0.34166119 0.032115541
-0.044520319 -0.34176043 0.032105345
-0.044675648 -0.34186041 0.032084756
-0.04483065 -0.34195775 0.0320815
-0.044983219 -0.34205866 0.032042436
-0.04513716 -0.34215465 0.032043807
-0.04529313 -0.34225371 0.03203246
-0.045448184 -0.34235159 0.03202574
-0.045600571 -0.34245038 0.032000542
-0.045754842 -0.34254974 0.031979956
-0.045907214 -0.34264392 0.031987116
-0.046063624 -0.34274426 0.031968836
-0.046215214 -0.3428424 0.031944804
-0.046373725 -0.34294376 0.031928815
-0.046526514 -0.34304148 0.03191286
-0.046677291 -0.34313881 0.031891137
-0.046830591 -0.34323508 0.031887893
-0.046983141 -0.34333283 0.031870786
-0.047136623 -0.34343216 0.031846743
-0.047290772 -0.34353012 0.031835407
-0.047437679 -0.34362203 0.031834517
-0.04759315 -0.34372228 0.031812765
-0.047743976 -0.34381798 0.031802602
-0.047899142 -0.34391803 0.031780854
-0.048049033 -0.3440125 0.031775322
-0.048202164 -0.34411228 0.031746652
-0.048352964 -0.34420845 0.031733025
-0.048507512 -0.34430531 0.031730935
-0.048658393 -0.34440187 0.031714991
-0.04881255 -0.34450394 0.031674765
-0.048961535 -0.34459764 0.031670384
-0.049109422 -0.3446925 0.031653304
-0.049261026 -0.34479082 0.031628121
-0.049414672 -0.34488696 0.031627186
-0.049565226 -0.34498382 0.031607777
-0.049717911 -0.34508151 0.031591825
-0.049866818 -0.34517583 0.031582836
-0.050020467 -0.34527543 0.031557627
-0.050169125 -0.34536961 0.03154863
-0.050322697 -0.34546635 0.03154308
-0.050467737 -0.34556058 0.031517923
-0.050621945 -0.34565872 0.031505425
-0.050768141 -0.34575218 0.031490672
-0.050921101 -0.34585151 0.031464316
-0.051069908 -0.34594676 0.031448398
-0.051221214 -0.34604985 0.031388544
-0.051367711 -0.34613806 0.031411912
-0.051516831 -0.34623435 0.031390201
-0.05166854 -0.34633222 0.031368483
-0.051818065 -0.34642959 0.031340994
-0.051967457 -0.34652686 0.031313509
-0.05211775 -0.34662601 0.031276762
-0.052270453 -0.34672651 0.031241175
-0.052424669 -0.34683007 0.031190548
-0.052578051 -0.34693232 0.031145699
-0.052733392 -0.34703857 0.031081203
-0.052883796 -0.34713909 0.031035218
-0.053363509 -0.34748405 0.030717989
-0.053837471 -0.34779906 0.030585684
-0.053980909 -0.34789509 0.030540902
-0.054108031 -0.34798071 0.030497368
-0.05427815 -0.34809393 0.030448955
-0.054420084 -0.34819147 0.03038685
-0.054565474 -0.34828869 0.030342059
-0.054710068 -0.34838048 0.030331932
-0.054862525 -0.34848526 0.030265139
-0.055018261 -0.34859341 0.03018908
-0.055184767 -0.34870899 0.030108329
-0.055332806 -0.34880933 0.030053124
-0.055486884 -0.34891924 0.029957429
-0.05564107 -0.34903416 0.029827071
-0.055793528 -0.34914142 0.029742949
-0.055944555 -0.34925026 0.02964149
-0.05609782 -0.34936476 0.029509988
-0.056248408 -0.34947363 0.02940622
-0.056402642 -0.34958708 0.029286262
-0.056551676 -0.34969336 0.029194076
-0.056706633 -0.34980974 0.029056773
-0.056856327 -0.34991872 0.028948398
-0.05700767 -0.35003236 0.028814595
-0.05715768 -0.35014334 0.028693499
-0.057306226 -0.35024634 0.028622109
-0.057456382 -0.3503589 0.028490625
-0.057606004 -0.35047078 0.028361447
-0.057754278 -0.35057986 0.028246142
-0.057904586 -0.35068971 0.028134301
-0.058051407 -0.35079625 0.028030567
-0.058200698 -0.35091007 0.027886363
-0.058346193 -0.35101429 0.027793033
-0.058496512 -0.35112694 0.027661547
-0.058642544 -0.35123396 0.027550884
-0.058789887 -0.35134542 0.027414788
-0.058934398 -0.35144949 0.027317997
-0.059078433 -0.35154688 0.027266281
-0.059227392 -0.35166544 0.02708742
-0.059371926 -0.35177168 0.026975611
-0.059517156 -0.35188082 0.026846459
-0.059662029 -0.35198331 0.026762381
-0.059806742 -0.35209247 0.026630918
-0.0599484 -0.35219264 0.026549172
-0.060094081 -0.35230666 0.026387669
-0.060230937 -0.3523854 0.02643536
-0.062099345 -0.3529481 0.030682109
-0.062243506 -0.35304096 0.030662738
-0.062393725 -0.35316393 0.030458452
-0.062541649 -0.35327756 0.03030964
-0.062680513 -0.35335752 0.030357331
-0.062815815 -0.35343051 0.030438552
-0.062949695 -0.35352054 0.030393826
-0.063089542 -0.35361892 0.030316709
-0.063240632 -0.35370228 0.03039436
-0.063382104 -0.35378322 0.030446652
-0.063515231 -0.35385519 0.030525573
-0.063655064 -0.35393989 0.030544365
-0.063795112 -0.35402605 0.030553911
-0.06394019 -0.35411435 0.030570358
-0.06407585 -0.3541851 0.030668907
-0.064220868 -0.35425231 0.030833269
-0.064358555 -0.3543373 0.030840514
-0.064501368 -0.35442504 0.030851204
-0.064638898 -0.35453299 0.030696683
-0.064783491 -0.35464188 0.030566383
-0.064921424 -0.35473412 0.030523939
-0.065061182 -0.35481995 0.030534647
-0.065201283 -0.35491058 0.030512987
-0.065346904 -0.3550109 0.030447396
-0.065495186 -0.35516098 0.030044369
-0.065627739 -0.35526434 0.029900275
-0.065761998 -0.35535705 0.029838216
-0.065903559 -0.35544747 0.029824642
-0.0660448 -0.35552892 0.029872309
-0.066186205 -0.3556146 0.029891092
-0.066325128 -0.35570452 0.029869448
-0.066466503 -0.35579184 0.029876672
-0.0666053 -0.3558805 0.029863123
-0.066741444 -0.35596898 0.02983918
-0.066880085 -0.35605854 0.029818691
-0.067021281 -0.35614738 0.029814366
-0.067162424 -0.35623637 0.029808877
-0.067301027 -0.35632244 0.02981266
-0.067439549 -0.35640943 0.029809503
-0.067580409 -0.35650137 0.029782068
-0.067718692 -0.35659054 0.029762741
-0.067857407 -0.35667306 0.02979194
-0.067995891 -0.35675871 0.029798027
-0.068137348 -0.35684165 0.029836457
-0.06827613 -0.35692453 0.029863339
-0.068417594 -0.35700846 0.029894836
-0.068559319 -0.35709056 0.029940195
-0.068700962 -0.35717392 0.029976308
-0.068840101 -0.35725573 0.030012436
-0.068984829 -0.35733807 0.030069329
-0.069119215 -0.35741526 0.030117044
-0.0692643 -0.35749683 0.030180868
-0.069404632 -0.35757378 0.030256277
-0.069544785 -0.35765257 0.030317824
-0.069682859 -0.35772794 0.0303944
-0.069829583 -0.35780448 0.030500969
-0.069971092 -0.35787919 0.03059718
-0.070118777 -0.35795367 0.030722225
-0.070264563 -0.35802498 0.030861156
-0.070410892 -0.3580955 0.03100818
-0.070560187 -0.3581675 0.03115749
-0.070707947 -0.35823545 0.031328756
-0.076755479 -0.35885131 0.053538159
-0.076920383 -0.35895878 0.053507105
-0.077087097 -0.3590636 0.053502627
-0.077253871 -0.35916236 0.053540897
-0.077418335 -0.35927022 0.053505231
-0.077568032 -0.35936207 0.053517032
-0.07771647 -0.35947272 0.05339133
-0.077897325 -0.3595655 0.053533509
-0.078082778 -0.35968664 0.053496566
-0.07822904 -0.35977718 0.053502608
-0.078391567 -0.3598868 0.053446151
-0.078565262 -0.36000487 0.053379226
-0.078698047 -0.36009964 0.053296372
-0.078870431 -0.36020306 0.053326521
-0.07905589 -0.3603183 0.05333117
-0.079206854 -0.36042395 0.053251673
-0.079371981 -0.36051494 0.053337336
-0.079531647 -0.36060184 0.053427652
-0.079693474 -0.36070642 0.053403549
-0.079849631 -0.36081153 0.053350598
-0.080006376 -0.36092541 0.05323872
-0.080178894 -0.36103848 0.053201843
-0.080368966 -0.36115411 0.053223796
-0.080537125 -0.3612572 0.053237796
-0.080697 -0.36135396 0.053259924
-0.080839105 -0.36144799 0.053223245
-0.081021227 -0.36156607 0.053193245
-0.081166811 -0.36166143 0.053162314
-0.081350788 -0.36177787 0.053151947
-0.081520103 -0.36187592 0.05320638
-0.081686921 -0.36198872 0.053146437
-0.08184696 -0.36209807 0.053080749
-0.082005277 -0.36219615 0.05308672
-0.08216057 -0.36229646 0.053063821
-0.082303651 -0.36239323 0.053012107
-0.082471848 -0.36248845 0.053081565
-0.08264897 -0.3626253 0.052897908
-0.082834341 -0.36272484 0.053012334
-0.082980223 -0.36281562 0.053014912
-0.083139718 -0.36291692 0.053003546
-0.083293431 -0.36302182 0.052941363
-0.083460778 -0.36312571 0.052946121
-0.083643936 -0.36324248 0.052929986
-0.083811373 -0.36335003 0.052909318
-0.083957151 -0.36344093 0.052910745
-0.084134638 -0.36354277 0.052974366
-0.084320821 -0.36366865 0.052907377
-0.084477402 -0.36377504 0.05284749
-0.084609196 -0.36386639 0.052784286
-0.084797889 -0.36397311 0.052862868
-0.084958471 -0.36407378 0.052860729
-0.085116372 -0.36416894 0.052885197
-0.085266843 -0.36427811 0.052779127
-0.085444726 -0.36439055 0.052769955
-0.085599221 -0.36449742 0.052697372
-0.085759602 -0.36459813 0.052694082
-0.085924856 -0.3646999 0.052704625
-0.086103424 -0.36480555 0.0527463
-0.086262442 -0.36490372 0.052754574
-0.086430088 -0.36500469 0.052781284
-0.086598553 -0.3651022 0.052835725
-0.086758181 -0.36520982 0.052780438
-0.086924277 -0.36531788 0.052750543
-0.087089196 -0.36542633 0.052712556
-0.087235257 -0.36552975 0.052627318
-0.087377898 -0.36563432 0.052518979
-0.087554015 -0.36575046 0.052476309
-0.087749399 -0.36585954 0.052567564
-0.087908171 -0.365964 0.052530777
-0.0880735 -0.36606616 0.052539013
-0.088234685 -0.36616388 0.052559983
-0.08840479 -0.36627328 0.052538145
-0.088575825 -0.3663795 0.05254288
-0.088738739 -0.36648259 0.052533798
-0.088891625 -0.36657745 0.052538648
-0.089051053 -0.36668164 0.052506477
-0.089218304 -0.3667863 0.052505456
-0.089360505 -0.36688435 0.052441034
-0.089519411 -0.36699414 0.052367274
-0.089689597 -0.3670952 0.05240437
-0.089848831 -0.3672021 0.052352551
-0.090010211 -0.36730289 0.052352726
-0.090182804 -0.36740893 0.052365538
-0.09036658 -0.36751488 0.052427977
-0.09052369 -0.3676196 0.052381955
-0.090690807 -0.36773244 0.052323163
-0.090851024 -0.3678363 0.052296765
-0.091040075 -0.36795181 0.052315257
-0.091166653 -0.36805028 0.052179284
-0.091341145 -0.36815354 0.052219823
-0.091507904 -0.36825344 0.052250005
-0.091657296 -0.36837474 0.052053813
-0.091794789 -0.36847293 0.051967461
-0.091956265 -0.36857137 0.051984966
-0.092141137 -0.36867782 0.052048553
-0.092321143 -0.36878783 0.052065946
-0.092475779 -0.36888772 0.052043051
-0.092628032 -0.36899534 0.05195545
-0.092799686 -0.36909717 0.05199369
-0.092993274 -0.36920515 0.05208496
-0.093169197 -0.36931852 0.052060772
-0.093311839 -0.36941797 0.051988266
-0.093478389 -0.36952087 0.051996492
-0.093651347 -0.36962762 0.052005846
-0.093825623 -0.36974362 0.051956244
-0.093978405 -0.36983919 0.051955316
-0.094135135 -0.36993432 0.051975161
-0.094283588 -0.37004432 0.051854085
-0.094444916 -0.37014577 0.051849633
-0.094610184 -0.37025133 0.051833604
-0.094792821 -0.37035722 0.051891424
-0.094949998 -0.37046149 0.051848866
-0.095113352 -0.37056291 0.051853646
-0.095301047 -0.37066635 0.05195073
-0.095463194 -0.37077689 0.051886182
-0.095614612 -0.37088612 0.051783569
-0.095752269 -0.37098986 0.051659092
-0.095903665 -0.37109235 0.051603865
-0.096084923 -0.37119457 0.051681329
-0.09626738 -0.37129903 0.051748399
-0.096437767 -0.3714045 0.051755451
-0.096595645 -0.37151086 0.051701337
-0.096788332 -0.37161711 0.051800694
-0.09694688 -0.37172771 0.05171999
-0.097112238 -0.37183362 0.051701657
-0.097277679 -0.37194374 0.051654421
-0.097432159 -0.37204814 0.051599167
-0.097594827 -0.37215009 0.051597029
-0.097751088 -0.37225646 0.051535986
-0.097926326 -0.37236002 0.051577672
-0.098071925 -0.37246263 0.051495902
-0.098260477 -0.37256795 0.05158373
-0.098440722 -0.37267366 0.051632319
-0.098591723 -0.37278017 0.051547043
-0.098752551 -0.37288642 0.051506776
-0.098921061 -0.37299448 0.051487263
-0.099087313 -0.3730967 0.051498957
-0.099243253 -0.37320301 0.051436763
-0.099411704 -0.37330529 0.051457692
-0.099581644 -0.37341541 0.051430084
-0.099741541 -0.37351975 0.051399063
-0.099903211 -0.37362602 0.051362257
-0.1000695 -0.37373042 0.051358938
-0.10024204 -0.37383872 0.051355571
-0.10040283 -0.37394312 0.051328018
-0.10056917 -0.37404951 0.051310819
-0.1007273 -0.37415388 0.051271733
-0.10090198 -0.37426236 0.051276445
-0.10107028 -0.37436703 0.051280037
-0.10122848 -0.37447146 0.051240947
-0.10140169 -0.37457821 0.051251441
-0.10155994 -0.37468266 0.051212348
-0.10172297 -0.37478912 0.051180158
-0.10189894 -0.37489793 0.051188327
-0.10206063 -0.37500256 0.051163074
-0.10223396 -0.37510952 0.051172413
-0.10239829 -0.37521616 0.051144842
-0.10256472 -0.3753193 0.051150754
-0.10271908 -0.37542546 0.051082797
-0.10290074 -0.37553483 0.051111735
-0.10307191 -0.37564194 0.0511107
-0.10323201 -0.37575018 0.051053096
-0.10338974 -0.375853 0.051023249
-0.10356444 -0.37595871 0.051047605
-0.10372747 -0.3760637 0.051025812
-0.10389099 -0.37617046 0.050993614
-0.10405575 -0.3762739 0.050990302
-0.10422204 -0.37638092 0.050968487
-0.10439559 -0.37648854 0.050974369
-0.10455525 -0.37659338 0.050938729
-0.10472201 -0.37670052 0.050918065
-0.10489666 -0.37680668 0.050938956
-0.10505683 -0.37691334 0.050892916
-0.10521632 -0.37701824 0.050856125
-0.10540213 -0.37712726 0.050905831
-0.1055779 -0.3772338 0.050929032
-0.10572764 -0.37733951 0.05084376
-0.10589795 -0.37744558 0.050846197
-0.10606018 -0.37755418 0.050795514
-0.10621739 -0.37765732 0.050761051
-0.1064034 -0.37776846 0.050796892
-0.10656417 -0.37787533 0.05075201
-0.10673139 -0.37798128 0.05074174
-0.10688634 -0.3780891 0.050664533
-0.1070563 -0.3781938 0.050675057
-0.10724373 -0.37830386 0.050724752
-0.1073973 -0.37840834 0.050664887
-0.10755259 -0.37851143 0.05062234
-0.10774677 -0.37862572 0.050671998
-0.10791422 -0.37873197 0.050660588
-0.10807534 -0.37883905 0.050615691
-0.10824943 -0.37894782 0.050615791
-0.10840525 -0.37905422 0.050552443
-0.10856143 -0.37915754 0.050512195
-0.10875647 -0.37926775 0.050594207
-0.10891861 -0.37937662 0.050541218
-0.10909386 -0.37948579 0.050543617
-0.10925629 -0.37959319 0.050502189
-0.10940862 -0.37969607 0.050448112
-0.10957786 -0.37980297 0.05044014
-0.10974479 -0.37990957 0.050424106
-0.10992293 -0.3800194 0.050434578
-0.11008482 -0.38012531 0.050401229
-0.11026348 -0.38023233 0.050433658
-0.11043443 -0.38034719 0.050377145
-0.11062296 -0.38046187 0.05039911
-0.11075933 -0.38055941 0.050312772
-0.11094809 -0.38066977 0.050365932
-0.11109652 -0.38077369 0.050287601
-0.11128309 -0.38088533 0.050322287
-0.11143981 -0.38098916 0.050280895
-0.11160947 -0.38109666 0.05027061
-0.11179003 -0.3812075 0.050284535
-0.11194213 -0.38131207 0.050217744
-0.11210331 -0.38141817 0.05017978
-0.11226637 -0.38152465 0.050147586
-0.11243413 -0.38163343 0.050119996
-0.11259361 -0.38173932 0.050076269
-0.11278924 -0.38185316 0.050135165
-0.11297711 -0.38196433 0.050179083
-0.11313265 -0.38207102 0.05011227
-0.11332259 -0.38218412 0.050151557
-0.11346993 -0.38228932 0.050059371
-0.11365657 -0.38240051 0.050097521
-0.11382736 -0.38251019 0.050076842
-0.11399844 -0.38261855 0.050066549
-0.11415988 -0.38272649 0.050017036
-0.11433994 -0.3828367 0.050033279
-0.11449958 -0.38294435 0.049977992
-0.11468377 -0.38305548 0.05000576
-0.11486481 -0.38316745 0.050013904
-0.11501262 -0.38327277 0.049922865
-0.11518958 -0.38338399 0.049918316
-0.11535209 -0.38349095 0.049880356
-0.11553359 -0.38360322 0.049888495
-0.11569901 -0.38371086 0.049858604
-0.11590375 -0.3838281 0.049933616
-0.11603649 -0.38392895 0.04980801
-0.11625718 -0.38404977 0.049927991
-0.11640076 -0.38415426 0.049824283
-0.11657792 -0.38426593 0.049817421
-0.11672576 -0.38436866 0.049744874
-0.11693022 -0.38448772 0.049806036
-0.11708426 -0.38459316 0.049741536
-0.11725539 -0.3847037 0.049716227
-0.11740863 -0.38480896 0.049649429
-0.11761802 -0.38492814 0.049731355
-0.11776277 -0.38503286 0.049631096
-0.11796769 -0.38515124 0.049699176
-0.11811623 -0.38525555 0.049618542
-0.11828962 -0.38536683 0.049597848
-0.11846066 -0.38547632 0.049579471
-0.11864139 -0.38558942 0.049578369
-0.11879749 -0.38569683 0.049509242
-0.11899059 -0.38581419 0.049532328
-0.11915557 -0.38592499 0.049478173
-0.11934922 -0.38604009 0.04951974
-0.11952941 -0.38615334 0.049515188
-0.11969234 -0.38626122 0.049472596
-0.11990462 -0.38638994 0.04950019
-0.12005955 -0.38649216 0.049462263
-0.12025082 -0.3866033 0.049521185
-0.12043899 -0.38672385 0.049500395
-0.1206253 -0.38684273 0.049483079
-0.12074402 -0.3869361 0.049348325
-0.12094148 -0.38705409 0.049386401
-0.12113871 -0.3871696 0.049440671
-0.035572402 -0.33601758 0.033168081
-0.035749678 -0.3361384 0.033097714
-0.035925239 -0.33625728 0.03303314
-0.036099035 -0.33637246 0.032987047
-0.036270428 -0.33648661 0.032937512
-0.036440678 -0.33659774 0.032904167
-0.036605574 -0.33670422 0.032880083
-0.036774825 -0.3368144 0.032849047
-0.036939286 -0.3369188 0.032837681
-0.037109442 -0.33703038 0.032800857
-0.037268434 -0.33713183 0.032786056
-0.037435267 -0.33723772 0.032774679
-0.037597101 -0.3373411 0.032758709
-0.037765864 -0.33745149 0.032724205
-0.037927832 -0.33755529 0.032705925
-0.038090471 -0.33765823 0.032696873
-0.038253359 -0.33776343 0.032672804
-0.038412478 -0.33786398 0.032664936
-0.038579546 -0.337971 0.032646623
-0.038739089 -0.3380723 0.032635286
-0.038902622 -0.33817694 0.032618146
-0.039060578 -0.33827645 0.032612599
-0.039224435 -0.3383798 0.032605857
-0.039388496 -0.33848739 0.032570228
-0.03954744 -0.33858848 0.032557733
-0.039710809 -0.3386935 0.03253714
-0.03987157 -0.33879524 0.032528099
-0.040033132 -0.33889815 0.032514438
-0.040196691 -0.3390038 0.032490373
-0.040355969 -0.33910593 0.032472096
-0.040512949 -0.33920515 0.03246424
-0.04067266 -0.33930606 0.032456368
-0.040833317 -0.33941036 0.032428846
-0.040994406 -0.33951133 0.032426748
-0.041152623 -0.33961263 0.032409638
-0.041314676 -0.33971718 0.032386739
-0.041477241 -0.3398225 0.032360356
-0.041637786 -0.33992526 0.032343235
-0.041791774 -0.34002343 0.032329626
-0.041953053 -0.34012535 0.032321736
-0.0421107 -0.34022662 0.032302324
-0.042264454 -0.34032479 0.032287557
-0.042424839 -0.34042796 0.032266967
-0.042586815 -0.34052914 0.032267168
-0.042743593 -0.34062973 0.032248914
-0.042900246 -0.34072807 0.032245681
-0.043056451 -0.34083027 0.032213569
-0.043214723 -0.34093109 0.032199923
-0.043372426 -0.34103125 0.032188598
-0.043526933 -0.34112924 0.032178454
-0.043683302 -0.34122777 0.032172903
-0.043845672 -0.34133264 0.032148838
-0.043997742 -0.34142977 0.032134078
-0.044154901 -0.34152976 0.032121606
-0.044312116 -0.34162995 0.032107968
-0.044465758 -0.34172741 0.03209782
-0.04462428 -0.34182972 0.032074939
-0.044780046 -0.34192818 0.03206709
-0.044937063 -0.34202856 0.032051139
-0.045090534 -0.34212625 0.032038689
-0.045248218 -0.34222788 0.032016952
-0.045401104 -0.34232733 0.031989485
-0.045556352 -0.34242561 0.031980477
-0.045712601 -0.34252551 0.031964544
-0.045869425 -0.34262398 0.031961307
-0.046023 -0.34272501 0.031925742
-0.046178423 -0.3428216 0.031929448
-0.046332434 -0.34291863 0.031923924
-0.046488337 -0.34301865 0.031905666
-0.046640769 -0.34311602 0.031890906
-0.046796016 -0.34321529 0.031874977
-0.046948344 -0.34331274 0.031859051
-0.047102593 -0.34341076 0.031847749
-0.047251165 -0.3435052 0.031836476
-0.047409493 -0.34360725 0.031814747
-0.047561787 -0.34370515 0.031795368
-0.047715314 -0.34380516 0.031766728
-0.047865424 -0.34389994 0.031760074
-0.048021115 -0.34399834 0.031752218
-0.048174761 -0.34409627 0.031738609
-0.048325844 -0.34419295 0.031722695
-0.048481975 -0.34429246 0.031709064
-0.048632137 -0.34438792 0.031697784
-0.048782021 -0.34448302 0.031687666
-0.048935823 -0.34458187 0.031668268
-0.049088031 -0.34467828 0.03165929
-0.049239442 -0.3447763 0.031635288
-0.049393293 -0.34487569 0.031612426
-0.049546052 -0.34497344 0.031596508
-0.049694132 -0.34506923 0.031573679
-0.049847074 -0.3451646 0.031575095
-0.049996562 -0.34526011 0.03156035
-0.050148059 -0.34535623 0.031550214
-0.050297912 -0.34545261 0.03153085
-0.050449245 -0.34555176 0.031498753
-0.050598893 -0.34564507 0.031500187
-0.050750785 -0.3457424 0.031483117
-0.050900392 -0.34583899 0.03146144
-0.051051296 -0.3459349 0.031450152
-0.051202938 -0.34603223 0.031431932
-0.051352911 -0.34612674 0.031426422
-0.051500894 -0.346221 0.031414002
-0.051653124 -0.34631985 0.03138769
-0.051800188 -0.34641272 0.031381045
-0.051949188 -0.34650594 0.031380169
-0.052098319 -0.34660289 0.031353869
-0.05224783 -0.3467007 0.031322945
-0.05239651 -0.34679374 0.031322069
-0.052547291 -0.3468909 0.031301539
-0.052695364 -0.3469865 0.031279873
-0.05284268 -0.34708083 0.031263988
-0.052991129 -0.34717751 0.031236539
-0.053138345 -0.34727556 0.03119408
-0.053289529 -0.34738165 0.031112306
-0.053438343 -0.34746507 0.031179603
-0.053585365 -0.34755591 0.031186823
-0.053731289 -0.34764838 0.03117788
-0.053882014 -0.34774318 0.031173527
-0.054029241 -0.34783861 0.031149551
-0.054177426 -0.34793231 0.031141747
-0.054324746 -0.34802827 0.031114304
-0.054470815 -0.34812182 0.031098429
-0.054619454 -0.34821695 0.031082528
-0.054764871 -0.34830943 0.031071275
-0.054914467 -0.34840289 0.031071547
-0.055058405 -0.34849656 0.031045284
-0.055205673 -0.34858936 0.031039791
-0.055352665 -0.34868595 0.031006578
-0.055499218 -0.3487775 0.031006869
-0.055645041 -0.34887186 0.030984063
-0.055793211 -0.34896737 0.030963548
-0.055937923 -0.34905958 0.030951135
-0.056084998 -0.34915292 0.030941034
-0.056227721 -0.34924534 0.030918237
-0.056376319 -0.349338 0.030919677
-0.056520279 -0.34942907 0.030911898
-0.056668088 -0.34952486 0.030887917
-0.056812212 -0.34961668 0.03087551
-0.056960408 -0.34971386 0.030843444
-0.057104941 -0.34980708 0.030822948
-0.05724768 -0.34990612 0.030753937
-0.057393238 -0.35001284 0.030643325
-0.057540223 -0.35009772 0.030692142
-0.057689339 -0.35019878 0.030636957
-0.057844013 -0.35030428 0.030574808
-0.057984851 -0.3503947 0.030557802
-0.059302401 -0.35155419 0.02819765
-0.059449621 -0.35166621 0.028056975
-0.059593521 -0.35176876 0.027968325
-0.059741847 -0.35187951 0.027841508
-0.059889536 -0.35199577 0.02767311
-0.06003204 -0.35209614 0.027593704
-0.060172379 -0.35218987 0.027551286
-0.060313117 -0.35227826 0.027548142
-0.060453326 -0.35237226 0.02750341
-0.062946498 -0.35349739 0.030542463
-0.063085809 -0.35357878 0.030582085
-0.063225321 -0.35366115 0.030615928
-0.063365504 -0.35374755 0.030624339
-0.063508384 -0.3538363 0.030628119
-0.063648574 -0.35392302 0.030634226
-0.063791417 -0.35401192 0.030636853
-0.063929379 -0.35410023 0.030622177
-0.064071953 -0.35418761 0.030634051
-0.064212345 -0.35427696 0.030622816
-0.064350419 -0.35436761 0.030591972
-0.064490661 -0.35445687 0.030580748
-0.064636081 -0.35454983 0.030566018
-0.064773753 -0.35463911 0.03054326
-0.064916551 -0.35473174 0.030519309
-0.065056689 -0.35482305 0.030493069
-0.06519673 -0.35491431 0.030466821
-0.065336742 -0.35500634 0.030434802
-0.065476671 -0.35509884 0.030399319
-0.065616399 -0.35518974 0.030374233
-0.06575343 -0.35527796 0.030356098
-0.06589511 -0.35535756 0.030418806
-0.066041619 -0.35542423 0.030593567
-0.066176236 -0.35551584 0.030540783
-0.066313379 -0.35561517 0.030445229
-0.066452846 -0.35571361 0.03036584
-0.066592127 -0.3558026 0.030352317
-0.066731371 -0.3558889 0.03035727
-0.066870496 -0.35598087 0.030321788
-0.067009546 -0.3560715 0.030295547
-0.067160003 -0.35620975 0.029985022
-0.067284465 -0.35632136 0.029747428
-0.067420237 -0.35640797 0.029735079
-0.067558452 -0.35649726 0.029714622
-0.067696616 -0.35658601 0.029697631
-0.067838043 -0.35666645 0.029753409
-0.067978568 -0.35675865 0.02972254
-0.068116546 -0.35684812 0.02969978
-0.068251669 -0.35693794 0.029662009
-0.068393022 -0.35701996 0.029706238
-0.068530552 -0.3571116 0.029666148
-0.068665624 -0.35719991 0.029638778
-0.068800032 -0.35729241 0.029579064
-0.068941213 -0.35737565 0.029614046
-0.069082454 -0.35745892 0.02964903
-0.069220491 -0.35754481 0.029651683
-0.069358699 -0.35762966 0.029662423
-0.069496475 -0.35771683 0.02965468
-0.069635823 -0.35781047 0.029608801
-0.069774494 -0.35789263 0.029640332
-0.069913313 -0.35797438 0.029675338
-0.070051864 -0.35805762 0.029698789
-0.070193581 -0.35814005 0.029741853
-0.070332646 -0.35822162 0.029779162
-0.070472136 -0.35830185 0.029828031
-0.070614658 -0.35838228 0.029888423
-0.070756897 -0.35846421 0.029937264
-0.070897408 -0.35854211 0.030006925
-0.07103771 -0.35862118 0.030067328
-0.07117866 -0.35869867 0.030141603
-0.071325719 -0.35877687 0.03023779
-0.071464159 -0.35885379 0.030305147
-0.071609862 -0.35892817 0.03042214
-0.071755722 -0.35900298 0.030536819
-0.07190223 -0.35907689 0.030660739
-0.072047241 -0.35914722 0.030803163
-0.072198525 -0.35921884 0.030964021
-0.072348133 -0.35928777 0.031136448
-0.078344375 -0.35984984 0.053498622
-0.078490168 -0.35995686 0.053386848
-0.07862445 -0.36004466 0.053359479
-0.078801081 -0.36016423 0.053294897
-0.078973651 -0.36025709 0.053400185
-0.079128526 -0.36034855 0.053437401
-0.07927154 -0.3604624 0.053265557
-0.079426102 -0.36057886 0.053126
-0.079615891 -0.36067474 0.05328548
-0.079777166 -0.36077943 0.053257953
-0.079932131 -0.36086622 0.053328678
-0.080081068 -0.36097768 0.053199559
-0.080264978 -0.36108947 0.053221576
-0.080437899 -0.36120194 0.053190518
-0.080596358 -0.36129516 0.05323118
-0.080764264 -0.36139843 0.053242903
-0.080947958 -0.36149296 0.05338509
-0.08111009 -0.36158371 0.053459242
-0.081274971 -0.36172456 0.053193681
-0.08141847 -0.36182144 0.053143159
-0.081570581 -0.36192846 0.053059064
-0.081764489 -0.36200356 0.05338259
-0.081944644 -0.36215627 0.053100772
-0.082107052 -0.36225542 0.053117149
-0.08224047 -0.36233068 0.053174127
