# .PCD v0.7 - Point Cloud Data file format
VERSION 0.7
FIELDS x y z
SIZE 4 4 4
TYPE F F F
COUNT 1 1 1
WIDTH 1262
HEIGHT 1
VIEWPOINT 0 0 0 1 0 0 0
POINTS 1262
DATA ascii
-0.28494808 -0.12349494 0.058794919
-0.28512168 -0.12342247 0.058793254
-0.28529158 -0.12335556 0.058763929
-0.28548768 -0.12327719 0.058737978
-0.28565565 -0.1232042 0.058755942
-0.28584841 -0.12312741 0.058728851
-0.28603807 -0.1230524 0.058698311
-0.28620291 -0.12297637 0.058746256
-0.28639066 -0.12290434 0.058700733
-0.28657946 -0.12282398 0.058709405
-0.28678504 -0.12273678 0.058716871
-0.28695929 -0.12267058 0.058670226
-0.28712577 -0.12260612 0.058633994
-0.28729901 -0.12253916 0.058595426
-0.28750324 -0.12246108 0.058544084
-0.2876884 -0.12237705 0.058588516
-0.28786051 -0.12230922 0.058559183
-0.28801021 -0.12223633 0.058629088
-0.28820992 -0.12218014 0.058440529
-0.28841183 -0.1220785 0.058557555
-0.2885907 -0.12200851 0.058523588
-0.28877002 -0.12193363 0.058521919
-0.28896037 -0.121856 0.058507517
-0.28914738 -0.12178563 0.058452755
-0.28932181 -0.12170441 0.058508761
-0.28951332 -0.12162863 0.058478206
-0.28968453 -0.12156083 0.058451191
-0.28986573 -0.12148903 0.058422975
-0.29005948 -0.12141082 0.058402795
-0.29024497 -0.1213394 0.058359586
-0.29043412 -0.12126093 0.058354415
-0.29060751 -0.12119071 0.058337767
-0.2907773 -0.12112151 0.058324575
-0.29096723 -0.12103783 0.05835285
-0.29115596 -0.12097262 0.058257733
-0.29132122 -0.12090312 0.058259558
-0.29150206 -0.12082509 0.058275163
-0.29169548 -0.12075473 0.058201939
-0.29187837 -0.12067315 0.058236003
-0.29206386 -0.1205962 0.05823084
-0.29223067 -0.12052219 0.058259189
-0.29240879 -0.12045437 0.058212534
-0.29259235 -0.12038175 0.058183167
-0.29278088 -0.12030319 0.058180302
-0.29296526 -0.12022434 0.058191299
-0.29313606 -0.12015859 0.058151588
-0.29331812 -0.12009197 0.058085315
-0.29351842 -0.12002277 0.057984397
-0.2937097 -0.11995146 0.057923868
-0.29389769 -0.11987278 0.05792331
-0.29406521 -0.11979125 0.058001243
-0.29425117 -0.11971679 0.057977632
-0.29442352 -0.1196371 0.058029026
-0.29459369 -0.1195716 0.057989303
-0.29478177 -0.11950347 0.057916097
-0.29495466 -0.11942491 0.057958264
-0.29513678 -0.11935104 0.05794159
-0.29530698 -0.11927528 0.057972215
-0.29548627 -0.11920428 0.057944018
-0.29566801 -0.1191294 0.057935409
-0.29585254 -0.11905167 0.05793833
-0.29603717 -0.11897407 0.057940088
-0.29620385 -0.11891137 0.057891164
-0.29638341 -0.11882883 0.057941388
-0.29661813 -0.11874723 0.057826519
-0.29678085 -0.11868452 0.057789139
-0.29698071 -0.1185955 0.057825461
-0.29714271 -0.11853006 0.057808831
-0.29734108 -0.11845024 0.057786345
-0.29752064 -0.1183835 0.05772816
-0.2976734 -0.11832645 0.057680421
-0.29782587 -0.11826819 0.05764192
-0.29803562 -0.11817453 0.057681661
-0.2982395 -0.11808702 0.057696063
-0.29841992 -0.1180063 0.057731278
-0.29859579 -0.11794145 0.057670794
-0.29874107 -0.11788334 0.057651915
-0.29891786 -0.11780046 0.057712518
-0.29911658 -0.11772619 0.057650812
-0.299301 -0.11764835 0.05765488
-0.2994554 -0.11757936 0.05768441
-0.29966438 -0.1175072 0.057578854
-0.29985586 -0.11743294 0.057537936
-0.30003273 -0.11734581 0.057627365
-0.30019709 -0.11727065 0.057670705
-0.30038571 -0.11720515 0.057577886
-0.30055434 -0.11714686 0.057493214
-0.30075866 -0.11706622 0.057459164
-0.30093965 -0.11698678 0.057484001
-0.30112091 -0.1169158 0.05745003
-0.30130205 -0.11684185 0.057436805
-0.30146998 -0.11676535 0.057478983
-0.30166095 -0.11670761 0.057326198
-0.30182886 -0.11663314 0.057354532
-0.30201 -0.11655481 0.057371307
-0.30219772 -0.11647592 0.057373058
-0.30237547 -0.11640456 0.057351779
-0.30252731 -0.11633379 0.057400919
-0.30273151 -0.11625001 0.05738879
-0.30291572 -0.11617847 0.057350192
-0.30309662 -0.11610696 0.057320826
-0.30327088 -0.11603892 0.057286873
-0.30345529 -0.1159624 0.057281718
-0.3036342 -0.11587745 0.05735039
-0.30378318 -0.11580922 0.057390317
-0.30397305 -0.11574254 0.05730211
-0.30416659 -0.11566961 0.057246182
-0.30435053 -0.11559767 0.057211053
-0.30451211 -0.11552938 0.057215188
-0.30470589 -0.11545315 0.05718118
-0.3048842 -0.11537669 0.057193339
-0.30504534 -0.11531177 0.057175566
-0.30522707 -0.1152337 0.057188869
-0.30543 -0.11515752 0.057128306
-0.3055858 -0.11508795 0.057157837
-0.30578977 -0.11500544 0.057137631
-0.30596763 -0.11494849 0.05701717
-0.30614701 -0.1148672 0.057059314
-0.30629551 -0.11480471 0.057061188
-0.30649978 -0.11472058 0.057051357
-0.30666542 -0.11464857 0.057069324
-0.30682293 -0.11458652 0.057042331
-0.30704728 -0.11449314 0.057038214
-0.30721179 -0.11442648 0.057022735
-0.3073746 -0.11436674 0.056964599
-0.3075695 -0.11428484 0.056966338
-0.3077184 -0.11422153 0.056972817
-0.30793044 -0.11414169 0.05691107
-0.30811864 -0.11406309 0.056909364
-0.30829582 -0.11399281 0.056882318
-0.30847889 -0.113912 0.056910619
-0.30863252 -0.11386283 0.056806374
-0.30882379 -0.11377405 0.056865782
-0.30900514 -0.1136995 0.056856014
-0.30917388 -0.11362854 0.056857832
-0.30935204 -0.11356423 0.056786962
-0.30952996 -0.11349145 0.056774907
-0.3097178 -0.11340596 0.056821637
-0.30988619 -0.1133365 0.05681422
-0.31008554 -0.11325946 0.056769811
-0.31026813 -0.11318976 0.056723148
-0.31043592 -0.113114 0.056760706
-0.31062868 -0.11304728 0.05666443
-0.31079727 -0.11297722 0.05666047
-0.31096852 -0.11290776 0.056644976
-0.31113702 -0.11283807 0.056638714
-0.3113364 -0.11276053 0.056597762
-0.31150287 -0.112689 0.056609958
-0.31166083 -0.11262525 0.056593351
-0.31184605 -0.11253479 0.056681611
-0.31207123 -0.11244812 0.056629054
-0.31223834 -0.1123824 0.056599729
-0.31241876 -0.11231092 0.056571521
-0.31258887 -0.11225082 0.05649491
-0.31277609 -0.11216978 0.056512818
-0.3129501 -0.11210048 0.056488078
-0.313146 -0.11201851 0.056487508
-0.3133243 -0.11194574 0.056474306
-0.31348687 -0.11187804 0.056471515
-0.31367093 -0.11180454 0.056446753
-0.31383798 -0.11173883 0.056417435
-0.31401834 -0.11166756 0.056388073
-0.31418028 -0.11159575 0.056415275
-0.31437409 -0.11151313 0.056425087
-0.3145408 -0.11145917 0.056316186
-0.31471938 -0.11138611 0.056304131
-0.31490266 -0.1113089 0.056307055
-0.3150968 -0.11123119 0.056282271
-0.3152869 -0.11115113 0.056285173
-0.31545979 -0.11108433 0.056246605
-0.31564397 -0.11100572 0.056256443
-0.31579551 -0.11093996 0.056272142
-0.31598037 -0.11086528 0.05625315
-0.31614399 -0.11080134 0.056221526
-0.31634301 -0.11072445 0.056177124
-0.31650269 -0.1106724 0.056075163
-0.31667095 -0.11060922 0.056025084
-0.31690988 -0.11049242 0.056139711
-0.31708542 -0.11043005 0.056063082
-0.31727231 -0.11034294 0.056123648
-0.31745851 -0.11025728 0.056176152
-0.31761113 -0.11019947 0.056134194
-0.31779274 -0.11012211 0.056142878
-0.31797227 -0.11006143 0.056043178
-0.31813887 -0.11000112 0.055978101
-0.31830138 -0.10992639 0.056023754
-0.31848815 -0.10985327 0.055988614
-0.31870866 -0.10974503 0.056097522
-0.31885141 -0.10968696 0.056085568
-0.31903476 -0.10963193 0.055936262
-0.3192251 -0.10954504 0.055985294
-0.31940892 -0.10947685 0.055924788
-0.31956992 -0.10940947 0.055924311
-0.31975898 -0.109329 0.055932976
-0.31995168 -0.10924298 0.05596932
-0.32014489 -0.10917171 0.055903018
-0.32030201 -0.10911066 0.055870261
-0.32048288 -0.10903564 0.055865124
-0.32068801 -0.10895349 0.055839151
-0.3208583 -0.10888356 0.055829428
-0.32104179 -0.10881215 0.055791978
-0.32119989 -0.10874969 0.055766147
-0.321376 -0.10867129 0.055797916
-0.32157561 -0.10857615 0.055876911
-0.32173607 -0.1085211 0.055793397
-0.32190791 -0.10846683 0.055671811
-0.32211012 -0.10836489 0.055789996
-0.32229546 -0.10829457 0.055739857
-0.32246274 -0.10823631 0.055658646
-0.32261321 -0.10818158 0.05560169
-0.3227815 -0.1081083 0.055620797
-0.32300088 -0.10800002 0.055733182
-0.32319823 -0.10792953 0.055649564
-0.32337007 -0.10786484 0.055599473
-0.32356364 -0.10778317 0.055603519
-0.32374221 -0.10771247 0.055575307
-0.32391739 -0.10763361 0.055612858
-0.32409343 -0.1075665 0.055567365
-0.32428232 -0.10749149 0.055539127
-0.32446086 -0.10742096 0.055509768
-0.32463443 -0.10734782 0.055512719
-0.32483414 -0.10726474 0.055508681
-0.32500216 -0.10720216 0.055455133
-0.32518595 -0.10712188 0.055477656
-0.32534587 -0.10706083 0.055436827
-0.32553694 -0.10697433 0.05548124
-0.32571113 -0.1069157 0.055382706
-0.3259117 -0.10683194 0.055380963
-0.32609522 -0.1067496 0.055418476
-0.32627556 -0.10668018 0.055376433
-0.32648343 -0.10658748 0.055415027
-0.32664838 -0.10652029 0.055401862
-0.32680216 -0.10646147 0.055363357
-0.32699165 -0.10639209 0.055294756
-0.32717335 -0.10630983 0.055336896
-0.32735711 -0.10623361 0.055331741
-0.32753557 -0.10616397 0.055296618
-0.32771105 -0.10609524 0.05526381
-0.32790253 -0.10601795 0.055243649
-0.32808703 -0.10594376 0.055222351
-0.32827592 -0.10586976 0.055187196
-0.32847384 -0.10578761 0.055182002
-0.32864076 -0.10572128 0.055157296
-0.32881707 -0.10564379 0.055182148
-0.32901222 -0.10556785 0.055142358
-0.32918894 -0.10549791 0.055114165
-0.32937431 -0.10542051 0.055112462
-0.32954377 -0.10535145 0.055099286
-0.32972077 -0.1052762 0.055106834
-0.32991311 -0.10519604 0.055103965
-0.33011392 -0.1051189 0.055056091
-0.33028853 -0.1050517 0.055015221
-0.33046597 -0.10497627 0.055022769
-0.3306582 -0.10489901 0.055000298
-0.33086661 -0.10481583 0.054972004
-0.33104783 -0.10473141 0.055030286
-0.33123809 -0.10466155 0.054962836
-0.3314023 -0.1046014 0.054903541
-0.33158457 -0.10452344 0.054914542
-0.33178437 -0.10444049 0.054909334
-0.33195668 -0.10437141 0.05488807
-0.33213016 -0.10429628 0.054904863
-0.33233088 -0.10421263 0.054901972
-0.33250469 -0.10414678 0.054854177
-0.33268049 -0.10407874 0.054815598
-0.33289772 -0.10398196 0.054855332
-0.3330656 -0.10391338 0.054843303
-0.33323419 -0.10384871 0.05480244
-0.33340302 -0.10379066 0.054715455
-0.33362475 -0.10368946 0.054772466
-0.33381402 -0.10361412 0.054745387
-0.33399135 -0.10354024 0.05474256
-0.33417863 -0.1034649 0.054721251
-0.33433783 -0.10340365 0.054683883
-0.33453295 -0.10332233 0.054680996
-0.33471274 -0.10325498 0.054626264
-0.33489302 -0.10318056 0.054618821
-0.3350949 -0.10309018 0.054658584
-0.33527279 -0.10301843 0.054639615
-0.33546036 -0.10294749 0.05458717
-0.33568281 -0.10284919 0.054622263
-0.33585867 -0.102784 0.054564085
-0.33604729 -0.10270354 0.054573908
-0.33621252 -0.10264079 0.054529604
-0.33640349 -0.10256658 0.054489836
-0.33657971 -0.10249686 0.054461636
-0.33677772 -0.10241349 0.054464515
-0.33697745 -0.10233058 0.054459319
-0.33715397 -0.10225453 0.054473784
-0.33734977 -0.1021778 0.054437462
-0.33753124 -0.10210723 0.054400027
-0.33773333 -0.10201409 0.054458253
-0.33792973 -0.10193492 0.054436911
-0.33812892 -0.1018571 0.054398268
-0.33831051 -0.10178465 0.054373521
-0.33850253 -0.10170396 0.054375261
-0.33868006 -0.10163957 0.054306705
-0.33886087 -0.10156004 0.054332692
-0.33904848 -0.10148388 0.054315992
-0.33925551 -0.10139875 0.054305006
-0.3394517 -0.10131831 0.054292902
-0.33962435 -0.10124707 0.054285478
-0.33983096 -0.10116649 0.054244507
-0.34001452 -0.10108683 0.054263573
-0.34021002 -0.10101122 0.054220323
-0.34040964 -0.10093558 0.054165535
-0.3406001 -0.10085722 0.054155756
-0.34078869 -0.1007788 0.054151736
-0.34097597 -0.10070362 0.054129284
-0.34116644 -0.10062358 0.054131024
-0.34135771 -0.10054285 0.054135077
-0.34154385 -0.10047267 0.054081477
-0.34174389 -0.10038579 0.054102808
-0.34190151 -0.10033309 0.054011237
-0.34211716 -0.10023545 0.054061346
-0.3422876 -0.10017268 0.054002024
-0.34249496 -0.10007566 0.054071769
-0.34268099 -0.10000587 0.054015864
-0.34287107 -0.099932387 0.053973787
-0.25423831 -0.1391443 0.039683569
-0.25444916 -0.13907187 0.039574578
-0.2546519 -0.13899843 0.039495595
-0.25485119 -0.1389278 0.039407395
-0.25506112 -0.13885456 0.03930648
-0.25525045 -0.13878305 0.039252892
-0.25542668 -0.13871048 0.039244313
-0.25561008 -0.13863793 0.03921495
-0.25579041 -0.13856548 0.039193675
-0.25596657 -0.13849579 0.039165489
-0.25614244 -0.13842355 0.039155763
-0.25631288 -0.13835138 0.03916103
-0.25648037 -0.13827926 0.039174382
-0.25665054 -0.1382072 0.039179653
-0.25681302 -0.13813652 0.039197627
-0.25698495 -0.13806592 0.039187897
-0.25713572 -0.13799392 0.039248567
-0.25729203 -0.13792194 0.039293077
-0.2574448 -0.13784996 0.039347973
-0.25759205 -0.13777791 0.039419025
-0.25774762 -0.13770457 0.039475072
-0.25789028 -0.13763243 0.039559972
-0.25803423 -0.13756028 0.03964141
-0.25817353 -0.13748938 0.039727479
-0.25832 -0.13741581 0.039811209
-0.25845948 -0.13734485 0.039897278
-0.25859889 -0.13727105 0.040002938
-0.25873831 -0.1371986 0.040099382
-0.25887749 -0.13712607 0.040196978
-0.2590149 -0.13705344 0.040300343
-0.25914851 -0.13698208 0.040406018
-0.2592791 -0.13690913 0.040531315
-0.25940615 -0.13683596 0.040668145
-0.25953084 -0.1367626 0.040813047
-0.25965527 -0.1366877 0.040969484
-0.25977534 -0.13661394 0.041130543
-0.25988787 -0.13653827 0.041326217
-0.25999954 -0.13646534 0.04150575
-0.26010603 -0.13639054 0.041712966
-0.25575328 -0.13535868 0.061310381
-0.25595537 -0.13527696 0.06129019
-0.25615034 -0.13519487 0.061293084
-0.25636035 -0.13511387 0.061245203
-0.25652677 -0.13503699 0.061294302
-0.25674617 -0.13495508 0.061225638
-0.25695413 -0.13486889 0.061219268
-0.25714415 -0.13479038 0.061211795
-0.25735015 -0.13471138 0.06116163
-0.25754476 -0.13463701 0.061112635
-0.25772196 -0.1345595 0.06113518
-0.25792003 -0.13447289 0.061159968
-0.25808752 -0.13440734 0.061128356
-0.25835857 -0.13430366 0.061060693
-0.25853667 -0.13423012 0.061053254
-0.2587558 -0.13414212 0.061027259
-0.25893232 -0.13407043 0.061011761
-0.25912577 -0.13398191 0.061063074
-0.25931811 -0.1338989 0.061079819
-0.25951421 -0.13382943 0.060992777
-0.25974753 -0.13373968 0.060937904
-0.25994039 -0.13366452 0.060899302
-0.26013434 -0.13358201 0.06090796
-0.26030222 -0.1335099 0.060920157
-0.26047122 -0.13343413 0.06095425
-0.2606934 -0.13334939 0.060897116
-0.26089358 -0.13326594 0.060894221
-0.26108092 -0.13319644 0.060832575
-0.26126733 -0.1331134 0.060866624
-0.26146567 -0.1330319 0.060855664
-0.26167321 -0.13294975 0.060822785
-0.26186725 -0.13287374 0.060786478
-0.26204631 -0.1327958 0.060806714
-0.26226202 -0.13271511 0.060740367
-0.26247087 -0.13262165 0.060781263
-0.26266918 -0.13254067 0.060766853
-0.26286715 -0.13246976 0.060684424
-0.26303974 -0.13239114 0.060727727
-0.26320642 -0.1323197 0.060738772
-0.26344642 -0.13222934 0.060668901
-0.26361942 -0.1321509 0.060709909
-0.26380906 -0.13207926 0.060656317
-0.26400691 -0.13199882 0.060639601
-0.2641843 -0.13192122 0.06066215
-0.2644223 -0.13182499 0.060638394
-0.26462623 -0.13175005 0.060566321
-0.26483226 -0.13166517 0.060556501
-0.26498371 -0.13159154 0.060626391
-0.26519766 -0.1315188 0.060510471
-0.26538575 -0.13144144 0.060500707
-0.26556483 -0.13136885 0.060484044
-0.26577741 -0.13127282 0.060531855
-0.26598951 -0.13119178 0.060478203
-0.26615745 -0.13112368 0.060462717
-0.26634675 -0.13104479 0.060459867
-0.26652068 -0.1309737 0.060447834
-0.26673362 -0.13089113 0.060402244
-0.26692128 -0.13080771 0.060435142
-0.26711223 -0.13073167 0.060408067
-0.26730952 -0.13065936 0.060337167
-0.26749834 -0.13058084 0.060333159
-0.26768169 -0.1304989 0.060368367
-0.26788455 -0.13041921 0.06033203
-0.26809645 -0.13034633 0.060223047
-0.26827139 -0.13026941 0.060247906
-0.26846206 -0.13018945 0.060248494
-0.2686491 -0.13010865 0.060265243
-0.26886699 -0.13002402 0.060219653
-0.26904765 -0.1299464 0.06023296
-0.26923597 -0.12987077 0.060210511
-0.26943007 -0.12979442 0.06017651
-0.26964995 -0.1297061 0.060150504
-0.26983762 -0.12962824 0.060145348
-0.26999518 -0.12955894 0.060167957
-0.27020976 -0.12947905 0.060099304
-0.27037916 -0.1294011 0.060147233
-0.27059263 -0.12932603 0.06004861
-0.27079064 -0.1292467 0.060023826
-0.27094996 -0.12917818 0.060036052
-0.27116939 -0.12908567 0.060040027
-0.27134889 -0.12901342 0.060019899
-0.27151519 -0.12894717 0.059996359
-0.27172816 -0.12886041 0.059979603
-0.27192676 -0.12877679 0.059982482
-0.27209955 -0.12871034 0.059941627
-0.27229032 -0.12862431 0.05998373
-0.27247995 -0.12854561 0.059978567
-0.27266252 -0.12848014 0.0599031
-0.27284837 -0.12840556 0.059880648
-0.27307162 -0.12831783 0.059840806
-0.27323991 -0.12824522 0.059855297
-0.27341095 -0.12818153 0.059800614
-0.27359891 -0.12809213 0.059873864
-0.27378505 -0.12801808 0.059846804
-0.27395976 -0.12795068 0.059807099
-0.27417657 -0.12786397 0.059778791
-0.27436084 -0.12778954 0.059759811
-0.2745555 -0.12770824 0.059758097
-0.2747471 -0.12762302 0.059792124
-0.2749263 -0.12755795 0.059723578
-0.27511361 -0.1274851 0.059684992
-0.27529263 -0.127409 0.059692532
-0.27549669 -0.12732916 0.059653901
-0.27568156 -0.12725565 0.05962684
-0.27586693 -0.12717958 0.059615925
-0.27605379 -0.12710424 0.059595786
-0.27623942 -0.12702554 0.059602164
-0.2764222 -0.12694855 0.059605092
-0.27663663 -0.12686822 0.059539907
-0.27681258 -0.12679122 0.059562452
-0.27697611 -0.12672345 0.059557363
-0.27717406 -0.1266418 0.059548721
-0.27735743 -0.12656237 0.059566639
-0.27755925 -0.12648581 0.059511855
-0.27773437 -0.12641168 0.059517123
-0.27792788 -0.1263406 0.059448533
-0.27809748 -0.12627634 0.059401922
-0.27828175 -0.12619773 0.05941176
-0.27848235 -0.12611176 0.059425011
-0.27867714 -0.12603879 0.059365653
-0.27884912 -0.12596665 0.059366308
-0.27904266 -0.12589003 0.059335768
-0.27920491 -0.12581591 0.059377953
-0.2793875 -0.12574655 0.059329003
-0.27956429 -0.12567072 0.05934117
-0.27975184 -0.12559442 0.059325628
-0.27992332 -0.12552568 0.059304386
-0.28011826 -0.12544712 0.05928307
-0.28030184 -0.12537214 0.059269849
-0.28049812 -0.12529117 0.05926121
-0.28066692 -0.12521768 0.059280321
-0.28084871 -0.12514177 0.059278637
-0.28106442 -0.12506275 0.059200756
-0.28124297 -0.12498853 0.059196785
-0.28142527 -0.12491325 0.059189342
-0.28160217 -0.12484173 0.059171528
-0.28178677 -0.12476817 0.059145633
-0.28197587 -0.12469038 0.059135854
-0.28214157 -0.1246113 0.059202239
-0.28234094 -0.12454465 0.059086375
-0.28254053 -0.12445945 0.05909732
-0.28272045 -0.12438684 0.059078351
-0.28289172 -0.1243118 0.059100918
-0.28307375 -0.12424486 0.059036978
-0.28325522 -0.12416977 0.059030678
-0.28344986 -0.12409301 0.058997836
-0.28363368 -0.12401188 0.059026126
-0.28381079 -0.12393759 0.059026755
-0.28399852 -0.12386373 0.058993936
-0.28417861 -0.12379206 0.058968045
-0.28436008 -0.12372586 0.058900643
-0.28458375 -0.12363645 0.058871176
-0.28474769 -0.12355979 0.058926042
-0.28493091 -0.12348697 0.058898989
-0.28508109 -0.12341539 0.058958508
-0.28528196 -0.12334544 0.058861081
-0.28547889 -0.12327226 0.058797095
-0.28565773 -0.1231959 0.058806948
-0.28583494 -0.12312713 0.058769539
-0.28601786 -0.12305023 0.058771312
-0.28618497 -0.12297643 0.058797352
-0.28637367 -0.12291007 0.058710329
-0.28656057 -0.12282782 0.058737453
-0.28673589 -0.1227578 0.058713891
-0.28691807 -0.12268038 0.058721423
-0.28709573 -0.12260805 0.058707073
-0.28728208 -0.12253024 0.058705378
-0.28747451 -0.12245927 0.058639109
-0.28766146 -0.12237717 0.058665082
-0.28784722 -0.12230414 0.058632255
-0.28801453 -0.12224135 0.058582198
-0.28819895 -0.1221939 0.058377594
-0.28840053 -0.12208669 0.058533803
-0.288555 -0.12201953 0.058550652
-0.28873321 -0.12193772 0.05859971
-0.28891844 -0.12186475 0.058568045
-0.28909078 -0.12179229 0.058569849
-0.28928569 -0.12171508 0.058539305
-0.28946787 -0.12164438 0.05850073
-0.28964448 -0.12156006 0.0585717
-0.28982115 -0.12149385 0.058518149
-0.29001334 -0.12141947 0.05847609
-0.29019284 -0.12133913 0.058511309
-0.2903693 -0.12127319 0.058456607
-0.29056296 -0.12119516 0.058435291
-0.29074502 -0.12112536 0.058390949
-0.29091287 -0.1210531 0.058404289
-0.29109246 -0.12097962 0.058392242
-0.29128936 -0.12090058 0.058368612
-0.29145971 -0.12083264 0.058345065
-0.29163316 -0.12076309 0.058323804
-0.29183096 -0.1206788 0.058333606
-0.29203388 -0.12060396 0.058263835
-0.29219484 -0.12053423 0.058279518
-0.29236045 -0.1204656 0.058274426
-0.29253411 -0.12038922 0.058299288
-0.29271054 -0.12031825 0.058279168
-0.29289478 -0.12024719 0.058237128
-0.29308188 -0.1201741 0.058200836
-0.29327527 -0.12009771 0.058169149
-0.29345912 -0.12002664 0.058128264
-0.29365391 -0.11993606 0.058189958
-0.29384783 -0.11986145 0.058144432
-0.29402208 -0.11978635 0.058158904
-0.29419586 -0.11971967 0.058116898
-0.29439223 -0.11964235 0.058082893
-0.29454929 -0.11958251 0.058042087
-0.29473457 -0.11950665 0.058030013
-0.29492411 -0.11942144 0.058069821
-0.29508105 -0.11936182 0.05802786
-0.29524627 -0.11929367 0.058020458
-0.29541805 -0.11922263 0.058014199
-0.29559758 -0.11914061 0.058060944
-0.29578024 -0.11906853 0.058030441
-0.2959626 -0.11899574 0.058005691
-0.29614294 -0.11892901 0.057945222
-0.29633132 -0.11886547 0.057839751
-0.29650185 -0.11879074 0.057862323
-0.29671839 -0.11869575 0.057891671
-0.29691386 -0.11861864 0.057858817
-0.29708767 -0.11854171 0.057887137
-0.29724973 -0.11847658 0.05786822
-0.29744804 -0.11839644 0.05784804
-0.29763246 -0.11831842 0.05785327
-0.29781169 -0.11825064 0.057803169
-0.29795966 -0.11820636 0.057681687
-0.2981526 -0.11811738 0.057737619
-0.29835358 -0.11803361 0.057734728
-0.29853007 -0.11795 0.05780109
-0.29871237 -0.1178816 0.057746373
-0.29886845 -0.11782602 0.057679046
-0.29901955 -0.11775943 0.057701658
-0.29920641 -0.117673 0.05775762
-0.2994228 -0.11760412 0.057608258
-0.29956821 -0.11754914 0.057567477
-0.29976755 -0.11744825 0.057686806
-0.29994181 -0.11737045 0.057719741
-0.3001239 -0.11730651 0.057635047
-0.30028889 -0.11724233 0.057601128
-0.30049631 -0.11715385 0.057612062
-0.30068758 -0.11707834 0.057580367
-0.30086875 -0.11700285 0.057577539
-0.30104685 -0.11693722 0.057515919
-0.30122799 -0.11686125 0.057516549
-0.30140582 -0.11678548 0.057525255
-0.30156395 -0.11671948 0.057523638
-0.30176488 -0.11663808 0.057504602
-0.30194601 -0.11656597 0.057478718
-0.30212384 -0.11649356 0.057464365
-0.30230522 -0.11641228 0.057500727
-0.30248326 -0.11633644 0.057509433
-0.30265391 -0.11627963 0.057408638
-0.30284175 -0.11620001 0.057415009
-0.30302009 -0.1161195 0.057454839
-0.30320162 -0.11604068 0.057473909
-0.30338278 -0.11596686 0.057459559
-0.30356026 -0.11589915 0.05741407
-0.30371466 -0.11583991 0.057376735
-0.30386859 -0.1157849 0.057311721
-0.30407324 -0.11569656 0.057329565
-0.30427709 -0.11561545 0.057300158
-0.30445853 -0.11553851 0.057306543
-0.30462033 -0.11546929 0.057316452
-0.30479792 -0.11539833 0.057292879
-0.30497292 -0.11532375 0.057301588
-0.30514783 -0.11525004 0.057304546
-0.30532894 -0.11517644 0.057289027
-0.30550045 -0.11510499 0.057286225
-0.30566981 -0.11504588 0.057205029
-0.30586404 -0.11496679 0.057189479
-0.30607083 -0.11488528 0.05715429
-0.30623245 -0.1148178 0.057152666
-0.30641899 -0.11474662 0.057104856
-0.30661118 -0.11466284 0.057127357
-0.30676541 -0.11460198 0.057101544
-0.30692798 -0.11454387 0.057033047
-0.30712724 -0.1144556 0.057065904
-0.30730075 -0.11438854 0.057027355
-0.30748188 -0.11431424 0.057016451
-0.30765632 -0.11424326 0.057002105
-0.30782652 -0.11417724 0.056965873
-0.30802324 -0.1140887 0.057007954
-0.30820382 -0.11401682 0.056982066
-0.30839097 -0.11394219 0.056956165
-0.30856016 -0.11387945 0.05690033
-0.30874234 -0.11380187 0.056909017
-0.30892488 -0.11373287 0.056857757
-0.30910352 -0.1136576 0.056860704
-0.30927762 -0.11358776 0.056839444
-0.30946046 -0.11350855 0.056857362
-0.30965599 -0.11343446 0.056803755
-0.30982763 -0.11336347 0.056797486
-0.30998528 -0.11330035 0.056777433
-0.31017333 -0.11321477 0.056824155
-0.31035027 -0.11314508 0.056793671
-0.3105379 -0.11306907 0.056775831
-0.31072459 -0.11298037 0.056847923
-0.31092823 -0.11291429 0.056715891
-0.31108502 -0.11284617 0.056732733
-0.31124622 -0.11278122 0.056714967
-0.31143761 -0.1127028 0.056702886
-0.31161797 -0.11261742 0.056770388
-0.31179944 -0.11256415 0.056614209
-0.3119584 -0.11250468 0.056565326
-0.3121427 -0.11241679 0.056638584
-0.31233093 -0.11233316 0.05667147
-0.31252593 -0.11224668 0.056704335
-0.31271979 -0.11217579 0.056633443
-0.31288195 -0.11210893 0.056626052
-0.31306285 -0.11204264 0.056560963
-0.31325093 -0.1119661 0.056545429
-0.31342572 -0.11188927 0.056570288
-0.31358421 -0.11183067 0.056516789
-0.31378025 -0.11174862 0.056516215
-0.31397256 -0.11167469 0.0564707
-0.31416881 -0.11159239 0.056471284
-0.31431636 -0.11152309 0.056522734
-0.31452495 -0.1114321 0.056547489
-0.31470385 -0.11138024 0.056389019
-0.3148537 -0.11131737 0.056389738
-0.31503162 -0.11124056 0.056405358
-0.31523719 -0.11116108 0.056359805
-0.31539509 -0.11108777 0.056408919
-0.31558284 -0.11100752 0.056419905
-0.31578448 -0.11093573 0.056332849
-0.31594285 -0.11088172 0.056248222
-0.31609812 -0.11081875 0.056233931
-0.31627351 -0.11075208 0.056187309
-0.316484 -0.11065861 0.056223594
-0.3166576 -0.11058579 0.056224242
-0.31685928 -0.11049484 0.056268618
-0.31705442 -0.1104204 0.056218483
-0.31723332 -0.11034754 0.056204125
-0.31741104 -0.11027687 0.056178238
-0.31757176 -0.11021364 0.056150097
-0.31774649 -0.1101437 0.05612769
-0.31794724 -0.11006389 0.056098286
-0.31812105 -0.10999132 0.056096628
-0.31829119 -0.10992079 0.056091525
-0.31845453 -0.10986587 0.055998806
-0.31866473 -0.10976211 0.056106575
-0.31882325 -0.10969863 0.05608651
-0.31898093 -0.10964877 0.055975378
-0.31919664 -0.10954892 0.056040462
-0.31939662 -0.10944675 0.056166701
-0.31958982 -0.10938352 0.056045085
-0.31975052 -0.10932854 0.05596045
-0.31992155 -0.10925713 0.055958811
-0.32008669 -0.10919122 0.055936418
-0.32028666 -0.10910552 0.055949681
-0.3204647 -0.10903487 0.055922642
-0.32064688 -0.10895796 0.055926718
-0.3208406 -0.10887471 0.055941146
-0.32102036 -0.10879796 0.055951007
-0.32121289 -0.10872041 0.055929683
-0.3213813 -0.10865715 0.055879623
-0.32153431 -0.10860236 0.055815764
-0.32171127 -0.10852294 0.055852152
-0.32189769 -0.10844391 0.055858523
-0.32208782 -0.10837005 0.055818778
-0.32226485 -0.10829781 0.055805575
-0.32245481 -0.10822084 0.055787731
-0.32265061 -0.10814914 0.055716831
-0.32278183 -0.10812832 0.05548241
-0.32294652 -0.10805336 0.05552344
-0.32318205 -0.10791262 0.055812135
-0.32340494 -0.1078133 0.055852991
-0.32355905 -0.10777652 0.055662315
-0.32375571 -0.10769069 0.055685952
-0.32393333 -0.10762459 0.055628937
-0.32410932 -0.1075543 0.055605374
-0.32426941 -0.10749604 0.05554495
-0.32447082 -0.10740419 0.055596251
-0.32464957 -0.1073304 0.055588812
-0.32482061 -0.10726688 0.055532977
-0.32500309 -0.10718212 0.055590089
-0.32519704 -0.10710985 0.055528421
-0.32537904 -0.10703804 0.055497915
-0.32554635 -0.1069734 0.055460542
-0.32572964 -0.10688814 0.05551881
-0.32592517 -0.10681386 0.055466354
-0.32611015 -0.10673846 0.055451982
-0.32629603 -0.10665613 0.055482574
-0.32648218 -0.10657656 0.055493556
-0.32664403 -0.10652478 0.055383559
-0.32683244 -0.10644811 0.055368029
-0.32700667 -0.10638075 0.055329476
-0.32721013 -0.10628552 0.055398054
-0.32737693 -0.10621908 0.055374514
-0.32754657 -0.10616303 0.055271406
-0.32772255 -0.10609358 0.055242073
-0.32792512 -0.10600276 0.055282995
-0.32811174 -0.10592601 0.055273227
-0.32830766 -0.1058462 0.055257671
-0.32849702 -0.10576627 0.055261731
-0.32867727 -0.1056947 0.055234693
-0.32886088 -0.10561652 0.055243384
-0.32902542 -0.10555842 0.055169117
-0.32921651 -0.10547677 0.055180084
-0.32940343 -0.10539232 0.055222198
-0.32957146 -0.10533276 0.055147931
-0.32973111 -0.10528542 0.055013724
-0.32991675 -0.1052027 0.055047777
-0.33012751 -0.10509871 0.055155534
-0.33034241 -0.10501298 0.055126082
-0.33051395 -0.10494186 0.055120975
-0.33068588 -0.10488032 0.055048995
-0.33089259 -0.10479163 0.055063386
-0.3310746 -0.10471378 0.055074379
-0.33123714 -0.10465063 0.055040479
-0.33145481 -0.1045597 0.055038687
-0.33162385 -0.10449904 0.054969024
-0.33180475 -0.10442031 0.054989256
-0.33198863 -0.10434319 0.054989871
-0.33217028 -0.10427339 0.054946691
-0.3323563 -0.10419168 0.054972664
-0.33255121 -0.10411447 0.05494212
-0.33273032 -0.10404523 0.054902397
-0.33291176 -0.10396879 0.054905333
-0.33310428 -0.10388738 0.054910533
-0.33326945 -0.10383102 0.054822437
-0.33346954 -0.10374846 0.05481378
-0.33367312 -0.10366227 0.054820102
-0.33386004 -0.10358487 0.054813802
-0.33403999 -0.10351276 0.054791376
-0.33421329 -0.10344325 0.054770119
-0.33439577 -0.10336858 0.054758061
-0.33457014 -0.10330249 0.054710284
-0.33476642 -0.10322 0.054712009
-0.334957 -0.10314143 0.054703388
-0.3351388 -0.10307206 0.054656751
-0.33529881 -0.10301013 0.054621696
-0.33548945 -0.10292514 0.054656882
-0.33570266 -0.10283424 0.054667789
-0.33590561 -0.10274544 0.054693718
-0.33610022 -0.10266535 0.054683924
-0.33627364 -0.10259848 0.054644227
-0.33646587 -0.10252728 0.054580253
-0.33662468 -0.10246265 0.054567114
-0.3368277 -0.10238054 0.054546922
-0.33701396 -0.10230294 0.054544069
-0.33719376 -0.10223189 0.054514728
-0.3373687 -0.10216373 0.054479633
-0.33757368 -0.10207374 0.054507863
-0.33774367 -0.1020147 0.054424353
-0.337946 -0.10192347 0.054468736
-0.33815274 -0.10183409 0.054487724
-0.33832934 -0.10176657 0.054443408
-0.33852401 -0.10168526 0.054441683
-0.33871466 -0.10161204 0.054396167
-0.3388873 -0.10154448 0.054363389
-0.33907592 -0.10146337 0.05437782
-0.33926308 -0.10138773 0.054358833
-0.33946374 -0.10130493 0.054350182
-0.3396436 -0.10123453 0.054316223
-0.33983862 -0.10115342 0.054312199
-0.34002379 -0.10107997 0.054283991
-0.34021524 -0.10100052 0.054278824
-0.3404431 -0.10089591 0.054341573
-0.34062153 -0.10083485 0.054247666
-0.34082869 -0.10074261 0.054285109
-0.34098747 -0.10068692 0.054210864
-0.3411915 -0.10059783 0.05423563
-0.3413696 -0.10052583 0.054217815
-0.34155765 -0.10045199 0.054183844
-0.34175324 -0.10037299 0.054163676
-0.34192774 -0.10030265 0.054144721
-0.34212261 -0.10022077 0.054146454
-0.3423183 -0.1001419 0.054125134
-0.34249115 -0.1000751 0.054086585
-0.34268019 -0.099996991 0.054079115
-0.3428894 -0.099911287 0.054065838
-0.25422442 -0.13913795 0.039767087
-0.25443655 -0.13906547 0.039654691
-0.25464186 -0.13899197 0.039568834
-0.25484377 -0.13891737 0.039500277
-0.25504097 -0.13884559 0.039425965
-0.25523442 -0.13877268 0.03937012
-0.25542587 -0.13869861 0.039328098
-0.25560734 -0.13862737 0.039295334
-0.25579134 -0.13855356 0.039272938
-0.25596863 -0.1384812 0.039259773
-0.25614861 -0.1384089 0.039238539
-0.25631747 -0.13833672 0.039248459
-0.25648981 -0.13826324 0.039257221
-0.25666082 -0.13819116 0.039260216
-0.25682932 -0.13811913 0.03927014
-0.25699648 -0.13804714 0.039283521
-0.25716358 -0.13797385 0.039306123
-0.25731242 -0.13790181 0.039372582
-0.2574625 -0.13782842 0.039444797
-0.25761807 -0.13775644 0.039491639
-0.25777298 -0.13768169 0.039559241
-0.25791609 -0.13760953 0.039643001
-0.25805777 -0.1375373 0.039731383
-0.25820222 -0.13746509 0.039811689
-0.2583465 -0.13739145 0.039902363
-0.25849238 -0.13731779 0.039988432
-0.25863492 -0.13724402 0.040084876
-0.25877404 -0.13717152 0.040182482
-0.2589176 -0.13709767 0.040276624
-0.25905395 -0.13702498 0.040383462
-0.25919098 -0.13695082 0.040498372
-0.25932091 -0.1368778 0.040625978
-0.25945127 -0.13680325 0.040762801
-0.25957778 -0.13672848 0.040912315
-0.25970343 -0.13665356 0.041065294
-0.25982291 -0.13657971 0.041228663
-0.2599363 -0.13650402 0.041422024
-0.26005206 -0.13642973 0.041599236
-0.26016107 -0.13635202 0.041819122
-0.25585461 -0.13530804 0.061366543
-0.25604984 -0.13522415 0.061380997
-0.25625381 -0.13514265 0.061353937
-0.25645944 -0.13505961 0.061332636
-0.25663239 -0.1349832 0.061359838
-0.25685564 -0.13489984 0.06129007
-0.25705257 -0.13481641 0.061296452
-0.25723308 -0.13474254 0.06128443
-0.25746655 -0.13465138 0.061238848
-0.25767311 -0.13457081 0.061197944
-0.2578752 -0.13449177 0.061159365
-0.2580238 -0.13441548 0.06125579
-0.25822854 -0.1343496 0.061119217
-0.25847268 -0.13424172 0.061157744
-0.25868902 -0.13416259 0.061078779
-0.25887442 -0.13407877 0.061120927
-0.25908184 -0.13399902 0.061071947
-0.25925204 -0.13392308 0.061103776
-0.25941148 -0.13385166 0.061135624
-0.25966117 -0.13375975 0.061048489
-0.25985777 -0.13367361 0.061074473
-0.26006964 -0.13359299 0.061018564
-0.26026729 -0.13351279 0.061000735
-0.26042846 -0.13344181 0.061024509
-0.26062715 -0.13336571 0.060975567
-0.26082802 -0.1332823 0.060970414
-0.26102456 -0.13319652 0.060994089
-0.2612381 -0.13312261 0.060887456
-0.26140532 -0.13304488 0.060940035
-0.26160085 -0.13296306 0.060939506
-0.26181847 -0.13287836 0.060895115
-0.26201931 -0.13280137 0.060846157
-0.26217198 -0.1327257 0.060926434
-0.26240584 -0.13264361 0.060817443
-0.26260203 -0.13255832 0.060838826
-0.26277575 -0.13248175 0.060864866
-0.26299483 -0.13239795 0.060810093
-0.2631745 -0.13232847 0.060770415
-0.26335877 -0.13225168 0.060767621
-0.26357409 -0.13216156 0.060767032
-0.26374266 -0.13208647 0.060797706
-0.2639744 -0.13200948 0.060659897
-0.26418036 -0.13192429 0.060652431
-0.26436675 -0.1318545 0.060595445
-0.26457289 -0.13175496 0.060685951
-0.26478598 -0.13167334 0.060633503
-0.26497114 -0.13159315 0.060651448
-0.26512173 -0.13152778 0.060667176
-0.26533639 -0.13144466 0.060620494
-0.26556036 -0.13136134 0.060548417
-0.26574332 -0.13129382 0.060485672
-0.2659367 -0.13120483 0.060540482
-0.26613092 -0.13111816 0.060576849
-0.26631749 -0.13105169 0.060496803
-0.26649809 -0.13097323 0.060515918
-0.26667887 -0.13090362 0.060473926
-0.2668997 -0.13081841 0.060423769
-0.26706836 -0.13073978 0.060478639
-0.26726702 -0.13065881 0.060463116
-0.26747227 -0.13058165 0.060402628
-0.26765987 -0.13050513 0.060388286
-0.26782775 -0.13042867 0.060430482
-0.26802728 -0.13035053 0.060393058
-0.26823196 -0.13026688 0.060378671
-0.26841539 -0.13019197 0.060365491
-0.26860395 -0.13011606 0.060344242
-0.26879427 -0.13003607 0.060346037
-0.26901603 -0.12994781 0.060314305
-0.26921082 -0.12986678 0.060310319
-0.26939806 -0.12979563 0.060260244
-0.26960295 -0.12971273 0.060240097
-0.26979396 -0.12963095 0.060252264
-0.26997325 -0.12955558 0.06025409
-0.27014002 -0.12949602 0.060183316
-0.27034199 -0.12940544 0.06022428
-0.2705245 -0.1293336 0.060192659
-0.27075246 -0.12924574 0.060140163
-0.27094707 -0.12917034 0.060098145
-0.27110416 -0.1291061 0.060087346
-0.27131751 -0.12901178 0.06012135
-0.27150688 -0.12894008 0.060068965
-0.27169675 -0.12887119 0.05999583
-0.27188212 -0.12878338 0.060065649
-0.2720716 -0.1287019 0.060080118
-0.27226287 -0.12862872 0.060032345
-0.27242881 -0.12855759 0.060043424
-0.2726239 -0.12848333 0.059992176
-0.27281314 -0.12840463 0.059988204
-0.27300158 -0.12833096 0.059951961
-0.27321503 -0.12824248 0.059945624
-0.27339476 -0.1281686 0.059935912
-0.27356765 -0.12810564 0.059870899
-0.27374369 -0.12802525 0.059916534
-0.27394003 -0.12794963 0.059871048
-0.27413434 -0.12788425 0.059761003
-0.27434167 -0.12778589 0.059839986
-0.27451384 -0.12771232 0.059849903
-0.27470294 -0.12763436 0.05984132
-0.2748459 -0.12756595 0.059899729
-0.27505916 -0.1274866 0.059831142
-0.27525151 -0.127413 0.059783351
-0.27543682 -0.12733948 0.059755195
-0.27562678 -0.1272566 0.059777729
-0.27582669 -0.12717798 0.059742615
-0.2760036 -0.12710981 0.059701785
-0.27619293 -0.12702973 0.059707038
-0.27637428 -0.12695788 0.059678882
-0.2765609 -0.12688261 0.059658788
-0.27676833 -0.12679616 0.059655927
-0.27692473 -0.126728 0.059673946
-0.27711976 -0.12665392 0.059621543
-0.27730656 -0.12657912 0.059597984
-0.27748406 -0.12650298 0.059610181
-0.27768493 -0.12642294 0.05958198
-0.27786279 -0.12635016 0.059569966
-0.27806088 -0.12626895 0.059557907
-0.27825993 -0.12620093 0.059452474
-0.27843347 -0.12612309 0.059487738
-0.2786012 -0.12604852 0.059517253
-0.27881485 -0.12596633 0.059467115
-0.27897424 -0.1259003 0.05946207
-0.27915588 -0.1258204 0.059488095
-0.27933723 -0.12575021 0.059448414
-0.2795206 -0.12567802 0.059416793
-0.27970114 -0.12560765 0.059380572
-0.27988765 -0.12553078 0.059371993
-0.28006884 -0.12546787 0.059282742
-0.28025723 -0.12538549 0.059306443
-0.28044078 -0.12530364 0.059340529
-0.28063214 -0.12522657 0.059319273
-0.28079984 -0.12516294 0.05927385
-0.28098792 -0.12508404 0.059274502
-0.28118637 -0.12499042 0.05934659
-0.28137529 -0.12493016 0.059216969
-0.28154767 -0.12485197 0.059258007
-0.28173772 -0.12477831 0.059217148
-0.28191113 -0.12470824 0.059199393
-0.28209725 -0.12462465 0.059238076
-0.28226477 -0.12455806 0.059213419
-0.28246981 -0.1244766 0.059182897
-0.28264952 -0.12440375 0.059166268
-0.28283873 -0.12433027 0.059126563
-0.28301451 -0.12425469 0.059139922
-0.28319922 -0.12418593 0.059080638
-0.28338552 -0.12410663 0.059089355
-0.28357917 -0.12402508 0.059092298
-0.28375655 -0.12395503 0.059062991
-0.28391966 -0.12388173 0.059097137
-0.28411165 -0.12380726 0.059056275
-0.28428882 -0.12373731 0.059026979
-0.28448421 -0.12365335 0.059041433
-0.28468812 -0.12356818 0.059039734
-0.28485218 -0.12350438 0.059005864
-0.28503349 -0.12342984 0.058996148
-0.28519106 -0.12336037 0.059019938
-0.28540578 -0.12328545 0.058916762
-0.28560391 -0.12320438 0.058903538
-0.2857776 -0.12313673 0.058868498
-0.28596318 -0.12306225 0.058846086
-0.28613365 -0.12299173 0.058839865
-0.28630757 -0.12291996 0.058832482
-0.28649819 -0.12285092 0.058758192
-0.28665751 -0.122774 0.058828078
-0.28685504 -0.12269787 0.058782585
-0.28703955 -0.12262788 0.058732517
-0.28720471 -0.12255707 0.058743596
-0.28739059 -0.12247877 0.058746554
-0.28757626 -0.12240023 0.058751822
-0.28775674 -0.12233141 0.058705226
-0.28794441 -0.12225538 0.058687426
-0.28814304 -0.12218183 0.058621187
-0.28833234 -0.12211352 0.058545738
-0.28847891 -0.12201472 0.058802411
-0.28866175 -0.12196054 0.058648605
-0.28882986 -0.12188817 0.058661986
-0.28901085 -0.12180972 0.058679938
-0.28919396 -0.12175141 0.058553793
-0.28938496 -0.12166323 0.058609758
-0.2895568 -0.12159013 0.058617372
-0.28972727 -0.12152115 0.058600768
-0.28991759 -0.12145005 0.058541473
-0.29010499 -0.12137498 0.058517907
-0.29027686 -0.12130221 0.058523208
-0.29045901 -0.1212258 0.058523867
-0.29065406 -0.12114988 0.058484145
-0.29083419 -0.12107702 0.058466367
-0.29100659 -0.12101208 0.058416337
-0.29118404 -0.12094201 0.058387041
-0.29137579 -0.12085437 0.058437251
-0.29154572 -0.12079282 0.058371082
-0.29172984 -0.12071325 0.058387876
-0.29191864 -0.12063473 0.058383904
-0.29211476 -0.12055483 0.058368392
-0.29226911 -0.12047999 0.058438294
-0.29243261 -0.12041476 0.058415949
-0.29261276 -0.12035095 0.058335926
-0.29280254 -0.12028293 0.058257028
-0.29299307 -0.12020034 0.058276102
-0.2931633 -0.12013346 0.058245681
-0.29334754 -0.12005433 0.058259014
-0.29354978 -0.11997155 0.058245782
-0.29371998 -0.11989595 0.058275297
-0.29391155 -0.1198156 0.058275931
-0.29409456 -0.11975227 0.058184378
-0.29427719 -0.11967886 0.058163136
-0.29446933 -0.11960046 0.058148779
-0.29464418 -0.11952695 0.058150619
-0.294808 -0.11945451 0.058176689
-0.29497722 -0.11938639 0.058157787
-0.29515135 -0.1193219 0.058099672
-0.29532942 -0.1192583 0.058024269
-0.29550612 -0.11917946 0.058057219
-0.29567277 -0.11910385 0.05809712
-0.29585564 -0.11903252 0.058060892
-0.29603386 -0.11895826 0.058058102
-0.29622248 -0.11888167 0.058041461
-0.29640883 -0.11881056 0.057993688
-0.29658076 -0.11874046 0.057980549
-0.29679513 -0.11865091 0.057978816
-0.29698676 -0.11857255 0.057965614
-0.29716575 -0.11850218 0.057934005
-0.29733768 -0.1184329 0.057915099
-0.29752594 -0.11835612 0.057900757
-0.29770389 -0.11828131 0.057902586
-0.29788235 -0.11820931 0.057883665
-0.29806268 -0.11814828 0.057784043
-0.29824629 -0.11806589 0.057821587
-0.29842269 -0.11798164 0.05789258
-0.29858547 -0.11792243 0.057831042
-0.29878023 -0.11784327 0.057814378
-0.29895011 -0.11778712 0.057711329
-0.29910329 -0.11773778 0.057609476
-0.29928505 -0.11763769 0.057773829
-0.29949865 -0.11754209 0.057815898
-0.29964763 -0.11748695 0.057765931
-0.29983297 -0.11741913 0.05769857
-0.30001456 -0.11734868 0.05766004
-0.30019215 -0.11727048 0.057686068
-0.30035722 -0.11720761 0.057642974
-0.30055469 -0.11712094 0.057670105
-0.30075577 -0.11703963 0.05764997
-0.30093378 -0.11696848 0.057626437
-0.30111495 -0.11689132 0.057635166
-0.30129287 -0.11681467 0.057649679
-0.30147085 -0.11673683 0.057672247
-0.30161914 -0.11668803 0.057580784
-0.30183008 -0.1165947 0.057614792
-0.30199817 -0.11652587 0.057603966
-0.3021864 -0.11643516 0.057685297
-0.30234137 -0.11637181 0.057674505
-0.30251601 -0.11630327 0.057642911
-0.30269691 -0.11623746 0.057574414
-0.30287805 -0.11616501 0.057550877
-0.30305564 -0.11609741 0.057504278
-0.30322379 -0.11602652 0.057507284
-0.30339497 -0.11595806 0.057484921
-0.30358601 -0.11588064 0.05746711
-0.30376282 -0.11581856 0.057384793
-0.30393663 -0.11575353 0.057331298
-0.30412146 -0.11567383 0.05734694
-0.30432913 -0.11558691 0.057346378
-0.30449709 -0.11551797 0.057336699
-0.3046605 -0.11545948 0.057268251
-0.30484471 -0.11538491 0.057250462
-0.30501628 -0.11531209 0.057256915
-0.30519438 -0.11523722 0.057258733
-0.30537203 -0.11516521 0.057242122
-0.30554843 -0.11510046 0.057179395
-0.30572131 -0.11503767 0.057113219
-0.30591655 -0.11495227 0.057138059
-0.30612507 -0.11486147 0.0571617
-0.30630258 -0.11479004 0.057141632
-0.30648026 -0.11471768 0.057127319
-0.30664888 -0.1146456 0.057137229
-0.30681935 -0.11457896 0.057104494
-0.30699974 -0.11450782 0.05707404
-0.30717736 -0.11443585 0.057057418
-0.30735686 -0.11435601 0.05708921
-0.30753443 -0.11428438 0.057070289
-0.30772084 -0.11421276 0.057025984
-0.30788225 -0.11414655 0.057016324
-0.30806464 -0.11406768 0.057033125
-0.30825239 -0.11399095 0.057019942
-0.3084529 -0.1139104 0.056996338
-0.30863276 -0.11384083 0.056956664
-0.30880266 -0.11377542 0.056917012
-0.30898553 -0.1136957 0.056938417
-0.30916539 -0.11362597 0.05689989
-0.30934477 -0.11355761 0.056853298
-0.30951074 -0.1134863 0.056865536
-0.30970392 -0.11340193 0.056889221
-0.30987692 -0.113327 0.056906044
-0.3100397 -0.11327399 0.056801856
-0.31020793 -0.11320476 0.056793336
-0.31039968 -0.11311695 0.056844693
-0.31058058 -0.1130441 0.056824602
-0.31073359 -0.11299383 0.056729667
-0.31094074 -0.11290276 0.056759082
-0.31112492 -0.11282853 0.05673898
-0.31129557 -0.11276064 0.056714315
-0.31146625 -0.11268552 0.056739222
-0.31163055 -0.11261272 0.056766436
-0.3118279 -0.11253349 0.056742854
-0.31200385 -0.11246622 0.056698568
-0.31218588 -0.11239742 0.05664736
-0.3123523 -0.1123266 0.056654979
-0.31252617 -0.1122577 0.056628004
-0.31270981 -0.11217227 0.056686297
-0.31290886 -0.1120893 0.056683451
-0.31308272 -0.11203282 0.056571163
-0.313274 -0.11195512 0.056554511
-0.31345844 -0.11187474 0.056575917
-0.31361678 -0.11181637 0.056521304
-0.31378806 -0.11174149 0.056542754
-0.31399122 -0.11165008 0.056586001
-0.31415594 -0.11158382 0.056567118
-0.3143369 -0.11149482 0.056657694
-0.31450212 -0.11142232 0.056680311
-0.31470665 -0.1113562 0.056546036
-0.3148976 -0.11129039 0.056448683
-0.31505013 -0.11123276 0.056405626
-0.31524685 -0.11113448 0.056514602
-0.31541654 -0.11107925 0.056405783
-0.31559047 -0.11101048 0.056377657
-0.31578323 -0.11092561 0.056405954
-0.31595629 -0.11085369 0.056402028
-0.31614652 -0.11077876 0.056369238
-0.31630701 -0.11073512 0.056207422
-0.3165215 -0.11062956 0.056315199
-0.31668097 -0.11056852 0.056275576
-0.31683633 -0.11050098 0.056292444
-0.31706539 -0.1103979 0.056341399
-0.31725058 -0.11032307 0.056322455
-0.31742874 -0.1102517 0.056300074
-0.31759828 -0.11019535 0.056199323
-0.31776917 -0.11012769 0.056172345
-0.31795877 -0.11004969 0.056162618
-0.31814098 -0.1099714 0.056175958
-0.31831855 -0.10990112 0.05614781
-0.3184731 -0.10983998 0.05612319
-0.31865206 -0.1097466 0.056249507
-0.31882423 -0.10969368 0.056117631
-0.31901163 -0.10963188 0.056002997
-0.31920165 -0.10953741 0.056105088
-0.31937304 -0.10945728 0.05616226
-0.31955367 -0.10935867 0.056319699
-0.31975675 -0.10929954 0.05614163
-0.31993163 -0.10923391 0.056089282
-0.32010585 -0.10916921 0.05603233
-0.3203021 -0.10908557 0.056042172
-0.32045704 -0.10902794 0.05599219
-0.3206507 -0.1089484 0.05598129
-0.32082489 -0.10888004 0.055949692
-0.32100371 -0.10880101 0.055978026
-0.32117656 -0.10873471 0.055936061
-0.32138363 -0.10864989 0.055922825
-0.32154268 -0.10858969 0.055878595
-0.32171667 -0.10852176 0.055844694
-0.32187697 -0.10845617 0.055833887
-0.32208669 -0.10836773 0.055837937
-0.32224128 -0.10831748 0.055738375
-0.3224363 -0.10822964 0.0557805
-0.3226409 -0.10814536 0.055770725
-0.32282516 -0.10806975 0.055759855
-0.32296973 -0.10803998 0.055548515
-0.32313642 -0.1079524 0.055670261
-0.32333666 -0.10784157 0.055855311
-0.32354134 -0.1077512 0.055887032
-0.32372558 -0.10769878 0.055717081
-0.3239029 -0.107617 0.055768479
-0.32409203 -0.10754491 0.055719551
-0.32427794 -0.1074708 0.05569369
-0.32445604 -0.10740096 0.055660933
-0.32462001 -0.10733754 0.055624757
-0.32480606 -0.10726638 0.055578146
-0.32499132 -0.1071902 0.055568419
-0.32515341 -0.10712319 0.055562217
-0.32533711 -0.10704614 0.05556288
-0.32553324 -0.10696205 0.055576183
-0.3256982 -0.10689755 0.055544615
-0.32588243 -0.10681707 0.055567175
-0.32609782 -0.10672626 0.055571198
-0.32626629 -0.10666616 0.055499274
-0.32642967 -0.1065951 0.055517279
-0.32660568 -0.10652831 0.055469535
-0.32681522 -0.10644515 0.055437848
-0.32698029 -0.1063722 0.055463914
-0.32716486 -0.10628925 0.055502616
-0.32733729 -0.10622144 0.055472177
-0.32752392 -0.10615846 0.055367928
-0.32771081 -0.10608947 0.055304021
-0.32789484 -0.10601027 0.055318508
-0.3280642 -0.10593536 0.055345718
