# .PCD v0.7 - Point Cloud Data file format
VERSION 0.7
FIELDS x y z
SIZE 4 4 4
TYPE F F F
COUNT 1 1 1
WIDTH 1289
HEIGHT 1
VIEWPOINT 0 0 0 1 0 0 0
POINTS 1289
DATA ascii
-0.26495868 -0.12789021 0.060778368
-0.26517695 -0.12780645 0.060695738
-0.26535264 -0.12770936 0.060832389
-0.26559773 -0.12761737 0.060725451
-0.26578766 -0.12753627 0.060709808
-0.26596639 -0.12745368 0.060738042
-0.26617068 -0.12736662 0.060720045
-0.26637182 -0.12728532 0.060672075
-0.26654941 -0.12721299 0.06063341
-0.26674539 -0.12712704 0.06063275
-0.26696324 -0.12704246 0.060557052
-0.26714596 -0.12695879 0.060580645
-0.26734486 -0.12686937 0.060594961
-0.26752299 -0.12678501 0.060637031
-0.26768005 -0.12671192 0.060665324
-0.26792234 -0.12662572 0.060527273
-0.26811612 -0.12655909 0.060400896
-0.26827455 -0.12647581 0.060494933
-0.26849926 -0.12637423 0.060514931
-0.26866725 -0.12630121 0.060509745
-0.26889518 -0.1262112 0.060440928
-0.26907998 -0.12612846 0.060451828
-0.26925379 -0.12605681 0.060420103
-0.26942214 -0.12597977 0.060441449
-0.26965964 -0.12588337 0.060387582
-0.26981875 -0.12581122 0.060403198
-0.27004543 -0.12571956 0.060349368
-0.27024469 -0.12564027 0.060293339
-0.2704145 -0.12556158 0.060321596
-0.27060413 -0.12548043 0.060307112
-0.27079126 -0.12540106 0.060288027
-0.27096477 -0.12531875 0.0603301
-0.27115345 -0.12524678 0.060255658
-0.27134848 -0.1251695 0.060198486
-0.27152854 -0.12507959 0.060272835
-0.27175596 -0.12498693 0.060223624
-0.27191174 -0.12491221 0.060266916
-0.27212283 -0.124837 0.060147416
-0.27230304 -0.1247519 0.060188323
-0.27249709 -0.12467033 0.060163446
-0.2726793 -0.12459059 0.060161673
-0.27285329 -0.12450874 0.060199138
-0.27306443 -0.12442473 0.060139604
-0.27322316 -0.12434854 0.060184047
-0.27343598 -0.12427257 0.060064532
-0.27366418 -0.12417905 0.060018785
-0.27382886 -0.12409975 0.060066666
-0.27399939 -0.12402211 0.060085692
-0.2742033 -0.1239443 0.060005419
-0.27439827 -0.12386151 0.059986301
-0.27457967 -0.12378228 0.05998338
-0.27477756 -0.12369803 0.059965409
-0.27496201 -0.12361477 0.059980929
-0.27515638 -0.12353729 0.059927218
-0.27534884 -0.12345675 0.059900038
-0.275547 -0.12337559 0.059860159
-0.27569368 -0.12330367 0.05991156
-0.27587962 -0.1232159 0.059953593
-0.27609578 -0.12314115 0.059815623
-0.2762754 -0.12305935 0.059835769
-0.27646327 -0.1229751 0.059847824
-0.27666205 -0.12290022 0.059762955
-0.27683318 -0.12282366 0.059772752
-0.27703813 -0.12273496 0.059763987
-0.27721015 -0.12267536 0.059654988
-0.27740005 -0.12258398 0.059709705
-0.27760565 -0.12249584 0.059695162
-0.27776125 -0.12241346 0.059791517
-0.2779575 -0.12233581 0.05973319
-0.27811822 -0.12225252 0.059820287
-0.27833927 -0.12218237 0.059636161
-0.27851868 -0.12210689 0.059613645
-0.27871197 -0.12201992 0.059627987
-0.27889141 -0.12193584 0.059664275
-0.2790812 -0.12185918 0.059618652
-0.27926469 -0.12177989 0.059609957
-0.27947098 -0.12170492 0.05950316
-0.27964091 -0.12163175 0.059493355
-0.27982497 -0.12154699 0.059520405
-0.28002462 -0.12146953 0.05945053
-0.28021216 -0.12138038 0.059497178
-0.28038323 -0.12130182 0.059520822
-0.28055021 -0.12122438 0.059549086
-0.28075036 -0.12115396 0.059429616
-0.28094232 -0.12106708 0.059447415
-0.28111392 -0.12098896 0.059466437
-0.2813088 -0.12091647 0.059376977
-0.28150737 -0.12083326 0.059349783
-0.28170332 -0.12075204 0.059316821
-0.28189093 -0.1206664 0.059339251
-0.28209555 -0.1205802 0.059314333
-0.28227526 -0.12050695 0.059275661
-0.28242505 -0.12043031 0.059350122
-0.28261766 -0.12035443 0.059290648
-0.28280398 -0.12027507 0.059273869
-0.28300548 -0.12018755 0.059267417
-0.28316972 -0.12012293 0.059216112
-0.28334057 -0.12004144 0.059260517
-0.28353137 -0.11996164 0.059233345
-0.28372526 -0.11987323 0.059255753
-0.2839177 -0.11979828 0.059190512
-0.28410605 -0.11971365 0.05920371
-0.28430158 -0.11964846 0.059062347
-0.28447503 -0.11956885 0.059085973
-0.28465852 -0.11948114 0.059134945
-0.28485185 -0.11940393 0.059082396
-0.28501797 -0.11933059 0.059085291
-0.28516281 -0.11924212 0.059255488
-0.28538319 -0.11916922 0.059092127
-0.28554806 -0.11909506 0.059104249
-0.2857396 -0.11902506 0.059007876
-0.2859194 -0.11894251 0.059032638
-0.28610507 -0.11886848 0.058981262
-0.28629217 -0.11878357 0.059000231
-0.28647462 -0.11870726 0.058974236
-0.2866554 -0.11863387 0.058933266
-0.28683519 -0.11854728 0.058985703
-0.28703254 -0.11846258 0.058972344
-0.28720012 -0.11839112 0.058957934
-0.28738028 -0.11831766 0.058919273
-0.28755966 -0.11823934 0.05891636
-0.28774703 -0.11816373 0.058870744
-0.28794441 -0.11808408 0.058822777
-0.28811431 -0.11799727 0.058906399
-0.28830135 -0.11793091 0.058798503
-0.28846058 -0.11785686 0.058826804
-0.28865355 -0.11777814 0.058785778
-0.28884247 -0.11770506 0.058718249
-0.28904498 -0.11761726 0.058710642
-0.28921163 -0.11753643 0.058763124
-0.28938103 -0.11745337 0.058822528
-0.28955564 -0.11738556 0.058761962
-0.28974566 -0.11731452 0.058677122
-0.28993258 -0.11724047 0.058622286
-0.29011863 -0.11717083 0.058539771
-0.29029879 -0.11708964 0.05855415
-0.29046902 -0.11699697 0.058676973
-0.29063106 -0.11691023 0.05878368
-0.29082495 -0.11685047 0.05861003
-0.29101101 -0.11678185 0.058520593
-0.2911917 -0.11669031 0.058604173
-0.29136863 -0.11661624 0.058579355
-0.29156271 -0.11655303 0.058428761
-0.29173717 -0.11645884 0.058549263
-0.29190812 -0.11637712 0.058594815
-0.29209512 -0.11629932 0.058565348
-0.29228351 -0.11622361 0.05851743
-0.29245871 -0.11614779 0.058509916
-0.29264724 -0.11607894 0.058414705
-0.29283607 -0.11600471 0.058355242
-0.29301405 -0.11592076 0.058395006
-0.29318538 -0.11583939 0.058437102
-0.29336357 -0.11576208 0.058430716
-0.29354757 -0.11568746 0.058388576
-0.29371682 -0.11560246 0.058461823
-0.29389906 -0.11553904 0.058348171
-0.29409477 -0.11547815 0.058176823
-0.29427463 -0.11538293 0.058288082
-0.2944409 -0.11529215 0.058409769
-0.29462805 -0.11523181 0.058260359
-0.29481328 -0.11514569 0.058293171
-0.29498109 -0.11506468 0.058343351
-0.29517457 -0.1150105 0.058132797
-0.29535675 -0.11491831 0.058216367
-0.29553708 -0.11483838 0.058221526
-0.29572532 -0.11476694 0.058144763
-0.29589608 -0.11469222 0.058143035
-0.29608434 -0.11461269 0.058121629
-0.29625598 -0.11452192 0.058227155
-0.2964291 -0.11445257 0.058181588
-0.29661429 -0.11438467 0.058089852
-0.29679781 -0.11430351 0.058093838
-0.29697797 -0.1142235 0.058100149
-0.29715365 -0.11414173 0.058131844
-0.29733038 -0.11407315 0.058070119
-0.29750836 -0.11399779 0.058051065
-0.29769349 -0.11392149 0.058016986
-0.29787904 -0.11384668 0.057971377
-0.298049 -0.1137585 0.058064222
-0.29823595 -0.11368848 0.057981696
-0.29841506 -0.11360522 0.058013387
-0.29860008 -0.11352946 0.057975851
-0.29877195 -0.11345965 0.057937212
-0.29895613 -0.11338141 0.057919279
-0.29912162 -0.11330158 0.057968311
-0.29929104 -0.11323722 0.057899695
-0.29947892 -0.11315972 0.057865616
-0.29965177 -0.11307988 0.05789271
-0.2998403 -0.11300595 0.057832088
-0.30003217 -0.11293158 0.057764549
-0.3002072 -0.11284471 0.057833157
-0.30037847 -0.11277481 0.057796825
-0.30055621 -0.11270192 0.057761617
-0.30074614 -0.1126183 0.057763278
-0.30090916 -0.11254158 0.057798482
-0.30108997 -0.11246666 0.057767883
-0.30126387 -0.11239242 0.057753451
-0.3014411 -0.11231723 0.057735547
-0.30162513 -0.11224174 0.057699174
-0.30180538 -0.11216337 0.057693947
-0.3019827 -0.11209032 0.057661049
-0.30216935 -0.11200813 0.057662729
-0.30234611 -0.1119291 0.057672508
-0.3025265 -0.11185318 0.057649978
-0.30269676 -0.11177734 0.05765748
-0.30287743 -0.1117067 0.057598043
-0.3030552 -0.11164811 0.057464816
-0.30323425 -0.11154583 0.057626817
-0.30340827 -0.11148131 0.057545502
-0.30358532 -0.11141242 0.057484929
-0.30376536 -0.11133077 0.057502773
-0.3039422 -0.11125188 0.057511389
-0.30412236 -0.11116967 0.057532694
-0.30429915 -0.11110359 0.05745367
-0.30448243 -0.11102927 0.057411529
-0.30465597 -0.11095316 0.057410941
-0.30483627 -0.11086853 0.057448387
-0.30501986 -0.11078533 0.05746622
-0.30519962 -0.11071576 0.057402179
-0.30537492 -0.1106655 0.05721936
-0.30555868 -0.11057767 0.057268329
-0.3057363 -0.110489 0.057341542
-0.30590293 -0.11042131 0.057304069
-0.30608991 -0.11033644 0.057323035
-0.30627969 -0.11025591 0.057303943
-0.30646035 -0.11017281 0.057329848
-0.30662394 -0.11010358 0.057312004
-0.30680162 -0.11002062 0.057346001
-0.30698255 -0.10996132 0.057208136
-0.30716461 -0.10986866 0.057295173
-0.30733591 -0.10981005 0.057181571
-0.30753115 -0.10973337 0.057119779
-0.30769596 -0.10965536 0.057158433
-0.30787951 -0.10957503 0.057156656
-0.30806494 -0.10950163 0.057101823
-0.30823946 -0.10942104 0.05712891
-0.30841923 -0.10934523 0.057107545
-0.3086023 -0.10926782 0.057087313
-0.30877188 -0.109198 0.057055604
-0.30895197 -0.10912037 0.057045758
-0.30912149 -0.10903659 0.057109766
-0.30930379 -0.10896287 0.057066482
-0.30949253 -0.10888667 0.057020862
-0.30965596 -0.10881753 0.057003006
-0.30983606 -0.10874023 0.056990862
-0.31000912 -0.10866771 0.056967206
-0.31018564 -0.10859299 0.056948159
-0.31036767 -0.10850827 0.056980982
-0.31054091 -0.10843516 0.056960791
-0.31071752 -0.10836023 0.056942895
-0.31088698 -0.10830075 0.056840822
-0.31107366 -0.10822038 0.056829818
-0.3112424 -0.10815262 0.056786574
-0.31142792 -0.10805711 0.056882817
-0.31159157 -0.10800624 0.056739252
-0.31177053 -0.10792337 0.056768626
-0.31195217 -0.10783242 0.056845281
-0.3121506 -0.10773395 0.056923032
-0.31232136 -0.10767726 0.056797896
-0.3125062 -0.1076031 0.056749988
-0.3126964 -0.10748852 0.056962702
-0.31287912 -0.10742894 0.056821384
-0.31304288 -0.10736724 0.056751627
-0.31322038 -0.10729781 0.05669336
-0.31338701 -0.10722019 0.056723934
-0.31355947 -0.10715686 0.056639157
-0.31375003 -0.10706706 0.056681186
-0.31393164 -0.10698656 0.056686331
-0.31410587 -0.10691824 0.056630384
-0.31428605 -0.10684158 0.05661362
-0.31445718 -0.10676721 0.056608424
-0.31462321 -0.10669877 0.056577876
-0.31481105 -0.10661674 0.056574933
-0.31499615 -0.10653488 0.056578919
-0.31516439 -0.10646768 0.056533366
-0.31533593 -0.10639262 0.056531638
-0.31551659 -0.10632131 0.05647682
-0.31570348 -0.10623564 0.05650156
-0.31587139 -0.10617498 0.056412186
-0.31604537 -0.10609463 0.056439266
-0.31623203 -0.1060099 0.056458239
-0.31640577 -0.10593624 0.05644035
-0.31658739 -0.10586265 0.056398224
-0.31676465 -0.10578711 0.056382619
-0.31694731 -0.10570025 0.056428134
-0.31712523 -0.10562897 0.056381404
-0.31729695 -0.10555434 0.056376204
-0.31747258 -0.10548238 0.056341007
-0.31765279 -0.10540638 0.056319635
-0.31783921 -0.10531805 0.056363989
-0.31801841 -0.10523912 0.056365684
-0.31818447 -0.10518096 0.05626478
-0.31837904 -0.10508719 0.056321785
-0.31855169 -0.1050162 0.056288913
-0.31871879 -0.10495084 0.05623414
-0.31889576 -0.10487644 0.056211621
-0.31908208 -0.10478933 0.056247897
-0.31924984 -0.10472739 0.056167752
-0.31942636 -0.10465384 0.056140624
-0.31960291 -0.1045803 0.0561135
-0.31978726 -0.10449271 0.056159008
-0.31997716 -0.10439999 0.056222945
-0.32013497 -0.10435538 0.056054026
-0.32031825 -0.10427012 0.056086853
-0.3205052 -0.1041787 0.056150809
-0.32068041 -0.10410775 0.056109842
-0.32085127 -0.1040527 0.055973168
-0.3210277 -0.10397533 0.055972572
-0.32121888 -0.1038733 0.056096479
-0.32139584 -0.1038036 0.056041673
-0.3215768 -0.10373132 0.055992622
-0.32175931 -0.10364842 0.05601161
-0.32193491 -0.10357292 0.056000639
-0.32212037 -0.10349732 0.055960789
-0.32229489 -0.10341977 0.055967119
-0.32245755 -0.10336123 0.055878922
-0.32263353 -0.10328911 0.055843722
-0.32281902 -0.10320204 0.055882301
-0.32299554 -0.10312917 0.055850565
-0.3231892 -0.10302977 0.055949092
-0.32336938 -0.10295883 0.055893127
-0.32354611 -0.10288216 0.055886753
-0.3237057 -0.10282801 0.055777807
-0.32388538 -0.1027541 0.055743754
-0.32406598 -0.1026717 0.055765044
-0.32425663 -0.10258152 0.055809386
-0.32443783 -0.10250206 0.05580876
-0.32461488 -0.10242879 0.055778176
-0.32478487 -0.10236586 0.055698022
-0.3249751 -0.10228025 0.055712376
-0.32515049 -0.10220265 0.055716392
-0.32531688 -0.1021381 0.055658162
-0.32549012 -0.10207039 0.05560106
-0.32565275 -0.1020144 0.05549556
-0.32585245 -0.10190912 0.05561598
-0.32602119 -0.10184776 0.055528905
-0.32621461 -0.10175183 0.055604372
-0.32638365 -0.10168679 0.055541515
-0.32658869 -0.10157834 0.055667683
-0.32673815 -0.10154345 0.055457272
-0.32692653 -0.10145191 0.055517763
-0.32710093 -0.10138267 0.055467583
-0.32729414 -0.101288 0.055534966
-0.32747442 -0.10121096 0.055520512
-0.32765588 -0.10113239 0.055512983
-0.32782859 -0.10106558 0.055451274
-0.32801604 -0.10097915 0.055479467
-0.32819048 -0.10091008 0.055428132
-0.32837674 -0.10082249 0.055467866
-0.32855356 -0.10075033 0.055430353
-0.32873082 -0.10067765 0.05539516
-0.32892331 -0.10058817 0.055429097
-0.32909429 -0.10052077 0.055376619
-0.32927307 -0.10044625 0.055349488
-0.32944661 -0.10037839 0.055292394
-0.32964274 -0.10028194 0.055363234
-0.32982212 -0.1002068 0.055338398
-0.32999662 -0.10013786 0.055285908
-0.33017164 -0.10006548 0.055255331
-0.33036545 -0.099975273 0.055290423
-0.33055139 -0.099892206 0.055300172
-0.33072051 -0.099830002 0.055217713
-0.33089617 -0.099759698 0.055170987
-0.33108819 -0.099669434 0.055211857
-0.33125702 -0.09960752 0.055128247
-0.33143979 -0.099526018 0.055136845
-0.33164403 -0.099423982 0.055221505
-0.33182749 -0.099344529 0.055213958
-0.33198756 -0.099295728 0.055066943
-0.33217689 -0.099209324 0.055089369
-0.33236268 -0.099132404 0.055057604
-0.33256477 -0.099028617 0.055160712
-0.33272955 -0.098979101 0.055004459
-0.33292314 -0.098883078 0.055079915
-0.33310947 -0.09880574 0.0550493
-0.33329034 -0.098732322 0.055008315
-0.33347014 -0.098650269 0.055029619
-0.33364579 -0.09858048 0.054979436
-0.33384758 -0.098490469 0.054989133
-0.33402428 -0.098419547 0.054943554
-0.33420241 -0.098339736 0.054954477
-0.3343794 -0.098266162 0.054926202
-0.33455205 -0.098197527 0.054877177
-0.33473796 -0.098116331 0.054874241
-0.33491117 -0.098051831 0.054795228
-0.33506805 -0.097993806 0.054720886
-0.33529967 -0.097866453 0.054896548
-0.33544809 -0.097822592 0.054750733
-0.33565819 -0.097714946 0.054856122
-0.33584416 -0.097638786 0.054818578
-0.33603418 -0.09756051 0.054783344
-0.33621922 -0.097480871 0.054772332
-0.33640489 -0.097400628 0.05476363
-0.33658522 -0.097326256 0.054730728
-0.33677644 -0.097242415 0.054730073
-0.33695987 -0.097167015 0.054694857
-0.33714786 -0.097086765 0.054679219
-0.33732042 -0.097012103 0.05467172
-0.33750322 -0.096930914 0.054678019
-0.33770311 -0.096849158 0.054636974
-0.33787245 -0.096778087 0.054614492
-0.33808047 -0.096681297 0.054651845
-0.33822709 -0.096634358 0.054532554
-0.33841968 -0.096547537 0.054548047
-0.33861053 -0.09646266 0.054555472
-0.33880365 -0.096377626 0.054557122
-0.33899766 -0.096293889 0.054547243
-0.33918351 -0.096216604 0.054517776
-0.33935201 -0.096148938 0.054474533
-0.33956745 -0.096045353 0.054536074
-0.33975518 -0.095962182 0.054541208
-0.33993462 -0.095891751 0.054484084
-0.34010613 -0.095825285 0.054423533
-0.34028757 -0.095750779 0.054388314
-0.34047195 -0.095673278 0.054364629
-0.34066585 -0.095588252 0.054363966
-0.34086728 -0.095495701 0.054392118
-0.34105241 -0.095415697 0.054383416
-0.34122276 -0.095350586 0.054317094
-0.34142539 -0.095255159 0.054361388
-0.34162122 -0.095170625 0.054351501
-0.34179822 -0.095102936 0.054282852
-0.34198889 -0.095021673 0.054266058
-0.34217182 -0.094942302 0.054259673
-0.34236369 -0.09486001 0.05424634
-0.34253976 -0.094791383 0.054186918
-0.34273541 -0.094703555 0.054200094
-0.34293076 -0.094618045 0.054198276
-0.3431147 -0.094543792 0.054153826
-0.34332806 -0.094448537 0.054164633
-0.34351546 -0.094372928 0.054119021
-0.34369433 -0.09429802 0.054094195
-0.34389555 -0.094207242 0.05411081
-0.34407589 -0.09412732 0.05411597
-0.34424034 -0.094070181 0.054012764
-0.34445602 -0.093967691 0.054066241
-0.34464103 -0.093887217 0.054060996
-0.34483469 -0.093802288 0.054060344
-0.34500912 -0.09373574 0.053991705
-0.24635257 -0.13632689 0.058945555
-0.24657232 -0.13623708 0.058899857
-0.2467984 -0.13614704 0.058836833
-0.24702501 -0.13605708 0.058771499
-0.24727061 -0.13596335 0.058674976
-0.24749844 -0.13587506 0.058594652
-0.24773768 -0.13578345 0.058502756
-0.2479808 -0.13569467 0.058379732
-0.24819805 -0.13560596 0.058334034
-0.24840201 -0.13551804 0.05832297
-0.2486174 -0.13542964 0.058280736
-0.24883679 -0.13534118 0.058226962
-0.24904773 -0.13525322 0.058195122
-0.2492723 -0.13516331 0.058135562
-0.24949455 -0.13507511 0.058071405
-0.24971606 -0.13498706 0.058008395
-0.24994142 -0.13489901 0.057933852
-0.25015843 -0.13481142 0.057881232
-0.25037634 -0.13472393 0.057825156
-0.25060067 -0.13463633 0.057750612
-0.25081587 -0.1345492 0.05770031
-0.25103688 -0.13446052 0.057643071
-0.25125888 -0.13437343 0.057571992
-0.25147724 -0.1342866 0.057510145
-0.25169238 -0.13419999 0.057456382
-0.25191662 -0.13411328 0.057376072
-0.25213397 -0.13402689 0.057314239
-0.25235504 -0.13394055 0.057240859
-0.25258341 -0.1338542 0.05714554
-0.2527957 -0.13376683 0.057105631
-0.25299808 -0.13368127 0.05708304
-0.25321421 -0.13359559 0.05702005
-0.25343198 -0.13351001 0.056951296
-0.2536431 -0.13342467 0.056901008
-0.25385511 -0.13333943 0.056847256
-0.25406837 -0.13325432 0.056788892
-0.25427663 -0.1331694 0.056744371
-0.25449094 -0.13308299 0.056691773
-0.25470293 -0.13299827 0.056634564
-0.25491035 -0.13291371 0.056590054
-0.25511712 -0.13282926 0.056546696
-0.25533357 -0.13274494 0.05647333
-0.25553444 -0.13266073 0.056446135
-0.25574392 -0.13257509 0.056402765
-0.25594962 -0.13249111 0.056359421
-0.25615767 -0.13240728 0.056307983
-0.25636244 -0.13232353 0.056265794
-0.25656807 -0.13223992 0.056220129
-0.2567727 -0.13215642 0.056176789
-0.25697726 -0.13207144 0.056143813
-0.25717914 -0.13198811 0.056107387
-0.25738561 -0.13190497 0.056055963
-0.25763279 -0.13181797 0.055908706
-0.25779667 -0.13172773 0.056033831
-0.25815922 -0.13157076 0.056018773
-0.25842765 -0.13147847 0.055843767
-0.25887603 -0.13132158 0.055570152
-0.25898713 -0.13123798 0.055808455
-0.25920063 -0.13115783 0.055715494
-0.25940165 -0.13107574 0.055673316
-0.25959927 -0.1309936 0.055641521
-0.25979599 -0.13091156 0.055612031
-0.25999838 -0.13082482 0.055597514
-0.26019782 -0.13074645 0.055534579
-0.26039386 -0.13066468 0.055505101
-0.26059005 -0.13058302 0.05547446
-0.26079124 -0.13049832 0.055449575
-0.26097912 -0.13041812 0.055433948
-0.26117706 -0.13033687 0.055395238
-0.2613906 -0.13025147 0.055338025
-0.2615656 -0.13017422 0.05534089
-0.26175663 -0.13009112 0.055335637
-0.26195508 -0.13001031 0.055292308
-0.26215076 -0.12992769 0.055269748
-0.26234019 -0.12984648 0.055256426
-0.26251808 -0.12976627 0.055270817
-0.26270309 -0.12968311 0.055284027
-0.26287806 -0.129601 0.055320341
-0.26304156 -0.129518 0.055397034
-0.26319164 -0.12943029 0.055546425
-0.26331615 -0.12934031 0.05578813
-0.26172572 -0.12887973 0.063721433
-0.26218122 -0.1287187 0.063454717
-0.26232979 -0.12862879 0.063623704
-0.26253745 -0.12854664 0.063561901
-0.26281762 -0.12835859 0.064007163
-0.26324385 -0.12807633 0.064658314
-0.26502305 -0.12786719 0.06074255
-0.26521236 -0.12778382 0.060744222
-0.26541817 -0.12768868 0.060776964
-0.26564896 -0.1275969 0.06071163
-0.26582706 -0.12751828 0.060714487
-0.26602352 -0.12743214 0.060713824
-0.26622102 -0.12734418 0.060722388
-0.26642364 -0.1272693 0.060626004
-0.26657951 -0.12719588 0.060660072
-0.26682922 -0.12709747 0.060583137
-0.267012 -0.12702002 0.060564067
-0.26720011 -0.12693517 0.060579576
-0.26739159 -0.12684461 0.060623903
-0.26756465 -0.12676366 0.060657911
-0.26774508 -0.12668607 0.060646929
-0.26798844 -0.12660864 0.060445484
-0.26815128 -0.1265389 0.06043341
-0.26836485 -0.12643328 0.060514554
-0.26855421 -0.12634906 0.060521983
-0.26872328 -0.12627846 0.060497213
-0.26895288 -0.12618451 0.060450315
-0.26914054 -0.12610237 0.060448531
-0.26931477 -0.12603085 0.060414515
-0.26951712 -0.12594074 0.06042305
-0.26971984 -0.12585741 0.060384326
-0.26990917 -0.1257737 0.060388293
-0.27012119 -0.12569252 0.060306877
-0.27029997 -0.12561125 0.060325872
-0.2704691 -0.12553471 0.060341455
-0.27068314 -0.12544759 0.060294613
-0.27084726 -0.1253746 0.060300976
-0.27101558 -0.12529573 0.060335003
-0.2712476 -0.12521535 0.060187794
-0.27140605 -0.12513895 0.060234528
-0.2716175 -0.12504253 0.060259186
-0.27182084 -0.12495822 0.060225062
-0.27197364 -0.12488516 0.060266063
-0.27220002 -0.12480205 0.060154609
-0.27237329 -0.12471999 0.060195535
-0.27257335 -0.12463766 0.060157966
-0.27274305 -0.12455952 0.060182758
-0.27294329 -0.12447019 0.060192466
-0.27313954 -0.1243944 0.060121469
-0.27330017 -0.12431636 0.060172815
-0.27353966 -0.12423813 0.059988685
-0.27373418 -0.12414759 0.060023777
-0.27389804 -0.12406562 0.060092404
-0.27408206 -0.12398947 0.060060658
-0.27427688 -0.1239116 0.060008124
-0.27447423 -0.12382708 0.05999361
-0.27466011 -0.12374675 0.059984919
-0.274867 -0.1236577 0.059972696
-0.27504122 -0.12358415 0.059952505
-0.27523714 -0.12350211 0.059925325
-0.27544695 -0.1234143 0.059895806
-0.27561027 -0.12334789 0.059859507
-0.27577418 -0.12326337 0.059945434
-0.27597252 -0.12318516 0.059884809
-0.27617556 -0.12310874 0.059797652
-0.2763578 -0.1230199 0.059858143
-0.27654877 -0.1229422 0.059815999
-0.27674252 -0.12286836 0.059739247
-0.27691388 -0.12278378 0.05980324
-0.2771191 -0.12270624 0.059717223
-0.27729952 -0.1226389 0.059635915
-0.27749127 -0.12254554 0.059698686
-0.27767217 -0.12245627 0.059766099
-0.27786794 -0.12237564 0.059729703
-0.27803838 -0.12229349 0.059779856
-0.27822262 -0.12221976 0.059730813
-0.27842629 -0.12214846 0.059606761
-0.27860409 -0.12206374 0.059652284
-0.27880177 -0.1219816 0.059620488
-0.27897659 -0.12189852 0.059663709
-0.27916789 -0.12181968 0.059628479
-0.27936441 -0.12174328 0.059560947
-0.27955735 -0.12167146 0.059472669
-0.27973253 -0.12159177 0.059491679
-0.27991724 -0.12150739 0.059514116
-0.28011197 -0.12142469 0.059495021
-0.28030065 -0.12134227 0.059492074
-0.28045774 -0.12126631 0.05953997
-0.2806474 -0.12119071 0.059487451
-0.2808474 -0.12111412 0.059410684
-0.28102595 -0.12103008 0.059449282
-0.28120226 -0.12095445 0.059437163
-0.28141317 -0.12087762 0.059329227
-0.28160369 -0.12079355 0.059332043
-0.28179488 -0.12070988 0.059330247
-0.28197801 -0.12062518 0.05935961
-0.28220156 -0.12053962 0.059273534
-0.28235397 -0.12046789 0.059306465
-0.28251565 -0.1203879 0.059368178
-0.28271425 -0.12031561 0.059266053
-0.28289717 -0.12023439 0.059272349
-0.28309608 -0.12015237 0.059235938
-0.28325731 -0.12008605 0.05920542
-0.28343442 -0.11999793 0.059276305
-0.28362161 -0.11991954 0.059250314
-0.28382868 -0.11983597 0.059200041
-0.28400955 -0.11975379 0.059219029
-0.28421575 -0.11967362 0.059148006
-0.28438392 -0.11961621 0.059035599
-0.28456745 -0.11952125 0.059134141
-0.28475478 -0.11943993 0.059127741
-0.28493932 -0.1193681 0.059064865
-0.28508961 -0.11928366 0.059191182
-0.28527132 -0.1191984 0.059228621
-0.28547612 -0.11913385 0.059054986
-0.28564322 -0.11905754 0.059075184
-0.28583807 -0.11898235 0.059004195
-0.28601503 -0.11890171 0.059024356
-0.28620449 -0.11882268 0.05899604
-0.2863937 -0.11873952 0.058996562
-0.28657129 -0.11866771 0.058954459
-0.2867471 -0.11859044 0.058955014
-0.286944 -0.11850122 0.058973953
-0.28712627 -0.11842094 0.058975648
-0.28729516 -0.11835075 0.058948569
-0.28747356 -0.11827589 0.058924906
-0.28766152 -0.11819648 0.058903515
-0.28785497 -0.11812209 0.058831386
-0.28803661 -0.11803722 0.058866519
-0.28822175 -0.11796006 0.058838211
-0.28839466 -0.11788979 0.058799587
-0.28855807 -0.11781055 0.058850922
-0.28875771 -0.11773849 0.058744185
-0.28895286 -0.11765762 0.058711238
-0.28913933 -0.11757297 0.058730211
-0.28930381 -0.11748989 0.058804601
-0.28947967 -0.11741851 0.058764808
-0.28965405 -0.11734574 0.058738858
-0.28984839 -0.11726959 0.058675945
-0.2900314 -0.11720668 0.058556568
-0.29021221 -0.11712115 0.058598619
-0.29038906 -0.11704662 0.058577269
-0.29055768 -0.11694674 0.058754265
-0.29073492 -0.11686716 0.058766358
-0.29093438 -0.11681993 0.058490112
-0.29111165 -0.11672991 0.058573693
-0.29129463 -0.11664679 0.058592677
-0.29147324 -0.11657503 0.058547109
-0.29166591 -0.11651613 0.058371205
-0.29182681 -0.11640986 0.058615096
-0.29201362 -0.11633181 0.05858795
-0.29219961 -0.11625883 0.058528528
-0.29238313 -0.1161765 0.05854059
-0.29255891 -0.11610782 0.058482349
-0.2927404 -0.11604153 0.058390655
-0.29293561 -0.11595795 0.058376163
-0.29310825 -0.11587887 0.058398642
-0.29327887 -0.11579646 0.058449954
-0.29346311 -0.11572224 0.058404371
-0.29364115 -0.11564499 0.058398001
-0.29380974 -0.11556584 0.058433175
-0.29400402 -0.11550926 0.058236521
-0.29419538 -0.11543427 0.058174759
-0.29436022 -0.11533419 0.058364458
-0.29453215 -0.11526097 0.05834889
-0.29472893 -0.11519641 0.058199488
-0.2949039 -0.11509862 0.058343031
-0.29508364 -0.11503311 0.058251336
-0.29527301 -0.11497144 0.058104269
-0.29544237 -0.11486938 0.058293939
-0.29563582 -0.11480037 0.058184914
-0.29581046 -0.11472547 0.058172796
-0.29599369 -0.11465235 0.058122598
-0.2961756 -0.11456753 0.05815658
-0.29634598 -0.11448287 0.058224026
-0.29652333 -0.11441468 0.058157712
-0.29670677 -0.11434283 0.058098298
-0.29688701 -0.11426328 0.058101147
-0.29706693 -0.11418286 0.058110915
-0.29724067 -0.11410632 0.058112636
-0.29742339 -0.11403359 0.058061294
-0.29760128 -0.11395828 0.058042251
-0.29778302 -0.1138833 0.058009356
-0.2979638 -0.1138057 0.057997223
-0.29813945 -0.11372378 0.058030065
-0.29832476 -0.11364891 0.057985626
-0.29850358 -0.11356477 0.058024228
-0.29868978 -0.11349355 0.057952121
-0.29886448 -0.11342114 0.057922702
-0.29904038 -0.11333946 0.057953246
-0.2992048 -0.11326987 0.057935394
-0.29938796 -0.11320302 0.057842545
-0.29956996 -0.11311647 0.057888053
-0.29974732 -0.11304087 0.057872459
-0.29993612 -0.11296885 0.057798032
-0.30012584 -0.11288448 0.057805471
-0.30028895 -0.1128094 0.057829134
-0.30046359 -0.11273904 0.057785884
-0.30065054 -0.11265891 0.057772577
-0.30083439 -0.11258132 0.057751205
-0.30099714 -0.11250321 0.057796776
-0.30117124 -0.11243071 0.057769671
-0.30135465 -0.11235012 0.057770208
-0.30152938 -0.11228325 0.057702746
-0.30171281 -0.11220332 0.057698667
-0.30189317 -0.11212724 0.057677306
-0.30207324 -0.11204795 0.057679009
-0.30225688 -0.11197094 0.05765418
-0.3024303 -0.11189337 0.057663981
-0.30261374 -0.1118136 0.057658743
-0.30278057 -0.11173757 0.057677791
-0.30296519 -0.11167967 0.057519209
-0.30314502 -0.11159711 0.057543963
-0.30331159 -0.11151396 0.05761259
-0.30349219 -0.11145193 0.05749438
-0.30367547 -0.11137088 0.057498369
-0.30384892 -0.11129363 0.057505857
-0.30402571 -0.11120718 0.057566367
-0.30420578 -0.1111405 0.057481602
-0.30438247 -0.1110716 0.057422198
-0.30456579 -0.1109902 0.057428498
-0.30473921 -0.110917 0.057408322
-0.30491981 -0.11082348 0.057505712
-0.30510291 -0.11075161 0.057447448
-0.30527878 -0.11069232 0.05732464
-0.30545774 -0.11063069 0.057208747
-0.30563873 -0.11053632 0.057310753
-0.3058123 -0.1104597 0.057313621
-0.30598602 -0.11038148 0.057326883
-0.30617848 -0.11030535 0.057269737
-0.30636582 -0.11021661 0.057314076
-0.30653626 -0.11014119 0.057318106
-0.30670348 -0.11006702 0.057323307
-0.30687979 -0.10999492 0.057286978
-0.30706593 -0.10991782 0.057255223
-0.3072435 -0.10983609 0.05728114
-0.30741766 -0.10977806 0.057154883
-0.3076041 -0.10969798 0.05714272
-0.30777532 -0.10961801 0.057175588
-0.30795532 -0.10954058 0.057164602
-0.30813763 -0.10946736 0.057117868
-0.30831492 -0.1093881 0.057127655
-0.30849782 -0.10931143 0.057102825
-0.30868059 -0.10923515 0.05707569
-0.30885023 -0.10916462 0.057048596
-0.30902168 -0.1090854 0.057075698
-0.30920231 -0.10900515 0.057082005
-0.30939004 -0.10891996 0.057100974
-0.30957106 -0.10885153 0.057025421
-0.30973318 -0.10878785 0.056974143
-0.30990839 -0.10870612 0.057007
-0.31008676 -0.10863565 0.056953356
-0.31026447 -0.10855602 0.056964293
-0.31044602 -0.10847303 0.056986742
-0.31062046 -0.10839535 0.05699423
-0.31079325 -0.10833422 0.056893334
-0.31096944 -0.10826049 0.056868527
-0.31114468 -0.10819998 0.056756102
-0.31132197 -0.10810269 0.056889251
-0.31149346 -0.10804465 0.056771066
-0.31166911 -0.10797252 0.056737036
-0.31185073 -0.10788107 0.05681714
-0.31203991 -0.10778447 0.056909896
-0.31222177 -0.10771094 0.05686662
-0.31239632 -0.1076509 0.056753043
-0.31258732 -0.10754996 0.056870002
-0.31277859 -0.10745715 0.056930475
-0.31293881 -0.10741366 0.056746606
-0.31311554 -0.10733851 0.056729876
-0.31329271 -0.10726216 0.056720048
-0.31346479 -0.10719225 0.056681424
-0.31364104 -0.10711109 0.056707349
-0.31381807 -0.10704254 0.056644496
-0.31400588 -0.10695293 0.056693442
-0.31417957 -0.10688585 0.056630597
-0.31435674 -0.10680985 0.056618467
-0.31452197 -0.10673654 0.056623675
-0.31470403 -0.10666192 0.056587324
-0.31488627 -0.10658031 0.056598246
-0.3150672 -0.10650837 0.056546904
-0.31523529 -0.106435 0.056544024
-0.31541285 -0.1063583 0.056535359
-0.31558922 -0.10629055 0.056469049
-0.31577039 -0.10621177 0.05646383
-0.31594342 -0.10613943 0.056439035
-0.31612316 -0.10605808 0.05645572
-0.31630349 -0.10597562 0.056478173
-0.316477 -0.10590813 0.056418791
-0.31665599 -0.10583434 0.056385908
-0.31684354 -0.10574804 0.056412946
-0.31702223 -0.1056695 0.056413502
-0.31720069 -0.10559697 0.056373693
-0.31737405 -0.10551893 0.056386955
-0.31754941 -0.10544741 0.056349464
-0.31773108 -0.10536841 0.056344245
-0.3179206 -0.10527906 0.05638627
-0.31809404 -0.10521141 0.056328036
-0.31826141 -0.10515048 0.056242153
-0.31845585 -0.10505207 0.056331433
-0.31861857 -0.10499503 0.056232881
-0.31879967 -0.10491745 0.056219585
-0.31897786 -0.10484065 0.056209765
-0.31916729 -0.10475253 0.056243714
-0.31933492 -0.10469063 0.056163598
-0.31950921 -0.1046211 0.056115739
-0.31969136 -0.10453735 0.056141645
-0.31988582 -0.10443623 0.056249373
-0.32005692 -0.10438141 0.056110434
-0.32022762 -0.10431379 0.056060284
-0.32041502 -0.10422133 0.056129985
-0.3205972 -0.10413823 0.056151278
-0.32077047 -0.10407909 0.056035399
-0.32093713 -0.10401829 0.055950671
-0.32112858 -0.10391968 0.056050338
-0.32131803 -0.10383306 0.056073919
-0.32149976 -0.10375942 0.05603179
-0.32168511 -0.10367982 0.056019641
-0.32186007 -0.10360528 0.056004062
-0.32204488 -0.10352271 0.056013815
-0.32221699 -0.10345684 0.055947524
-0.32238972 -0.10338596 0.0559135
-0.32256231 -0.10331921 0.055851813
-0.32274663 -0.10323381 0.055882327
-0.32292569 -0.10316069 0.055844828
-0.32311374 -0.1030698 0.05590184
-0.32329959 -0.10298628 0.055915058
-0.32347924 -0.10291237 0.055881016
-0.32364693 -0.10284943 0.055807807
-0.32382238 -0.10277468 0.055792231
-0.32399234 -0.10271176 0.055712108
-0.3241908 -0.10261329 0.055789839
-0.32437959 -0.1025224 0.055844549
-0.324554 -0.10245299 0.055795539
-0.32472926 -0.10238571 0.055729225
-0.3249073 -0.10231438 0.05568251
-0.32510379 -0.10221288 0.055786766
-0.32525674 -0.1021677 0.055636369
-0.32544258 -0.10208181 0.05566572
-0.32560295 -0.10203236 0.055522215
-0.32578841 -0.10194716 0.055548109
-0.32597792 -0.10185967 0.055577446
-0.32615843 -0.10177848 0.055590682
-0.3263348 -0.10170636 0.055554338
-0.32653296 -0.10160733 0.055636689
-0.32670659 -0.10154229 0.055560015
-0.32687157 -0.10148274 0.05547183
-0.32706219 -0.10139443 0.055503473
-0.32724625 -0.10130899 0.05553513
-0.32743168 -0.10122801 0.055532206
-0.32761458 -0.10114747 0.055533897
-0.32779229 -0.10107695 0.055482566
-0.32797191 -0.10100087 0.055463519
-0.32815236 -0.10092375 0.055449076
-0.3283371 -0.10084104 0.055459976
-0.32852578 -0.10075627 0.055473186
-0.32869107 -0.10069912 0.055367708
-0.32888994 -0.10060129 0.05543967
-0.32906264 -0.10053447 0.055377983
-0.32924274 -0.10045818 0.055358931
-0.32941562 -0.10039112 0.055298388
-0.32960838 -0.10029884 0.055350788
-0.32979301 -0.10021703 0.055355925
-0.32997 -0.10014766 0.055298839
-0.33014691 -0.10007563 0.055260196
-0.33033729 -0.099989623 0.055276848
-0.33052546 -0.099903733 0.055299275
-0.33070213 -0.09983214 0.055258326
-0.33087349 -0.099767096 0.055188574
-0.33105165 -0.099693671 0.055155683
-0.33123654 -0.099614784 0.055140078
-0.33141792 -0.099534899 0.055141773
-0.33161944 -0.099436082 0.055212587
-0.33181804 -0.099338368 0.055284549
-0.33196658 -0.099303372 0.055077668
-0.33215874 -0.099213541 0.055115074
-0.33234474 -0.099138886 0.055067174
-0.3325372 -0.099046387 0.055121865
-0.33272037 -0.098977678 0.055041701
-0.33290589 -0.098891109 0.055076819
-0.33309489 -0.098810568 0.05506004
-0.3332704 -0.098740846 0.055009864
-0.33345333 -0.098657593 0.055030011
-0.3336387 -0.09857899 0.055010933
-0.33383322 -0.098494865 0.055002213
-0.33401209 -0.098423824 0.054950878
-0.33419219 -0.09834417 0.054954886
-0.33436665 -0.098273382 0.054915093
-0.33454141 -0.098202303 0.054876458
-0.33472797 -0.098120317 0.054876991
-0.33491096 -0.098047137 0.054827951
-0.33506185 -0.09799578 0.054725982
-0.33528849 -0.097869277 0.054910846
-0.33544946 -0.097820751 0.05475926
-0.33564895 -0.097722471 0.054832388
-0.33584329 -0.097634725 0.054849029
-0.33602211 -0.097566403 0.054779239
-0.33621556 -0.097482078 0.05477513
-0.33640039 -0.097402699 0.054762982
-0.33657742 -0.097329609 0.054731257
-0.33676958 -0.097244665 0.054735228
-0.33695275 -0.097171746 0.054683879
-0.33714592 -0.097085848 0.054691296
-0.33731869 -0.097010925 0.054684952
-0.3375012 -0.096930042 0.054690108
-0.33769456 -0.096850798 0.054651402
-0.33787161 -0.096778035 0.054617375
-0.33807665 -0.09668003 0.054672025
-0.33823293 -0.096627153 0.054564275
-0.33840641 -0.096556127 0.054529104
-0.33860147 -0.096468896 0.054539971
-0.33880323 -0.096372664 0.054592334
-0.33898854 -0.096297972 0.054546744
-0.33917725 -0.096219763 0.054514982
-0.33934653 -0.096151248 0.054475207
-0.33955723 -0.096050419 0.054532144
-0.33975002 -0.095962003 0.054558024
-0.33992335 -0.095897771 0.054476731
-0.34010285 -0.095823087 0.054448456
-0.3402755 -0.095755465 0.054392524
-0.34045571 -0.095680133 0.054366555
-0.34065363 -0.095590979 0.054382034
-0.34084821 -0.095505312 0.054383688
-0.3410309 -0.095425703 0.054379612
-0.3412047 -0.095357046 0.054327145
-0.34140396 -0.095264949 0.054358751
-0.34160179 -0.095178351 0.054356936
-0.34177762 -0.095109835 0.054297544
-0.34196851 -0.095028311 0.054281909
-0.34214616 -0.094954103 0.054255947
-0.34234405 -0.094865799 0.054265659
-0.34251636 -0.094800837 0.054192446
-0.34270018 -0.094720736 0.054188367
-0.3429049 -0.094627932 0.054208431
-0.34307224 -0.094565995 0.054129466
-0.34329811 -0.094460361 0.054173671
-0.34348279 -0.09438543 0.054131545
-0.34366453 -0.094309606 0.054104421
-0.34386367 -0.09421891 0.054126803
-0.34403232 -0.094148308 0.054103181
-0.34420541 -0.094082847 0.054031115
-0.3444151 -0.09398599 0.054063845
-0.34460163 -0.093902163 0.054077052
-0.3447926 -0.093819775 0.05406718
-0.34496531 -0.09375295 0.054005504
-0.24650386 -0.13626793 0.058894429
-0.24672954 -0.13617788 0.058832616
-0.24695796 -0.13608781 0.058762729
-0.24719571 -0.13599734 0.05866744
-0.24742599 -0.13590746 0.058590628
-0.24766222 -0.13581598 0.05850688
-0.24791002 -0.13572548 0.058381602
-0.24811466 -0.13564026 0.058349825
-0.24832647 -0.13555193 0.058318034
-0.24854276 -0.13546346 0.058273546
-0.24876046 -0.13537505 0.058224432
-0.24897271 -0.13528702 0.058189183
-0.24918427 -0.13519911 0.05815509
-0.24941215 -0.13511062 0.058075972
-0.24963285 -0.13502258 0.058015339
-0.24985744 -0.13493451 0.05794315
-0.25007915 -0.13484672 0.057877894
-0.25028467 -0.13476112 0.057846114
-0.25051448 -0.1346733 0.057756629
-0.25072974 -0.13458613 0.057706378
-0.25094634 -0.13449904 0.057651512
-0.25116473 -0.13441202 0.057590883
-0.25138521 -0.13432507 0.057523318
-0.25160292 -0.13423836 0.057462681
-0.25182477 -0.13415167 0.057389356
-0.25204301 -0.13406521 0.05732527
-0.25225931 -0.13397893 0.057265785
-0.25248736 -0.13389255 0.057171687
-0.25270578 -0.13380653 0.057104141
-0.25290221 -0.13372105 0.05709891
-0.25311843 -0.13363531 0.057035971
-0.25333351 -0.13354973 0.05697535
-0.25354826 -0.13346429 0.056914724
-0.25376114 -0.13337901 0.056858722
-0.25397095 -0.1332939 0.056810796
-0.25418246 -0.1332089 0.056757096
-0.25438857 -0.13312405 0.056718409
-0.25460219 -0.13303928 0.056656636
-0.25481203 -0.13295466 0.05660525
-0.25501963 -0.13287017 0.05655963
-0.25523159 -0.1327858 0.05650017
-0.25543672 -0.13270156 0.056460328
-0.255642 -0.13261743 0.056419332
-0.25584888 -0.13253342 0.056372564
-0.25605398 -0.13244952 0.05633042
-0.25625849 -0.13236573 0.05628942
-0.25646871 -0.13228212 0.056229964
-0.25667545 -0.13219701 0.056191277
-0.25687876 -0.13211355 0.056151439
-0.25707886 -0.13203017 0.056120835
-0.25727874 -0.13194689 0.056090225
-0.2574898 -0.13186392 0.056023851
-0.25772893 -0.131772 0.055934325
-0.25787479 -0.13168783 0.056072205
-0.25803584 -0.13161045 0.05611781
-0.25825867 -0.13152823 0.056011055
-0.25858185 -0.13144745 0.055592708
-0.25890806 -0.13127877 0.05576691
-0.25909007 -0.13120081 0.055753663
-0.25929615 -0.13111883 0.05569537
-0.25949457 -0.1310367 0.055661306
-0.25969204 -0.13095462 0.055629563
-0.2598893 -0.13087265 0.055597812
-0.26010272 -0.13078648 0.055546418
-0.26028842 -0.13070756 0.055528536
-0.26048639 -0.13062593 0.055492174
-0.26068521 -0.13054447 0.055452351
-0.2608735 -0.13046257 0.055447146
-0.26106915 -0.13038114 0.055416558
-0.26126495 -0.13029981 0.055384811
-0.26146951 -0.13021396 0.055357654
-0.26165184 -0.13013719 0.055335179
-0.26184231 -0.13005583 0.055319592
-0.2620393 -0.12997499 0.055280924
-0.2622329 -0.12989229 0.055265326
-0.26241675 -0.12981249 0.055258989
-0.26259899 -0.12973088 0.055269938
-0.26277819 -0.12964909 0.055291273
-0.26295012 -0.12956676 0.055338003
-0.26311427 -0.12948382 0.055412415
-0.26325318 -0.12939698 0.055589512
-0.26183558 -0.12885457 0.063563451
-0.2621038 -0.12877987 0.063268632
-0.26222655 -0.12868376 0.063557602
-0.26240748 -0.12859701 0.063607752
-0.2626102 -0.12851249 0.063577138
-0.26287469 -0.12832861 0.064040892
-0.26332635 -0.12805119 0.064582452
-0.2650823 -0.12784234 0.060734555
-0.26526827 -0.12775859 0.060748965
-0.26547581 -0.12766369 0.060774814
-0.26570296 -0.12757349 0.060709551
-0.26587868 -0.12749459 0.060721673
-0.26607296 -0.1274102 0.060715295
-0.26626891 -0.12732409 0.060715828
-0.26646942 -0.12724896 0.060627587
-0.26662433 -0.12717748 0.060651302
-0.2668691 -0.12707838 0.060594045
-0.26705143 -0.12700295 0.060562342
-0.2672357 -0.12691961 0.060579054
-0.26742658 -0.126829 0.060625721
-0.26760769 -0.12674518 0.060655124
-0.26777592 -0.12667191 0.060651138
-0.268011 -0.12659524 0.060469404
-0.26818928 -0.12652394 0.060421571
-0.26838294 -0.12642555 0.060513191
-0.2685813 -0.12633653 0.060526393
-0.26874685 -0.12626746 0.060501665
-0.26897478 -0.1261754 0.060446762
-0.2691597 -0.12609278 0.060456555
-0.26933149 -0.12602299 0.060417969
-0.26950908 -0.12594125 0.060443927
-0.26973727 -0.12584974 0.060384415
-0.26990396 -0.12577479 0.060396567
-0.27012661 -0.1256869 0.060329005
-0.27031419 -0.12560749 0.06030881
-0.27047852 -0.12553221 0.060330197
-0.27068391 -0.12544551 0.060306497
-0.27085897 -0.12537041 0.06029442
-0.27103439 -0.12528859 0.060327291
-0.27124476 -0.12521249 0.060215957
-0.27141893 -0.12513745 0.06020619
-0.27159646 -0.12504931 0.06027595
-0.27182984 -0.12495589 0.060214117
-0.27197668 -0.12488374 0.060266685
-0.27218214 -0.12480962 0.060156517
-0.27236128 -0.12472431 0.060202062
-0.27255857 -0.12464368 0.060161095
-0.27273947 -0.12456368 0.060165133
-0.27291307 -0.1244818 0.060203779
-0.27311969 -0.1243991 0.060148947
-0.27328199 -0.12432151 0.06019225
-0.27349508 -0.12424575 0.06007053
-0.27371544 -0.12415752 0.060012192
-0.27388117 -0.1240786 0.060054325
-0.27404669 -0.1239996 0.060097605
-0.27424774 -0.12392356 0.060013972
-0.27444005 -0.12384257 0.059990305
-0.27461976 -0.12376292 0.059995502
-0.27481818 -0.12367892 0.059974127
-0.27500433 -0.12359627 0.059980467
-0.27519467 -0.12352019 0.059929132
-0.27537978 -0.12344255 0.059904348
-0.27558008 -0.12335958 0.05987028
-0.27573061 -0.123289 0.059900932
-0.27590999 -0.12320176 0.059959166
-0.2761192 -0.12313003 0.059821315
-0.27630681 -0.12304842 0.059816115
-0.27648476 -0.12296347 0.059862815
-0.27668026 -0.1228902 0.059776891
-0.27685696 -0.12281573 0.059755582
-0.27704746 -0.12272729 0.059788413
-0.27722996 -0.12266342 0.059677172
-0.27741992 -0.12258044 0.059674263
-0.27761388 -0.12249351 0.059686333
-0.27776685 -0.12240739 0.059816122
-0.27797246 -0.1223307 0.059723247
-0.27812886 -0.12224862 0.059814982
-0.27833685 -0.12217895 0.059666768
-0.27852172 -0.12210579 0.059611998
-0.27870286 -0.1220196 0.059657536
-0.27889541 -0.12193533 0.059655778
-0.2790736 -0.12185667 0.059658676
-0.27925047 -0.12178045 0.059648901
-0.27946794 -0.12170157 0.059535235
-0.27963918 -0.12163506 0.059475899
-0.27981973 -0.12155183 0.059502997
-0.28000754 -0.12147199 0.059485115
-0.28019214 -0.12138765 0.05950759
-0.28037444 -0.12130838 0.059502408
-0.28053337 -0.12123024 0.059559546
-0.28072828 -0.12116043 0.059451722
-0.28092375 -0.12107856 0.059424583
-0.28109753 -0.12099847 0.059450552
-0.28126919 -0.12092689 0.059424654
-0.28148016 -0.12084699 0.059337519
-0.28167868 -0.12076397 0.059309233
-0.28186262 -0.12067976 0.059332862
-0.2820439 -0.12059738 0.05935188
-0.28224805 -0.12051779 0.059283219
-0.28240192 -0.12044356 0.059328854
-0.28256309 -0.12036666 0.059370995
-0.28276345 -0.12029207 0.0592793
-0.28295001 -0.12020958 0.059283316
-0.28313392 -0.12013599 0.059234314
-0.28330001 -0.12006567 0.059216499
-0.28347933 -0.11997894 0.059271269
-0.28366059 -0.11990046 0.059263781
-0.28387058 -0.11981881 0.059191644
-0.28404316 -0.11973856 0.059222229
-0.28425223 -0.11966033 0.059129342
-0.28441498 -0.1196031 0.059032001
-0.2845965 -0.11950682 0.059145551
-0.28478861 -0.11942508 0.059127659
-0.28496355 -0.11935796 0.059061393
-0.28511146 -0.11927187 0.059206184
-0.2852971 -0.11918945 0.059212513
-0.28549242 -0.11912584 0.059060879
-0.28566363 -0.11904873 0.059074171
-0.28585371 -0.11897395 0.059014775
-0.28603274 -0.11889493 0.059017681
-0.28621686 -0.11881586 0.059005562
-0.28640395 -0.11873515 0.058995754
-0.28657776 -0.11866447 0.058957163
-0.28675312 -0.11858688 0.05896122
-0.28694361 -0.11850081 0.058977909
-0.28712955 -0.11841943 0.058976173
-0.28729895 -0.11834969 0.058944508
-0.28747725 -0.11827485 0.058920898
-0.28765804 -0.11819792 0.058904182
-0.28784811 -0.11812499 0.058832109
-0.2880328 -0.11803845 0.05886957
-0.28821778 -0.11796118 0.05884248
-0.28838047 -0.11789505 0.058806222
-0.28854764 -0.11781483 0.058852967
-0.28874722 -0.11774278 0.058746278
-0.2889356 -0.11766472 0.058714554
-0.28912252 -0.11758055 0.058728948
-0.28928718 -0.11749772 0.058801062
-0.28946218 -0.11742551 0.058769383
-0.2896373 -0.11735358 0.0587354
-0.28982469 -0.11727999 0.058676016
-0.29000613 -0.11721539 0.058572844
-0.29018855 -0.11713169 0.058597624
-0.29036289 -0.1170596 0.05856711
-0.29053071 -0.11695889 0.058752187
-0.29070252 -0.11687832 0.058787383
-0.29090232 -0.11683144 0.058507759
-0.29107827 -0.11674535 0.058568314
-0.2912609 -0.11666188 0.058590792
-0.29143858 -0.11658899 0.058555648
-0.29163206 -0.11653109 0.058370583
-0.29178995 -0.11642681 0.058609881
-0.29196984 -0.11635128 0.058586247
-0.2921612 -0.11627375 0.058541842
-0.29234284 -0.11619493 0.058535501
-0.29251787 -0.11612524 0.058486529
-0.29270282 -0.11605776 0.058392573
-0.29289496 -0.11597602 0.058374673
-0.29306418 -0.11589826 0.058398351
-0.29323506 -0.11581641 0.058445074
-0.29341513 -0.11574231 0.058411077
-0.2935971 -0.11566469 0.05839552
-0.29376787 -0.11558239 0.0584457
-0.29395404 -0.115526 0.05827219
-0.29414743 -0.11545449 0.058180507
-0.2943134 -0.1153566 0.058351755
-0.29448289 -0.11527906 0.058373123
-0.29467326 -0.11521763 0.058221504
-0.29485348 -0.11512227 0.058332756
-0.29502693 -0.11505242 0.058289558
-0.29521537 -0.11499672 0.058104519
-0.29539207 -0.11489362 0.05827919
-0.29558086 -0.11482327 0.058193278
-0.29575941 -0.11474834 0.058169663
-0.29593876 -0.1146754 0.058129903
-0.29612136 -0.11459229 0.058150079
-0.29629391 -0.11450381 0.05823715
-0.29646775 -0.11443649 0.058175497
-0.29664531 -0.11436923 0.058102313
-0.29683208 -0.11428681 0.058105182
-0.29700938 -0.11420971 0.058100015
-0.29718885 -0.11412815 0.058119044
-0.29736492 -0.11405816 0.058068916
-0.29754263 -0.11398241 0.058053374
-0.29772472 -0.1139086 0.058011293
-0.29790962 -0.11383224 0.057978433
-0.29808059 -0.11374764 0.058043607
-0.29826662 -0.11367515 0.057980765
-0.29844174 -0.11359128 0.058028631
-0.29863077 -0.11351712 0.057968087
-0.29880553 -0.11344501 0.057936411
-0.29898864 -0.11336319 0.057946209
-0.29915506 -0.11328718 0.057966437
-0.29932842 -0.11322462 0.057873666
-0.29951116 -0.11314144 0.057893842
-0.29968515 -0.11306699 0.05788061
-0.29987362 -0.11299358 0.05781661
-0.30006385 -0.11291184 0.05780448
-0.30023313 -0.1128322 0.057840843
-0.30040783 -0.11276232 0.057794172
-0.30058858 -0.11268725 0.057764784
-0.30077881 -0.11260634 0.057746887
-0.30094117 -0.11252604 0.057808634
-0.30112192 -0.11245148 0.057775788
-0.3012988 -0.11237441 0.057771768
-0.30147323 -0.11230515 0.057721648
-0.30165687 -0.11222747 0.057701468
-0.30183709 -0.11215012 0.057689372
-0.30201706 -0.11207067 0.057692263
-0.30220073 -0.11199399 0.057665173
-0.30237409 -0.11191644 0.057675004
-0.30255753 -0.11183733 0.057665199
-0.30272442 -0.11176279 0.057673901
-0.30290881 -0.11170078 0.057544202
-0.30308899 -0.11162614 0.057513662
-0.30325848 -0.11153547 0.057624944
-0.30343905 -0.11147293 0.057510249
-0.30361581 -0.11139794 0.057492398
-0.30379575 -0.11131667 0.057507977
-0.30397245 -0.11123075 0.057565056
-0.30415252 -0.11116154 0.057497624
-0.30433246 -0.11109104 0.057439417
-0.30451569 -0.1110122 0.057428464
-0.30468911 -0.11093715 0.057420999
-0.30487281 -0.11084563 0.057495348
-0.30505267 -0.11077315 0.05745098
-0.30523202 -0.11070847 0.057354733
-0.30540738 -0.11065396 0.057200853
-0.30559137 -0.11056045 0.057287887
-0.3057653 -0.11047794 0.05732999
-0.30593878 -0.11040254 0.057324834
-0.306128 -0.11032662 0.057275817
-0.30631518 -0.11023897 0.057313271
-0.30648899 -0.11016054 0.057327703
-0.3066591 -0.11008795 0.057313345
-0.30683598 -0.11001072 0.057310477
-0.30702135 -0.10993952 0.057240721
-0.30719978 -0.10985082 0.057311639
-0.30737343 -0.10979638 0.057162374
-0.30756295 -0.10971613 0.057142179
-0.30773416 -0.10963582 0.057177376
-0.30791739 -0.10955679 0.057167582
-0.30810252 -0.10948453 0.057105891
-0.30827668 -0.10940562 0.057122637
