# .PCD v0.7 - Point Cloud Data file format
VERSION 0.7
FIELDS x y z
SIZE 4 4 4
TYPE F F F
COUNT 1 1 1
WIDTH 721
HEIGHT 1
VIEWPOINT 0 0 0 1 0 0 0
POINTS 721
DATA ascii
-0.24519229 -0.26471415 0.06257847
-0.24615766 -0.26461786 0.062417399
-0.24637429 -0.26458874 0.062436052
-0.24658345 -0.26455629 0.062485866
-0.24682315 -0.26453304 0.062440999
-0.24700804 -0.26449615 0.062545121
-0.24723375 -0.26446801 0.062548742
-0.24752843 -0.26445901 0.062350258
-0.24773718 -0.26442677 0.062398925
-0.24794881 -0.26439685 0.062427975
-0.24818224 -0.26437107 0.062407348
-0.24844959 -0.26435581 0.062279325
-0.24869257 -0.26433277 0.06222982
-0.24889435 -0.26430061 0.062284287
-0.2491384 -0.26427966 0.062218636
-0.24934518 -0.26424894 0.062258095
-0.24952772 -0.2642101 0.062378369
-0.24981686 -0.26420164 0.062181063
-0.25003326 -0.26417208 0.062203176
-0.25026736 -0.26414904 0.062161788
-0.25050008 -0.26412413 0.062135391
-0.25073597 -0.26410183 0.062087081
-0.25096208 -0.26407692 0.062066473
-0.25117579 -0.26404867 0.06208168
-0.25141683 -0.26402649 0.062027581
-0.25231805 -0.26392445 0.061965965
-0.25253639 -0.26389799 0.061963849
-0.25274372 -0.26386672 0.062006757
-0.25301775 -0.26385677 0.061833732
-0.25316411 -0.26380929 0.062049881
-0.25341448 -0.26379263 0.061947308
-0.25366837 -0.26377553 0.061844707
-0.25388172 -0.26374808 0.061854146
-0.2541163 -0.26372546 0.061809301
-0.25498149 -0.26361695 0.061827403
-0.25521302 -0.26359564 0.061775651
-0.25543383 -0.26356933 0.061770067
-0.25567016 -0.2635498 0.061700992
-0.25589371 -0.26352459 0.061685018
-0.25608143 -0.26348972 0.061771832
-0.25634077 -0.26347622 0.061638076
-0.25655827 -0.2634511 0.061626751
-0.25676727 -0.26342151 0.061655812
-0.25700328 -0.26340267 0.061582118
-0.2572071 -0.2633715 0.061627351
-0.25743094 -0.26334703 0.061605614
-0.25763598 -0.26331633 0.061646223
-0.25786471 -0.26329553 0.061593324
-0.25807786 -0.26326954 0.061592393
-0.25830063 -0.26324695 0.061557963
-0.25851902 -0.26322109 0.061551243
-0.25874975 -0.26320145 0.061487958
-0.25897947 -0.26318163 0.06142699
-0.25919816 -0.26315624 0.061416797
-0.25940084 -0.26312709 0.061448194
-0.25961199 -0.26309913 0.061463412
-0.25984725 -0.26308179 0.061379351
-0.26006487 -0.26305634 0.061370321
-0.26027775 -0.26303115 0.061363623
-0.26048955 -0.26300377 0.061374221
-0.2607066 -0.26298028 0.061351355
-0.26092196 -0.26295432 0.061348103
-0.26114273 -0.26293245 0.061310239
-0.26137289 -0.26291224 0.061251566
-0.26159254 -0.26289019 0.061216004
-0.26179925 -0.26286134 0.061241627
-0.26201504 -0.26283804 0.061218761
-0.26221704 -0.26280946 0.061246701
-0.26244393 -0.26279059 0.061181124
-0.2626569 -0.26276445 0.061181344
-0.26286158 -0.26273713 0.061197747
-0.26309916 -0.26272091 0.061103292
-0.26329353 -0.26268965 0.061157785
-0.2635197 -0.26266915 0.061104897
-0.26373458 -0.26264626 0.061079741
-0.26396704 -0.26262861 0.06100031
-0.26416194 -0.26259777 0.061051346
-0.26435098 -0.26256445 0.061125465
-0.26457804 -0.26254702 0.061049514
-0.2648063 -0.26252815 0.060982782
-0.26499802 -0.26249608 0.061045356
-0.26521951 -0.2624746 0.061004031
-0.26545289 -0.26246047 0.060898058
-0.265659 -0.26243266 0.060916755
-0.26586235 -0.26240581 0.060930856
-0.2660715 -0.26238155 0.060920715
-0.26629391 -0.26236326 0.060855158
-0.26650152 -0.26233637 0.060865775
-0.26670685 -0.26231068 0.060869493
-0.26692083 -0.26228678 0.060852405
-0.26714391 -0.26226935 0.060779929
-0.26732898 -0.26223466 0.060867906
-0.26754597 -0.26221463 0.060819671
-0.267766 -0.26219395 0.060773738
-0.26796681 -0.26216662 0.060793616
-0.26818588 -0.26214573 0.060749982
-0.26839355 -0.26212183 0.060738686
-0.26860213 -0.26209843 0.060722783
-0.26881889 -0.26207909 0.060669929
-0.26903191 -0.26205578 0.060649388
-0.26923585 -0.26203042 0.060651954
-0.26943585 -0.26200321 0.060671836
-0.26964951 -0.26198283 0.060629383
-0.26985964 -0.26195845 0.060619239
-0.27005556 -0.26192936 0.060656428
-0.27027646 -0.26191062 0.060595497
-0.27049527 -0.26189336 0.060525335
-0.27070615 -0.26187223 0.060490973
-0.27091512 -0.26185021 0.06046468
-0.27111918 -0.26182327 0.060478777
-0.27132207 -0.2617982 0.0604802
-0.27151811 -0.26176956 0.060513929
-0.27173036 -0.26174966 0.060469173
-0.27194592 -0.26172921 0.060425557
-0.27214736 -0.2617037 0.0604316
-0.27235132 -0.26167959 0.060424928
-0.27255931 -0.26165786 0.060397491
-0.27277595 -0.26163852 0.060344651
-0.27298149 -0.26161566 0.060327601
-0.27318794 -0.26159081 0.060324386
-0.27339455 -0.26156875 0.060300417
-0.2735914 -0.26154113 0.060326077
-0.27380645 -0.26152417 0.060257092
-0.27401787 -0.26150265 0.060225025
-0.27420169 -0.26147282 0.060278416
-0.27441183 -0.261448 0.060271729
-0.2746239 -0.26142985 0.060214292
-0.27484417 -0.26141417 0.060131453
-0.27503523 -0.26138344 0.060184807
-0.27523369 -0.26135451 0.060218535
-0.27542984 -0.26133531 0.060183074
-0.27564564 -0.2613287 0.060037982
-0.27586502 -0.26129925 0.060056619
-0.27605426 -0.26126468 0.060139969
-0.27626196 -0.26124486 0.060098693
-0.27646521 -0.26122227 0.060081661
-0.27666771 -0.2611993 0.060068082
-0.27688 -0.26118004 0.060018718
-0.27707368 -0.26115137 0.060054772
-0.27727348 -0.26112384 0.060076952
-0.27748433 -0.26110697 0.060011454
-0.27769026 -0.26108688 0.059973642
-0.27789128 -0.26106346 0.059964687
-0.27809906 -0.26104191 0.059936099
-0.27829608 -0.26102513 0.059882183
-0.27849483 -0.2609911 0.05995281
-0.278696 -0.26096815 0.059940398
-0.27890733 -0.26094964 0.059886422
-0.27912059 -0.2609359 0.059795536
-0.27931309 -0.2609069 0.05983505
-0.27950117 -0.26087451 0.059903417
-0.27968889 -0.26084831 0.059926808
-0.27992514 -0.26084313 0.059752792
-0.28013113 -0.2608248 0.059702307
-0.28028804 -0.26078799 0.05983077
-0.2805225 -0.26076886 0.059760544
-0.28073129 -0.26075315 0.059688132
-0.28092483 -0.26072529 0.059718415
-0.28110975 -0.26070765 0.059681851
-0.28128034 -0.26069567 0.059616536
-0.28145969 -0.26065961 0.059719525
-0.28172186 -0.26064023 0.059626117
-0.28193867 -0.26061818 0.059592877
-0.28211343 -0.26057434 0.059757017
-0.28235009 -0.26058441 0.059471138
-0.28254163 -0.26055157 0.059539489
-0.28267604 -0.26052698 0.059598856
-0.28290144 -0.26050958 0.059524067
-0.28309464 -0.26048192 0.059553199
-0.28329858 -0.26047188 0.059443906
-0.28351077 -0.2604351 0.059522547
-0.28374076 -0.26041904 0.0594339
-0.28389874 -0.26040119 0.059422821
-0.28407913 -0.26036137 0.059552338
-0.28426489 -0.26033857 0.059552673
-0.28449324 -0.26034191 0.059323341
-0.28471035 -0.26030189 0.059421554
-0.28492439 -0.26027924 0.059395254
-0.28511932 -0.26026225 0.059344806
-0.28533304 -0.26024389 0.059287362
-0.28553417 -0.26021242 0.059337221
-0.28573206 -0.26018608 0.059352495
-0.2859323 -0.26017112 0.059282426
-0.28612882 -0.26013896 0.05934152
-0.28630573 -0.26011628 0.059348814
-0.28649923 -0.2600897 0.059369877
-0.28673387 -0.26008266 0.059210867
-0.2869277 -0.26005208 0.059260748
-0.28710485 -0.26002526 0.059298027
-0.28729784 -0.2600126 0.059217609
-0.28749582 -0.25999177 0.059192531
-0.28765678 -0.25995985 0.059281766
-0.28787473 -0.25996399 0.059055939
-0.28808269 -0.25993139 0.059108067
-0.2882387 -0.25987768 0.059361078
-0.2884497 -0.25988442 0.059122603
-0.28866631 -0.25987342 0.059008639
-0.28883475 -0.25983003 0.059175104
-0.28902981 -0.25980625 0.059174247
-0.28923637 -0.25977129 0.059244841
-0.28945792 -0.25977373 0.059028223
-0.28966355 -0.25975999 0.058944285
-0.28987226 -0.2597284 0.058988348
-0.29002863 -0.25967702 0.059224058
-0.2902379 -0.25969246 0.058923319
-0.29044649 -0.25967255 0.058882046
-0.29063734 -0.25964344 0.058923874
-0.29083392 -0.25962323 0.058895327
-0.29102719 -0.25959793 0.058907159
-0.29122767 -0.25957173 0.058918968
-0.29144049 -0.25954688 0.058909956
-0.29163742 -0.25952792 0.058872193
-0.2918449 -0.25950071 0.05888512
-0.29202509 -0.25947967 0.058877409
-0.29223603 -0.25947964 0.058688521
-0.29243463 -0.25944376 0.058772981
-0.29263541 -0.25941879 0.058775559
-0.29283407 -0.25938985 0.058809277
-0.29302046 -0.25937405 0.058757715
-0.29321903 -0.25935251 0.058737233
-0.2934038 -0.25933406 0.058706447
-0.29360926 -0.25930348 0.058745909
-0.29380366 -0.25928971 0.058672402
-0.29400474 -0.25926614 0.058664598
-0.29418713 -0.2592431 0.05866956
-0.29439148 -0.25921863 0.058665209
-0.29460093 -0.25919735 0.058633149
-0.29478261 -0.25917283 0.058649648
-0.29498103 -0.25915256 0.058619946
-0.29517394 -0.25912809 0.058626011
-0.29536548 -0.25910977 0.058588274
-0.29556346 -0.25908908 0.05856204
-0.29576135 -0.25906843 0.058535792
-0.29595235 -0.25904953 0.058502674
-0.29614279 -0.25901842 0.058559492
-0.29634926 -0.25900176 0.058496311
-0.29655397 -0.2589801 0.058471199
-0.29674387 -0.25895882 0.058456525
-0.29693738 -0.25893742 0.05843953
-0.29713148 -0.25891832 0.058405235
-0.29732341 -0.25889176 0.058427453
-0.29752812 -0.25887153 0.058391955
-0.29771799 -0.2588512 0.058370359
-0.29791841 -0.25882927 0.058351032
-0.29810363 -0.25880542 0.058359444
-0.29829726 -0.25878623 0.058326311
-0.29848981 -0.25876257 0.058326617
-0.29869437 -0.25874409 0.058278434
-0.29888609 -0.25871661 0.058307577
-0.29907861 -0.25869313 0.058306731
-0.29928347 -0.25867775 0.058235481
-0.29947257 -0.25865626 0.058223128
-0.299676 -0.25863367 0.058206085
-0.29987124 -0.25860497 0.05824098
-0.30007127 -0.2585845 0.058211267
-0.30026764 -0.25856417 0.058183879
-0.3004497 -0.25854591 0.058154255
-0.30064532 -0.25852016 0.058167227
-0.3008385 -0.25850606 0.058097191
-0.301038 -0.2584841 0.058079012
-0.30122977 -0.25845566 0.058115073
-0.30142564 -0.25843301 0.058104988
-0.30162147 -0.25841057 0.058093753
-0.30182442 -0.25838879 0.058070943
-0.30201325 -0.25837207 0.058023989
-0.30220538 -0.25835115 0.058004696
-0.30239388 -0.25832847 0.058001559
-0.30259663 -0.25830406 0.057998363
-0.3027851 -0.25828266 0.057986002
-0.30298063 -0.25826401 0.057947095
-0.30317974 -0.25823957 0.057947371
-0.30336824 -0.25821406 0.057964992
-0.30356377 -0.25819147 0.057954907
-0.30375957 -0.25816301 0.057987493
-0.30394784 -0.25814432 0.057955522
-0.30414614 -0.25813195 0.057868168
-0.30434144 -0.25811031 0.057851158
-0.30453631 -0.25809285 0.057804178
-0.30472541 -0.25806206 0.05785986
-0.30492026 -0.25804397 0.057817485
-0.30511558 -0.25802112 0.057809703
-0.30531046 -0.25800174 0.057776563
-0.30550158 -0.2579838 0.057736516
-0.30569705 -0.25795934 0.057740267
-0.30588886 -0.25793609 0.057738274
-0.30608287 -0.25792062 0.057677455
-0.30627427 -0.25789949 0.057660475
-0.30647296 -0.25787619 0.057652678
-0.30666783 -0.25785479 0.057634521
-0.30686364 -0.25782853 0.057650961
-0.30705461 -0.25780919 0.057621289
-0.3072477 -0.25777981 0.057663109
-0.30743477 -0.25776219 0.057624236
-0.30763105 -0.25774914 0.057543799
-0.30782709 -0.25772223 0.057564847
-0.3080228 -0.25769693 0.057574373
-0.30821475 -0.25767305 0.057576988
-0.30841368 -0.25764877 0.057576112
-0.30860555 -0.25762537 0.057575271
-0.30879608 -0.25761837 0.057455651
-0.30898401 -0.2575964 0.05744791
-0.30917773 -0.25756663 0.057492033
-0.3093726 -0.25754443 0.057479642
-0.30956894 -0.25752822 0.057422273
-0.3097547 -0.25751263 0.057369567
-0.30994922 -0.25749111 0.057352569
-0.31014639 -0.25746202 0.057388604
-0.31034169 -0.25743854 0.057385437
-0.31053025 -0.25742403 0.057322334
-0.31072927 -0.25739944 0.057323769
-0.31092271 -0.2573719 0.057351746
-0.31111312 -0.2573438 0.057386659
-0.31129819 -0.25732911 0.057328187
-0.3114908 -0.25730404 0.057338875
-0.31168267 -0.25728095 0.057335723
-0.3118763 -0.2572616 0.057303742
-0.31206611 -0.25725073 0.057212956
-0.31225318 -0.25723818 0.057137176
-0.31244946 -0.25721973 0.057095956
-0.31263462 -0.25720346 0.057049017
-0.3128303 -0.25717896 0.057052765
-0.31303492 -0.2571499 0.057081852
-0.31322363 -0.25711948 0.057135224
-0.31391826 -0.25695628 0.057706438
-0.31475636 -0.25674894 0.058471918
-0.31496826 -0.25669962 0.058642805
-0.31518444 -0.25664362 0.05885864
-0.31539479 -0.2565929 0.059041068
-0.31561258 -0.25653607 0.059261527
-0.2452545 -0.2647008 0.062620319
-0.24550873 -0.2646805 0.062540807
-0.245736 -0.26465234 0.062543258
-0.24593914 -0.26461983 0.062598854
-0.24615291 -0.26458997 0.062625572
-0.24642377 -0.26457426 0.062497564
-0.24663441 -0.26454228 0.062542751
-0.24689671 -0.26452479 0.062435534
-0.24713734 -0.26450047 0.062397577
-0.24734119 -0.26446852 0.062448554
-0.24758303 -0.26444626 0.062394455
-0.24779786 -0.26441723 0.062414259
-0.24802952 -0.26439103 0.062398244
-0.24821302 -0.26435399 0.062504649
-0.24845505 -0.26433063 0.062458619
-0.24870124 -0.26431006 0.062388364
-0.24895684 -0.26429212 0.062290393
-0.24918351 -0.26426667 0.062273253
-0.24937475 -0.26423025 0.062368091
-0.25033525 -0.26414275 0.062147122
-0.25122845 -0.26403695 0.062120121
-0.2521185 -0.26393327 0.06208045
-0.2523185 -0.26390147 0.062133756
-0.25258368 -0.26388866 0.061989628
-0.25281602 -0.26386648 0.061943643
-0.2530233 -0.26383537 0.061985381
-0.25391451 -0.26373503 0.061920352
-0.25413641 -0.26371032 0.061902069
-0.25437751 -0.26368991 0.061835296
-0.25460255 -0.26366639 0.061805487
-0.25482696 -0.26364106 0.061789505
-0.25506094 -0.26362056 0.061729673
-0.25526202 -0.26358989 0.061773747
-0.25547677 -0.26356354 0.061773948
-0.2557075 -0.2635406 0.061734892
-0.25592399 -0.263515 0.061728168
-0.25613001 -0.26348609 0.061754931
-0.25634158 -0.263459 0.061763212
-0.25657314 -0.26343676 0.061718382
-0.25680748 -0.2634173 0.061650489
-0.25699702 -0.26339576 0.061638124
-0.25722164 -0.2633608 0.061692461
-0.2574341 -0.26333442 0.06169498
-0.25765878 -0.26331222 0.061655946
-0.25789842 -0.26329339 0.061578803
-0.25816536 -0.26328588 0.061394323
-0.25834224 -0.26324776 0.06151459
-0.25856245 -0.26322454 0.061487101
-0.25876153 -0.26319221 0.061545014
-0.2589944 -0.26317358 0.061472505
-0.25923091 -0.26315638 0.061386161
-0.25943166 -0.2631267 0.061423309
-0.25960371 -0.26308492 0.061574731
-0.25985557 -0.26307359 0.061431821
-0.26007953 -0.26305053 0.061399698
-0.26027244 -0.26301819 0.061463408
-0.26048121 -0.26299161 0.061470561
-0.2607142 -0.26297405 0.061389983
-0.26094562 -0.26295421 0.06132786
-0.26115695 -0.2629289 0.061323468
-0.26137757 -0.26290718 0.061284453
-0.26159325 -0.26288372 0.061262749
-0.26180512 -0.26285693 0.061268728
-0.26200551 -0.26282775 0.061302431
-0.26227006 -0.2628215 0.061111048
-0.26246265 -0.26278949 0.061172448
-0.26267517 -0.26276532 0.061158821
-0.2628924 -0.26274306 0.061126739
-0.26309991 -0.26271507 0.061145417
-0.26329383 -0.26268369 0.061201047
-0.26353335 -0.26267073 0.06108126
-0.26372051 -0.26263669 0.061162271
-0.26394069 -0.2626141 0.061130174
-0.26416683 -0.26259613 0.061058857
-0.26438591 -0.26257336 0.061029062
-0.26457146 -0.26253876 0.061115861
-0.26480442 -0.26252404 0.06101454
-0.26501447 -0.26249984 0.061003234
-0.26522589 -0.26247421 0.061001152
-0.26543015 -0.26245826 0.060934532
-0.26568964 -0.26244301 0.060813498
-0.26587421 -0.26241672 0.06084035
-0.26605314 -0.26239443 0.060843013
-0.26629969 -0.26236326 0.060849994
-0.26648596 -0.26232699 0.06094832
-0.26670611 -0.262308 0.060889699
-0.26692319 -0.26228562 0.060858767
-0.2671515 -0.26227069 0.060763232
-0.26733851 -0.26223701 0.060841948
-0.26754472 -0.26221219 0.060838733
-0.26776591 -0.26219213 0.060787037
-0.2679686 -0.26216584 0.060797662
-0.26817089 -0.26214164 0.060793318
-0.26838863 -0.26211807 0.060770445
-0.26860383 -0.26209798 0.060724538
-0.2688162 -0.26207665 0.060690168
-0.2690236 -0.26205072 0.060693856
-0.26924229 -0.26203272 0.060629487
-0.26944914 -0.2620067 0.060634337
-0.26965466 -0.26198241 0.060627669
-0.26986253 -0.26195708 0.060626745
-0.2700623 -0.26193002 0.060645469
-0.27027339 -0.26191121 0.060593806
-0.2704967 -0.26189643 0.060501747
-0.27070525 -0.2618694 0.06051236
-0.27089646 -0.2618382 0.06056916
-0.27112737 -0.26182547 0.060455151
-0.27132279 -0.26179662 0.060491182
-0.27151936 -0.26176837 0.060521435
-0.27172807 -0.2617467 0.060492858
-0.27193987 -0.26172435 0.06046655
-0.27212942 -0.2616924 0.060530275
-0.27235779 -0.26168188 0.060402457
-0.27257317 -0.26166695 0.0603185
-0.27276626 -0.26163206 0.06040065
-0.27296025 -0.26160273 0.060441293
-0.27317423 -0.26158482 0.060380399
-0.27339086 -0.26156864 0.060304515
-0.27358431 -0.26153654 0.060365908
-0.27379206 -0.26151544 0.060333867
-0.27400672 -0.26149857 0.060264893
-0.27421254 -0.26147661 0.060240939
-0.27440169 -0.26144204 0.060324259
-0.2746188 -0.26142707 0.060239136
-0.27483201 -0.2614072 0.060193237
-0.27503553 -0.26138428 0.060178503
-0.27523893 -0.26136136 0.060163766
-0.27542749 -0.26132923 0.060229801
-0.27563635 -0.26130989 0.060183924
-0.27584583 -0.26129112 0.060133427
-0.27605078 -0.2612696 0.06010716
-0.27625006 -0.26124451 0.060112044
-0.27642673 -0.26121616 0.060160838
-0.27666155 -0.26120013 0.060067572
-0.27686232 -0.26117629 0.060062073
-0.27703923 -0.26115409 0.060065903
-0.27725908 -0.26112553 0.060077615
-0.27746934 -0.2611084 0.060014427
-0.27767587 -0.26108888 0.059972018
-0.27786285 -0.26105583 0.060046121
-0.27807322 -0.26103616 0.060001388
-0.27828121 -0.26101804 0.059947435
-0.27847978 -0.26099333 0.059950024
-0.27868465 -0.26097637 0.059890315
-0.27887437 -0.26094851 0.059924066
-0.27905819 -0.26092264 0.059948623
-0.27927166 -0.26091251 0.059831247
-0.27944693 -0.26087067 0.059980329
-0.27964562 -0.26085287 0.059932183
-0.27984256 -0.2608372 0.059870221
-0.28003138 -0.26080552 0.059932791
-0.28024209 -0.26079762 0.059801586
-0.28045234 -0.26078302 0.059719961
-0.28064287 -0.26075962 0.05972027
-0.28087386 -0.26074514 0.059618957
-0.28103957 -0.26070854 0.059738122
-0.28125879 -0.26070213 0.059588432
-0.28142974 -0.26065576 0.059774436
-0.28165209 -0.26064533 0.059651256
-0.28181404 -0.26060873 0.059773892
-0.28203487 -0.26060826 0.059579238
-0.28224674 -0.2605933 0.059498768
-0.28242803 -0.26055527 0.059614398
-0.28262514 -0.26053485 0.059587017
-0.28282979 -0.26051763 0.059529621
-0.28304729 -0.26050103 0.059456028
-0.28323281 -0.26046279 0.05956934
-0.2834112 -0.2604292 0.059655018
-0.28363162 -0.26042739 0.059470743
-0.28383568 -0.26039478 0.059526332
-0.28405041 -0.26038435 0.059410103
-0.2842598 -0.26034099 0.059539445
-0.28446361 -0.26033238 0.059419803
-0.2846469 -0.26031175 0.05940631
-0.28483588 -0.26028869 0.059405476
-0.28506616 -0.26025385 0.059454035
-0.28525805 -0.26023814 0.059396692
-0.28545234 -0.26022092 0.059348576
-0.28564972 -0.26019856 0.059335016
-0.28582987 -0.26017076 0.059376881
-0.28603607 -0.26015821 0.059283741
-0.28623763 -0.26012748 0.059327811
-0.28641632 -0.26010254 0.059350081
-0.286607 -0.26008672 0.059295055
-0.28681704 -0.26007038 0.059226111
-0.28702173 -0.26004335 0.059240185
-0.28720671 -0.26002616 0.059200175
-0.28739777 -0.26000208 0.0592051
-0.28760573 -0.25997922 0.059185728
-0.28780454 -0.2599501 0.05922059
-0.28798082 -0.25992748 0.059227891
-0.28819793 -0.25992164 0.059075899
-0.28837189 -0.25988105 0.059216935
-0.28855541 -0.25985771 0.059223037
-0.28879339 -0.25985453 0.059032921
-0.28899473 -0.25981849 0.059116192
-0.28917953 -0.25980273 0.059065804
-0.28937569 -0.25979203 0.058968097
-0.28958198 -0.25976291 0.058996011
-0.28977534 -0.25973761 0.059007835
-0.28997216 -0.25971738 0.058979295
-0.29016349 -0.25968915 0.059014197
-0.29034927 -0.25967014 0.058986854
-0.2905601 -0.25964805 0.058959402
-0.29074764 -0.25961995 0.058996633
-0.29094404 -0.25960594 0.058923129
-0.29113922 -0.25958404 0.058908429
-0.29133895 -0.25955698 0.058927156
-0.29153323 -0.25953376 0.058922835
-0.29174462 -0.25952026 0.058831975
-0.29192951 -0.25949442 0.05885537
-0.29212195 -0.25946826 0.058874123
-0.29232225 -0.25944951 0.058831729
-0.29251549 -0.25943208 0.058785915
-0.29270226 -0.25940993 0.058780484
-0.29290211 -0.25938368 0.058793433
-0.29309615 -0.25936094 0.058785655
-0.29328904 -0.25934371 0.058738694
-0.29348421 -0.25932369 0.058710162
-0.29367641 -0.25929758 0.058728918
-0.29387677 -0.25928086 0.058671538
-0.29407194 -0.25925311 0.058699496
-0.29425728 -0.25922862 0.058712512
-0.29445508 -0.25921553 0.058630943
-0.29464433 -0.25919166 0.058635876
-0.29485372 -0.25917116 0.058598056
-0.29505059 -0.25914776 0.058592577
-0.29523909 -0.25913188 0.058539867
-0.29542738 -0.25910592 0.058560938
-0.2956264 -0.25908872 0.058508173
-0.29582742 -0.25906721 0.058485385
-0.29602578 -0.2590383 0.058519095
-0.29620847 -0.25901774 0.05850561
-0.29640561 -0.25899622 0.058486294
-0.29659507 -0.25897405 0.058478534
-0.29679751 -0.25895819 0.058413085
-0.29698431 -0.25892752 0.058469899
-0.29718304 -0.25891227 0.058403313
-0.29737067 -0.25888419 0.058440529
-0.29756358 -0.25886193 0.058430448
-0.29776099 -0.25884303 0.058391534
-0.29795474 -0.25882462 0.058352642
-0.29815036 -0.25879902 0.058364458
-0.29834262 -0.25877479 0.058369372
-0.29853651 -0.25875807 0.058317788
-0.29874027 -0.25873685 0.058290381
-0.29892594 -0.2587167 0.05827111
-0.29912105 -0.25868881 0.058300219
-0.29931676 -0.25866401 0.058306277
-0.29951441 -0.25865123 0.058222394
-0.2997064 -0.2586264 0.058231927
-0.29989323 -0.2585907 0.058325633
-0.3000938 -0.25857505 0.058260191
-0.30028665 -0.25855672 0.058221295
-0.30047932 -0.25853795 0.058185857
-0.30067542 -0.25851831 0.058153864
-0.30086756 -0.25849566 0.058147252
-0.30106005 -0.25847721 0.058109507
-0.30125231 -0.25845739 0.058082148
-0.30144793 -0.25843543 0.058067448
-0.30163997 -0.25841406 0.058051612
-0.30183193 -0.25839126 0.058046155
-0.30202737 -0.25836712 0.058047593
-0.3022193 -0.25834388 0.058045592
-0.30241123 -0.25832281 0.058027457
-0.30261379 -0.25829795 0.058027711
-0.30281988 -0.25827739 0.057993375
-0.30300456 -0.25825739 0.057974111
-0.30319279 -0.2582368 0.057955984
-0.30339158 -0.25821665 0.057925139
-0.30357978 -0.25819433 0.057919696
-0.30377156 -0.2581706 0.057921149
-0.30396309 -0.25815088 0.057893794
-0.30416179 -0.25812885 0.057876773
-0.30435318 -0.25810975 0.057844799
-0.3045449 -0.25808606 0.057846256
-0.30473614 -0.25806761 0.057809673
-0.30493185 -0.25803918 0.057842247
-0.3051233 -0.25801805 0.057825256
-0.30532184 -0.25799602 0.057808243
-0.30550995 -0.25797322 0.057806257
-0.3057017 -0.25794971 0.057806566
-0.30589324 -0.25792745 0.057797648
-0.30608991 -0.25791636 0.057702247
-0.30628946 -0.25788715 0.057737105
-0.30648148 -0.257862 0.057748932
-0.30666509 -0.25784463 0.057711236
-0.30685928 -0.25782585 0.057674643
-0.30705056 -0.25780424 0.05766112
-0.3072443 -0.25778708 0.057612993
-0.30743951 -0.25776294 0.057614438
-0.3076303 -0.257743 0.057589382
-0.3078174 -0.25772396 0.057560895
-0.30801132 -0.25770485 0.057526603
-0.30821791 -0.25766361 0.057643272
-0.30841172 -0.25764516 0.057604373
-0.30860406 -0.25763163 0.057530899
-0.30879673 -0.25760466 0.057555407
-0.30898926 -0.25757849 0.05757416
-0.30917469 -0.25755337 0.057591785
-0.3093659 -0.25753179 0.057578254
-0.3095558 -0.25751412 0.057537071
-0.30975154 -0.257489 0.057545427
-0.30993724 -0.25747344 0.057492729
-0.31013533 -0.25745133 0.057476871
-0.31031987 -0.25743842 0.057405736
-0.31051764 -0.25741699 0.057385258
-0.31071439 -0.25738922 0.057412058
-0.31090835 -0.25736886 0.057386994
-0.31109813 -0.25735044 0.057351567
-0.31157571 -0.25724792 0.05767341
-0.3117829 -0.25718939 0.05791574
-0.31237426 -0.25704417 0.058448032
-0.31260234 -0.25699666 0.058591127
-0.31281781 -0.25694093 0.058805756
-0.31302798 -0.25689039 0.058986977
-0.31323639 -0.25684449 0.059135925
-0.31344867 -0.25678474 0.059382841
-0.24515942 -0.2647064 0.062664621
-0.24540833 -0.26468331 0.062610544
-0.24567762 -0.26466525 0.062501043
-0.24588521 -0.26463237 0.062555492
-0.24613236 -0.26461074 0.062492199
-0.24710828 -0.26451781 0.062296711
-0.24734588 -0.26449293 0.062265731
-0.2475321 -0.26445508 0.062375598
-0.24773555 -0.26442161 0.062438134
-0.24798012 -0.26440027 0.062374849
-0.24917124 -0.26428112 0.062178448
-0.24940765 -0.26425686 0.062144019
-0.24960986 -0.26422352 0.062206555
-0.24978353 -0.26418248 0.062351059
-0.2500526 -0.26416731 0.062220819
-0.25028011 -0.26414096 0.062209472
-0.25052482 -0.26411948 0.062147349
-0.25074297 -0.26409239 0.062149871
-0.25098231 -0.26406965 0.062101595
-0.2512354 -0.2640509 0.062011771
-0.25144166 -0.26401913 0.062059298
-0.25165352 -0.26399061 0.062078003
-0.25188321 -0.26396558 0.062055133
-0.25213033 -0.26394567 0.061979152
-0.25235215 -0.26391861 0.061978213
-0.25254059 -0.26388192 0.062077701
-0.25272381 -0.26384366 0.062193342
-0.25301948 -0.26383847 0.061966162
-0.25323451 -0.26380971 0.06198369
-0.25347614 -0.26379064 0.061906591
-0.25369859 -0.26376429 0.061899878
-0.25392458 -0.26373908 0.061881632
-0.2541374 -0.26370996 0.061903778
-0.25435343 -0.26368362 0.061902866
-0.25459456 -0.26366332 0.061834976
-0.25482181 -0.26363891 0.061809808
-0.25504303 -0.26361272 0.061803102
-0.25524053 -0.26358092 0.061858758
-0.25546896 -0.26355714 0.061827816
-0.25570756 -0.26353669 0.061763398
-0.25593188 -0.26351184 0.061744012
-0.25617054 -0.26349172 0.061677285
-0.25639117 -0.26346591 0.061668284
-0.2566115 -0.26344186 0.061646603
-0.25682855 -0.26341507 0.061647981
-0.25704756 -0.26338899 0.061642446
-0.25725424 -0.26335889 0.061677299
-0.25748432 -0.26333666 0.061633676
-0.25771067 -0.26331329 0.061601594
-0.25793761 -0.26329207 0.06155337
-0.25815186 -0.26326483 0.061560526
-0.25838426 -0.26324388 0.061505362
-0.25858703 -0.26321283 0.06155061
-0.25880355 -0.26318657 0.061548542
-0.25903785 -0.26316667 0.061484143
-0.25925067 -0.26314119 0.061479785
-0.2594659 -0.26311475 0.061480023
-0.25967017 -0.2630845 0.061518356
-0.25991163 -0.26306763 0.061425112
-0.26015139 -0.26305038 0.061336488
-0.2603451 -0.26301649 0.061410595
-0.26056877 -0.26299551 0.061363533
-0.26081818 -0.26298225 0.061236836
-0.26102084 -0.26295185 0.06127746
-0.26123998 -0.26292765 0.061258093
-0.26145944 -0.2629056 0.061222583
-0.26168472 -0.26288396 0.061178971
-0.26187634 -0.26284954 0.061258856
-0.26209539 -0.26282567 0.061237179
-0.26230061 -0.26279652 0.061266273
-0.26252514 -0.26277497 0.061222672
-0.2627382 -0.26275101 0.06120678
-0.26295373 -0.26272616 0.061195493
-0.26317695 -0.26270443 0.061154202
