# .PCD v0.7 - Point Cloud Data file format
VERSION 0.7
FIELDS x y z
SIZE 4 4 4
TYPE F F F
COUNT 1 1 1
WIDTH 1229
HEIGHT 1
VIEWPOINT 0 0 0 1 0 0 0
POINTS 1229
DATA ascii
-0.11092326 -0.33345208 0.054426096
-0.11107989 -0.33355355 0.054400276
-0.11127683 -0.33367497 0.054406647
-0.11146151 -0.33379152 0.054395754
-0.11160305 -0.33388472 0.05436305
-0.11179446 -0.33400545 0.054352142
-0.11193871 -0.33410504 0.054289442
-0.11213697 -0.33422109 0.054335035
-0.11231533 -0.3343339 0.054323003
-0.11250083 -0.33445534 0.05428442
-0.11265823 -0.3345558 0.054267831
-0.11284467 -0.33467019 0.054277688
-0.11299166 -0.33476454 0.05425882
-0.11315836 -0.33486974 0.05424913
-0.11336025 -0.33500302 0.054200113
-0.11352961 -0.33511022 0.054188106
-0.1136944 -0.33522093 0.054135736
-0.11387689 -0.3353292 0.054168686
-0.11404237 -0.33543727 0.054135915
-0.11420912 -0.33554703 0.054097388
-0.1143735 -0.33564639 0.054115385
-0.11455645 -0.33575931 0.054120645
-0.11474398 -0.33588311 0.054075129
-0.11492001 -0.33599481 0.054060802
-0.1150868 -0.33609915 0.054056872
-0.1152392 -0.33620071 0.054013759
-0.11544496 -0.33632964 0.054007426
-0.11562908 -0.33644456 0.054004602
-0.11580274 -0.33655187 0.054008733
-0.11596279 -0.33665931 0.053958677
-0.11614028 -0.3367703 0.053954728
-0.11631425 -0.336882 0.053932328
-0.11653883 -0.3370097 0.054007839
-0.11667669 -0.33711407 0.053889789
-0.11684258 -0.3372215 0.05386278
-0.11702542 -0.33733526 0.053862274
-0.11717179 -0.33743179 0.053827256
-0.11738068 -0.33755666 0.053858981
-0.036252163 -0.29098463 0.029393315
-0.036417589 -0.29110417 0.029287823
-0.036587909 -0.29122457 0.02919616
-0.036747046 -0.29133198 0.0291426
-0.036911327 -0.2914446 0.029076332
-0.037070893 -0.29155302 0.029018169
-0.037230186 -0.29166126 0.028959997
-0.037386201 -0.29176307 0.028929522
-0.03753927 -0.29186305 0.028899066
-0.037695345 -0.29196528 0.02886628
-0.037843432 -0.2920607 0.028845068
-0.037997704 -0.29216072 0.028819226
-0.038144894 -0.29225302 0.028814167
-0.038295809 -0.29234856 0.028803322
-0.038441624 -0.29244131 0.028790195
-0.038592007 -0.29253635 0.028780505
-0.038741793 -0.29263064 0.028773136
-0.038885139 -0.2927202 0.028770395
-0.039030403 -0.2928082 0.028784957
-0.039167561 -0.29288679 0.028827241
-0.039310254 -0.29297122 0.028854499
-0.039450429 -0.29305422 0.028880615
-0.03959303 -0.29313859 0.028907873
-0.039731368 -0.293219 0.028943233
-0.039866127 -0.2932919 0.02901205
-0.040002309 -0.29336914 0.029058944
-0.04013354 -0.29343677 0.029147401
-0.040269874 -0.29350954 0.029223144
-0.040401496 -0.29357758 0.029310439
-0.040536337 -0.29365036 0.029380415
-0.040666893 -0.29371661 0.029474631
-0.040796142 -0.2937808 0.029576931
-0.040922426 -0.29384276 0.029681552
-0.041054025 -0.29390788 0.029787313
-0.041179322 -0.2939705 0.029883858
-0.041308798 -0.2940321 0.030003466
-0.041433685 -0.29409134 0.030119626
-0.041559272 -0.29414907 0.030248474
-0.041686662 -0.29421189 0.030351941
-0.041818574 -0.29427409 0.030477311
-0.041925892 -0.29430509 0.030703131
-0.042048723 -0.29436019 0.030837767
-0.042168565 -0.29441029 0.03099202
-0.042286832 -0.29445505 0.031173965
-0.039110292 -0.28775796 0.061030857
-0.039296344 -0.28787667 0.061011832
-0.039475612 -0.28798765 0.061014753
-0.039662372 -0.28810787 0.06098881
-0.039823398 -0.28820604 0.061001018
-0.039980281 -0.28831881 0.060904771
-0.040206034 -0.28844851 0.060972173
-0.040390797 -0.28856605 0.060955465
-0.040575854 -0.28868794 0.060912214
-0.040754236 -0.28879473 0.060938217
-0.040934741 -0.28890905 0.060924977
-0.041122884 -0.28903323 0.060879409
-0.041310027 -0.28915972 0.060815386
-0.041485585 -0.28926203 0.060858704
-0.041666266 -0.28937355 0.060863927
-0.041854668 -0.28950298 0.06078605
-0.042039867 -0.28962699 0.060730111
-0.042204741 -0.28971022 0.060851924
-0.042344764 -0.28979954 0.060837656
-0.042581785 -0.28996748 0.060707711
-0.042752743 -0.290066 0.060756817
-0.042942055 -0.29019472 0.060687006
-0.04311838 -0.29030353 0.060692251
-0.043299623 -0.29041758 0.060683627
-0.043478735 -0.29053196 0.060664624
-0.043657295 -0.29064125 0.060675625
-0.043835163 -0.29075354 0.060664706
-0.044021271 -0.29087776 0.060611062
-0.044197999 -0.29098827 0.060607076
-0.04437761 -0.2911002 0.060605377
-0.044563234 -0.29122865 0.060522899
-0.044729762 -0.29133281 0.060518935
-0.044895172 -0.29143938 0.060495358
-0.045081787 -0.29154801 0.060542107
-0.045277745 -0.29168037 0.060475744
-0.045459487 -0.29179782 0.060447507
-0.045631893 -0.2919009 0.060473524
-0.045810491 -0.29201695 0.060441837
-0.045985345 -0.29212537 0.06044361
-0.046166636 -0.29224277 0.060414221
-0.046348739 -0.29236701 0.060344443
-0.046520095 -0.29246852 0.060376238
-0.046695553 -0.29257897 0.060367633
-0.046872966 -0.29268882 0.060370564
-0.047047973 -0.29279864 0.060364258
-0.047225542 -0.29290912 0.060363725
-0.047394197 -0.29302591 0.060288217
-0.047531355 -0.29310358 0.060336273
-0.047745928 -0.29324022 0.060316004
-0.047932975 -0.29336244 0.060278516
-0.048087336 -0.29346925 0.060209982
-0.048281327 -0.29360291 0.060127467
-0.048426036 -0.29370445 0.060054339
-0.048617132 -0.29380947 0.060141459
-0.048817791 -0.29393744 0.060121246
-0.04898943 -0.29404151 0.060138032
-0.049158454 -0.29413918 0.060184829
-0.049340665 -0.29426369 0.060113899
-0.049514994 -0.29437491 0.06009607
-0.04966886 -0.2944712 0.060092136
-0.049862243 -0.29459444 0.0600731
-0.050027795 -0.29468358 0.060160287
-0.050200202 -0.29480326 0.060081307
-0.050385088 -0.29492414 0.060043827
-0.050551623 -0.2950356 0.059993714
-0.050737828 -0.29516754 0.059891619
-0.050894313 -0.29526582 0.059885379
-0.051054444 -0.29536071 0.059914887
-0.051254179 -0.29548335 0.059924677
-0.051429451 -0.29559314 0.059919532
-0.051599283 -0.29569462 0.059945561
-0.051768761 -0.29580975 0.059883893
-0.051946372 -0.29591969 0.059886821
-0.052123867 -0.29603708 0.059842445
-0.052294023 -0.29614022 0.059859239
-0.052465707 -0.29624814 0.059851795
-0.052638739 -0.29636055 0.05982127
-0.052811876 -0.29646555 0.05983806
-0.052983288 -0.29657328 0.059830617
-0.053159952 -0.29669854 0.059733167
-0.053329937 -0.29681087 0.059691112
-0.05350133 -0.29691094 0.059732139
-0.053673416 -0.29703116 0.05964854
-0.053838704 -0.29711923 0.059741504
-0.05401697 -0.29724383 0.05965443
-0.054175317 -0.29735386 0.059581265
-0.054320984 -0.2974467 0.059566975
-0.054509304 -0.29755202 0.059641413
-0.054653451 -0.29763934 0.059655979
-0.054868113 -0.29776433 0.059709564
-0.055042833 -0.2978889 0.059608649
-0.055208337 -0.29799864 0.059565458
-0.055378944 -0.29810789 0.059545331
-0.055556551 -0.29821312 0.059578255
-0.055729002 -0.29833102 0.059510812
-0.055898525 -0.29843667 0.059509151
-0.056068629 -0.29854524 0.059491329
-0.056238174 -0.29865167 0.059485052
-0.056407925 -0.29875928 0.059471846
-0.056577746 -0.2988677 0.059454028
-0.05675089 -0.29897943 0.059428122
-0.05691658 -0.29908162 0.059433393
-0.057088673 -0.2991887 0.059432872
-0.057247832 -0.29928592 0.059443928
-0.05740739 -0.29940143 0.059340764
-0.057598747 -0.29952469 0.059313644
-0.057768777 -0.29963833 0.05926352
-0.057940457 -0.29974553 0.059260696
-0.05810795 -0.29984409 0.05929596
-0.058257565 -0.29993665 0.05929897
-0.058435462 -0.30004844 0.059291504
-0.05860813 -0.30016425 0.059237916
-0.05878149 -0.30026448 0.059285849
-0.058949739 -0.30036953 0.05928304
-0.059119657 -0.30048949 0.059192527
-0.059278816 -0.30059272 0.059165515
-0.059447348 -0.30070305 0.059130393
-0.059627846 -0.30081773 0.059114844
-0.059789203 -0.30091614 0.059127048
-0.059963062 -0.30102339 0.059132297
-0.06012116 -0.30111846 0.059152588
-0.060273454 -0.30121523 0.059139438
-0.060466141 -0.30133897 0.059114631
-0.060634151 -0.30145153 0.059063353
-0.060801461 -0.30155346 0.059076689
-0.060972117 -0.30166328 0.059053101
-0.061139613 -0.30177188 0.059024915
-0.061307061 -0.30188248 0.058984023
-0.061474212 -0.3019861 0.058985822
-0.061641395 -0.30209342 0.058964558
-0.061799165 -0.30219176 0.058962919
-0.061972365 -0.30230027 0.058957782
-0.062126972 -0.3023921 0.058985006
-0.062300026 -0.30250925 0.058924492
-0.062457807 -0.3025952 0.059001323
-0.062618084 -0.30271372 0.058881991
-0.062793925 -0.30282807 0.058850311
-0.062979005 -0.30294544 0.058835909
-0.063123852 -0.30303901 0.058813546
-0.063296303 -0.30315125 0.05878187
-0.063450418 -0.30324733 0.058780257
-0.06364499 -0.30336255 0.058816597
-0.063813791 -0.30347708 0.058756083
-0.063973606 -0.30358088 0.058727905
-0.064137101 -0.30367914 0.058749348
-0.064293392 -0.30378407 0.058700413
-0.064459778 -0.30388558 0.058712602
-0.064647123 -0.30400527 0.058692422
-0.064812876 -0.3041113 0.058673456
-0.064969763 -0.3042084 0.058676459
-0.065118834 -0.30428964 0.058748692
-0.06526313 -0.30438125 0.058736719
-0.065435268 -0.30451009 0.058598898
-0.065602876 -0.30462313 0.058543012
-0.065773748 -0.3047165 0.058624409
-0.065977842 -0.30485335 0.058561496
-0.066135339 -0.30494568 0.05859679
-0.066272147 -0.30502096 0.058658682
-0.066459447 -0.30515373 0.058555432
-0.066618487 -0.30525506 0.058539946
-0.066782802 -0.30536368 0.058499068
-0.066951208 -0.30546939 0.058492795
-0.067119725 -0.30557442 0.058491129
-0.067283735 -0.30568305 0.058449104
-0.067442171 -0.30578527 0.058425549
-0.067611367 -0.30588728 0.0584458
-0.067783818 -0.30600315 0.058391061
-0.067940868 -0.30609703 0.058414817
-0.068106897 -0.30619743 0.058432776
-0.068255194 -0.30629608 0.058391944
-0.068440363 -0.30642793 0.058286384
-0.068604879 -0.30651039 0.058411658
-0.068788566 -0.3066349 0.058346491
-0.06893748 -0.30673066 0.058326427
-0.069093764 -0.30682662 0.05833403
-0.069253691 -0.30691299 0.058416631
-0.069408081 -0.30702385 0.058322705
-0.069565505 -0.30714554 0.058172226
-0.069760993 -0.3072575 0.058232788
-0.069907807 -0.3073481 0.058236968
-0.070073806 -0.307466 0.05814416
-0.070280798 -0.3075875 0.058189686
-0.070433863 -0.30767289 0.058251537
-0.070596121 -0.30778936 0.058152974
-0.070759036 -0.30789566 0.058121331
-0.070932806 -0.30800396 0.058119647
-0.071088053 -0.3081013 0.058114562
-0.071242243 -0.30819285 0.058141798
-0.071413107 -0.30829898 0.058142435
-0.071570858 -0.30839166 0.05817657
-0.071719192 -0.30850148 0.058065355
-0.071896821 -0.30863172 0.057940215
-0.072084211 -0.30873024 0.058053873
-0.072222881 -0.30881998 0.058031537
-0.072392501 -0.3089416 0.05792949
-0.072571553 -0.30905429 0.057920866
-0.072732247 -0.30913565 0.058038082
-0.072878681 -0.30923954 0.057956867
-0.073039711 -0.30935344 0.057869844
-0.073217347 -0.30946159 0.057884309
-0.073376954 -0.30956435 0.057861906
-0.073545203 -0.30966723 0.05787294
-0.073739186 -0.30978337 0.057901196
-0.073884912 -0.30987477 0.057896148
-0.074035257 -0.30996594 0.057910684
-0.074192211 -0.310072 0.057857141
-0.074353904 -0.31018338 0.057788581
-0.074524008 -0.31028959 0.057785764
-0.074691266 -0.31039932 0.057749484
-0.074859314 -0.31049129 0.057828594
-0.075011835 -0.31059092 0.05779814
-0.075180694 -0.31070402 0.057746857
-0.075352482 -0.31081894 0.057695568
-0.075507507 -0.31092069 0.057661645
-0.075684786 -0.31102407 0.057704952
-0.075847127 -0.3111282 0.057684846
-0.076019064 -0.31124246 0.057638176
-0.076175049 -0.31133789 0.057648096
-0.076343022 -0.31144604 0.057624515
-0.076505892 -0.31154448 0.057642486
-0.076671839 -0.3116594 0.057568137
-0.076829091 -0.3117536 0.057590742
-0.076993428 -0.31185549 0.057592548
-0.077142902 -0.31195232 0.057567872
-0.077317528 -0.3120681 0.057522342
-0.077480011 -0.31217158 0.057506859
-0.077641502 -0.31227589 0.057482138
-0.077811778 -0.3123771 0.057511624
-0.077981405 -0.31249231 0.057449963
-0.078130774 -0.31259328 0.057398748
-0.078290999 -0.31268093 0.057474419
-0.078457229 -0.31278566 0.057465844
-0.078606732 -0.31289491 0.057362694
-0.078786559 -0.31300589 0.057367925
-0.07895188 -0.31311113 0.057352431
-0.079124562 -0.31322333 0.057321906
-0.079278842 -0.31331605 0.057342213
-0.079458922 -0.31343099 0.057323202
-0.079606116 -0.31352478 0.057308912
-0.079756752 -0.31362015 0.057298083
-0.079917148 -0.3137247 0.057267595
-0.08008153 -0.31383047 0.057245184
-0.080260821 -0.31391081 0.057441946
-0.080432989 -0.31403491 0.057334121
-0.080593333 -0.31415093 0.057230942
-0.080756873 -0.31424958 0.057250068
-0.080901369 -0.31435245 0.057167713
-0.081065625 -0.3144581 0.057145294
-0.081240304 -0.31456497 0.057156309
-0.081400283 -0.31466579 0.057147749
-0.081596315 -0.31478596 0.057158694
-0.081749275 -0.31488714 0.057120156
-0.081897117 -0.31498042 0.057111636
-0.082056813 -0.31508142 0.057100765
-0.082238637 -0.31520221 0.057051755
-0.082382463 -0.31529754 0.057014406
-0.082553506 -0.31539613 0.057063501
-0.082718521 -0.31549791 0.057068776
-0.082874656 -0.31560069 0.05703254
-0.083030477 -0.31570697 0.056973219
-0.083185099 -0.31580701 0.056948528
-0.083366536 -0.31592101 0.056941055
-0.083534814 -0.31602788 0.056926701
-0.083687238 -0.31612238 0.056928553
-0.083862051 -0.31622639 0.056958027
-0.08401335 -0.31632146 0.056951806
-0.084176414 -0.31642747 0.056922469
-0.084348053 -0.31653938 0.056889638
-0.084520578 -0.31665403 0.056842964
-0.084674336 -0.31674495 0.056872502
-0.084845923 -0.31685683 0.056839682
-0.085015513 -0.31696638 0.056813784
-0.085170582 -0.31706613 0.05679255
-0.085328072 -0.31717107 0.056748223
-0.085488081 -0.31727502 0.056720056
-0.08564198 -0.31737515 0.056691896
-0.085791603 -0.31747976 0.056618754
-0.085948236 -0.31757885 0.056607895
-0.08610069 -0.31767645 0.056590129
-0.086267248 -0.31777516 0.056620788
-0.086448058 -0.31787801 0.056681391
-0.086623833 -0.31798261 0.056710862
-0.086794592 -0.31808323 0.056746118
-0.086975701 -0.3181864 0.056805566
-0.087142952 -0.31830525 0.056711607
-0.087327994 -0.31842148 0.056704123
-0.087471575 -0.31852472 0.056616001
-0.087625049 -0.3186222 0.056602851
-0.087766781 -0.31872299 0.056522813
-0.087950364 -0.31883138 0.056559179
-0.088111207 -0.31893238 0.056552917
-0.088268362 -0.31903437 0.056525908
-0.088442534 -0.31915075 0.056474622
-0.088611737 -0.31925768 0.056463726
-0.088772543 -0.31936139 0.056440167
-0.088925488 -0.31945381 0.056457005
-0.089099206 -0.31955716 0.056486484
-0.089259461 -0.31967148 0.056393702
-0.089413851 -0.31976372 0.056417465
-0.089587353 -0.31986728 0.056444634
-0.089736931 -0.31996837 0.056393407
-0.089896038 -0.3200776 0.056328319
-0.090085931 -0.32018811 0.056376204
-0.090235196 -0.32028919 0.056323834
-0.090408579 -0.32039306 0.0563487
-0.090569153 -0.32050192 0.056291673
-0.090741336 -0.32061106 0.056278471
-0.090911388 -0.32071814 0.056269869
-0.091073677 -0.32081929 0.056268234
-0.091226846 -0.32092446 0.056205459
-0.091384947 -0.32102394 0.056198068
-0.091542915 -0.32112825 0.056159519
-0.091714472 -0.32123044 0.056187842
-0.091880947 -0.32133108 0.056205802
-0.092042536 -0.32143492 0.056184545
-0.092184119 -0.32154164 0.056066435
-0.092355549 -0.32163936 0.056122456
-0.092549942 -0.32174808 0.056199174
-0.092700869 -0.32185805 0.056097183
-0.092872784 -0.32196066 0.056124356
-0.093035042 -0.32206908 0.056076553
-0.09319628 -0.32217306 0.05605299
-0.09334518 -0.32227394 0.056000628
-0.09351629 -0.32237455 0.056037031
-0.093684942 -0.32248005 0.05603306
-0.093863085 -0.32258907 0.056044064
-0.094019085 -0.32268924 0.056023978
-0.094196193 -0.3228029 0.056001522
-0.094339199 -0.32290429 0.055922627
-0.094496489 -0.32299998 0.055936005
-0.094670311 -0.3231096 0.055926245
-0.094834059 -0.32322004 0.055871528
-0.095000282 -0.32332167 0.055882558
-0.095170043 -0.32343167 0.055854365
-0.095314078 -0.32353279 0.055781238
-0.095494859 -0.32363778 0.05582799
-0.095654197 -0.32374004 0.055807907
-0.095833123 -0.32384536 0.055845439
-0.095996484 -0.32394955 0.055828787
-0.096166492 -0.32405549 0.05582713
-0.096304946 -0.32416099 0.055704407
-0.096491992 -0.32426825 0.055761531
-0.096673518 -0.32436973 0.055833682
-0.096829645 -0.32448056 0.055746671
-0.097005621 -0.32459059 0.055742685
-0.097180501 -0.32469869 0.055746771
-0.097323507 -0.32480171 0.055657491
-0.097480163 -0.32490632 0.055612024
-0.097649813 -0.32500857 0.055632282
-0.097842246 -0.32511845 0.055694003
-0.097996511 -0.32522121 0.055650853
-0.098151416 -0.32531995 0.055635378
-0.098327965 -0.32542837 0.05564408
-0.098481715 -0.32553899 0.055549007
-0.098657452 -0.32564157 0.055591166
-0.098836303 -0.32575011 0.055607941
-0.09899845 -0.32586068 0.055546291
-0.099162869 -0.32596737 0.055518109
-0.099327743 -0.32607216 0.055503767
-0.09950427 -0.32618091 0.05551016
-0.099677958 -0.32628587 0.055529244
-0.099841997 -0.32639268 0.055498756
-0.099988438 -0.32649732 0.055412926
-0.10016185 -0.32660431 0.055418175
-0.10031777 -0.32670534 0.055392321
-0.10050264 -0.32682016 0.055392917
-0.10066332 -0.32692325 0.055372819
-0.10084136 -0.32702875 0.055405743
-0.10102947 -0.32714945 0.055382103
-0.10118133 -0.32725233 0.05532857
-0.10132938 -0.32734954 0.05529581
-0.10150191 -0.32745692 0.055295292
-0.10165596 -0.32756171 0.055238295
-0.1018328 -0.32766572 0.055275831
-0.10200183 -0.32777125 0.055273015
-0.10217561 -0.3278825 0.055252876
-0.10234711 -0.32798645 0.055269673
-0.10249664 -0.32809466 0.055173453
-0.10268364 -0.32821026 0.055177502
-0.10283604 -0.3283115 0.055136658
-0.10300955 -0.32841581 0.055159219
-0.10319914 -0.32853705 0.055137873
-0.10335245 -0.32863665 0.055110876
-0.10350566 -0.328738 0.055072337
-0.10366915 -0.32884008 0.05506954
-0.10385387 -0.32895246 0.055085134
-0.10403742 -0.32906485 0.055096127
-0.10418506 -0.3291693 0.055016059
-0.10436037 -0.32927257 0.055052452
-0.10453037 -0.329384 0.055016175
-0.10470187 -0.32949728 0.054974116
-0.10486178 -0.32959768 0.054967865
-0.105023 -0.32970163 0.054944307
-0.10519493 -0.32980663 0.054956481
-0.10536879 -0.32991353 0.054964036
-0.10551845 -0.33001649 0.054901276
-0.10569736 -0.33012399 0.054924965
-0.10587969 -0.33023688 0.054927882
-0.1060354 -0.33034053 0.054884717
-0.1062232 -0.3304508 0.054925691
-0.10638256 -0.33055818 0.054873288
-0.10655151 -0.33066824 0.054841626
-0.10671264 -0.33077744 0.054784607
-0.10685818 -0.33087674 0.054728784
-0.10703932 -0.33097851 0.054797467
-0.10723718 -0.33109853 0.054816484
-0.10740852 -0.33121225 0.054770965
-0.10756391 -0.33131605 0.054725505
-0.10771995 -0.33142155 0.054671962
-0.10789918 -0.33152193 0.0547418
-0.10809031 -0.33164304 0.054727379
-0.10825145 -0.33174768 0.054699197
-0.10841314 -0.33185086 0.054682564
-0.10857647 -0.33196214 0.054620922
-0.10878595 -0.3320812 0.054691818
-0.10891812 -0.33217892 0.054593347
-0.10906844 -0.33228067 0.054540973
-0.10928833 -0.33240455 0.054622229
-0.10944411 -0.33251023 0.054566376
-0.10959954 -0.33261278 0.054528985
-0.10978055 -0.33272213 0.05454921
-0.10995217 -0.33283019 0.054540619
-0.11011803 -0.33294052 0.054495115
-0.11028516 -0.3330434 0.054501541
-0.11044984 -0.33315209 0.054461814
-0.11065877 -0.33327514 0.054505028
-0.11083545 -0.33339185 0.0544618
-0.11097956 -0.33349136 0.054399066
-0.11114334 -0.33359399 0.054393955
-0.11130433 -0.33370072 0.054351933
-0.11147279 -0.33381468 0.054293737
-0.11165357 -0.3339217 0.054327801
-0.11182958 -0.33403248 0.054319195
-0.11201487 -0.3341434 0.05434633
-0.11217438 -0.33424118 0.054355077
-0.11232664 -0.33434963 0.054268081
-0.11252232 -0.33447722 0.054230571
-0.11271068 -0.33459041 0.054255392
-0.11287639 -0.33469096 0.054271046
-0.11302996 -0.33479673 0.054205969
-0.11322334 -0.33490813 0.054261915
-0.11338766 -0.33502167 0.054189891
-0.11358084 -0.33514333 0.054180074
-0.11374097 -0.3352446 0.054169208
-0.11390296 -0.33534339 0.054181408
-0.11407833 -0.33545908 0.05413935
-0.11426575 -0.3355799 0.054112241
-0.11441737 -0.33567405 0.054112945
-0.11459003 -0.33578223 0.054107808
-0.11479397 -0.33591202 0.05408873
-0.11494192 -0.33600849 0.05406059
-0.11512835 -0.33612794 0.054038104
-0.11529265 -0.33623329 0.054018002
-0.11546507 -0.33634165 0.054010555
-0.11564353 -0.33645689 0.053983487
-0.11582051 -0.3365705 0.053961031
-0.11599822 -0.33668289 0.053948946
-0.11617133 -0.33679023 0.053950738
-0.11634493 -0.3369019 0.053927142
-0.11652328 -0.33701599 0.053906988
-0.11669798 -0.33712795 0.053885691
-0.11686105 -0.33723071 0.053877119
-0.11704595 -0.33734632 0.053873107
-0.11718796 -0.33745018 0.053774603
-0.11741608 -0.33757368 0.053890448
-0.036491696 -0.29113752 0.029368287
-0.036662534 -0.2912586 0.029274303
-0.036828551 -0.2913754 0.029188415
-0.036997683 -0.2914947 0.029099047
-0.037159484 -0.29160413 0.029043168
-0.037320431 -0.2917147 0.028976902
-0.037478808 -0.29181981 0.02893487
-0.037638377 -0.29192674 0.028885927
-0.037792623 -0.29202858 0.028848529
-0.037948329 -0.29212838 0.028829575
-0.038097512 -0.29222339 0.028815266
-0.038250402 -0.29232162 0.028795179
-0.038401097 -0.29241905 0.028771628
-0.038552906 -0.29251388 0.028768852
-0.038700994 -0.29260784 0.028756849
-0.038850728 -0.29270211 0.028749462
-0.038997624 -0.29279462 0.028742081
-0.039142605 -0.29288447 0.028743934
-0.039289065 -0.29297432 0.028751554
-0.039438542 -0.29306641 0.028756853
-0.03957976 -0.29314882 0.028791025
-0.039716102 -0.29322636 0.028836751
-0.039855555 -0.2933062 0.028880149
-0.039996058 -0.29338759 0.028917782
-0.040133063 -0.29346153 0.028988883
-0.040271021 -0.29353917 0.029040372
-0.040407527 -0.29361463 0.029099936
-0.040544428 -0.29368594 0.029187184
-0.040674623 -0.29375181 0.029282544
-0.040806372 -0.2938199 0.029369809
-0.040938217 -0.29388809 0.029457083
-0.041070625 -0.29395461 0.029557034
-0.041200873 -0.29402015 0.029654693
-0.041332938 -0.29408589 0.029758114
-0.041460276 -0.29414672 0.029874237
-0.041591071 -0.2942102 0.029986892
-0.041714311 -0.29426682 0.030113418
-0.041844666 -0.29432932 0.030230684
-0.041971561 -0.29438877 0.030353729
-0.042107299 -0.29444659 0.030521743
-0.042213313 -0.29448026 0.030725624
-0.04233367 -0.29453379 0.030860227
-0.042455144 -0.29458365 0.031022523
-0.042573571 -0.29462832 0.031205589
-0.039484441 -0.28798634 0.061057843
-0.039674077 -0.28811127 0.061013408
-0.039861433 -0.28823256 0.060982823
-0.040031113 -0.28832394 0.061072282
-0.040174872 -0.28841794 0.061042994
-0.040413231 -0.28858012 0.060954571
-0.040596925 -0.2886959 0.060944766
-0.040779818 -0.28881043 0.06093958
-0.040971927 -0.28894126 0.060867451
-0.041154955 -0.28905645 0.060858805
-0.0413372 -0.28917038 0.06085477
-0.041508954 -0.2892811 0.060830008
-0.041706771 -0.28940782 0.060806319
-0.041892752 -0.28952903 0.06077113
-0.04207655 -0.28964651 0.060750939
-0.042223718 -0.28974482 0.060707793
-0.042434931 -0.28986514 0.060777504
-0.042584874 -0.28995275 0.060812801
-0.04281199 -0.2901189 0.060655192
-0.042984888 -0.29021698 0.060714647
-0.0431646 -0.29032791 0.060719848
-0.043342926 -0.29043633 0.060735442
-0.043538898 -0.29057851 0.06060677
-0.04371465 -0.29068241 0.060640842
-0.043895528 -0.29079622 0.060632192
-0.04408136 -0.2909199 0.06058085
-0.04425567 -0.29102561 0.060597617
-0.044440456 -0.29114771 0.060552038
-0.044619955 -0.29125959 0.060550332
-0.044798195 -0.29137358 0.06053016
-0.0449747 -0.29147977 0.060552679
-0.045153372 -0.29158583 0.060584426
-0.04534119 -0.29171529 0.060504239
-0.045522552 -0.29183653 0.060450602
-0.045705788 -0.29195258 0.060437337
-0.045879051 -0.29205745 0.060455255
-0.046061754 -0.29217753 0.060414299
-0.046242572 -0.29229388 0.060389511
-0.046419747 -0.29240265 0.060398191
-0.046596605 -0.2925109 0.060409173
-0.046776555 -0.29262596 0.060388997
-0.046959601 -0.29274806 0.060336512
-0.047144488 -0.2928746 0.060263246
-0.047317177 -0.29297951 0.060278859
-0.047494471 -0.29308966 0.060279459
-0.047653466 -0.29318494 0.060302041
-0.047821607 -0.29329047 0.060295746
-0.048030153 -0.29343519 0.06020049
-0.048200056 -0.29353434 0.060241491
-0.048362203 -0.29363197 0.060261752
-0.048516952 -0.29372332 0.060292415
-0.048696283 -0.29384512 0.060227253
-0.048896018 -0.29397634 0.060182791
-0.049095109 -0.29411227 0.060106024
-0.049275532 -0.29423219 0.060056999
-0.049450129 -0.29433793 0.060074918
-0.04962229 -0.29443756 0.060121685
-0.049793541 -0.29455343 0.060062308
-0.049976215 -0.29468042 0.05997752
-0.050157584 -0.29479182 0.059986189
-0.050321221 -0.29490167 0.05993491
-0.050499007 -0.29500389 0.059987426
-0.050679628 -0.29511374 0.060003012
-0.050828487 -0.29521093 0.059973698
-0.050986923 -0.29530749 0.059985906
-0.051202737 -0.29543301 0.060040604
-0.051382456 -0.29555488 0.059976593
-0.051560327 -0.29567194 0.059935652
-0.051740322 -0.29579562 0.05986125
-0.051912051 -0.29590285 0.059858412
-0.05208277 -0.29600725 0.059869416
-0.052261982 -0.29612225 0.05984693
-0.052438628 -0.29623744 0.059812926
-0.052608389 -0.29633942 0.059835464
-0.05278622 -0.29645902 0.059778381
-0.052960552 -0.29656786 0.059775531
-0.053133983 -0.29667395 0.059786528
-0.053305343 -0.29678187 0.059777915
-0.053447861 -0.29686233 0.059829392
-0.053629994 -0.29698971 0.059739985
-0.053799123 -0.29709968 0.059709463
-0.053997822 -0.29722261 0.059713461
-0.054175377 -0.29733545 0.059697896
-0.054328669 -0.29742682 0.059722804
-0.054476626 -0.29750812 0.059790406
-0.054658398 -0.29765773 0.059559107
-0.054863133 -0.29776469 0.059687681
-0.055039451 -0.29789537 0.059554458
-0.055211045 -0.29799724 0.059585068
-0.05537273 -0.29810241 0.059555717
-0.055557497 -0.29821482 0.059571292
-0.055729195 -0.29832914 0.059523452
-0.055904344 -0.29844743 0.059464067
-0.056070976 -0.29853997 0.059533928
-0.056244969 -0.2986539 0.059497613
-0.05641621 -0.29876828 0.059447475
-0.056588847 -0.29887682 0.059440009
-0.056756958 -0.29897669 0.05946948
-0.056929566 -0.29908553 0.059459716
-0.057103705 -0.29920301 0.05940149
-0.057276972 -0.29931667 0.059364025
-0.057445876 -0.29942194 0.059362352
-0.057597771 -0.2995097 0.059404559
-0.05778189 -0.29963979 0.059305921
-0.057940893 -0.29973727 0.059314653
-0.05812043 -0.29985848 0.059254099
-0.058301196 -0.29996985 0.059260458
-0.058450371 -0.30005923 0.059281908
-0.058640853 -0.30017957 0.059269778
-0.058809724 -0.30028865 0.059243865
-0.058982413 -0.30040634 0.059178725
-0.059150428 -0.30051014 0.059182812
-0.059320189 -0.30060354 0.059259579
-0.059492361 -0.30071944 0.059203666
-0.059651874 -0.30082709 0.0591501
-0.05981664 -0.30092943 0.059150741
-0.059997097 -0.3010439 0.059136331
-0.060156997 -0.30116129 0.059022773
-0.060342837 -0.30127183 0.059054494
-0.060497623 -0.30136231 0.059090927
-0.060668677 -0.30147493 0.059051171
-0.060851753 -0.30159032 0.059041359
-0.061022319 -0.30169737 0.059035059
-0.061189916 -0.30180731 0.058998771
-0.061341841 -0.30190584 0.058972917
-0.061518367 -0.30201587 0.058971211
-0.061698008 -0.30213258 0.058939505
-0.061865091 -0.30223364 0.058957443
-0.062025987 -0.30233738 0.058933862
-0.062199153 -0.30245262 0.058886018
-0.062369213 -0.30255443 0.058910869
-0.062520511 -0.30265677 0.058858477
-0.062699854 -0.30276218 0.058897149
-0.062860392 -0.30286518 0.058877029
-0.063033186 -0.30297616 0.058854572
-0.063202798 -0.30308515 0.058832131
-0.063388489 -0.30319104 0.058892686
-0.063535824 -0.30329567 0.058810323
-0.063701719 -0.30340821 0.058750961
-0.063889831 -0.30352396 0.058758445
-0.064056084 -0.30362925 0.05874639
-0.064209774 -0.3037287 0.058721684
-0.064378969 -0.30383599 0.058708467
-0.064560555 -0.30394953 0.058704443
-0.064726606 -0.30405432 0.058694687
-0.064898632 -0.3041639 0.058678001
-0.065063477 -0.30427653 0.058614038
-0.065203659 -0.30437306 0.058554761
-0.0653878 -0.30446756 0.058681086
-0.065549642 -0.30455515 0.058763646
-0.065698117 -0.30466211 0.058670886
-0.065865397 -0.30477715 0.058601141
-0.066042162 -0.30489534 0.058548678
-0.066211313 -0.30501631 0.058448933
-0.066398799 -0.30511436 0.058566019
-0.066566259 -0.30522567 0.058520503
-0.066729225 -0.30532524 0.058531534
-0.066887774 -0.30542865 0.058501042
-0.067052618 -0.30553487 0.058477446
-0.067231312 -0.30564204 0.058502272
-0.067410752 -0.30576009 0.058461338
-0.067557298 -0.30585364 0.058445878
-0.06772165 -0.30596048 0.05841653
-0.067890525 -0.30606392 0.058426388
-0.068055637 -0.30616775 0.058418937
-0.068233006 -0.30627903 0.058412619
-0.068391137 -0.30638143 0.058386751
-0.06854368 -0.30647817 0.058374733
-0.068708636 -0.30659267 0.058299221
-0.068895973 -0.3067171 0.058249041
-0.069048874 -0.30681205 0.058249712
-0.069231182 -0.3069191 0.05828952
-0.069378391 -0.30700925 0.05829829
-0.069545895 -0.3071155 0.05828508
-0.069709659 -0.30720261 0.058378018
-0.069871239 -0.30732304 0.058251753
-0.07001777 -0.30744159 0.058078244
-0.070214786 -0.30755049 0.058164157
-0.070376933 -0.30765048 0.058169421
-0.070526779 -0.30776834 0.058013204
-0.070695408 -0.30785429 0.058132656
-0.07087893 -0.30796739 0.058139008
-0.071049735 -0.3080819 0.058086559
-0.071215108 -0.30818316 0.058096424
-0.071388841 -0.30829161 0.058093574
-0.071556911 -0.30839548 0.058097661
-0.07173048 -0.30850419 0.058092512
-0.071878321 -0.30860004 0.058067821
-0.072032988 -0.30869827 0.058054648
-0.072183281 -0.30880383 0.057978034
-0.072363146 -0.3089225 0.05793478
-0.072533287 -0.30901578 0.058013853
-0.072689533 -0.30911794 0.057982214
-0.072859854 -0.30923122 0.057935543
-0.073042117 -0.30934572 0.057928048
-0.07319048 -0.30942708 0.057996806
-0.073347807 -0.30953994 0.05790171
-0.073520415 -0.30965555 0.057849258
-0.073678747 -0.30974787 0.05788799
-0.073849276 -0.30986604 0.057811309
-0.074029505 -0.30997691 0.05781883
-0.074198976 -0.31007832 0.057843678
-0.074355863 -0.31017286 0.057862796
-0.074519224 -0.31028217 0.057813831
-0.074671976 -0.31038177 0.057784513
-0.07482598 -0.31049094 0.057699811
-0.074993238 -0.31058952 0.057733908
-0.075179622 -0.31070405 0.057742551
-0.075345084 -0.3108103 0.057721265
-0.075508401 -0.31091356 0.057710376
-0.075667068 -0.31101665 0.057682194
-0.075816765 -0.31111383 0.057656337
-0.075999558 -0.31122702 0.057659231
-0.07616964 -0.31133321 0.057656392
-0.07631892 -0.31143066 0.057627086
-0.076487847 -0.31153795 0.05761271
-0.076639839 -0.31163746 0.057581089
-0.076819822 -0.3117533 0.057556301
-0.076978825 -0.31184602 0.057595029
-0.077148728 -0.31195703 0.057561036
-0.077326007 -0.3120752 0.057510879
-0.077477716 -0.31216541 0.057536941
-0.077624492 -0.31226456 0.057486877
-0.077802956 -0.31237689 0.057478234
-0.077963881 -0.31247285 0.057504267
-0.078134283 -0.31258306 0.057477199
-0.078284115 -0.31268376 0.057429433
-0.078459933 -0.31278953 0.057451956
-0.078622401 -0.312893 0.057436451
-0.07880494 -0.3130064 0.057437032
-0.078945853 -0.31310102 0.057392754
-0.079107031 -0.3132095 0.057340339
-0.079271257 -0.31330332 0.057392888
-0.079453357 -0.31342518 0.0573381
-0.07961072 -0.31352001 0.057357226
-0.079782493 -0.31362891 0.057343993
-0.079934999 -0.3137311 0.057297371
-0.08010757 -0.31383154 0.057340667
-0.080284491 -0.31393707 0.057368968
-0.080431879 -0.31404245 0.057281971
-0.080586664 -0.31414297 0.057254963
-0.080747195 -0.31424743 0.057225615
-0.080918871 -0.31435627 0.05721239
-0.081081167 -0.31445214 0.057244182
-0.081233256 -0.31454676 0.057243705
-0.08140637 -0.31466216 0.05719471
-0.081556417 -0.31476519 0.057133093
-0.081734128 -0.31487778 0.057119854
-0.081906147 -0.3149828 0.057132006
-0.082055099 -0.31507912 0.057108462
-0.082203329 -0.31516883 0.057124157
-0.082379825 -0.31528905 0.057057846
-0.082524993 -0.31539068 0.056985855
-0.082696661 -0.31548911 0.057038397
-0.082856968 -0.3155967 0.05698828
-0.08301919 -0.31569654 0.056994706
-0.083186813 -0.31580725 0.056953795
-0.083354563 -0.31590122 0.057019036
-0.083512381 -0.31600326 0.056994315
-0.083667792 -0.31610635 0.056953445
-0.083830573 -0.31621584 0.056901023
-0.083991081 -0.31632301 0.056854375
-0.084153518 -0.31643248 0.056800805
-0.084332056 -0.31653827 0.056833696
-0.084497824 -0.31663686 0.056862026
-0.084651463 -0.31674671 0.056771554
-0.084811211 -0.31685084 0.056741059
-0.084979586 -0.3169516 0.05676591
-0.085128292 -0.31705692 0.056684691
-0.085289553 -0.31715432 0.056702647
-0.085451998 -0.3172574 0.056689452
-0.085608833 -0.31735355 0.056698188
-0.085777052 -0.31745166 0.056739192
-0.085950755 -0.31755391 0.05677557
-0.086111695 -0.3176606 0.056733541
-0.086285941 -0.31775698 0.056809131
-0.08645089 -0.31787112 0.056735933
-0.086631961 -0.31797996 0.0567596
-0.086769119 -0.31808555 0.056631111
-0.086946562 -0.31819269 0.056651328
-0.087109134 -0.31829879 0.056619663
-0.087273777 -0.3184014 0.056617998
-0.087431476 -0.31850609 0.056575969
-0.087590128 -0.31861049 0.056539718
-0.087766185 -0.31871274 0.056585304
-0.08793281 -0.31881222 0.056611326
-0.088096365 -0.31892622 0.056533512
-0.088261142 -0.31903166 0.056514539
-0.088403717 -0.31912401 0.056491025
-0.088582024 -0.31922877 0.056529693
-0.08875481 -0.31934029 0.056503773
-0.088905022 -0.31943613 0.056488302
-0.089066908 -0.31953451 0.056502797
-0.089225739 -0.31964666 0.056418076
-0.089387506 -0.31974769 0.056415271
-0.089543685 -0.31984997 0.056382477
-0.089704424 -0.31995127 0.056373894
-0.089878991 -0.32005477 0.05640566
-0.090043992 -0.32016036 0.056386687
-0.090191305 -0.32026443 0.05630777
-0.090351366 -0.32036093 0.056326881
-0.090534255 -0.3204731 0.056336693
-0.09070351 -0.32058042 0.056323476
-0.090843365 -0.32068077 0.056238823
-0.091011122 -0.32078588 0.056233682
-0.091182008 -0.32089293 0.056228533
-0.091346972 -0.32099375 0.056239557
-0.091503128 -0.32109365 0.056221761
-0.091666356 -0.32119486 0.05622356
-0.091838159 -0.32130194 0.056221865
-0.091994405 -0.3214114 0.056144085
-0.092107639 -0.32150814 0.055977598
-0.092311434 -0.3216083 0.056145404
-0.092502743 -0.32170817 0.056265943
-0.092660688 -0.32182434 0.056152388
-0.092807904 -0.32193017 0.056061935
-0.092979975 -0.32203743 0.056060251
-0.093139671 -0.32213935 0.056043603
-0.093304597 -0.32224071 0.056051157
-0.093461692 -0.32233846 0.056050666
-0.093623862 -0.32244921 0.055987865
-0.09378536 -0.32254881 0.055993132
-0.093960173 -0.32265154 0.056030653
-0.094111323 -0.32275891 0.055945959
-0.094281994 -0.32286438 0.055950038
-0.094444267 -0.32296628 0.055943772
-0.094622836 -0.32306901 0.05599628
-0.094797648 -0.32317868 0.05598997
-0.094955213 -0.32328111 0.05596178
-0.09510918 -0.32339242 0.055863239
-0.09525162 -0.32348946 0.055809721
-0.095441021 -0.3235918 0.055907197
-0.095608301 -0.32369789 0.05589398
-0.095771722 -0.32380211 0.05587732
-0.095924459 -0.32390702 0.055814549
-0.096063629 -0.32401258 0.055694133
-0.096232854 -0.32411441 0.055715524
-0.096412279 -0.32421586 0.055779569
-0.096592747 -0.32432359 0.055807844
-0.096757725 -0.32442588 0.055809632
-0.096925102 -0.32454044 0.055743348
-0.097090654 -0.32465091 0.055695534
-0.097239807 -0.32475176 0.055644304
-0.097392857 -0.32485247 0.055609219
-0.097567052 -0.32495466 0.055647902
-0.09776631 -0.32506439 0.055737268
-0.097917467 -0.32517725 0.055617966
-0.098074444 -0.32527402 0.055623233
-0.098236524 -0.32537669 0.055611201
-0.098388344 -0.32547754 0.055570338
-0.098561294 -0.32558608 0.055564031
-0.098725475 -0.32569081 0.055547372
-0.098908126 -0.32580134 0.055566411
-0.099076807 -0.32591197 0.05553012
-0.099243537 -0.32601681 0.05552268
-0.099403635 -0.32611972 0.055501413
-0.099571981 -0.32622465 0.055499729
-0.09973155 -0.32633141 0.055451937
-0.099909395 -0.32644227 0.055450223
-0.10007542 -0.32654539 0.055450857
-0.10022403 -0.32665008 0.055373095
-0.1003942 -0.32675526 0.055377178
-0.10056302 -0.32686228 0.055363961
-0.10073234 -0.32696381 0.055387661
-0.10091259 -0.32707688 0.055381324
-0.10107175 -0.3271856 0.055319682
-0.10123868 -0.32729641 0.055275328
-0.10140747 -0.32739815 0.055295561
-0.10156035 -0.32749748 0.055268552
-0.10173155 -0.32760125 0.05528532
-0.10190591 -0.32771432 0.055255942
-0.10206464 -0.32781583 0.055238135
-0.10223892 -0.32792354 0.055242203
-0.10241282 -0.32803667 0.055210508
-0.10256769 -0.32813451 0.0552008
-0.10271222 -0.32823884 0.055109207
-0.10289004 -0.32834694 0.055124804
-0.10305791 -0.32844919 0.055138119
-0.10324892 -0.3285706 0.05512137
-0.10340192 -0.32867548 0.055059746
-0.10356607 -0.32877415 0.055081151
-0.10372406 -0.32887593 0.05505874
-0.10392174 -0.32899457 0.055085819
-0.10408752 -0.32910392 0.055046074
-0.10424807 -0.32920602 0.055031724
-0.10440327 -0.32930768 0.054998934
-0.1045756 -0.32941765 0.054981098
-0.10474857 -0.32952601 0.054975942
-0.10491187 -0.3296302 0.054959275
-0.10507113 -0.32973403 0.05492878
-0.10524249 -0.32983902 0.054938633
-0.10541654 -0.32994768 0.054935783
-0.10558964 -0.33005631 0.054929476
-0.10576409 -0.33015847 0.054969311
-0.10592147 -0.33027226 0.054868437
-0.10609233 -0.33037749 0.054874834
-0.10627997 -0.33049279 0.054883473
-0.10643941 -0.3306002 0.054831062
-0.10660598 -0.33070514 0.054822464
-0.10676836 -0.33080962 0.054800037
-0.10692757 -0.33091381 0.054767232
-0.1071207 -0.3310203 0.054853156
-0.10727699 -0.33113232 0.054759219
-0.10745385 -0.33124676 0.054730982
-0.10761128 -0.33134764 0.054712031
-0.10774995 -0.33144945 0.054613534
-0.10796631 -0.33156088 0.054759376
-0.10815378 -0.33167845 0.054753024
-0.10831028 -0.33178732 0.054679852
-0.10846838 -0.33189008 0.05465167
-0.1086363 -0.33199731 0.054633841
-0.10882713 -0.3321155 0.054636709
-0.10898796 -0.33222342 0.054586589
-0.10913306 -0.33231828 0.054557297
-0.10933273 -0.33243632 0.054595899
-0.10951535 -0.3325536 0.054572254
-0.10969964 -0.33266807 0.054572832
-0.10985211 -0.3327657 0.054555058
-0.11003241 -0.33287972 0.054542951
-0.1101603 -0.33297682 0.054431796
-0.11034685 -0.33308724 0.054466985
-0.11050917 -0.33318952 0.054458398
-0.11070973 -0.33330682 0.054505073
-0.11087269 -0.33342445 0.054401886
-0.1110573 -0.33353642 0.054419771
-0.11121879 -0.33363727 0.054416958
-0.11137716 -0.33374366 0.054366849
-0.11157635 -0.33386266 0.054397382
-0.11172305 -0.33396125 0.054350775
-0.11192955 -0.33408609 0.054373205
-0.11207964 -0.33418679 0.05432659
-0.1122646 -0.33430225 0.054323707
-0.11243293 -0.33440462 0.054338172
-0.11259142 -0.33451417 0.054268453
-0.11277752 -0.33462414 0.054304793
-0.11293772 -0.33473405 0.05423969
-0.11310859 -0.33484292 0.054222997
-0.11329272 -0.3349542 0.054243196
-0.11345106 -0.33506095 0.054190785
-0.11363467 -0.33517227 0.054208666
-0.1138048 -0.33527979 0.054197758
-0.1139736 -0.33539283 0.054146465
-0.11415744 -0.33551016 0.054127429
-0.11432923 -0.33561668 0.054129206
-0.11448523 -0.33571887 0.054096408
-0.11467265 -0.33583274 0.054113127
-0.11486308 -0.3359558 0.05408369
-0.11500509 -0.33605823 0.053994413
-0.11520097 -0.33616969 0.054059561
-0.11537706 -0.33628166 0.054044016
-0.11555213 -0.33639205 0.054034241
-0.11570303 -0.33649486 0.053977236
-0.11589455 -0.33661842 0.053948954
-0.11599052 -0.33670878 0.053754833
-0.11623701 -0.33683243 0.05394211
-0.11641165 -0.33694437 0.053920798
-0.11658526 -0.33705479 0.053905264
-0.11678198 -0.33717555 0.053915031
-0.11694594 -0.33728269 0.053882215
-0.11712616 -0.33739737 0.053865496
-0.11726786 -0.33749303 0.053817756
-0.036612887 -0.2912114 0.029377617
-0.036782335 -0.2913329 0.029275578
-0.036946967 -0.29145011 0.029181644
-0.037116293 -0.29156786 0.029102683
-0.037275761 -0.2916764 0.029043352
-0.037437573 -0.2917884 0.028971333
-0.037595399 -0.29189298 0.028930474
-0.037753236 -0.29199776 0.028888453
-0.037909899 -0.29210109 0.028851058
-0.038066335 -0.29220426 0.028813653
-0.038218394 -0.29230145 0.028797027
-0.03836982 -0.29239786 0.028782714
-0.038518164 -0.29249215 0.02876956
-0.038669277 -0.29258838 0.028755238
-0.038821802 -0.29268676 0.028732844
-0.038968775 -0.29277948 0.028724313
-0.039118294 -0.2928738 0.028715763
-0.039261881 -0.29296187 0.028723391
-0.039405864 -0.29304835 0.028742537
-0.039550852 -0.29313639 0.02875592
-0.039696418 -0.29322532 0.028765852
-0.039833471 -0.29330185 0.028820774
-0.039975904 -0.29338628 0.028846852
-0.040111892 -0.29346123 0.028907558
-0.040256366 -0.29354876 0.028922092
-0.040394522 -0.29362926 0.028956264
-0.040527362 -0.29369715 0.029049264
-0.040657036 -0.29376489 0.029130746
-0.040791318 -0.29383475 0.029216824
-0.040924877 -0.29390344 0.029307522
-0.041055672 -0.29397026 0.02939938
-0.041186567 -0.2940371 0.029491235
-0.04131639 -0.29410219 0.029590016
-0.041447923 -0.29416981 0.029679563
-0.041574445 -0.29422957 0.029799119
-0.041705184 -0.29429322 0.029910576
-0.041830346 -0.29435304 0.030024365
-0.041959871 -0.29441449 0.030145064
-0.042084798 -0.29447362 0.030262314
-0.042218309 -0.294541 0.030361082
-0.042331055 -0.29457268 0.030604091
-0.042448971 -0.29461998 0.030768648
-0.042568471 -0.29466951 0.030925132
-0.0426878 -0.29471585 0.031101216
-0.042808667 -0.29476169 0.03128653
-0.039601378 -0.28806156 0.061041906
-0.039781231 -0.28817382 0.061039038
-0.039972994 -0.28829935 0.060999215
-0.04015737 -0.28841609 0.060985945
-0.040280368 -0.2884711 0.061121661
-0.040526308 -0.28865039 0.060954798
-0.040711351 -0.28876883 0.060933456
-0.040894769 -0.28888461 0.060922496
-0.041083656 -0.28901017 0.060871162
-0.041266724 -0.28912571 0.060860202
-0.04144682 -0.28923613 0.060870014
-0.041620068 -0.28934211 0.060881004
-0.041814771 -0.2894713 0.060829636
-0.041985393 -0.28957674 0.060833715
-0.04217476 -0.28969273 0.060844656
-0.042311918 -0.28976494 0.060927264
-0.04254495 -0.28993347 0.060777746
-0.042713307 -0.29003933 0.060770292
-0.042887442 -0.29016429 0.060664792
-0.043097407 -0.2902911 0.060688354
-0.043278702 -0.29040539 0.060678549
-0.043463849 -0.29052716 0.060636453
-0.043645535 -0.29064259 0.060620882
-0.043824289 -0.29075253 0.060628396
-0.044003502 -0.29086351 0.06063129
-0.044189595 -0.29098806 0.060575347
-0.044367861 -0.29109752 0.060584001
-0.044553418 -0.29122156 0.060529213
-0.044730499 -0.291329 0.060545962
-0.0449095 -0.2914404 0.060545396
-0.045077842 -0.29154861 0.060522944
-0.045270886 -0.29167056 0.06051081
-0.045453981 -0.29179087 0.060469866
-0.045631707 -0.29190037 0.060476225
-0.045802988 -0.29200602 0.060481451
-0.045994665 -0.29213551 0.060416266
-0.046169177 -0.29224354 0.060419172
-0.046351153 -0.29235789 0.060411677
-0.046531446 -0.2924737 0.06038804
-0.046711344 -0.29258895 0.060366713
-0.046887957 -0.29269719 0.060376544
-0.047069896 -0.29281732 0.060332134
-0.047244959 -0.29293284 0.060290065
-0.047423556 -0.29304087 0.060309108
-0.047601536 -0.29315817 0.060267031
-0.047762062 -0.29325733 0.060271136
-0.047942664 -0.29336497 0.060300555
-0.048140027 -0.29350621 0.060183447
-0.048310604 -0.2936129 0.06017945
-0.048494618 -0.29371792 0.060238842
-0.048660956 -0.29381466 0.060280997
-0.048823617 -0.29392555 0.060219355
-0.049011506 -0.29404593 0.060196847
-0.049204856 -0.29416823 0.060183547
-0.049386546 -0.2942917 0.060117245
-0.049558364 -0.29439679 0.060128227
-0.049740769 -0.29451665 0.060087286
-0.049918402 -0.29463086 0.060063668
-0.050066158 -0.29474339 0.059932865
-0.050263919 -0.29486006 0.05997261
-0.05041888 -0.29494739 0.06002979
-0.050620809 -0.29507521 0.060015321
-0.050802447 -0.29519498 0.05997207
-0.050960921 -0.2952852 0.060024619
-0.051129822 -0.29539067 0.060021788
-0.051323563 -0.29551741 0.059981957
-0.051503249 -0.29563999 0.059913345
-0.051677898 -0.29574847 0.059913948
-0.051851735 -0.29586214 0.059878796
-0.0520299 -0.29597408 0.059871316
-0.052195959 -0.29607248 0.059901938
-0.052378152 -0.29619718 0.059829861
-0.052545238 -0.29630697 0.059792422
-0.052715551 -0.29641131 0.059802271
-0.052899249 -0.29652599 0.059799381
-0.0530793 -0.29664567 0.059750378
-0.053251825 -0.29675797 0.059718691
-0.053423706 -0.2968598 0.059750445
-0.053594608 -0.2969583 0.0597995
-0.053769961 -0.29707214 0.05976896
-0.053922333 -0.29716951 0.05975233
-0.054116592 -0.29729587 0.059717115
-0.054292254 -0.2974121 0.059672743
-0.054464169 -0.29751489 0.059698723
-0.054632071 -0.29762247 0.059678584
-0.054767668 -0.29770756 0.059673548
-0.05498144 -0.29785043 0.059610598
-0.05515926 -0.29796711 0.059571978
-0.055329807 -0.29807633 0.059551828
-0.055497222 -0.29818395 0.05952939
-0.055675976 -0.29829463 0.059532285
-0.055850033 -0.2984086 0.059495986
-0.056011312 -0.29851425 0.059462026
-0.056192577 -0.29862502 0.059474144
-0.056364931 -0.29873246 0.059472449
-0.056541398 -0.29886034 0.05935771
-0.056706738 -0.29894733 0.059457533
-0.056881126 -0.29906625 0.059391242
-0.057052676 -0.299171 0.059403386
-0.057218879 -0.29927695 0.059386719
-0.057385202 -0.29938412 0.059363123
-0.057558469 -0.29949975 0.059312988
-0.057738751 -0.29960793 0.059337795
-0.057901815 -0.29971397 0.059308439
-0.058072984 -0.29981828 0.059321746
-0.058229398 -0.29991871 0.059301652
-0.05841786 -0.30004546 0.059241071
-0.058581688 -0.30013901 0.059293613
-0.058763966 -0.30026412 0.059219226
-0.058932103 -0.30036947 0.059214085
-0.059104998 -0.30049127 0.059123576
-0.059277989 -0.30058998 0.059179544
-0.05944556 -0.30069169 0.059195168
-0.059616733 -0.30080056 0.059179626
-0.059768405 -0.30088928 0.059214912
-0.059949525 -0.30101258 0.059147447
-0.060104974 -0.30111223 0.059128501
-0.060266592 -0.30121624 0.059106078
-0.060455933 -0.30133626 0.059091642
-0.060620423 -0.30144134 0.059073821
-0.060806319 -0.30155611 0.059079006
-0.060973898 -0.30166623 0.059041567
-0.061144307 -0.30177462 0.05902604
-0.061314642 -0.30188298 0.059010509
-0.061466157 -0.30197236 0.059041172
-0.061639603 -0.30208921 0.058984108
-0.061812785 -0.30219734 0.058981262
-0.061992127 -0.30231768 0.058925338
-0.062152799 -0.30241311 0.058953665
-0.062316529 -0.302517 0.058940463
-0.062486283 -0.30262882 0.058900706
-0.062640518 -0.30272955 0.058870241
