# .PCD v0.7 - Point Cloud Data file format
VERSION 0.7
FIELDS x y z
SIZE 4 4 4
TYPE F F F
COUNT 1 1 1
WIDTH 1290
HEIGHT 1
VIEWPOINT 0 0 0 1 0 0 0
POINTS 1290
DATA ascii
-0.24238831 -0.39020121 0.054729898
-0.2425867 -0.39026129 0.054673541
-0.24277693 -0.39031193 0.054669127
-0.24296142 -0.39035913 0.054678585
-0.24312878 -0.39040551 0.054661598
-0.24335498 -0.39047343 0.054601647
-0.24353743 -0.39051846 0.05462265
-0.24372572 -0.3905673 0.054627474
-0.24391994 -0.39062354 0.05459075
-0.2441173 -0.39068383 0.054530941
-0.24430273 -0.39072949 0.05455308
-0.24449694 -0.3907862 0.054512899
-0.24468385 -0.39083385 0.054523498
-0.24487068 -0.39088151 0.054534093
-0.24506378 -0.3909373 0.054498523
-0.24525514 -0.390991 0.054474503
-0.24543874 -0.39103469 0.054507036
-0.24563265 -0.39109197 0.054462239
-0.24580503 -0.39114311 0.054421004
-0.2460165 -0.3912057 0.05437151
-0.24620233 -0.39125273 0.054384422
-0.2463918 -0.39130479 0.054368474
-0.24658656 -0.39136428 0.054309838
-0.24677123 -0.39141002 0.054329671
-0.24695832 -0.3914592 0.054329891
-0.24714042 -0.39150542 0.05434167
-0.24731372 -0.39154723 0.054368481
-0.24751502 -0.39160079 0.054364018
-0.2477044 -0.39165771 0.054313477
-0.247895 -0.39171252 0.054280229
-0.2480869 -0.39176944 0.054234281
-0.24827316 -0.39181823 0.054235652
-0.24846041 -0.39186856 0.054227807
-0.24865052 -0.3919234 0.054193404
-0.24883702 -0.3919729 0.054190166
-0.24902686 -0.39202765 0.054155763
-0.24921615 -0.39208177 0.054124832
-0.24939787 -0.39212418 0.054163147
-0.24958682 -0.39217806 0.054133367
-0.24975841 -0.39221811 0.054169409
-0.24993061 -0.39227307 0.054100495
-0.25010425 -0.39230719 0.054182671
-0.25028253 -0.39235824 0.054152947
-0.25050008 -0.39243653 0.054003078
-0.25070089 -0.39249206 0.053983618
-0.25089377 -0.3925392 0.054009177
-0.25107777 -0.39258608 0.054019801
-0.25125837 -0.39262706 0.054066185
-0.25145677 -0.39269948 0.053922169
-0.25163457 -0.39273566 0.053997409
-0.2518262 -0.39279673 0.05392148
-0.25198582 -0.39283168 0.053971428
-0.25219247 -0.39289394 0.053915031
-0.2523796 -0.39294749 0.053884111
-0.25256366 -0.39299539 0.053887803
-0.25275016 -0.39304814 0.053861495
-0.25293469 -0.39309728 0.05385711
-0.25312269 -0.39315334 0.053810041
-0.2533063 -0.39320093 0.053814884
-0.25348914 -0.39324704 0.053828962
-0.25367665 -0.39330897 0.05373922
-0.25383434 -0.39334631 0.053768411
-0.25404724 -0.39340603 0.053741977
-0.25422472 -0.39344746 0.053779148
-0.25440547 -0.39348945 0.053818613
-0.25459212 -0.3935445 0.05377616
-0.25477609 -0.39359382 0.053769477
-0.25496405 -0.39365247 0.053703949
-0.2551493 -0.39370519 0.053675335
-0.25533158 -0.39375114 0.053689424
-0.25550514 -0.39379805 0.053680483
-0.25565639 -0.39384231 0.05364858
-0.25583106 -0.39388463 0.053674243
-0.25602645 -0.39394879 0.05358329
-0.25619262 -0.39397737 0.053690888
-0.25638473 -0.39405769 0.053478856
-0.25661579 -0.39411294 0.053518064
-0.25679964 -0.39415592 0.053556368
-0.25697848 -0.39420193 0.053563543
-0.25715968 -0.39425489 0.053525724
-0.25733605 -0.39430302 0.053513311
-0.2575345 -0.39436215 0.053463884
-0.25771484 -0.39440402 0.053503342
-0.25790319 -0.39446133 0.053448193
-0.25807437 -0.39450371 0.053466946
-0.25826964 -0.39456409 0.053402536
-0.2584177 -0.39460218 0.053408716
-0.25860518 -0.39465827 0.053360492
-0.25879377 -0.39470765 0.053361852
-0.25897473 -0.39475212 0.053384013
-0.25916517 -0.39480865 0.053338081
-0.25936344 -0.39485964 0.053346314
-0.25954202 -0.39490739 0.053340808
-0.259727 -0.39495584 0.053342197
-0.25990862 -0.39500338 0.053343594
-0.26007092 -0.39504975 0.053317405
-0.26027668 -0.39510691 0.05329562
-0.26045716 -0.39516521 0.053218588
-0.26062086 -0.39520416 0.053247761
-0.26082376 -0.39526448 0.0531983
-0.26098847 -0.39530921 0.053188253
-0.26114702 -0.39535522 0.053157475
-0.26136801 -0.39541122 0.05317251
-0.26155224 -0.39545816 0.053183131
-0.26172709 -0.39550704 0.053162649
-0.26190808 -0.39555442 0.053164046
-0.26209766 -0.39561772 0.053068519
-0.2622807 -0.39565688 0.053132195
-0.26246226 -0.39570996 0.053094383
-0.26264396 -0.39576581 0.053036958
-0.26281145 -0.39581126 0.053026892
-0.26299477 -0.39585167 0.053082488
-0.26318926 -0.39590731 0.053050373
-0.26337045 -0.39596206 0.052999876
-0.26355106 -0.39600986 0.05299782
-0.26372528 -0.39606211 0.052951969
-0.26388574 -0.39610508 0.052946553
-0.26409271 -0.39615428 0.052983582
-0.2642597 -0.39619425 0.053011578
-0.26441669 -0.39623275 0.053031549
-0.26459411 -0.39630044 0.052881878
-0.26481444 -0.3963587 0.052879624
-0.26498801 -0.39640155 0.052899513
-0.26515156 -0.3964445 0.052899849
-0.26534829 -0.39650416 0.052843511
-0.26554513 -0.39655492 0.0528506
-0.26572499 -0.39660835 0.052807018
-0.26590481 -0.39665997 0.052776136
-0.26607156 -0.39670232 0.052786831
-0.26624164 -0.39674571 0.05279636
-0.2664274 -0.39680603 0.052714705
-0.26661 -0.39686069 0.052667655
-0.26679388 -0.39690137 0.052722089
-0.26699144 -0.39694342 0.052792612
-0.26714137 -0.39698294 0.052791864
-0.26733056 -0.39703849 0.05275055
-0.26750678 -0.39708692 0.052735828
-0.267683 -0.39713517 0.052722264
-0.26787111 -0.39719564 0.052644044
-0.26804402 -0.39724171 0.052639715
-0.2682271 -0.39728934 0.052643426
-0.26842204 -0.3973482 0.052589387
-0.26861522 -0.39739734 0.05260111
-0.26879668 -0.39745232 0.052549455
-0.26897615 -0.3974998 0.052547403
-0.26915729 -0.39753979 0.052601863
-0.26932532 -0.39759091 0.052552581
-0.26947355 -0.39763567 0.052511469
-0.26964554 -0.39768425 0.052487541
-0.26987725 -0.39774859 0.052463319
-0.27003631 -0.39779183 0.052453298
-0.27020469 -0.39782748 0.052514739
-0.27037883 -0.39788035 0.052464269
-0.27055877 -0.39793721 0.052396469
-0.2707729 -0.39797679 0.052515354
-0.27096409 -0.39802122 0.052557077
-0.2711015 -0.39805371 0.052582912
-0.27127504 -0.39809719 0.052598193
-0.27144256 -0.39814737 0.052554686
-0.27161807 -0.39820516 0.05247191
-0.27179316 -0.39826348 0.05238454
-0.2719692 -0.39831883 0.052320212
-0.27215052 -0.3983697 0.052297398
-0.27233368 -0.39841607 0.052310325
-0.27250907 -0.39848924 0.052117977
-0.27267349 -0.3985441 0.052035268
-0.27286461 -0.39858848 0.052076995
-0.27306962 -0.39864334 0.052070197
-0.27324924 -0.39867321 0.052193869
-0.2734645 -0.39873043 0.052189332
-0.27362356 -0.39875746 0.052294642
-0.27378848 -0.39881781 0.052173872
-0.27396595 -0.39887515 0.052098017
-0.27417621 -0.39892736 0.052120022
-0.27433962 -0.39896831 0.052134208
-0.27450731 -0.39901528 0.052113757
-0.27469578 -0.39905915 0.052154336
-0.27488229 -0.39911318 0.052118801
-0.27506533 -0.39916649 0.052082133
-0.27524215 -0.39921084 0.052097395
-0.27542394 -0.39925975 0.052089565
-0.2756159 -0.399317 0.052041318
-0.27577218 -0.39935723 0.052047458
-0.27594554 -0.39939517 0.052101955
-0.27614561 -0.39945179 0.05207327
-0.27632114 -0.3994984 0.052070089
-0.2764962 -0.39954004 0.052101504
-0.27668962 -0.39960596 0.051994432
-0.27685234 -0.39964285 0.052036297
-0.27705136 -0.39970604 0.051959172
-0.27721918 -0.39975223 0.051944494
-0.27739328 -0.39978483 0.052038204
-0.27756202 -0.39983517 0.051995836
-0.2777251 -0.39988238 0.051965035
-0.27789158 -0.39995044 0.051792346
-0.27807888 -0.40000209 0.051775262
-0.2782779 -0.40004435 0.051846929
-0.27846158 -0.40010041 0.051791802
-0.27863479 -0.40014479 0.051800169
-0.27880654 -0.40018618 0.051826991
-0.27899224 -0.40021649 0.051958703
-0.27916533 -0.40025678 0.0519959
-0.27934891 -0.40033111 0.05181044
-0.27951878 -0.40038386 0.051753074
-0.2796981 -0.40043521 0.051723342
-0.27986497 -0.4004865 0.0516706
-0.28006685 -0.40054443 0.051636148
-0.28024137 -0.40059191 0.051624894
-0.28042737 -0.40063202 0.051687397
-0.28060752 -0.40067402 0.051725715
-0.28077814 -0.40074202 0.051561084
-0.28094006 -0.40078944 0.051526818
-0.2811006 -0.40083808 0.051481035
-0.28129214 -0.40087739 0.051559664
-0.28146318 -0.40092817 0.05151844
-0.28164721 -0.40097862 0.051503677
-0.28183892 -0.4010222 0.051552318
-0.28201777 -0.40107358 0.051521439
-0.28219235 -0.40112108 0.051510185
-0.28238782 -0.40116549 0.051559955
-0.28257737 -0.40121514 0.051561311
-0.28275478 -0.40126774 0.051518902
-0.28293487 -0.40132529 0.05144649
-0.28308943 -0.40136766 0.051434185
-0.28328848 -0.40142387 0.051406667
-0.28347775 -0.40145966 0.051506061
-0.28363344 -0.40151176 0.05142685
-0.28380981 -0.4015649 0.051378682
-0.2839905 -0.40161806 0.051338565
-0.28416008 -0.40166262 0.05133887
-0.28434649 -0.40170804 0.051364467
-0.28452975 -0.40175927 0.051342793
-0.28469872 -0.40180773 0.051314261
-0.28489149 -0.40185529 0.051336363
-0.2850776 -0.40190777 0.051311217
-0.28525788 -0.40195465 0.051314928
-0.28542128 -0.40201655 0.051180318
-0.28554478 -0.40207717 0.050980162
-0.28575039 -0.40211597 0.051088713
-0.28596184 -0.40216362 0.051145323
-0.28614393 -0.40220937 0.051160563
-0.28632015 -0.40225601 0.051158525
-0.28648761 -0.40230227 0.051142685
-0.28667855 -0.40234855 0.051170569
-0.28685835 -0.40239304 0.051190436
-0.28702232 -0.40245345 0.051067352
-0.28721991 -0.40250459 0.051073287
-0.28740281 -0.40255314 0.051070068
-0.28757849 -0.40260029 0.051063418
-0.28773788 -0.40264571 0.051038399
-0.28791115 -0.40268862 0.051057141
-0.28810573 -0.4027333 0.051103458
-0.28829578 -0.40278357 0.051101353
-0.28847262 -0.40283588 0.05106011
-0.28865838 -0.40288305 0.05107186
-0.28882456 -0.4029358 0.051007595
-0.28901541 -0.40298027 0.05104816
-0.28919128 -0.40301952 0.051098026
-0.28936931 -0.4030658 0.051101752
-0.28953692 -0.4031311 0.050950978
-0.28969494 -0.40319058 0.050823316
-0.28986073 -0.40323529 0.050815564
-0.29006362 -0.40327385 0.050920669
-0.29027227 -0.40331492 0.051018808
-0.29044759 -0.40337056 0.050951038
-0.29063794 -0.40342626 0.050910875
-0.29080248 -0.40348455 0.050803944
-0.29097185 -0.40353277 0.050777718
-0.2911495 -0.40357947 0.050777987
-0.29133576 -0.40362209 0.050823182
-0.29153997 -0.4036662 0.050891362
-0.29171148 -0.40372342 0.050805159
-0.29190266 -0.40377384 0.050804209
-0.29206413 -0.40382338 0.050753802
-0.29225719 -0.403873 0.050762057
-0.29243562 -0.40391728 0.050780773
-0.29259089 -0.40396959 0.050699271
-0.2927922 -0.40401569 0.050747853
-0.2929644 -0.40406758 0.050700862
-0.2931498 -0.40411839 0.050686095
-0.2933397 -0.40416732 0.050693218
-0.29350066 -0.40421936 0.050624359
-0.29368177 -0.40426517 0.050637294
-0.29387811 -0.40431383 0.05065823
-0.29404595 -0.40436298 0.050622787
-0.29424247 -0.40441623 0.050611421
-0.29441079 -0.40446517 0.050578289
-0.29459077 -0.40451393 0.050568163
-0.29475799 -0.40456107 0.050545409
-0.29495233 -0.40460649 0.050585959
-0.2951223 -0.40466362 0.050497454
-0.29531419 -0.40471664 0.050479196
-0.29547641 -0.40476575 0.050433405
-0.29566875 -0.40480787 0.050493568
-0.29587474 -0.40486008 0.050507538
-0.29605371 -0.40489674 0.050581612
-0.2962178 -0.40495589 0.050467756
-0.29638374 -0.40501213 0.050378118
-0.29658353 -0.40506253 0.050393268
-0.29675189 -0.40510952 0.050373968
-0.29695523 -0.40516296 0.050374109
-0.29711956 -0.40520728 0.050366361
-0.29730347 -0.40525723 0.050355062
-0.29748067 -0.40530947 0.050314963
-0.2976518 -0.40535361 0.050321028
-0.29784292 -0.40540934 0.050282013
-0.29804265 -0.40545422 0.050336368
-0.29821339 -0.40550867 0.050268624
-0.29839331 -0.40555415 0.050281562
-0.29856089 -0.40560758 0.050214984
-0.29873815 -0.40565595 0.050202563
-0.29889911 -0.40570748 0.050137177
-0.29911414 -0.40574616 0.050264124
-0.29930955 -0.4058027 0.050227396
-0.2994523 -0.40585592 0.05011595
-0.29963204 -0.40590754 0.050085068
-0.29980507 -0.4059554 0.050068051
-0.30002639 -0.40599674 0.05018805
-0.30023012 -0.40604722 0.0502101
-0.30044603 -0.40608487 0.05034627
-0.30058879 -0.40615672 0.050102193
-0.30075881 -0.40620381 0.050085202
-0.3009153 -0.40625286 0.050029054
-0.30109769 -0.40630209 0.050020069
-0.30129468 -0.40635288 0.050027154
-0.30149734 -0.40640405 0.050042294
-0.30166277 -0.40645984 0.049954962
-0.30183887 -0.40650547 0.049959842
-0.30199724 -0.4065558 0.049897924
-0.30219281 -0.40660542 0.049910787
-0.30236235 -0.40665823 0.049852274
-0.30254561 -0.40670753 0.049844436
-0.30273247 -0.4067542 0.04986196
-0.302944 -0.4067983 0.049943939
-0.30310369 -0.40685013 0.049873937
-0.30330318 -0.40689918 0.049898319
-0.30349541 -0.40695879 0.049833924
-0.30367669 -0.40700886 0.049816869
-0.30384675 -0.40705645 0.04979641
-0.30402401 -0.40710238 0.049801286
-0.30420604 -0.40715408 0.04977385
-0.30439994 -0.40720651 0.049763657
-0.30459991 -0.40725082 0.049822636
-0.30479258 -0.4072935 0.049879335
-0.30495703 -0.40734431 0.049825456
-0.30516982 -0.4073928 0.049878601
-0.30534321 -0.40745509 0.049760088
-0.3054938 -0.40750223 0.049706288
-0.30565935 -0.40755612 0.049632795
-0.30587727 -0.40759882 0.04973666
-0.30605203 -0.40764585 0.04972887
-0.30622819 -0.407709 0.049609184
-0.30642411 -0.40775663 0.049637042
-0.30663651 -0.40779769 0.049742091
-0.30680299 -0.40784985 0.049682442
-0.3069669 -0.40790573 0.049591657
-0.30716625 -0.40795457 0.049617186
-0.30734244 -0.40800801 0.049566709
-0.30751616 -0.40805396 0.049564682
-0.30770454 -0.40810508 0.049553361
-0.30789757 -0.40816328 0.049500499
-0.30807889 -0.40821108 0.049499586
-0.30826297 -0.40826157 0.049484827
-0.30846432 -0.40830737 0.049535729
-0.30862784 -0.4083586 0.049477234
-0.30882001 -0.40841398 0.049442831
-0.30901203 -0.40846476 0.049440715
-0.30921209 -0.40851572 0.049452398
-0.30939022 -0.40856141 0.049460739
-0.30956602 -0.40861976 0.049374513
-0.30974549 -0.40866983 0.049354009
-0.30990252 -0.40871918 0.049296707
-0.31010681 -0.40876818 0.049330287
-0.31030715 -0.40882248 0.049318906
-0.31049937 -0.40886763 0.049357157
-0.31067592 -0.40891841 0.049326289
-0.31085023 -0.40896955 0.049288504
-0.31104869 -0.40902284 0.049280591
-0.31123692 -0.40907928 0.049231213
-0.31139913 -0.40912351 0.049220018
-0.31155682 -0.40916997 0.049184635
-0.31174549 -0.40922198 0.049167544
-0.31197709 -0.4092764 0.049213666
-0.31214166 -0.40932775 0.049156327
-0.31233746 -0.40937743 0.04916919
-0.31253573 -0.4094297 0.049168203
-0.31274581 -0.40947893 0.049210984
-0.31290767 -0.40953505 0.049114443
-0.31309009 -0.40958542 0.049097382
-0.3132835 -0.40963432 0.049111404
-0.3134838 -0.40968519 0.049124245
-0.31366956 -0.40973952 0.049085252
-0.31385654 -0.40978947 0.049079705
-0.31405255 -0.40984392 0.049059119
-0.3142122 -0.4098933 0.049006421
-0.31440857 -0.40994638 0.048996206
-0.31459874 -0.40999749 0.048988346
-0.31478617 -0.41004902 0.048972409
-0.31497285 -0.41010067 0.048954178
-0.3151668 -0.41015148 0.048955511
-0.31534508 -0.41020563 0.048903871
-0.31552723 -0.41025656 0.048882205
-0.31573373 -0.4103047 0.048926152
-0.31591532 -0.41035581 0.048902176
-0.31612733 -0.41041708 0.048863057
-0.31632882 -0.41047278 0.048843592
-0.31645504 -0.41051403 0.048786443
-0.31667984 -0.41056454 0.048847605
-0.31687954 -0.4106206 0.048822381
-0.31707981 -0.41067129 0.04883638
-0.31727225 -0.4107269 0.048800815
-0.31745908 -0.4107765 0.048797578
-0.3176288 -0.41082788 0.048749439
-0.31784195 -0.41087353 0.048823334
-0.31801149 -0.41093561 0.048699085
-0.31821683 -0.41098747 0.048714198
-0.31839526 -0.4110342 0.048715618
-0.31859609 -0.41108796 0.048708845
-0.31875777 -0.41114292 0.04862038
-0.31896287 -0.41118985 0.048670102
-0.31917462 -0.41124019 0.048708256
-0.2186581 -0.38368532 0.056689948
-0.21887283 -0.38374421 0.056672715
-0.21908405 -0.38380072 0.056665879
-0.21927674 -0.38384408 0.056717962
-0.21952333 -0.38392434 0.056608304
-0.21974131 -0.38398603 0.056577217
-0.21994841 -0.38404 0.056580786
-0.22015531 -0.38409388 0.056584358
-0.22037783 -0.38415742 0.056548633
-0.22059934 -0.38422215 0.05650254
-0.22081323 -0.38428149 0.056480695
-0.22101025 -0.38432857 0.056514304
-0.22124341 -0.38440043 0.056439314
-0.22143422 -0.38444489 0.056479871
-0.22165751 -0.38450977 0.056436077
-0.22186819 -0.38456726 0.056421168
-0.2220827 -0.38462773 0.056392409
-0.22228718 -0.38468084 0.056397144
-0.22250456 -0.38474366 0.056356836
-0.222712 -0.38479918 0.056350019
-0.22291857 -0.38485411 0.056345522
-0.22312099 -0.38490602 0.056354884
-0.22334523 -0.38497457 0.056286857
-0.22353679 -0.38501844 0.056333177
-0.22375301 -0.38508111 0.056291714
-0.22395825 -0.38513556 0.056288376
-0.22416236 -0.38518921 0.056288503
-0.22437845 -0.38525221 0.056244735
-0.2245917 -0.38531312 0.05621022
-0.22479963 -0.38537008 0.056194171
-0.2249985 -0.38542005 0.056210466
-0.22521639 -0.38548499 0.056156315
-0.22542053 -0.38553929 0.05615183
-0.22563165 -0.38559917 0.056120772
-0.22585022 -0.38566509 0.056060847
-0.22603807 -0.38570681 0.056115266
-0.22623834 -0.38576043 0.056108493
-0.22642151 -0.38579851 0.056180224
-0.22665308 -0.38587531 0.056067187
-0.22685984 -0.38593242 0.056047685
-0.22706906 -0.38599166 0.056017797
-0.22726764 -0.38604239 0.056028336
-0.22748768 -0.38611063 0.055954561
-0.22768852 -0.38616341 0.055954702
-0.2278977 -0.38622311 0.055921353
-0.22809121 -0.38627008 0.055949211
-0.22829765 -0.38632777 0.055925105
-0.22849135 -0.38638338 0.055891834
-0.2287119 -0.3864446 0.055868804
-0.22890913 -0.38649499 0.055879351
-0.22910139 -0.38654554 0.055879533
-0.22931141 -0.38660252 0.055866938
-0.22950879 -0.38665327 0.055875175
-0.22970772 -0.3867054 0.055876471
-0.22992304 -0.38677368 0.055793501
-0.2301199 -0.38682431 0.055801731
-0.23032597 -0.38688284 0.055770706
-0.23052417 -0.38693479 0.055772014
-0.23071143 -0.38698837 0.055741079
-0.23089586 -0.38702857 0.055800132
-0.23113985 -0.3871161 0.055633962
-0.23133127 -0.38715586 0.055709124
-0.2315242 -0.38720366 0.055730067
-0.23173437 -0.3872667 0.055674803
-0.23193119 -0.3873181 0.055677261
-0.23215023 -0.38738933 0.05558043
-0.23234382 -0.38743809 0.055595599
-0.23253268 -0.3874827 0.055631559
-0.23273325 -0.38753787 0.055614397
-0.23293515 -0.38759434 0.055590313
-0.23314114 -0.38765466 0.055546604
-0.23334485 -0.38771307 0.055512123
-0.23351048 -0.38775334 0.05553551
-0.23374373 -0.38782248 0.055480134
-0.23394831 -0.38788208 0.055438731
-0.2341475 -0.38793689 0.055421576
-0.23433416 -0.3879801 0.055463314
-0.2345268 -0.38803867 0.055406976
-0.23473592 -0.38809332 0.055409387
-0.23493376 -0.38814726 0.055395696
-0.23513521 -0.38820478 0.055363547
-0.23531696 -0.38824362 0.05542722
-0.23552023 -0.38830304 0.055384666
-0.23571908 -0.38835841 0.055362906
-0.23591913 -0.38841504 0.055334222
-0.23612309 -0.38847563 0.055284746
-0.23630849 -0.38852337 0.055291891
-0.23651153 -0.38857821 0.055281635
-0.23670836 -0.38863224 0.05526565
-0.23690392 -0.38868508 0.055255432
-0.23710021 -0.38873878 0.055240612
-0.23729986 -0.38879597 0.055207312
-0.23749298 -0.38884673 0.055207491
-0.23768727 -0.38889879 0.055200737
-0.2378896 -0.38895911 0.055150121
-0.23807548 -0.38900277 0.055187251
-0.23827487 -0.38906035 0.055150494
-0.23847786 -0.38912183 0.055092957
-0.23867285 -0.38917518 0.05507813
-0.23885648 -0.38921681 0.055125639
-0.2390603 -0.38927963 0.055060029
-0.23924729 -0.38932487 0.05508792
-0.23944722 -0.38938391 0.055041932
-0.23961025 -0.38942659 0.055043411
-0.23983979 -0.38949472 0.054988049
-0.24003075 -0.38954458 0.054990552
-0.24022201 -0.38959485 0.054990739
-0.24038833 -0.38964146 0.054970287
-0.24060634 -0.38969764 0.054978423
-0.24079955 -0.38975039 0.054964758
-0.24100006 -0.38981137 0.054906081
-0.24118464 -0.38985467 0.054943211
-0.24138157 -0.38991195 0.054904155
-0.24157476 -0.38997132 0.054843202
-0.24194996 -0.39006847 0.054854006
-0.24215412 -0.39012846 0.054809146
-0.24234362 -0.39018428 0.05476667
-0.2425321 -0.39023268 0.05477494
-0.24269259 -0.39027709 0.054759145
-0.24291675 -0.39032906 0.054808766
-0.24308614 -0.39038104 0.054756001
-0.24330637 -0.39043829 0.054760665
-0.24350107 -0.39049464 0.054723918
-0.24369709 -0.39055282 0.054676801
-0.24388166 -0.39059711 0.054707013
-0.24406572 -0.3906408 0.054740686
-0.24425611 -0.39069927 0.054680899
-0.24445464 -0.39075777 0.054636076
-0.24462992 -0.39080107 0.054655947
-0.24479622 -0.39085057 0.054614745
-0.2450134 -0.39091223 0.054582506
-0.24521951 -0.39096335 0.054604538
-0.24540934 -0.39101502 0.054592047
-0.24559408 -0.39106745 0.054564588
-0.24579835 -0.39112747 0.054519728
-0.24598247 -0.39117196 0.05454763
-0.24617463 -0.39122733 0.054513216
-0.24636699 -0.39127937 0.054503024
-0.24655929 -0.39133525 0.054465141
-0.24670704 -0.39138409 0.05439404
-0.24692246 -0.39142567 0.054501373
-0.24711967 -0.39147702 0.054504991
-0.24730188 -0.39153123 0.05446025
-0.24749082 -0.3915872 0.054415464
-0.24768959 -0.39164123 0.054402933
-0.2478853 -0.39169511 0.054385796
-0.24807195 -0.39174417 0.054386009
-0.24825521 -0.39178827 0.054415077
-0.24844477 -0.39184183 0.054388743
-0.24863248 -0.39190137 0.054316293
-0.24881701 -0.39193898 0.054393791
-0.24895576 -0.39197201 0.054418467
-0.24920425 -0.39205536 0.054290339
-0.2493979 -0.39211178 0.054251298
-0.24958046 -0.39215538 0.05428268
-0.24976425 -0.39220092 0.05430251
-0.24995004 -0.39224973 0.054302726
-0.25013918 -0.39229947 0.054302923
-0.25033066 -0.39235789 0.054245442
-0.25050414 -0.39239618 0.05429763
-0.25071195 -0.39246801 0.054175481
-0.25090104 -0.3925232 0.054136466
-0.25108773 -0.39257455 0.054120533
-0.25127041 -0.39261898 0.054146133
-0.25145343 -0.39267439 0.054094464
-0.25163367 -0.39273033 0.054033577
-0.2518234 -0.39277729 0.054054536
-0.25199273 -0.39280829 0.054150566
-0.25220519 -0.39288655 0.053991478
-0.25240159 -0.39293525 0.054012403
-0.25258628 -0.39298409 0.054010324
-0.25277153 -0.39303425 0.054000158
-0.25295424 -0.39307952 0.054020002
-0.2531445 -0.39313388 0.053989056
-0.25332886 -0.39318267 0.05398697
-0.25351921 -0.39324373 0.053908732
-0.25370416 -0.3932941 0.053896267
-0.25389463 -0.39335001 0.053854942
-0.25404885 -0.39337981 0.053931437
-0.2542623 -0.39344049 0.053899221
-0.25444838 -0.39349392 0.053867146
-0.25463203 -0.39354217 0.05386737
-0.25481662 -0.3935928 0.053852595
-0.25500554 -0.39364651 0.05382397
-0.25518769 -0.39369178 0.053842656
-0.2553719 -0.39374197 0.053830195
-0.25555694 -0.39379433 0.053803891
-0.25572583 -0.393852 0.053709615
-0.25592932 -0.39389801 0.053762794
-0.2561157 -0.39395463 0.053708795
-0.25629783 -0.39400053 0.053722873
-0.25648496 -0.39405167 0.05370925
-0.25665948 -0.39410207 0.053677224
-0.25685292 -0.39415419 0.053668171
-0.25703502 -0.39420044 0.053679943
-0.25722468 -0.39425984 0.053612094
-0.25740626 -0.39430496 0.053630784
-0.25758913 -0.39435402 0.053624094
-0.25777262 -0.39440513 0.05360356
-0.25795758 -0.39445132 0.053621083
-0.25813994 -0.39449924 0.053621318
-0.25832364 -0.39455172 0.053591564
-0.25850409 -0.39460418 0.053556047
-0.25869232 -0.39465138 0.053572394
-0.25886834 -0.39469972 0.053557675
-0.25903684 -0.39474368 0.053560287
-0.25921068 -0.39479616 0.053512119
-0.25939634 -0.39484626 0.053503107
-0.25961182 -0.3949154 0.053414367
-0.25979623 -0.39496109 0.053434204
-0.259974 -0.39500538 0.053451754
-0.2601572 -0.39505985 0.053407006
-0.26033464 -0.39510289 0.053432636
-0.26051667 -0.39515269 0.053419031
-0.26068386 -0.39519206 0.053451639
-0.260865 -0.39525443 0.053346924
-0.26106918 -0.3953042 0.05337473
-0.26123807 -0.39535359 0.053339273
-0.2614302 -0.39540848 0.053308316
-0.26159778 -0.39545089 0.053320158
-0.26178181 -0.3954955 0.053346913
-0.26197764 -0.39555511 0.05328941
-0.26217014 -0.39561543 0.053220388
-0.26235437 -0.39566255 0.053229839
-0.26252261 -0.39571226 0.053190932
-0.26271674 -0.39576167 0.053202644
-0.26289755 -0.39580786 0.05321211
-0.26308209 -0.3958596 0.05318927
-0.26326302 -0.39590845 0.053180285
-0.26343235 -0.39593267 0.053324752
-0.26360762 -0.39599511 0.05320853
-0.26380244 -0.39605814 0.05312451
-0.26398939 -0.39609805 0.053190455
-0.26417342 -0.39614525 0.053198759
-0.26431412 -0.39618805 0.05315768
-0.26448512 -0.39625436 0.053005721
-0.26467216 -0.39629558 0.053062454
-0.26485598 -0.39633805 0.053104203
-0.2650398 -0.39638734 0.053097513
-0.26523331 -0.39645618 0.052969664
-0.2654238 -0.3964996 0.053017139
-0.26560429 -0.39654362 0.053041603
-0.26576492 -0.39657837 0.053095005
-0.26593155 -0.39663023 0.053037655
-0.26610446 -0.39668685 0.052958351
-0.26629412 -0.39674416 0.052905496
-0.26649708 -0.39680353 0.052862942
-0.26670066 -0.39685526 0.052875765
-0.26687092 -0.3968977 0.052892201
-0.26705486 -0.39694104 0.052928187
-0.26723021 -0.39699861 0.052846558
-0.2674194 -0.39705434 0.052804083
-0.2676138 -0.39709699 0.052864239
-0.26778147 -0.39713407 0.052914146
-0.26792809 -0.3971729 0.052912254
-0.26812759 -0.39724869 0.052746311
-0.26831493 -0.39729273 0.052783426
-0.26848912 -0.397333 0.052822918
-0.26867586 -0.39738095 0.052831203
-0.26888078 -0.39744258 0.052775964
-0.26904997 -0.39748996 0.052755501
-0.26922938 -0.39753872 0.052744221
-0.26939407 -0.39758959 0.052690327
-0.2695815 -0.39763418 0.052723985
-0.26977199 -0.39769444 0.052651525
-0.26992199 -0.39773253 0.052661143
-0.27011618 -0.39779136 0.052605957
-0.27030605 -0.3978278 0.052701879
-0.27046779 -0.39787483 0.052669924
-0.2706449 -0.39792997 0.052609053
-0.27082524 -0.39797476 0.052627757
-0.27099657 -0.3980141 0.052668411
-0.27118251 -0.39806393 0.052661709
-0.27139878 -0.39813069 0.052591421
-0.2715871 -0.39818358 0.0525674
-0.27174199 -0.39822817 0.05254009
-0.27190232 -0.39826801 0.052556582
-0.27209109 -0.39832863 0.052478351
-0.2722744 -0.39837518 0.052490115
-0.27244699 -0.39842102 0.052486941
-0.27262068 -0.39846423 0.052504517
-0.27281517 -0.39851925 0.05247701
-0.27298322 -0.39856678 0.052453101
-0.2731773 -0.39861441 0.05247749
-0.27336067 -0.39866892 0.052432742
-0.27353868 -0.39871877 0.052411083
-0.27371421 -0.39876604 0.052403271
-0.27389696 -0.39882118 0.052352764
-0.27406117 -0.3988682 0.052325405
-0.27424383 -0.39891607 0.052326795
-0.27442512 -0.39896646 0.052307427
-0.27460936 -0.39901146 0.052331872
-0.27479386 -0.39906287 0.052311331
-0.27496198 -0.39910945 0.052294344
-0.27513221 -0.3991589 0.052261185
-0.2753112 -0.39920008 0.05230296
-0.27548677 -0.39924702 0.052297458
-0.27567232 -0.39929661 0.052291907
-0.27585417 -0.39935187 0.05223909
-0.27603295 -0.39940563 0.0521909
-0.27621081 -0.3994548 0.05217386
-0.27639163 -0.39951107 0.052111819
-0.27657184 -0.39955667 0.05212475
-0.27675459 -0.39960435 0.052127291
-0.27693141 -0.39964935 0.052137937
-0.27711579 -0.39969489 0.052158911
-0.2772952 -0.39974722 0.052122261
-0.27746567 -0.39979541 0.052098334
-0.27765131 -0.39983949 0.052131996
-0.27783588 -0.39988005 0.052188739
-0.27800596 -0.39993885 0.052088685
-0.27818221 -0.39999473 0.052020904
-0.27836934 -0.40004212 0.052033797
-0.27855068 -0.40008685 0.0520548
-0.27873221 -0.40014574 0.051975451
-0.27891481 -0.40020314 0.051908787
-0.27908653 -0.40024486 0.051933303
-0.27926192 -0.40029174 0.051927805
-0.27943379 -0.40033802 0.051920019
-0.27961457 -0.4003925 0.051870666
-0.27978835 -0.4004367 0.051881321
-0.27996042 -0.40047836 0.051906984
-0.2801483 -0.40052968 0.051893346
-0.28032318 -0.40058148 0.0518521
-0.28048483 -0.40063804 0.051752087
-0.28067499 -0.40068689 0.051760361
-0.28087062 -0.40073457 0.051787056
-0.28103596 -0.40077898 0.051780455
-0.28122646 -0.40082774 0.051789876
-0.28143021 -0.40088406 0.051770389
-0.28159311 -0.40092686 0.051770728
-0.28178191 -0.40098119 0.05173748
-0.28195265 -0.40102085 0.051774677
-0.28213537 -0.40107292 0.051746078
-0.28231543 -0.40112349 0.05172326
-0.2824997 -0.40117419 0.051707327
-0.28267473 -0.40121791 0.051723752
-0.28283048 -0.4012742 0.051614553
-0.28300604 -0.40133202 0.051531777
-0.28318298 -0.40137413 0.051563177
-0.28336865 -0.40141645 0.051609527
-0.28356004 -0.40146497 0.051622402
-0.28374097 -0.40150779 0.051656101
-0.28390336 -0.40156862 0.051527254
-0.28409269 -0.40160507 0.051622033
-0.28428212 -0.40165195 0.051642992
-0.28445625 -0.40169689 0.051649034
-0.28463903 -0.40174216 0.051668867
-0.28481159 -0.40181151 0.051498458
-0.28499416 -0.4018569 0.051517144
-0.28516868 -0.4019016 0.051525488
-0.2853412 -0.40195099 0.051496942
-0.28552845 -0.40199971 0.051500611
-0.28572088 -0.4020386 0.051583834
-0.28588626 -0.40209925 0.05146189
-0.28606984 -0.40213808 0.051529016
-0.28626508 -0.40219101 0.051517658
-0.2864379 -0.40225556 0.051381834
-0.28660628 -0.4023045 0.051348701
-0.28677592 -0.40235263 0.051323615
-0.28697208 -0.40240192 0.051339932
-0.28714439 -0.40244541 0.0513529
-0.28733966 -0.40249836 0.051341534
-0.28751862 -0.40254959 0.051311802
-0.28768179 -0.4025988 0.051267147
-0.28786722 -0.40264037 0.051318116
-0.28805554 -0.40269184 0.051304482
-0.28824767 -0.40273827 0.051333498
-0.28841433 -0.40279666 0.051230006
-0.28858346 -0.40284514 0.051201474
-0.28876472 -0.40288952 0.051224783
-0.2889249 -0.40294847 0.051105175
-0.28908715 -0.40300065 0.051037461
-0.28926942 -0.40303913 0.05110459
-0.28946799 -0.40307707 0.05120625
-0.28965709 -0.40312564 0.051214516
-0.2898379 -0.40317866 0.05117555
-0.29002109 -0.40322778 0.051168859
-0.29020932 -0.40327433 0.051189817
-0.29037628 -0.40332663 0.051130157
-0.2905589 -0.40338126 0.051083103
-0.29073742 -0.40342769 0.051086813
-0.29092515 -0.40347978 0.051067419
-0.29109752 -0.40352929 0.05103771
-0.29126826 -0.40358207 0.050981492
-0.29144275 -0.40362307 0.051016361
-0.2916261 -0.40367481 0.050991215
-0.29178467 -0.40372345 0.050941974
-0.29199386 -0.40376076 0.051067799
-0.29217398 -0.40382138 0.050973468
-0.29236278 -0.40387797 0.050924074
-0.29252884 -0.4039208 0.050930154
-0.29269928 -0.40397125 0.050890081
-0.29289058 -0.40401959 0.050904103
-0.29307052 -0.40407059 0.050877828
-0.29325569 -0.40411472 0.050910346
-0.29344213 -0.4041723 0.05084943
-0.2936244 -0.40421778 0.050866965
-0.29379043 -0.4042609 0.050870739
-0.29397032 -0.40431207 0.050843302
-0.29414058 -0.40436262 0.050802078
-0.29431033 -0.40441114 0.050774693
-0.29448518 -0.40447101 0.05067578
-0.29468209 -0.40451092 0.050760128
-0.29485628 -0.40455994 0.05073734
-0.29503649 -0.40461102 0.050711051
-0.29519972 -0.4046599 0.050668716
-0.29537773 -0.40470749 0.050663203
-0.2955727 -0.40475306 0.050703738
-0.29575136 -0.40480697 0.050654396
-0.29593679 -0.40485409 0.05066615
-0.29612914 -0.40490514 0.050662875
-0.29630828 -0.40495044 0.050675809
-0.29648206 -0.40500614 0.050604578
-0.29664826 -0.40505192 0.050589904
-0.29684308 -0.40509808 0.050625823
-0.29702473 -0.40515101 0.050589152
-0.29720238 -0.40520531 0.050535209
-0.29738116 -0.40525717 0.050500862
-0.29755607 -0.40530214 0.050508048
-0.29774413 -0.40535498 0.050484031
-0.29791421 -0.40539965 0.050484333
-0.29811555 -0.4054482 0.050515611
-0.29831108 -0.40550074 0.050507702
-0.29847172 -0.4055486 0.050467677
-0.29863513 -0.40559557 0.050439171
-0.29882959 -0.40564263 0.050468184
-0.29900929 -0.4056944 0.050436132
-0.29917455 -0.40575063 0.050345339
-0.29938242 -0.40579569 0.050413493
-0.29955542 -0.40584376 0.050395317
-0.29972699 -0.40589419 0.05035755
-0.29990339 -0.40594509 0.05032552
-0.30009478 -0.40598971 0.050366074
-0.30027163 -0.40604055 0.050335199
-0.30043924 -0.40609592 0.05025477
-0.30064005 -0.40613997 0.050317191
-0.3008329 -0.40619195 0.050308146
-0.30099678 -0.40624651 0.050226588
-0.30117351 -0.40629375 0.050221078
-0.30135962 -0.40634218 0.050224751
-0.30156955 -0.40639153 0.050266374
-0.30173236 -0.40644452 0.05019404
-0.30192801 -0.40649238 0.050219588
-0.30211049 -0.40654019 0.05022097
-0.30227301 -0.40659502 0.0501348
-0.30245125 -0.40664753 0.050094686
-0.30262768 -0.4066934 0.050098408
-0.30280572 -0.40674424 0.050069831
-0.30299801 -0.40679154 0.050093085
-0.30320609 -0.40684381 0.050110485
-0.30339643 -0.40689352 0.050112989
-0.30355147 -0.40694833 0.050013021
-0.30373371 -0.40699136 0.050047852
-0.30394143 -0.40704742 0.050037585
-0.30410647 -0.40709469 0.050010223
-0.30430377 -0.40713957 0.050059974
-0.3044762 -0.40719542 0.04998529
-0.30463859 -0.40723825 0.04998447
-0.30481717 -0.4072876 0.049967419
-0.30502921 -0.4073396 0.049994037
-0.3051942 -0.40739545 0.049905546
-0.30536136 -0.40743902 0.049908161
-0.30557957 -0.40748325 0.050001636
-0.3057608 -0.40754226 0.049921144
-0.30595303 -0.40759391 0.049913261
-0.3061451 -0.40764892 0.049881145
-0.30630115 -0.40769508 0.0498446
-0.30651024 -0.40774667 0.049868923
-0.30668059 -0.40778995 0.049879603
-0.30685347 -0.40784577 0.049806066
-0.30702364 -0.4078908 0.04980405
-0.30721927 -0.40794691 0.049770769
-0.30739233 -0.40799466 0.049754903
-0.30757371 -0.40803924 0.049777064
-0.30779636 -0.40809664 0.049785163
-0.30796975 -0.40815079 0.049724311
-0.30812731 -0.4081969 0.04969123
-0.30832669 -0.40824622 0.049713291
-0.30851817 -0.40829864 0.049698483
-0.3086926 -0.40834641 0.049684919
-0.30887026 -0.40839523 0.049670182
-0.30909747 -0.40845999 0.049634434
-0.30926037 -0.40850684 0.049605936
-0.30944717 -0.40855414 0.049618829
-0.30961648 -0.40860301 0.049587987
-0.30980939 -0.40865549 0.049575482
-0.31000787 -0.40870556 0.049590632
-0.31018785 -0.40875122 0.049602412
-0.31035632 -0.40880489 0.049535818
-0.31056288 -0.40885383 0.049573995
-0.31075144 -0.40890729 0.049546517
-0.31094775 -0.40895954 0.049542062
-0.31114343 -0.40901196 0.049535312
-0.31132153 -0.40905827 0.049539026
-0.31150809 -0.40910923 0.049525402
-0.31168216 -0.40915626 0.049516451
-0.31185329 -0.40920967 0.049456768
-0.31204209 -0.4092648 0.049417753
-0.31223845 -0.40931591 0.049421377
-0.31240135 -0.40937054 0.049337514
-0.31259483 -0.40941784 0.049363062
-0.31278232 -0.40947327 0.049319446
-0.31295967 -0.40952441 0.049287405
-0.31319407 -0.40957049 0.049398102
-0.31340414 -0.40962297 0.049417801
-0.31353864 -0.4096787 0.049272951
-0.31371269 -0.40973043 0.049230557
-0.31393903 -0.40978086 0.049295161
-0.31413949 -0.40983486 0.049286071
-0.31431013 -0.40988293 0.049263299
-0.31448936 -0.40993553 0.049224328
-0.31469092 -0.40998673 0.049237162
-0.31486997 -0.41004223 0.049177434
-0.31505486 -0.41009423 0.049153432
-0.315231 -0.41014457 0.049124867
-0.31544432 -0.41019869 0.049138781
-0.31565022 -0.41025379 0.049131978
-0.3158493 -0.41031116 0.049096372
-0.31603029 -0.41036245 0.04907009
-0.31621051 -0.41041386 0.049041495
-0.31638783 -0.41046563 0.049004845
-0.31658563 -0.4105165 0.049013078
-0.31681889 -0.41056487 0.049105331
-0.31700453 -0.41062129 0.049051333
-0.31716666 -0.41067085 0.049002074
-0.31735992 -0.41072243 0.048996486
-0.31754404 -0.41077375 0.048975956
-0.31773645 -0.4108282 0.048948459
-0.3179546 -0.4108867 0.048940439
-0.31813774 -0.41093823 0.048916444
-0.31831902 -0.41098604 0.048915535
-0.31853002 -0.41104412 0.048897173
-0.3186982 -0.41109592 0.048843265
-0.31890073 -0.41114706 0.048858393
-0.31910172 -0.41120231 0.048841231
-0.31930059 -0.41125005 0.048873678
-0.21872708 -0.3836742 0.056898035
-0.21892452 -0.38372076 0.056936253
-0.21914852 -0.38378629 0.056889005
-0.21936715 -0.38384816 0.056857932
-0.21958011 -0.38390431 0.056856863
-0.21978687 -0.38395786 0.056862745
-0.21998993 -0.38400882 0.05688018
-0.22021182 -0.38407347 0.056835253
-0.22042011 -0.38412839 0.056834206
-0.22064771 -0.3841975 0.056768492
-0.22084135 -0.38424012 0.056827486
-0.22105904 -0.38430223 0.05679296
-0.22128779 -0.38437259 0.056720316
-0.22149122 -0.38442445 0.056731984
-0.2216989 -0.38447952 0.056728631
-0.22188795 -0.38453001 0.056723073
-0.22210234 -0.38458475 0.056734685
-0.22231989 -0.38464749 0.056695547
-0.22255692 -0.38471937 0.056627475
-0.22275522 -0.38476795 0.056653
-0.22297589 -0.38483343 0.056600012
-0.22319327 -0.38489658 0.056557409
-0.2233842 -0.38493979 0.056607194
-0.22360763 -0.38500777 0.056541495
-0.22382975 -0.38507491 0.056479275
-0.22404087 -0.38513383 0.056455154
-0.22420269 -0.38515493 0.056607705
-0.22439156 -0.38519681 0.056663256
-0.22458009 -0.38523644 0.056733802
-0.22474779 -0.38526186 0.056866713
-0.22493613 -0.38530326 0.056924574
-0.22513533 -0.38535708 0.056914359
-0.225298 -0.38538036 0.057053059
-0.22546938 -0.3854064 0.057188261
-0.22566539 -0.38544983 0.057246085
-0.22584157 -0.38548154 0.057350133
-0.23021108 -0.38671097 0.05677823
-0.23044053 -0.38679352 0.056620255
-0.23090264 -0.38696238 0.05628356
-0.23113778 -0.38704646 0.056125559
-0.23134547 -0.38711578 0.056020744
-0.23153579 -0.38716111 0.056054384
-0.23174441 -0.38722715 0.055974923
-0.23195323 -0.38728902 0.055925455
-0.23216964 -0.38735321 0.05587364
-0.23237421 -0.38740471 0.055889904
-0.23259559 -0.38747832 0.055780403
-0.23278959 -0.38752753 0.055793274
-0.23300999 -0.38759601 0.055718377
-0.23321359 -0.38764241 0.055769239
-0.23339814 -0.38769269 0.055756785
-0.23361585 -0.38776159 0.055673823
-0.23381194 -0.38780844 0.055707432
-0.23400639 -0.38786101 0.055697232
-0.23421979 -0.3879168 0.055699632
-0.2343922 -0.38795382 0.055758722
-0.23458932 -0.38801894 0.055664334
-0.23478428 -0.38807732 0.055613782
-0.23499802 -0.38813141 0.055628844
-0.23522438 -0.38819012 0.055634629
-0.23540907 -0.3882516 0.055542614
-0.23557486 -0.3882851 0.055614434
-0.23584169 -0.38836554 0.055541605
-0.23593923 -0.38835573 0.055793636
-0.23622347 -0.38846099 0.055576585
-0.23640205 -0.38852769 0.055436175
-0.23662852 -0.38857704 0.055508833
-0.23682144 -0.38862708 0.055513635
-0.23702069 -0.38868353 0.055484954
-0.23722331 -0.38874084 0.055456266
-0.23739788 -0.38878071 0.055499211
-0.23753564 -0.38880748 0.055566549
-0.23774043 -0.38887799 0.055447914
-0.2379948 -0.38894799 0.055425882
-0.23818943 -0.38900319 0.055397235
-0.23838954 -0.38905871 0.055376627
-0.23859492 -0.38911709 0.055345617
-0.23877595 -0.38916969 0.055310115
-0.23897985 -0.3892296 0.055265281
-0.23919137 -0.38928083 0.055296507
-0.23938563 -0.3893337 0.055284008
-0.23957969 -0.38938355 0.05529226
-0.23976068 -0.38943386 0.055272903
-0.23994407 -0.3894811 0.055280052
-0.24013428 -0.38952994 0.055288322
-0.24030685 -0.38957432 0.055295527
-0.24054953 -0.38964543 0.055243582
-0.24074313 -0.38969535 0.055250678
-0.240943 -0.38975534 0.055197794
-0.24113765 -0.38980666 0.055196814
-0.24133973 -0.38986951 0.055127777
-0.2415168 -0.38990113 0.055234127
-0.24172269 -0.38997793 0.055072811
-0.24191394 -0.39001963 0.055134118
-0.24211533 -0.39008245 0.055063933
-0.24230541 -0.39012915 0.055087186
-0.24249388 -0.39017725 0.055097777
-0.2426679 -0.39023089 0.055041559
-0.24285282 -0.39027494 0.05507407
-0.24306865 -0.39032975 0.05508798
-0.24327131 -0.39039195 0.055024698
-0.24346808 -0.39044723 0.054999497
-0.24365897 -0.39049888 0.054989312
-0.24385494 -0.39055344 0.054967575
-0.24404889 -0.39060915 0.054934323
-0.24423724 -0.39065799 0.054939143
-0.24442992 -0.39071235 0.054912806
-0.24461628 -0.3907589 0.054930322
-0.24480775 -0.39081198 0.054910917
-0.24500093 -0.39087102 0.054852296
-0.245203 -0.39092737 0.05482937
-0.24539326 -0.39097577 0.054841097
-0.24558228 -0.39102626 0.054835543
-0.24577516 -0.39107823 0.054826505
-0.24596758 -0.39113352 0.054793261
-0.2461575 -0.39118183 0.054804988
-0.24632441 -0.39122939 0.054778788
-0.24653614 -0.39129236 0.054726988
-0.24672487 -0.39134327 0.054717969
-0.24692284 -0.3913914 0.054745808
-0.24711071 -0.39144126 0.054742564
-0.2473136 -0.39150852 0.054643527
-0.24749574 -0.39155057 0.054685287
-0.24768703 -0.39160165 0.054679707
-0.24787907 -0.39165813 0.054637238
-0.24807066 -0.39170992 0.054627061
-0.24825759 -0.39175922 0.054626122
-0.24845092 -0.39181393 0.054598629
-0.24861917 -0.39185244 0.054639295
-0.2488351 -0.39192885 0.054499842
-0.24899486 -0.39196771 0.054522108
-0.24921328 -0.39203098 0.054480657
-0.249395 -0.39207292 0.05452241
-0.24958678 -0.39212623 0.054501843
-0.24977426 -0.39217743 0.054488227
-0.24996462 -0.39222878 0.0544792
-0.25014931 -0.39227569 0.054490957
-0.25034019 -0.39232811 0.054475006
-0.25053048 -0.39238462 0.054429084
-0.25070849 -0.39243528 0.054401677
-0.25090086 -0.39248586 0.05440186
-0.25109541 -0.39255044 0.054306336
-0.2512812 -0.39258987 0.054373439
-0.251436 -0.39262077 0.054442994
-0.25159517 -0.3926647 0.054428365
-0.25180903 -0.39273876 0.054301608
-0.25203511 -0.39279822 0.054301627
-0.25222388 -0.39285398 0.054258022
-0.25240785 -0.39290103 0.054267474
-0.2525948 -0.39294821 0.054281529
-0.25277659 -0.39300263 0.05423449
-0.25295603 -0.39304686 0.0542555
-0.25315112 -0.39310464 0.054209556
-0.25334126 -0.39315265 0.054223597
-0.25352222 -0.39320639 0.054180019
-0.25370243 -0.39325258 0.054188341
-0.25390083 -0.39330572 0.054181587
-0.25409389 -0.39336684 0.054107971
-0.25427693 -0.39341316 0.054120898
-0.25445917 -0.39345115 0.054191474
-0.25465265 -0.3935208 0.0540579
-0.2548359 -0.39356798 0.054065056
-0.25501248 -0.39361376 0.054069936
-0.25520587 -0.39366359 0.054077029
-0.255391 -0.3937155 0.054054201
-0.25557822 -0.39376533 0.054049797
-0.2557632 -0.39381737 0.054025818
-0.25594944 -0.39386499 0.054035258
-0.25613564 -0.3939206 0.053988196
-0.25632071 -0.39397359 0.053957298
-0.25648311 -0.39401528 0.053964555
-0.25669086 -0.39407218 0.053948522
-0.2568728 -0.39411724 0.053968366
-0.25706273 -0.39417621 0.053903993
-0.25724566 -0.39422446 0.053903073
-0.25743333 -0.39427766 0.053875621
-0.25761694 -0.39432836 0.053858556
-0.25780433 -0.39438131 0.053832252
-0.25798687 -0.39442915 0.053833641
-0.25816992 -0.39447871 0.053823493
-0.25835451 -0.39453369 0.053777602
-0.25853965 -0.39458025 0.053792816
-0.25872105 -0.39462465 0.053816125
-0.25890809 -0.39467821 0.053785205
-0.25909138 -0.39472976 0.053761233
-0.25928032 -0.39479157 0.053674951
-0.2594609 -0.39483336 0.053715561
-0.25964487 -0.394889 0.053663902
-0.25982687 -0.39493698 0.053662986
-0.26001245 -0.3949869 0.053655136
-0.26019374 -0.39503178 0.053674988
-0.26037899 -0.39508045 0.053675216
-0.26056188 -0.39513338 0.053640857
-0.26074719 -0.39518306 0.053634159
-0.2609213 -0.39522427 0.053666729
-0.26111513 -0.3952859 0.053590812
-0.26129103 -0.39533797 0.053549573
-0.26147702 -0.39539331 0.053503674
-0.26165462 -0.39543706 0.053524692
-0.26184246 -0.39548433 0.053539895
-0.2620267 -0.39552903 0.053566635
-0.26220313 -0.39556289 0.053655699
-0.2623482 -0.39560536 0.053624984
-0.26252452 -0.39566547 0.053527251
-0.26270756 -0.39573011 0.053409871
-0.26289919 -0.39578533 0.053375468
-0.26308683 -0.39583319 0.053386062
-0.26327664 -0.39586702 0.053500421
-0.26346815 -0.39592156 0.053470626
-0.26364931 -0.39597046 0.053461649
-0.26382366 -0.3960166 0.053459622
-0.26399839 -0.39607275 0.053387258
-0.264193 -0.39613262 0.053325169
-0.26437715 -0.39618218 0.053317327
-0.26456127 -0.39622942 0.053325627
-0.26474538 -0.39628121 0.053301651
-0.26492944 -0.39632827 0.053311102
-0.26510662 -0.39638636 0.0532295
-0.26529059 -0.39643306 0.05324126
-0.26546785 -0.39647803 0.053253062
-0.26565835 -0.39653051 0.053235963
-0.26583543 -0.39657885 0.053223543
-0.26601893 -0.39663321 0.053179957
-0.26619956 -0.39667729 0.053204421
-0.26638657 -0.39672771 0.053195413
-0.26656619 -0.39678431 0.053128794
-0.26675314 -0.39683363 0.053127851
-0.26694384 -0.39688015 0.053153414
-0.26711339 -0.3969312 0.053107597
-0.2673066 -0.3969852 0.053084724
-0.26747659 -0.39703134 0.05307465
-0.26766348 -0.39707997 0.05307832
-0.26783642 -0.39712915 0.05305209
-0.26798975 -0.39717022 0.053046707
-0.26817495 -0.39720833 0.05312188
-0.26837701 -0.39726973 0.053063214
-0.26856887 -0.39732873 0.05300229
-0.26874879 -0.39737651 0.052999087
-0.2689378 -0.39743119 0.052963547
-0.269115 -0.397475 0.052983411
-0.26927507 -0.39751658 0.052987222
-0.26944765 -0.39756516 0.052964449
-0.26963487 -0.39762571 0.052883957
-0.26981899 -0.39767021 0.052911863
-0.26998612 -0.39771184 0.052928314
-0.27016652 -0.39776993 0.052852463
-0.27034572 -0.39781913 0.052837726
-0.2705417 -0.39787212 0.052827526
-0.27071702 -0.39791057 0.052881993
-0.27090389 -0.39796939 0.052813027
-0.27108422 -0.39801484 0.052827105
-0.27127868 -0.39807194 0.052784622
-0.27144426 -0.39811787 0.052767657
-0.27161297 -0.39816511 0.052747201
-0.27180654 -0.39820465 0.0528281
-0.27200571 -0.39826787 0.052750997
-0.27217039 -0.39831567 0.052719049
-0.27236083 -0.39837235 0.052671969
-0.27253073 -0.39841619 0.05267803
-0.27270469 -0.39845929 0.052696768
-0.27288422 -0.39850664 0.052695863
-0.27306488 -0.39856771 0.052599259
-0.27323765 -0.39862123 0.052541889
-0.27340651 -0.39866704 0.05253182
-0.27359781 -0.39871293 0.052563149
-0.27380037 -0.39875922 0.052612863
-0.27397135 -0.39880106 0.052635066
-0.27414188 -0.39885104 0.052598469
-0.27430382 -0.39890265 0.052534245
-0.2744984 -0.39895007 0.05256094
-0.27467602 -0.39900064 0.052533526
-0.2748543 -0.39904991 0.052516494
-0.27502567 -0.39909786 0.052496027
-0.27520657 -0.39915544 0.052424792
-0.27539107 -0.39920053 0.052449234
-0.27555996 -0.39924604 0.052441467
-0.27575797 -0.39929453 0.052466992
-0.27594554 -0.39934722 0.05244299
-0.27612785 -0.39940193 0.052394807
-0.27630594 -0.39944533 0.052419282
-0.27649909 -0.39950112 0.052383713
-0.27666771 -0.39955255 0.052333292
-0.2768485 -0.39959776 0.052349679
-0.2770173 -0.39964327 0.052341919
-0.27721319 -0.39967901 0.052453939
-0.27738592 -0.39974061 0.052338917
-0.27755478 -0.39980167 0.052220456
-0.27775028 -0.39983848 0.052324411
-0.277922 -0.39989039 0.052276272
-0.27808747 -0.39993501 0.052268531
-0.2782608 -0.39997 0.05234376
-0.27845329 -0.40003097 0.052270152
-0.27865145 -0.400085 0.05225648
-0.27885258 -0.40014032 0.052239325
-0.27902234 -0.4001987 0.052141614
-0.27917704 -0.40024143 0.052127007
-0.27935523 -0.40029004 0.052114584
-0.27953097 -0.4003323 0.052142531
-0.27971578 -0.4003872 0.05209779
-0.27989683 -0.40043721 0.052080732
-0.28005946 -0.40048462 0.052047633
-0.2802484 -0.40052214 0.052134324
-0.28040925 -0.40057573 0.052053951
-0.28060421 -0.40062016 0.052102555
-0.28078696 -0.40066025 0.052159294
-0.28097132 -0.40072766 0.052024614
-0.28113306 -0.40077582 0.051984601
-0.28130576 -0.40082151 0.051982582
-0.28147772 -0.400868 0.051973648
-0.28167173 -0.400906 0.052066073
-0.28184715 -0.40096506 0.051974103
-0.28203496 -0.40101281 0.051985845
-0.28221032 -0.40106779 0.051922701
-0.28238636 -0.40111455 0.05191952
-0.28258181 -0.40115213 0.052017704
-0.28275272 -0.40120709 0.051946506
-0.28291014 -0.4012768 0.051745079
-0.28309676 -0.40132195 0.051772974
-0.28329134 -0.40136078 0.051860787
-0.28346854 -0.40141383 0.051814929
-0.28363812 -0.40146226 0.051787555
-0.28382519 -0.40150398 0.051840816
-0.2840023 -0.401557 0.051794961
-0.28417668 -0.40161547 0.051705293
-0.28433931 -0.40166903 0.051628381
-0.28451443 -0.4017165 0.051618282
-0.28470281 -0.4017576 0.051678441
-0.28490141 -0.40180135 0.051738568
-0.28508738 -0.40184456 0.051779136
-0.28526917 -0.40189734 0.051743645
-0.28544775 -0.40194914 0.051709309
-0.28562573 -0.40199494 0.051716492
