# .PCD v0.7 - Point Cloud Data file format
VERSION 0.7
FIELDS x y z
SIZE 4 4 4
TYPE F F F
COUNT 1 1 1
WIDTH 1282
HEIGHT 1
VIEWPOINT 0 0 0 1 0 0 0
POINTS 1282
DATA ascii
-0.32702857 -0.10008469 0.055647504
-0.32720396 -0.10001318 0.055603229
-0.32739913 -0.099917628 0.05566268
-0.32757923 -0.099839792 0.05564722
-0.32776317 -0.099759914 0.055634055
-0.32794023 -0.09968935 0.055578243
-0.32813084 -0.099600568 0.055605423
-0.3283076 -0.099527434 0.055568062
-0.32850042 -0.099435985 0.055606768
-0.32867268 -0.099368915 0.055541743
-0.32885742 -0.099288337 0.055530883
-0.32905132 -0.099198774 0.055553436
-0.32922912 -0.099124499 0.055520691
-0.32940632 -0.099050984 0.055484489
-0.32958516 -0.098978281 0.055437893
-0.3297798 -0.098882467 0.055500805
-0.32996216 -0.098808184 0.055454209
-0.33013877 -0.098735631 0.055413391
-0.33032271 -0.098656595 0.055394463
-0.33051398 -0.098568365 0.055415869
-0.33070204 -0.098481573 0.055437289
-0.33086985 -0.098422915 0.055328466
-0.33104345 -0.098354235 0.055270363
-0.3312484 -0.098249428 0.055363223
-0.33141735 -0.09818925 0.055261314
-0.3316102 -0.098099634 0.055287335
-0.33181623 -0.097991481 0.05539979
-0.33198717 -0.097928882 0.055308253
-0.33215648 -0.097868212 0.055208649
-0.33234522 -0.097783983 0.055210464
-0.33253449 -0.097704455 0.055178836
-0.33275151 -0.097589195 0.055306263
-0.33290645 -0.097545564 0.055134058
-0.33310595 -0.097446404 0.055205021
-0.33329168 -0.097368777 0.055171102
-0.33347079 -0.097293913 0.05513835
-0.33366039 -0.097209305 0.055140153
-0.33384168 -0.097134501 0.055100482
-0.33404055 -0.097049162 0.055079207
-0.33421338 -0.096974388 0.055064917
-0.33439726 -0.09689182 0.055070207
-0.33457687 -0.096819118 0.055021312
-0.33475858 -0.096741572 0.054998931
-0.33494455 -0.096659265 0.054996133
-0.33511078 -0.096601821 0.054883856
-0.33530545 -0.096504956 0.054953687
-0.33549842 -0.096419707 0.054949723
-0.33567783 -0.096345052 0.054914661
-0.33589125 -0.096232429 0.055035185
-0.33606341 -0.096173018 0.054918271
-0.33626151 -0.096087009 0.054903917
-0.33644626 -0.096004397 0.054906894
-0.33662879 -0.095928863 0.054868367
-0.33681774 -0.095844045 0.054873642
-0.33700669 -0.095768362 0.054816656
-0.33719695 -0.095682293 0.054826532
-0.33738497 -0.09559872 0.05482604
-0.33756402 -0.095518298 0.054831345
-0.3377623 -0.095432714 0.05481353
-0.33793896 -0.095363863 0.054747343
-0.33813694 -0.095267743 0.054802172
-0.33831698 -0.095195353 0.054749817
-0.33847818 -0.095132187 0.054691739
-0.33867365 -0.095049888 0.054660097
-0.33888912 -0.094937861 0.054770231
-0.33906308 -0.094872072 0.054691374
-0.33926648 -0.094785906 0.054662012
-0.33943814 -0.094714023 0.054631583
-0.33963898 -0.094622225 0.054648358
-0.33983162 -0.094530672 0.054688215
-0.34000868 -0.094463848 0.054607034
-0.34019688 -0.094379187 0.054613467
-0.34037092 -0.094311327 0.054548435
-0.34055653 -0.094231538 0.05452951
-0.34075454 -0.094143197 0.054531302
-0.34093425 -0.094067574 0.054501999
-0.34113991 -0.093971588 0.054532602
-0.34131187 -0.09390194 0.054486029
-0.34150726 -0.093816638 0.054475144
-0.34170729 -0.093724683 0.054495376
-0.3418856 -0.093654752 0.054431491
-0.34208146 -0.0935672 0.054434437
-0.3422634 -0.093489729 0.054410905
-0.34245759 -0.093405962 0.054393105
-0.34263581 -0.093336239 0.054328062
-0.3428154 -0.093259312 0.054307994
-0.34302959 -0.09315785 0.054350097
-0.34320444 -0.093089625 0.054285076
-0.34342334 -0.092991501 0.054290272
-0.34360972 -0.092913918 0.054254033
-0.34379402 -0.092832685 0.054248944
-0.34400037 -0.092737585 0.054271471
-0.3441737 -0.092663437 0.05425141
-0.34434545 -0.092600316 0.054161027
-0.34455621 -0.092503086 0.05418469
-0.34474868 -0.092412472 0.054218784
-0.34494334 -0.092327312 0.054209046
-0.34511331 -0.092264138 0.054124437
-0.24660444 -0.13536094 0.059032828
-0.24682443 -0.13526978 0.058987245
-0.2470561 -0.135178 0.058910497
-0.24729598 -0.13508444 0.058821045
-0.24752772 -0.13499297 0.058741983
-0.24775511 -0.13490191 0.058673322
-0.24800268 -0.13480698 0.058569998
-0.24824759 -0.13471812 0.058433242
-0.24845371 -0.13462873 0.058417685
-0.24866375 -0.13453776 0.05840097
-0.24888107 -0.13444795 0.058354236
-0.24909851 -0.13435826 0.058306366
-0.24931523 -0.13426873 0.058259644
-0.24953249 -0.13417929 0.058210611
-0.24975368 -0.1340898 0.058150031
-0.24997993 -0.13399874 0.058084827
-0.25020635 -0.1339093 0.05800809
-0.25042313 -0.1338204 0.057956763
-0.25063753 -0.13373174 0.057911195
-0.2508657 -0.13364117 0.057836764
-0.25108486 -0.1335526 0.05777619
-0.2513012 -0.13346425 0.057722554
-0.25152424 -0.13337579 0.057649285
-0.25174239 -0.13328765 0.057588715
-0.25195694 -0.13319977 0.057537381
-0.25218543 -0.13311008 0.057456031
-0.25240907 -0.1330222 0.057376992
-0.25262424 -0.13293472 0.057321049
-0.25285283 -0.13284701 0.057225853
-0.25306007 -0.13275848 0.057201069
-0.2532751 -0.1326714 0.057142816
-0.25348461 -0.13258456 0.057099573
-0.25370577 -0.13249762 0.057021704
-0.25391906 -0.13240944 0.05697614
-0.25412613 -0.13232301 0.056937512
-0.25434154 -0.13223659 0.056873493
-0.25455275 -0.13215035 0.056821018
-0.25476724 -0.13206266 0.056768537
-0.25497746 -0.13197669 0.056717213
-0.25518584 -0.13189086 0.056670517
-0.25539932 -0.13180512 0.05660766
-0.25560954 -0.13171798 0.056564417
-0.25580904 -0.13163254 0.056541953
-0.25601822 -0.1315472 0.056489483
-0.25622445 -0.13146198 0.056445099
-0.25643814 -0.13137531 0.056388002
-0.25663894 -0.13129032 0.056358628
-0.25685054 -0.1312039 0.056306146
-0.2570557 -0.13111916 0.056261763
-0.2572569 -0.13103449 0.056228921
-0.25746155 -0.13094997 0.056184541
-0.25766799 -0.13086399 0.056144767
-0.25793707 -0.13077593 0.055929512
-0.25812265 -0.13068177 0.056008592
-0.25824726 -0.13060266 0.056169711
-0.25844333 -0.13052502 0.056104593
-0.25876004 -0.1304373 0.055742737
-0.25894132 -0.13035809 0.055733021
-0.25914571 -0.13027133 0.055704787
-0.25927877 -0.13018915 0.055861272
-0.25948665 -0.13010593 0.055798423
-0.2596899 -0.13002101 0.055760965
-0.25988731 -0.12993768 0.05573044
-0.26008835 -0.12985291 0.05569876
-0.2602993 -0.12976527 0.05565666
-0.26048389 -0.12968679 0.055631928
-0.26068288 -0.12960395 0.055593334
-0.26088372 -0.12951961 0.055559345
-0.26108265 -0.12943357 0.055542648
-0.2612758 -0.12935248 0.055509828
-0.2614705 -0.12926985 0.055482771
-0.26167738 -0.12918282 0.055448763
-0.26186174 -0.12910326 0.055432118
-0.26205862 -0.12901932 0.055407364
-0.2622532 -0.1289371 0.055377997
-0.26244044 -0.12885624 0.055361338
-0.26262802 -0.12877373 0.055355061
-0.26281458 -0.12868947 0.055363778
-0.26299939 -0.12860513 0.055378273
-0.26317021 -0.12852159 0.055429697
-0.26333356 -0.12843749 0.055507682
-0.26347637 -0.12834994 0.055671059
-0.26205564 -0.1278137 0.063623533
-0.26235464 -0.12773639 0.063244432
-0.26245719 -0.12763558 0.063620135
-0.26262948 -0.12754682 0.063702703
-0.2628395 -0.12745976 0.063659459
-0.263116 -0.12727317 0.064092346
-0.26356384 -0.12699418 0.064635493
-0.26530826 -0.12677498 0.060845576
-0.26549822 -0.1266865 0.060872737
-0.26572666 -0.12658887 0.060845591
-0.26594967 -0.12649874 0.060783848
-0.26611584 -0.12641743 0.060834147
-0.26631185 -0.12633406 0.060808234
-0.26651818 -0.12624608 0.060782306
-0.26671249 -0.12617296 0.060691819
-0.2668668 -0.12609421 0.060760591
-0.26711345 -0.12599798 0.060668815
-0.26728857 -0.12592031 0.06066718
-0.26748845 -0.1258298 0.060678162
-0.26767743 -0.12573971 0.06071917
-0.26785856 -0.1256526 0.060763657
-0.26804149 -0.12557639 0.060728557
-0.26824787 -0.1255106 0.060551535
-0.26841888 -0.12543054 0.060578749
-0.2686528 -0.12532268 0.060604639
-0.26883796 -0.1252387 0.06061567
-0.26901653 -0.12516442 0.060580581
-0.26923481 -0.12507352 0.060538471
-0.26941723 -0.12498923 0.060559887
-0.26958653 -0.12491789 0.060532894
-0.26979733 -0.1248259 0.060520783
-0.26999673 -0.12474287 0.060482189
-0.27019441 -0.1246574 0.060465496
-0.27039832 -0.12457778 0.060389973
-0.27057323 -0.12449683 0.060411416
-0.27074414 -0.12441732 0.060435168
-0.27095142 -0.12433198 0.060388476
-0.27111605 -0.12425577 0.060408782
-0.27127993 -0.12417482 0.060463697
-0.27151063 -0.12409735 0.060292378
-0.27167201 -0.12401361 0.06037382
-0.27189907 -0.1239171 0.060343213
-0.27209377 -0.12383888 0.060286175
-0.27224016 -0.12376095 0.060373425
-0.27246678 -0.12367887 0.060245939
-0.27264777 -0.12359285 0.060283504
-0.27283081 -0.12351455 0.060262248
-0.27300704 -0.12343217 0.06028945
-0.27321663 -0.12334156 0.060271576
-0.27340046 -0.12326615 0.060228407
-0.27356702 -0.12318619 0.060268316
-0.27380884 -0.12310719 0.060073897
-0.27398816 -0.12302105 0.060117234
-0.27416402 -0.12293392 0.060177881
-0.27434906 -0.1228544 0.060158927
-0.27453196 -0.12277939 0.060115751
-0.27473018 -0.12269892 0.060063317
-0.27490866 -0.1226152 0.060092818
-0.27511978 -0.12252611 0.060059946
-0.27529714 -0.12244984 0.060042165
-0.27548933 -0.12236798 0.060017422
-0.27568775 -0.12228301 0.059994962
-0.27586037 -0.12221071 0.059964508
-0.27602032 -0.12212642 0.06005403
-0.27622333 -0.12204585 0.059987735
-0.27642187 -0.1219693 0.059907623
-0.27660617 -0.12187995 0.059957869
-0.27679625 -0.12180072 0.059921589
-0.27698511 -0.12172934 0.059835736
-0.27715316 -0.12164244 0.059918314
-0.27735594 -0.12156267 0.0598474
-0.27753428 -0.1214934 0.059778869
-0.27772674 -0.12140177 0.05981987
-0.27792189 -0.12131115 0.059845865
-0.27810821 -0.12123123 0.059825748
-0.27828297 -0.12114967 0.059851795
-0.27846512 -0.12107109 0.059835158
-0.27865911 -0.1210003 0.059729677
-0.27883822 -0.12091782 0.059748795
-0.27903661 -0.12083761 0.059694048
-0.27921322 -0.12074828 0.059767377
-0.27939457 -0.12067277 0.059732281
-0.27959648 -0.12059151 0.059674069
-0.27978328 -0.12052171 0.059583601
-0.27996048 -0.12043872 0.05961195
-0.28014404 -0.12035257 0.059642587
-0.28033838 -0.12027451 0.059585545
-0.28052458 -0.12019277 0.059578121
-0.28069201 -0.12011142 0.059624948
-0.2808677 -0.12003403 0.059619855
-0.28106943 -0.11996013 0.059512045
-0.28125542 -0.11987545 0.059525385
-0.28142226 -0.11979384 0.059575669
-0.28163254 -0.11972173 0.059429783
-0.28182253 -0.11963611 0.059437335
-0.28201312 -0.11955412 0.059418365
-0.28220659 -0.11946391 0.059446678
-0.28239918 -0.11938984 0.059367716
-0.28257182 -0.11931159 0.059377626
-0.28272885 -0.11922792 0.059471771
-0.28292286 -0.11915508 0.059380136
-0.28311208 -0.11907285 0.059366927
-0.28330785 -0.11899111 0.059330638
-0.28346354 -0.11892039 0.059340596
-0.28364193 -0.11883534 0.059379324
-0.28382596 -0.11875729 0.059353448
-0.2840369 -0.11867117 0.059300978
-0.28421357 -0.11859231 0.059302799
-0.28441676 -0.11850879 0.059256114
-0.284583 -0.11844898 0.059159942
-0.28476283 -0.11835771 0.05923672
-0.28494838 -0.11827389 0.059245441
-0.28513339 -0.11820488 0.05915498
-0.28530663 -0.11812028 0.059206396
-0.2854636 -0.11803171 0.059333988
-0.28566673 -0.11796837 0.059150055
-0.28583306 -0.11788649 0.059203815
-0.28602079 -0.11781645 0.059112187
-0.28620207 -0.11773385 0.059125528
-0.28638491 -0.1176565 0.059098504
-0.28656873 -0.11757599 0.059089933
-0.286746 -0.11749856 0.059080228
-0.28692281 -0.11742084 0.059073981
-0.28710857 -0.11733371 0.059104614
-0.28730708 -0.11725294 0.059053324
-0.28746977 -0.11718063 0.059052877
-0.28764978 -0.11710589 0.059016638
-0.2878291 -0.11702637 0.059014991
-0.2880154 -0.11695307 0.058949903
-0.28821111 -0.11687067 0.05891823
-0.2883856 -0.11678702 0.058959275
-0.2885575 -0.1167191 0.058901139
-0.28872418 -0.11663265 0.058984872
-0.28891838 -0.11656313 0.058870167
-0.28910276 -0.11648914 0.058815457
-0.28929445 -0.11640361 0.058817245
-0.28946653 -0.11631748 0.058882512
-0.28963441 -0.11624152 0.058891285
-0.28980741 -0.116166 0.058881581
-0.28999537 -0.11609652 0.058785345
-0.29017514 -0.11602358 0.058737569
-0.29036012 -0.11595153 0.058667868
-0.29054421 -0.11586837 0.0586766
-0.29071394 -0.11577397 0.058805302
-0.2908749 -0.11569023 0.058887899
-0.29106995 -0.11563591 0.05866709
-0.29125026 -0.11555374 0.058680434
-0.29143429 -0.1154706 0.058689162
-0.29161182 -0.11539052 0.058696747
-0.29180324 -0.11533391 0.058502477
-0.2919699 -0.11523427 0.058676168
-0.29214293 -0.11515415 0.058697611
-0.29233503 -0.11507607 0.058647491
-0.29251871 -0.11499867 0.058618158
-0.29269105 -0.11492378 0.058606155
-0.29286975 -0.11485809 0.058512256
-0.29306492 -0.11477931 0.058457509
-0.29323655 -0.11469745 0.058495097
-0.29340732 -0.11461411 0.058545385
-0.29358643 -0.11453705 0.058527596
-0.29377037 -0.11446106 0.058487885
-0.29393551 -0.11437514 0.058572773
-0.29411799 -0.1143108 0.058458097
-0.29431498 -0.11425055 0.058271877
-0.29448941 -0.11415201 0.058414411
-0.29465353 -0.11406365 0.05851892
-0.29484165 -0.11400361 0.058358092
-0.29502717 -0.11391676 0.058387578
-0.29519871 -0.11383408 0.058430932
-0.29538128 -0.11378073 0.058241293
-0.29556093 -0.11368226 0.05836767
-0.29574892 -0.11360853 0.05830026
-0.29592484 -0.11353493 0.058268636
-0.29610431 -0.11346059 0.058231249
-0.29628751 -0.11337731 0.058243439
-0.2964592 -0.11328559 0.058347918
-0.29663306 -0.11321663 0.058290932
-0.29681021 -0.11314655 0.058231629
-0.2969963 -0.11307029 0.058187295
-0.2971732 -0.11299065 0.058193732
-0.2973533 -0.11290926 0.058202472
-0.29752865 -0.11283557 0.058173161
-0.29770264 -0.11275841 0.058171529
-0.29788437 -0.11268171 0.058143362
-0.29806751 -0.11260931 0.058081731
-0.29823884 -0.11252436 0.058141243
-0.29842794 -0.11244778 0.058089972
-0.29860255 -0.11236069 0.058154084
-0.29879001 -0.1122916 0.058056697
-0.29896379 -0.11221421 0.058057375
-0.29914808 -0.11213485 0.058039572
-0.29930291 -0.11205503 0.058114111
-0.29948688 -0.11198869 0.058008663
-0.29966402 -0.11191031 0.058005877
-0.29984057 -0.11182947 0.058021542
-0.30002394 -0.11176272 0.057920698
-0.30021814 -0.11168066 0.057891343
-0.30038387 -0.11159955 0.057941634
-0.3005546 -0.11152519 0.05793079
-0.30073956 -0.11145113 0.057874922
-0.30092028 -0.11137386 0.057853673
-0.30108869 -0.11128614 0.057940867
-0.30126637 -0.11121141 0.057911552
-0.30144358 -0.11113385 0.057902992
-0.30161819 -0.11106286 0.057857532
-0.30179909 -0.11098755 0.05782244
-0.30197975 -0.11091115 0.05779542
-0.30215979 -0.11082911 0.057808779
-0.30234072 -0.11075582 0.05775984
-0.30251724 -0.1106728 0.057790495
-0.30269781 -0.11059644 0.05776348
-0.30286765 -0.11051267 0.057819527
-0.3030462 -0.1104572 0.057656426
-0.30322349 -0.11038586 0.0576052
-0.30340275 -0.11028808 0.057728112
-0.30357704 -0.11022519 0.057628453
-0.30376062 -0.11014784 0.05759912
-0.30393416 -0.11006767 0.057619411
-0.30411753 -0.10997855 0.057670809
-0.30429134 -0.10991097 0.057604589
-0.30446827 -0.10983878 0.05756028
-0.30465171 -0.10976065 0.057536714
-0.3048254 -0.10967972 0.057561614
-0.30500916 -0.10959011 0.057615321
-0.30519253 -0.10951521 0.057569847
-0.30536547 -0.10945717 0.057441354
-0.30554149 -0.10939588 0.057325542
-0.30572537 -0.10930485 0.057388473
-0.30589941 -0.10922141 0.057429515
-0.30607659 -0.10913979 0.057448637
-0.30626243 -0.10906888 0.057368562
-0.30645952 -0.10897621 0.057402618
-0.30662712 -0.10889766 0.057429843
-0.30679792 -0.10881921 0.057446674
-0.30697143 -0.10874498 0.057426594
-0.30715379 -0.10867444 0.057354592
-0.30733544 -0.1085844 0.057417531
-0.30750942 -0.10852927 0.057265967
-0.30769277 -0.10844949 0.057253938
-0.30786765 -0.108365 0.057299595
-0.30805081 -0.10828681 0.057277188
-0.30823326 -0.10821284 0.057228245
-0.30841047 -0.10813358 0.057231225
-0.30859002 -0.10805853 0.057198443
-0.30877316 -0.10798002 0.057178333
-0.30894312 -0.10790753 0.057157114
-0.30911905 -0.10782021 0.057218913
-0.3093023 -0.10774148 0.057199955
-0.30949047 -0.10765362 0.057228282
-0.30966482 -0.10758868 0.057142459
-0.30983129 -0.10751858 0.05711548
-0.31000867 -0.10743959 0.057116151
-0.31018475 -0.10736625 0.057082221
-0.31036574 -0.10728463 0.057089806
-0.31054741 -0.1072005 0.057112373
-0.31072462 -0.10712277 0.057104968
-0.310893 -0.10706742 0.056971882
-0.31107339 -0.10698827 0.056964464
-0.3112388 -0.10693204 0.056846373
-0.31142807 -0.10682133 0.05702693
-0.31159803 -0.10676885 0.056869622
-0.31177729 -0.10668392 0.056904878
-0.31195953 -0.10658955 0.056995496
-0.3121528 -0.10649706 0.05703995
-0.31233323 -0.10642771 0.056965642
-0.31250206 -0.10636776 0.056862544
-0.31270403 -0.10625766 0.057000391
-0.31288353 -0.1061823 0.056969911
-0.31305689 -0.10612492 0.056835651
-0.31323394 -0.10604808 0.056822486
-0.31340316 -0.10597001 0.056841634
-0.31357175 -0.10590933 0.056744292
-0.31376547 -0.10580951 0.056837182
-0.31393906 -0.10574235 0.056768663
-0.31412154 -0.10565872 0.056785464
-0.31429824 -0.10558324 0.056764223
-0.31447062 -0.10551189 0.056728005
-0.31464231 -0.10543524 0.056729838
-0.31482488 -0.10535868 0.056698211
-0.3150129 -0.10527529 0.056696542
-0.31518432 -0.10520623 0.056647629
-0.31536049 -0.10512556 0.056663297
-0.3155362 -0.10505256 0.056628216
-0.31572011 -0.10497285 0.056613885
-0.31589758 -0.10490196 0.056559186
-0.31607443 -0.10482015 0.056580618
-0.31625393 -0.1047385 0.056592818
-0.31643581 -0.10465767 0.056592327
-0.31661031 -0.10458741 0.056542255
-0.31678689 -0.1045125 0.056517549
-0.31697455 -0.10442503 0.056544717
-0.31715354 -0.10435075 0.056508482
-0.31732687 -0.10427727 0.05648379
-0.31750372 -0.10420188 0.056461394
-0.31768802 -0.1041166 0.056483954
-0.3178736 -0.10403413 0.056483448
-0.3180539 -0.10395721 0.05646104
-0.31822905 -0.10388547 0.056419048
-0.3184036 -0.10380976 0.056405891
-0.3185893 -0.10372742 0.056404229
-0.3187618 -0.10365584 0.056369156
-0.31893897 -0.10358015 0.056347918
-0.31912607 -0.10349531 0.056358933
-0.31929517 -0.10343014 0.056290429
-0.31947455 -0.10335043 0.056289945
-0.31965035 -0.10327738 0.056254864
-0.31983918 -0.10318974 0.056279719
-0.32003206 -0.10309487 0.056341477
-0.32019225 -0.10304571 0.056191102
-0.32037756 -0.10295573 0.056242496
-0.32056895 -0.10286406 0.056286961
-0.32074371 -0.10279319 0.056240346
-0.32091239 -0.10274143 0.056081884
-0.32109281 -0.10265616 0.056116
-0.32129425 -0.10254784 0.056243464
-0.3214682 -0.10247832 0.056189936
-0.32164681 -0.10241335 0.056091417
-0.32182986 -0.10232844 0.056115139
-0.32201821 -0.10223898 0.056153841
-0.32219598 -0.10217115 0.056077234
-0.32237688 -0.10208619 0.056107879
-0.32254148 -0.10202388 0.056033619
-0.3227188 -0.1019527 0.055981234
-0.32290649 -0.10186489 0.056010708
-0.32308477 -0.10178837 0.055991769
-0.32327473 -0.10169344 0.056062758
-0.32346132 -0.10161916 0.056003429
-0.32363459 -0.10154317 0.055996045
-0.32380319 -0.10147451 0.055952907
-0.32398176 -0.10140515 0.055884376
-0.3241646 -0.10131831 0.055921935
-0.32435516 -0.10123074 0.055941027
-0.32453725 -0.10115252 0.055922072
-0.32472017 -0.10107309 0.055908892
-0.32489553 -0.10100499 0.055841517
-0.32508272 -0.10092282 0.055834085
-0.32525709 -0.10084923 0.055807084
-0.3254368 -0.10076784 0.055816971
-0.32559949 -0.10071468 0.055686213
-0.32577261 -0.10064621 0.055628072
-0.32597587 -0.10053454 0.055772834
-0.32614753 -0.10047164 0.055681251
-0.32633692 -0.10038018 0.055730332
-0.3265132 -0.10030743 0.055691794
-0.32671145 -0.10020713 0.055774286
-0.32686698 -0.10016663 0.055578955
-0.32706323 -0.10006621 0.055668384
-0.32724285 -0.099992149 0.055628672
-0.32743007 -0.099904537 0.055658154
-0.3276155 -0.09982264 0.055654183
-0.32779467 -0.099746227 0.055631787
-0.32797259 -0.099674612 0.055580556
-0.32815957 -0.099587791 0.055605419
-0.32834119 -0.099511318 0.05557609
-0.32853186 -0.099419795 0.055621698
-0.32869896 -0.099362656 0.055504762
-0.32889506 -0.099267207 0.055560745
-0.32907853 -0.099191427 0.055521023
-0.32925695 -0.099113494 0.055511314
-0.32943571 -0.099041 0.055463545
-0.32962066 -0.098957613 0.055471107
-0.32981077 -0.09887059 0.055487894
-0.32998624 -0.098799549 0.055440132
-0.33016676 -0.098724924 0.055401579
-0.33035234 -0.09864109 0.055410288
-0.33054593 -0.098552853 0.055424757
-0.33073416 -0.098468691 0.055427704
-0.33090249 -0.098409474 0.055321138
-0.33107466 -0.0983399 0.055273384
-0.33127615 -0.098242231 0.055328202
-0.33145508 -0.098167114 0.055297721
-0.33164769 -0.098077953 0.055321418
-0.3318541 -0.09796945 0.055435032
-0.3320137 -0.097923435 0.055265062
-0.33219832 -0.097844273 0.055244945
-0.33237886 -0.097772673 0.055185646
-0.33256966 -0.097686194 0.05519665
-0.33277079 -0.097590014 0.05524224
-0.33294854 -0.097519331 0.055185236
-0.33313951 -0.097432926 0.055195101
-0.33331937 -0.097359776 0.055148479
-0.33350304 -0.097277142 0.055154897
-0.33369091 -0.097194657 0.055147469
-0.33388203 -0.097113445 0.055121571
-0.33406758 -0.097038798 0.055068012
-0.33424252 -0.096964099 0.055046778
-0.33442602 -0.096882038 0.05504974
-0.33460122 -0.096809603 0.055012353
-0.33478844 -0.096728258 0.05499915
-0.33497059 -0.096650347 0.054977894
-0.33514011 -0.096589252 0.054880563
-0.33535323 -0.096474037 0.055019528
-0.33552378 -0.096414171 0.054910656
-0.33571833 -0.096320264 0.054960866
-0.33591735 -0.096223854 0.055014528
-0.33609337 -0.096160188 0.054914866
-0.33629289 -0.096072704 0.054906245
-0.33648148 -0.095988221 0.054910339
-0.3366586 -0.09591645 0.054862581
-0.33685803 -0.095824778 0.054882791
-0.33703676 -0.095755845 0.0548108
-0.33723375 -0.09566474 0.054834481
-0.33741254 -0.095584616 0.054838605
-0.33759522 -0.095502585 0.05484388
-0.33779502 -0.095419884 0.054801814
-0.33796883 -0.095349759 0.054752909
-0.33817667 -0.095247574 0.05481923
-0.33834466 -0.095183745 0.054744959
-0.3385222 -0.095109768 0.054711021
-0.33870459 -0.095034979 0.05466786
-0.33891398 -0.094933793 0.054722641
-0.33910787 -0.094849147 0.05471174
-0.33929184 -0.094775014 0.054659333
-0.33946741 -0.094701231 0.054630022
-0.33967641 -0.094603091 0.054665204
-0.33986241 -0.094518572 0.054677386
-0.34004584 -0.094445184 0.054621533
-0.34021842 -0.094376788 0.054564543
-0.34040612 -0.094296925 0.054539815
-0.34058577 -0.094223358 0.054496646
-0.34078974 -0.094128996 0.054521471
-0.34098539 -0.094041184 0.054526705
-0.34117979 -0.093952768 0.054540008
-0.34134772 -0.093887277 0.054477274
-0.34154978 -0.093795285 0.054491717
-0.34175318 -0.093704045 0.054496929
-0.34192628 -0.093637452 0.054426104
-0.34211531 -0.093556829 0.054402523
-0.34230739 -0.09346927 0.054416992
-0.342493 -0.093392201 0.054379575
-0.34267515 -0.093316682 0.054342177
-0.34286302 -0.093233511 0.054339357
-0.34306505 -0.093144245 0.054335348
-0.34325099 -0.093070924 0.054271415
-0.3434695 -0.092969418 0.054300804
-0.34365246 -0.092893355 0.054264553
-0.3438293 -0.092819504 0.05423177
-0.3440268 -0.092731223 0.054234698
-0.34421283 -0.092648558 0.054234184
-0.34439501 -0.092577256 0.054167952
-0.34460199 -0.092478149 0.054215826
-0.34478787 -0.092399612 0.054187644
-0.34497708 -0.092314161 0.054196358
-0.34516352 -0.092240803 0.054131258
-0.24641624 -0.13544063 0.059060141
-0.24662805 -0.1353499 0.059036445
-0.24686161 -0.13525644 0.058965407
-0.24709591 -0.13516453 0.05888167
-0.24732868 -0.13507143 0.058810622
-0.24755953 -0.13498002 0.058733825
-0.24779679 -0.13488697 0.058648922
-0.24805266 -0.13479155 0.058523603
-0.2482868 -0.13470191 0.058424875
-0.24848987 -0.13461268 0.058417358
-0.24870121 -0.13452165 0.058397125
-0.24892804 -0.13443136 0.058324948
-0.24914743 -0.13434014 0.058281627
-0.24935681 -0.13425098 0.058254477
-0.24957861 -0.13415988 0.058203071
-0.24980304 -0.13406879 0.058143593
-0.25003603 -0.13397744 0.058059864
-0.25026494 -0.13388792 0.057976142
-0.25047526 -0.13379785 0.057952449
-0.25069422 -0.13370903 0.057894137
-0.25092486 -0.13361838 0.057812721
-0.25114313 -0.13352987 0.057754412
-0.25136474 -0.13343987 0.057696089
-0.25158194 -0.13335165 0.057638928
-0.25180492 -0.13326189 0.057574838
-0.25202844 -0.13317373 0.057498053
-0.25225356 -0.13308421 0.057425879
-0.25247467 -0.13299492 0.057364099
-0.25269705 -0.13290575 0.057297699
-0.25292557 -0.1328181 0.057202447
-0.25312954 -0.13272966 0.057186849
-0.2533457 -0.1326426 0.057125084
-0.25356314 -0.1325541 0.057069074
-0.25377747 -0.13246733 0.057010777
-0.25399309 -0.13237913 0.05695824
-0.25420484 -0.13229266 0.056905717
-0.25442183 -0.13220471 0.056847408
-0.25463378 -0.13211696 0.056802951
-0.25484467 -0.13202934 0.056760803
-0.25506029 -0.13194336 0.056693271
-0.25527292 -0.13185598 0.056644205
-0.25548479 -0.1317703 0.056585912
-0.25568804 -0.1316832 0.0565634
-0.25589362 -0.13159779 0.056522425
-0.25610968 -0.13151091 0.056459501
-0.25631714 -0.13142416 0.056421984
-0.25652507 -0.13133751 0.056382157
-0.25673258 -0.13125259 0.056331951
-0.25694746 -0.13116623 0.056269031
-0.25714919 -0.13108152 0.056234989
-0.25735456 -0.13099533 0.056199782
-0.25755656 -0.13091083 0.05616343
-0.25776991 -0.130825 0.056101672
-0.25803226 -0.13073365 0.05592905
-0.25819087 -0.13064386 0.056060061
-0.25832507 -0.13056491 0.056191158
-0.25853547 -0.13048106 0.056124792
-0.25885093 -0.1304 0.055721328
-0.25903776 -0.13031767 0.055716164
-0.25918645 -0.13022602 0.05588989
-0.25938892 -0.13014586 0.055822399
-0.2595917 -0.13006254 0.055775665
-0.2597903 -0.12997749 0.055753164
-0.25999224 -0.12989436 0.055707585
-0.26019216 -0.1298096 0.055679314
-0.26040265 -0.12972368 0.055626795
-0.2605896 -0.12964197 0.05561702
-0.26078922 -0.12955919 0.055576064
-0.26099828 -0.12947187 0.05553738
-0.26118019 -0.12939188 0.055531081
-0.26137954 -0.1293077 0.055500504
-0.26158097 -0.12922548 0.055450317
-0.26177856 -0.12913971 0.055435896
-0.26196393 -0.12905851 0.055427276
-0.26216179 -0.12897466 0.055399012
-0.26235896 -0.12889263 0.055360362
-0.26254728 -0.12881012 0.055351734
-0.26273495 -0.12872589 0.055356953
-0.26292592 -0.12864017 0.055362161
-0.26310086 -0.12855871 0.055387016
-0.26326469 -0.12847286 0.055475347
-0.26342699 -0.12838684 0.055569448
-0.26355511 -0.12829804 0.055785924
-0.26192212 -0.12783597 0.063876159
-0.26251435 -0.12768853 0.063086629
-0.26254496 -0.1275809 0.063726693
-0.26275808 -0.12749602 0.063659161
-0.26316258 -0.12721376 0.064355783
-0.26521784 -0.12680891 0.06088835
-0.2654309 -0.12672321 0.060826592
-0.26563036 -0.1266239 0.060898669
-0.26586652 -0.12653336 0.060799934
-0.26605418 -0.12644878 0.060807452
-0.26623124 -0.12636484 0.060842685
-0.26644036 -0.12627718 0.060806312
-0.26663956 -0.12619644 0.060752671
-0.26681724 -0.12612513 0.060700245
-0.26702744 -0.12602764 0.060727309
-0.26721609 -0.12595195 0.060671393
-0.26739934 -0.12587136 0.06066509
-0.26760978 -0.12577412 0.060689844
-0.26779377 -0.12568745 0.060722746
-0.26795048 -0.1256112 0.060767271
-0.26817009 -0.12553258 0.060637437
-0.2683602 -0.12546419 0.06052731
-0.26853558 -0.12537202 0.060623683
-0.26876411 -0.12527183 0.060613781
-0.26894107 -0.12519506 0.060600568
-0.26915765 -0.12510812 0.060536496
-0.2693463 -0.12502277 0.060546316
-0.26950765 -0.12495209 0.060538925
-0.26968282 -0.12487085 0.060561486
-0.2699157 -0.12477652 0.060498513
-0.27010709 -0.12469418 0.060479492
-0.27030912 -0.12461186 0.060428146
-0.27050295 -0.1245325 0.060381439
-0.27067477 -0.1244509 0.060416691
-0.27085981 -0.12436986 0.060408071
-0.27104333 -0.12429084 0.060390234
-0.27121925 -0.12420793 0.060422011
-0.27141345 -0.12413145 0.060354535
-0.27159864 -0.12405306 0.060327463
-0.27177814 -0.12396415 0.060389221
-0.27201542 -0.12387241 0.06029509
-0.27216807 -0.12379595 0.060353477
-0.27236089 -0.12372213 0.060272172
-0.27255693 -0.12363264 0.060287736
-0.27274793 -0.12355149 0.060261801
-0.27293441 -0.12346929 0.060256638
-0.27310583 -0.12338566 0.060306884
-0.27330783 -0.12330522 0.060242854
-0.2734772 -0.12322352 0.060286187
-0.27368382 -0.1231495 0.060164467
-0.27390024 -0.12306365 0.060093466
-0.2740716 -0.12298021 0.060142562
-0.27424371 -0.12289696 0.060188197
-0.27443343 -0.12282383 0.060111515
-0.27463222 -0.12274346 0.060056716
-0.27481714 -0.12265654 0.060088463
-0.27501246 -0.12257279 0.060067132
-0.27519676 -0.12249089 0.060066584
-0.27538785 -0.12241377 0.060012966
-0.27557871 -0.12233151 0.059995107
-0.2757659 -0.1222534 0.059959956
-0.27591729 -0.12217681 0.060022943
-0.27610725 -0.12208918 0.060044296
-0.27630997 -0.12201654 0.059924901
-0.27649635 -0.12193321 0.05992781
-0.27668327 -0.12184744 0.059945714
-0.27687779 -0.12177522 0.05984826
-0.27704418 -0.12169587 0.059884675
-0.27724716 -0.12160787 0.059869088
-0.27741659 -0.12154071 0.059813228
-0.27761084 -0.12145524 0.059806883
-0.27780789 -0.12137089 0.059784397
-0.27797398 -0.12128031 0.059898086
-0.2781665 -0.1212056 0.059823707
-0.27832508 -0.12112327 0.059903979
-0.27853265 -0.12105492 0.059740733
-0.27871284 -0.1209757 0.059734438
-0.2789025 -0.12089176 0.059731573
-0.27909374 -0.1208027 0.059758693
-0.27926716 -0.12072665 0.059751257
-0.27945539 -0.12064522 0.059735715
-0.27965808 -0.12057328 0.059611697
-0.27982739 -0.12049872 0.059606593
-0.28000969 -0.12041499 0.059624512
-0.2802006 -0.12033828 0.059568588
-0.28038692 -0.1202504 0.059602637
-0.28056756 -0.12017217 0.059588265
-0.28072357 -0.1200915 0.059665084
-0.2809251 -0.1200204 0.059538767
-0.28112119 -0.11993749 0.059509359
-0.28128913 -0.11985643 0.059552688
-0.28146723 -0.11978051 0.059530258
-0.28167996 -0.11970004 0.059433896
-0.2818768 -0.11961799 0.059396408
-0.28205723 -0.11953391 0.059422411
-0.28224975 -0.11944972 0.05941261
-0.28243685 -0.11937268 0.059370533
-0.28259268 -0.11929173 0.059449669
-0.28276575 -0.11921703 0.059434157
-0.28296146 -0.11913837 0.059377059
-0.2831654 -0.11905095 0.059354555
-0.28332493 -0.11898243 0.059337933
-0.28349164 -0.11890429 0.059365124
-0.28368402 -0.11882066 0.059351876
-0.28387395 -0.11873558 0.059355929
-0.28407103 -0.11865868 0.059282687
-0.28425601 -0.11857427 0.05929713
-0.28444466 -0.11850688 0.059184697
-0.28460786 -0.11843774 0.059161149
-0.28479531 -0.11834038 0.059256326
-0.28498966 -0.1182625 0.059198085
-0.2851626 -0.11819275 0.059149139
-0.28530741 -0.11809961 0.059344783
-0.28551885 -0.11802648 0.059202299
-0.28568932 -0.11795529 0.059170656
-0.28586191 -0.11788183 0.05914823
-0.28605318 -0.1178026 0.059108451
-0.28623468 -0.11772414 0.059092924
-0.2864151 -0.11764091 0.059113152
-0.28660399 -0.1175602 0.059090681
-0.2867735 -0.11748894 0.0590625
-0.28694957 -0.11740645 0.059090819
-0.28715301 -0.11732114 0.059055623
-0.2873224 -0.11724585 0.059055123
-0.28749469 -0.11717303 0.059029244
-0.2876741 -0.11709347 0.059027556
-0.28785706 -0.11701708 0.058993567
-0.28805035 -0.11694558 0.058894962
-0.28822595 -0.116854 0.05898672
-0.28841943 -0.1167831 0.058883488
-0.28857934 -0.11670408 0.058937237
-0.28875405 -0.11662509 0.05894595
-0.28894773 -0.11655512 0.058835804
-0.28914511 -0.11647503 0.058783323
-0.28931946 -0.11639128 0.058825478
-0.28949305 -0.11630177 0.058909174
-0.28966236 -0.11623212 0.058870614
-0.28983366 -0.11615972 0.058844734
-0.29002964 -0.11608382 0.058768034
-0.29021195 -0.11601873 0.058659069
-0.29039168 -0.11593581 0.058679305
-0.2905705 -0.11585178 0.058709919
-0.29073477 -0.11575625 0.058862846
-0.29091039 -0.11568414 0.058821958
-0.29110503 -0.11562407 0.058641449
-0.2912893 -0.11553575 0.058684733
-0.29145896 -0.11545696 0.058707304
-0.29164252 -0.11538437 0.058645636
-0.29183269 -0.11532055 0.058504362
-0.29199961 -0.11521535 0.058714941
-0.29218042 -0.11513958 0.058683272
-0.29237467 -0.11506444 0.058606572
-0.29255119 -0.11498313 0.058625661
-0.2927283 -0.11491492 0.058553629
-0.29291031 -0.11484167 0.058501188
-0.29310003 -0.11476109 0.058475252
-0.29326823 -0.11468041 0.058515131
-0.29344314 -0.11459676 0.058554985
-0.29362726 -0.11452086 0.058514073
-0.29379484 -0.11444555 0.058519349
-0.29396951 -0.11436132 0.058563814
-0.29416168 -0.11430625 0.058356784
-0.29435006 -0.11423153 0.058295101
-0.29451671 -0.11412629 0.058506839
-0.29468659 -0.11405522 0.058476355
-0.29487965 -0.11399687 0.058288932
-0.295057 -0.11389484 0.058446422
-0.29523483 -0.11383174 0.05833748
-0.29542154 -0.113763 0.058240049
-0.29559997 -0.11366186 0.058388308
-0.29578811 -0.11359656 0.058263198
-0.29595718 -0.11351685 0.058293834
-0.29614159 -0.11344455 0.058227547
-0.29632264 -0.11335631 0.058280073
-0.29649386 -0.11327226 0.058333777
-0.29667285 -0.11320611 0.058242135
-0.29685539 -0.11313041 0.058204684
-0.2970337 -0.11305405 0.058184549
-0.29720971 -0.11297194 0.058210563
-0.29738775 -0.11289503 0.058195047
-0.29756624 -0.11281944 0.058169149
-0.2977435 -0.11274067 0.058168627
-0.29792604 -0.11266616 0.058123104
-0.29810679 -0.11258668 0.058116809
-0.29828101 -0.11251028 0.058109373
-0.29846445 -0.11242757 0.058116913
-0.2986446 -0.11234616 0.0581256
-0.29882082 -0.11227667 0.058065109
-0.29900602 -0.1122003 0.058024194
-0.29917786 -0.11211564 0.058080204
-0.2993378 -0.112041 0.058103956
-0.29952684 -0.11198021 0.057945386
-0.29970169 -0.11189251 0.058012921
-0.29988271 -0.11181496 0.057992782
-0.30006957 -0.11174785 0.057883803
-0.30025563 -0.11166127 0.057909787
-0.30041876 -0.11158454 0.057938144
-0.3005932 -0.11151075 0.057912257
-0.3007845 -0.11143252 0.057865556
-0.30096424 -0.11134925 0.057888102
-0.30112734 -0.11127136 0.057924524
-0.30130503 -0.11119663 0.057895169
-0.30148178 -0.11111587 0.057909645
-0.30165681 -0.11104742 0.057845689
-0.3018409 -0.11097001 0.057815153
-0.30201843 -0.11089571 0.057783488
-0.30220196 -0.11081415 0.057782952
-0.30238241 -0.11073582 0.057769738
-0.3025561 -0.11065814 0.057772689
-0.30273649 -0.11057933 0.057762925
-0.30290657 -0.11049816 0.057800487
-0.30308533 -0.11044583 0.057615418
-0.30326515 -0.11035965 0.057657562
-0.30343512 -0.11027513 0.057718195
-0.30361268 -0.11021029 0.057621941
-0.30379623 -0.11013076 0.057607558
-0.30396986 -0.11005107 0.057624344
-0.30415329 -0.10996243 0.057672255
-0.30432385 -0.10989732 0.057599086
-0.30450082 -0.10982732 0.057539735
-0.30468434 -0.10974441 0.057548422
-0.30485806 -0.10966688 0.057550222
-0.30504188 -0.1095757 0.057614274
-0.30522197 -0.10950346 0.057560682
-0.30539474 -0.10944939 0.057405617
-0.30557433 -0.10938077 0.057328966
-0.30575535 -0.1092861 0.05742532
-0.30592909 -0.10920821 0.057429418
-0.30610651 -0.10912429 0.057463504
-0.30629554 -0.10905367 0.057371825
-0.30648965 -0.10896014 0.057420854
-0.30665708 -0.10888386 0.057433046
-0.3068282 -0.1088029 0.057465989
-0.3070007 -0.10873811 0.057384741
-0.30718416 -0.10865844 0.05737152
-0.30735856 -0.10857723 0.057396375
-0.30753577 -0.10852118 0.057241298
-0.30771354 -0.10843761 0.057271924
-0.30789104 -0.10835636 0.057287544
-0.30807719 -0.10827889 0.057251237
-0.30825728 -0.10820089 0.057236876
-0.30843419 -0.1081238 0.057225972
-0.30861709 -0.10804711 0.057194293
-0.30879363 -0.10797186 0.057171855
-0.30896381 -0.10789862 0.057155203
-0.30914032 -0.10780849 0.057234272
-0.30932283 -0.10773365 0.057191055
-0.30951402 -0.10764581 0.057210106
-0.30968276 -0.10757947 0.057150789
-0.30984873 -0.10751198 0.05710762
-0.31002641 -0.10743184 0.057115167
-0.31020263 -0.10735811 0.057083506
-0.31038368 -0.10727648 0.05709105
-0.31056163 -0.10719569 0.057102066
-0.31073883 -0.10711814 0.057093471
-0.31090733 -0.1070624 0.056962635
-0.31109136 -0.10698062 0.056962095
-0.31125396 -0.1069243 0.056853198
-0.31144005 -0.10681501 0.057033733
-0.3116098 -0.1067633 0.056871757
-0.31178895 -0.10667894 0.056903526
-0.31197166 -0.10658317 0.057002179
-0.31216469 -0.10649163 0.057040825
-0.31234485 -0.10642327 0.056960717
-0.3125172 -0.10636124 0.056861013
-0.31271353 -0.10625147 0.057013839
-0.31289208 -0.10617907 0.056966022
-0.31306568 -0.10612107 0.056835182
-0.31323957 -0.10604549 0.056823127
-0.31341219 -0.10596573 0.056843381
-0.31357703 -0.10590791 0.056737933
-0.3137708 -0.10580807 0.056830797
-0.31394184 -0.10574053 0.056772619
-0.3141275 -0.10565583 0.05678707
-0.31430086 -0.10558201 0.056764644
-0.31447652 -0.10550938 0.056727216
-0.31464496 -0.10543419 0.05672903
-0.31482741 -0.10535802 0.05669504
-0.31501272 -0.10527483 0.056700267
-0.31518713 -0.10520512 0.056646697
-0.31536022 -0.10512549 0.056664642
-0.31553608 -0.10505226 0.056630675
-0.31571996 -0.10497275 0.056615144
-0.31589407 -0.1049035 0.056559257
-0.31607068 -0.10482231 0.056577191
-0.31625044 -0.10474023 0.05659166
-0.31642935 -0.10466022 0.056594592
-0.31660351 -0.10459079 0.056539878
-0.31678364 -0.10451396 0.05651743
-0.31697085 -0.10442754 0.05653879
-0.31714737 -0.104353 0.056511749
-0.31732076 -0.10427951 0.056487009
-0.31749758 -0.10420433 0.05646342
-0.31767797 -0.1041218 0.056479037
-0.31786114 -0.10403904 0.056487728
-0.31804833 -0.10395873 0.056467567
-0.31822011 -0.10388866 0.056424383
-0.31838977 -0.10381769 0.056393899
-0.31857714 -0.10373204 0.056409493
-0.31874889 -0.10366198 0.05636631
-0.31892931 -0.10358503 0.056343872
-0.31910995 -0.1035029 0.056356028
-0.31929109 -0.10342953 0.056307048
-0.31946564 -0.10335416 0.056291543
-0.31963736 -0.10328412 0.056248359
-0.31982335 -0.10319706 0.056277804
-0.32001802 -0.10309903 0.056355659
-0.3201769 -0.10305232 0.056192566
-0.3203637 -0.10296423 0.056226615
-0.32054949 -0.10287371 0.056280278
-0.3207266 -0.10279873 0.056254379
-0.32089603 -0.10274581 0.056101628
-0.32107204 -0.10266827 0.056096498
-0.32126719 -0.10256223 0.056227416
-0.32145041 -0.10248539 0.056195736
-0.32163084 -0.1024174 0.056112155
-0.32181385 -0.10233675 0.056107011
-0.32199582 -0.10224979 0.056148
-0.32217801 -0.10217476 0.056107081
-0.322355 -0.10209628 0.056105416
-0.32252097 -0.10203185 0.056041487
-0.32269734 -0.10196228 0.055980988
-0.32288519 -0.10187423 0.056011584
-0.32306278 -0.10179888 0.055986837
-0.32325569 -0.10170316 0.05605432
-0.32343483 -0.10162931 0.056014575
-0.32361364 -0.10155222 0.055997908
-0.32377833 -0.10148598 0.055950128
-0.32396236 -0.10140827 0.055921908
-0.32413638 -0.101335 0.055893712
-0.32432771 -0.10124625 0.055918522
-0.32451555 -0.10115939 0.055941042
-0.32469165 -0.10108672 0.055902462
-0.32486761 -0.10101429 0.055862725
-0.32504576 -0.10094208 0.055814914
-0.32523325 -0.10085266 0.055855878
-0.32540357 -0.1007851 0.055800013
-0.32557419 -0.10072047 0.055723388
-0.3257454 -0.10065489 0.055651378
-0.32594115 -0.10055402 0.055745371
-0.32610893 -0.10049334 0.055650305
-0.32630354 -0.10039449 0.055733927
-0.32647812 -0.1003242 0.055683818
-0.32668063 -0.10021795 0.055793956
-0.32683593 -0.10017791 0.055596258
-0.32702377 -0.10008596 0.055653382
-0.32720199 -0.10001388 0.055604413
-0.32739413 -0.09991952 0.055664975
-0.32757437 -0.099841624 0.055649452
-0.32775506 -0.099763192 0.055636231
-0.32793325 -0.099691302 0.055586111
-0.32811892 -0.099606246 0.055602871
-0.32829979 -0.099530786 0.055568885
-0.32849032 -0.099439509 0.055613309
-0.32866615 -0.099370867 0.055548202
-0.32884571 -0.099294297 0.055525757
-0.32903692 -0.099205427 0.055551723
-0.32921648 -0.099129029 0.05552813
-0.32939327 -0.099056229 0.055488389
-0.32956788 -0.098986253 0.05543597
-0.32976604 -0.098888882 0.055498824
-0.32994598 -0.098815016 0.055456776
-0.33012253 -0.098742664 0.055414725
-0.33030403 -0.098664038 0.055400353
-0.33049762 -0.098575801 0.055414777
-0.33068395 -0.098491319 0.055425767
-0.33085313 -0.098428339 0.05534222
-0.33102688 -0.098359592 0.055284038
-0.33122987 -0.098257363 0.055365339
-0.33139104 -0.09820421 0.055239141
-0.33158341 -0.098112613 0.055280101
-0.33179274 -0.098003164 0.055391368
-0.33197218 -0.097930364 0.055343546
-0.33213815 -0.097879142 0.055189658
-0.33232254 -0.097792469 0.055221401
-0.33250675 -0.097716548 0.05518049
-0.33272436 -0.097600698 0.055310186
-0.33287767 -0.097559161 0.055128649
-0.33307981 -0.097456977 0.055212259
-0.33326501 -0.097380102 0.055174805
-0.33344173 -0.097308174 0.055129297
-0.33362597 -0.097224943 0.055137984
-0.33380514 -0.097150244 0.055104002
-0.33400738 -0.097063586 0.055081502
-0.3341819 -0.096989423 0.055057913
-0.33436459 -0.096905857 0.055073529
-0.33454186 -0.096833527 0.055029169
-0.33471933 -0.096758567 0.055002123
-0.33490002 -0.096679971 0.054990061
-0.33507648 -0.096615776 0.054892659
-0.33525601 -0.096531421 0.054923266
-0.33546492 -0.096430622 0.054976862
-0.33563113 -0.096366256 0.054911785
-0.33584309 -0.096255288 0.055025343
-0.33601651 -0.096192293 0.0549291
-0.33621553 -0.096105367 0.054918133
-0.33639786 -0.096025541 0.05490952
-0.3365826 -0.095947683 0.054880142
-0.33676302 -0.09587004 0.054862313
-0.33695489 -0.095789015 0.054832917
-0.33713838 -0.095708154 0.054827761
-0.33732873 -0.095624417 0.054821435
-0.33749905 -0.095549062 0.05481863
-0.33769691 -0.09546183 0.054813433
-0.33788067 -0.095387615 0.054762136
-0.3380672 -0.095299482 0.054797344
-0.33825225 -0.095221825 0.054765657
-0.33841166 -0.095160633 0.054699451
-0.33860597 -0.095077507 0.054676961
-0.33881474 -0.094970509 0.054773226
-0.33898753 -0.094903886 0.054703522
-0.33919445 -0.094814144 0.054687917
-0.33936331 -0.094747402 0.054630905
-0.33955327 -0.094662815 0.054631501
-0.33975318 -0.094565846 0.054686271
-0.33992618 -0.094499141 0.054616556
-0.3401143 -0.094416723 0.054607928
-0.34028265 -0.094352759 0.054533616
-0.34047762 -0.09426342 0.054551501
-0.34066701 -0.09418197 0.054532483
-0.34084737 -0.094105698 0.054505426
-0.34104902 -0.094011858 0.054533668
-0.34122348 -0.093939766 0.05449624
-0.3414095 -0.093859978 0.054476086
-0.34161082 -0.093766794 0.054500878
-0.34179673 -0.093691289 0.054451883
-0.3419804 -0.093614079 0.05442135
-0.34216422 -0.09353476 0.054404669
-0.34235781 -0.093447708 0.05441102
-0.34253588 -0.093378246 0.054344751
-0.34271279 -0.093304031 0.054314233
-0.34292319 -0.093204439 0.054355141
-0.34310642 -0.093126059 0.054333843
-0.3433181 -0.093037084 0.054298609
-0.34349915 -0.092962898 0.054255411
-0.34368613 -0.092880987 0.054246787
-0.34388414 -0.092790283 0.054264661
-0.344064 -0.092711717 0.054254897
-0.34423739 -0.092643313 0.054195568
-0.34443992 -0.092556015 0.054176513
-0.34462816 -0.092465773 0.054220941
-0.34482256 -0.092380896 0.054209989
-0.34499723 -0.092309549 0.054166794
-0.34519711 -0.092225127 0.054136224
-0.24638915 -0.1354544 0.059048507
-0.24660572 -0.13536188 0.059022479
-0.24682631 -0.13527064 0.058975674
-0.24706453 -0.13517699 0.058891915
-0.24729282 -0.13508552 0.058823176
-0.24753375 -0.13499202 0.058730185
-0.24776214 -0.13490087 0.05865914
-0.24801601 -0.13480552 0.058539573
-0.24825251 -0.13471566 0.05843506
-0.2484664 -0.13462435 0.058409039
-0.24867287 -0.13453497 0.058392264
-0.24889663 -0.13444334 0.05833853
-0.24911375 -0.13435362 0.058291741
-0.24932785 -0.13426273 0.058262259
-0.24955037 -0.13417299 0.058199309
-0.24977623 -0.13408178 0.058136337
-0.2499989 -0.13399231 0.058071077
-0.25023082 -0.13390112 0.057989649
-0.25043845 -0.13381259 0.057963643
-0.25066626 -0.13372186 0.057891451
-0.25088963 -0.13363293 0.057820424
-0.25111088 -0.13354275 0.057764392
-0.25132939 -0.13345429 0.057704903
-0.25155494 -0.13336423 0.057635024
-0.25177401 -0.13327603 0.057572085
-0.25199515 -0.1331864 0.057512596
-0.25221887 -0.13309835 0.057434637
-0.25244054 -0.13300899 0.057371691
-0.25266352 -0.13292126 0.057293743
-0.25289297 -0.13283201 0.057206545
-0.25309306 -0.13274513 0.057192095
-0.25331539 -0.13265632 0.057123378
-0.25352418 -0.13256948 0.057082377
-0.25374547 -0.13248098 0.057014823
-0.25395882 -0.13239428 0.056958813
-0.25416994 -0.13230623 0.056918956
-0.25438547 -0.13221979 0.056854874
-0.2545968 -0.13213198 0.056812707
-0.25481012 -0.13204582 0.056753241
-0.25502518 -0.13195822 0.056698389
-0.25523719 -0.13187079 0.056651611
-0.25545162 -0.13178346 0.05659676
-0.25565797 -0.13169786 0.056554604
-0.25586647 -0.13161081 0.056515913
-0.25607532 -0.13152546 0.056464538
-0.25628215 -0.13143864 0.056429308
-0.25648856 -0.13135351 0.056383707
-0.25670204 -0.13126697 0.056326538
-0.25691107 -0.13118051 0.056282081
-0.2571187 -0.13109417 0.056241091
-0.25731957 -0.13100949 0.056209337
-0.25752375 -0.13092333 0.056177575
-0.25773486 -0.13083902 0.056112349
-0.25799114 -0.1307475 0.05595934
-0.25814772 -0.1306576 0.056097258
-0.25828934 -0.13057873 0.056205235
-0.25851005 -0.13049506 0.056106534
-0.2588321 -0.13041243 0.055693835
-0.25901431 -0.13032994 0.055703659
-0.25916415 -0.13023828 0.055873889
-0.25935543 -0.13015939 0.05583179
-0.25956431 -0.13007452 0.055776943
-0.25976098 -0.12999104 0.055749819
-0.25996369 -0.12990619 0.055713456
-0.26016134 -0.12982295 0.055681713
-0.26037127 -0.12973696 0.055631481
-0.26056042 -0.12965527 0.055614766
-0.26076156 -0.12957081 0.055580705
-0.26096764 -0.12948498 0.055540867
-0.26115212 -0.12940335 0.055537999
-0.26135221 -0.12932087 0.055493563
-0.26155418 -0.12923689 0.05545374
-0.26175088 -0.129151 0.055442762
-0.26194087 -0.12906829 0.055430651
-0.26213503 -0.1289859 0.055403538
-0.26233336 -0.12890387 0.055361416
-0.2625238 -0.12882143 0.055345837
-0.26270613 -0.12873855 0.055357967
-0.26289278 -0.12865426 0.055366628
-0.26307297 -0.12857132 0.055385679
-0.2632367 -0.1284872 0.055462457
-0.2634019 -0.12839957 0.055558827
-0.26352698 -0.1283123 0.0557741
-0.26246858 -0.12770176 0.063135132
-0.26251435 -0.12759553 0.063719697
-0.26272494 -0.12751229 0.063648716
-0.26313594 -0.12722665 0.064348638
-0.26519394 -0.1268214 0.060875673
-0.26540631 -0.12673755 0.060803525
-0.26559225 -0.12663849 0.060914822
-0.26583651 -0.12654485 0.060812593
-0.26602346 -0.12646212 0.060809709
-0.26620179 -0.1263783 0.060840312
-0.26640898 -0.12629029 0.060812
-0.26660365 -0.1262109 0.060762972
-0.26678434 -0.12613994 0.060698994
-0.26698887 -0.12604362 0.06073527
-0.26719594 -0.12596227 0.060661986
-0.26737562 -0.12588109 0.060670666
-0.26758355 -0.12578547 0.060691942
-0.26776218 -0.1257 0.060732916
-0.26792207 -0.12562419 0.060764715
-0.26815259 -0.12554091 0.060633704
-0.26834181 -0.12547444 0.060513183
-0.26850736 -0.12538698 0.060607247
-0.26873595 -0.12528457 0.060612313
-0.26890928 -0.12520924 0.060600262
-0.26913294 -0.12511916 0.06053615
-0.26931798 -0.12503526 0.060547113
-0.26948398 -0.12496319 0.060535081
-0.26966059 -0.12488217 0.060551837
-0.26989332 -0.12478773 0.060490005
-0.27007255 -0.1247096 0.060479082
-0.27028832 -0.124621 0.060428839
-0.27048072 -0.12454127 0.060389034
-0.27064598 -0.12446275 0.060423132
-0.27084383 -0.12437754 0.060404085
-0.27102056 -0.12430155 0.060386244
-0.27119875 -0.12421679 0.060423754
-0.27140087 -0.12413968 0.060336642
-0.27158141 -0.12406251 0.060315333
-0.27176049 -0.12397344 0.060379371
-0.27199519 -0.123881 0.060297932
-0.27214298 -0.12380567 0.060363218
-0.27234405 -0.1237314 0.060259968
-0.27253702 -0.12364108 0.060290512
-0.2727291 -0.12356013 0.060259942
-0.27290985 -0.12347879 0.060266308
-0.27309042 -0.12339263 0.060306124
-0.2732923 -0.12331207 0.060243241
-0.27345809 -0.12323179 0.060287707
