# .PCD v0.7 - Point Cloud Data file format
VERSION 0.7
FIELDS x y z
SIZE 4 4 4
TYPE F F F
COUNT 1 1 1
WIDTH 1048
HEIGHT 1
VIEWPOINT 0 0 0 1 0 0 0
POINTS 1048
DATA ascii
-0.16380914 -0.45589155 0.025433082
-0.16394407 -0.45596445 0.025443854
-0.16407488 -0.4560383 0.0254339
-0.16420773 -0.45611399 0.025419317
-0.1643391 -0.45618707 0.025416277
-0.16447119 -0.4562636 0.025393629
-0.16459528 -0.45634124 0.025335271
-0.16472299 -0.45641857 0.025291881
-0.16484734 -0.45649549 0.025239291
-0.16498996 -0.45656762 0.025282314
-0.16513057 -0.4566381 0.025328817
-0.16526087 -0.45671222 0.025315396
-0.16538437 -0.45678973 0.025255891
-0.16552348 -0.45686206 0.025285095
-0.16565856 -0.45693487 0.025297023
-0.16578543 -0.45701247 0.025249027
-0.1659236 -0.45708212 0.025292074
-0.1660575 -0.45715624 0.025291333
-0.16618885 -0.45723292 0.025265219
-0.16632308 -0.45730668 0.025267934
-0.16645758 -0.45738024 0.025272941
-0.16658521 -0.45745662 0.025235329
-0.16671544 -0.45753053 0.025223058
-0.16684636 -0.4576073 0.025194647
-0.16698395 -0.45767808 0.025228478
-0.1671181 -0.45775199 0.025230035
-0.16724731 -0.45782673 0.025208553
-0.1673812 -0.45790085 0.025207801
-0.16750996 -0.45797589 0.02518286
-0.1681516 -0.45823264 0.025812417
-0.16870867 -0.45846137 0.02632135
-0.16882896 -0.45854393 0.026218031
-0.16895133 -0.45862475 0.026133157
-0.16907798 -0.45870242 0.026084011
-0.16920672 -0.4587785 0.026052155
-0.16933596 -0.45885724 0.026005296
-0.17052312 -0.45943603 0.026502633
-0.17092198 -0.45976427 0.025809588
-0.17106137 -0.45983946 0.025821494
-0.17120361 -0.45991316 0.025852991
-0.17136998 -0.4599877 0.025965083
-0.1715275 -0.4600566 0.026081834
-0.17164801 -0.46012098 0.026096152
-0.17175883 -0.46019793 0.025995193
-0.17187759 -0.46028107 0.025882661
-0.17199065 -0.46035907 0.025782852
-0.17212841 -0.46043533 0.025782079
-0.17226268 -0.46050823 0.025790552
-0.17241457 -0.46057814 0.025880806
-0.17256585 -0.46065596 0.025918024
-0.17268503 -0.4607431 0.025781265
-0.17280099 -0.46083134 0.025626078
-0.17291281 -0.46092337 0.0254317
-0.17302077 -0.46100232 0.0253077
-0.17312114 -0.46107942 0.025168754
-0.17324287 -0.46115702 0.02510233
-0.17337522 -0.4612326 0.025086598
-0.17350571 -0.46130431 0.025089325
-0.17364877 -0.46137813 0.025123127
-0.17379166 -0.46144754 0.025184605
-0.17393759 -0.46151829 0.025248367
-0.17408398 -0.46158677 0.025328273
-0.17423867 -0.46165696 0.025426591
-0.17439097 -0.46172604 0.025523761
-0.18145059 -0.46205804 0.048478063
-0.1816107 -0.46214721 0.048473712
-0.181759 -0.4622345 0.048439439
-0.1819116 -0.46231845 0.048442043
-0.18205027 -0.46240094 0.048404362
-0.18220985 -0.4624857 0.048426528
-0.18237789 -0.4625825 0.048401367
-0.18252414 -0.46266794 0.048371725
-0.1826762 -0.46276125 0.048312053
-0.18283907 -0.4628455 0.048349198
-0.18301024 -0.46293721 0.048367843
-0.18315031 -0.46303287 0.048250578
-0.18331522 -0.46311912 0.048281953
-0.18348491 -0.4632068 0.048321363
-0.18366304 -0.46329966 0.048357274
-0.18379858 -0.46339369 0.048234265
-0.1839664 -0.46348408 0.048249479
-0.18413284 -0.4635748 0.048257768
-0.18429169 -0.463669 0.048216511
-0.18444777 -0.46375504 0.048217949
-0.18461493 -0.46384364 0.048242383
-0.18477814 -0.46393505 0.048234552
-0.18492183 -0.46402949 0.048138026
-0.18507425 -0.46411619 0.048122179
-0.18523331 -0.46420407 0.04812244
-0.18541458 -0.46429509 0.0481814
-0.18557261 -0.46439153 0.048122849
-0.18573305 -0.4644773 0.04814155
-0.18590778 -0.46457565 0.048130199
-0.18605973 -0.46466261 0.048110895
-0.18622245 -0.46474624 0.048151501
-0.18640891 -0.46483725 0.048228882
-0.18654321 -0.46492848 0.048119716
-0.18670121 -0.46502492 0.048061173
-0.1868442 -0.46511894 0.047964651
-0.18700388 -0.46520913 0.047952224
-0.18717045 -0.46530062 0.047955904
-0.18733464 -0.46538848 0.047974594
-0.1874876 -0.4654814 0.047920689
-0.18765417 -0.46556911 0.047948584
-0.18781154 -0.46566358 0.047900416
-0.18797973 -0.46575901 0.047884483
-0.18812943 -0.46584836 0.04784213
-0.18829325 -0.46593651 0.047857355
-0.18846744 -0.46603349 0.047852926
-0.18861645 -0.46612102 0.047819801
-0.18877998 -0.46620938 0.047832727
-0.18894173 -0.4662998 0.047826044
-0.1891057 -0.46639201 0.047815904
-0.18924074 -0.46647862 0.047739036
-0.18941315 -0.46656847 0.047773823
-0.18958224 -0.46666604 0.047747504
-0.18973386 -0.46675536 0.047712054
-0.18989979 -0.46684578 0.047720347
-0.19005781 -0.46693847 0.047686022
-0.19021462 -0.46702939 0.047658622
-0.19037928 -0.46711999 0.047661152
-0.19054373 -0.46721065 0.047662545
-0.19068155 -0.46729699 0.047597185
-0.19088969 -0.46739161 0.047728647
-0.19103147 -0.46748498 0.047632132
-0.1911837 -0.46757266 0.047609374
-0.19134541 -0.4676654 0.047587704
-0.19150418 -0.46775472 0.04757759
-0.19168618 -0.46784884 0.047619242
-0.19183987 -0.46794361 0.047556106
-0.19200452 -0.46803296 0.047566716
-0.19215998 -0.46812421 0.047532402
-0.19231421 -0.4682155 0.047493476
-0.19248182 -0.46830669 0.047502924
-0.19264829 -0.46839795 0.047507755
-0.19280133 -0.46848929 0.047464225
-0.19298394 -0.4685823 0.047515102
-0.19313723 -0.4686754 0.047461197
-0.19327785 -0.46876508 0.047384292
-0.19344981 -0.4688549 0.047417928
-0.19360012 -0.46894798 0.047353659
-0.19375969 -0.46903613 0.047353916
-0.19392981 -0.4691278 0.047369108
-0.1940964 -0.46921948 0.047371641
-0.19426224 -0.46930626 0.047403
-0.19443892 -0.46940154 0.047418155
-0.19457994 -0.46949449 0.04732164
-0.19473808 -0.46958455 0.047304612
-0.19488642 -0.46967599 0.047243811
-0.19506647 -0.46976832 0.047290094
-0.19523439 -0.46986198 0.047284536
-0.19538176 -0.46995506 0.047209896
-0.19553222 -0.47004497 0.047166385
-0.19570833 -0.47013745 0.0471977
-0.19586994 -0.47023103 0.047170263
-0.19602612 -0.47032127 0.047145173
-0.19620064 -0.47041231 0.047179945
-0.19637559 -0.47050503 0.047205489
-0.19653018 -0.47059688 0.047164261
-0.19669485 -0.47068769 0.047165643
-0.19684868 -0.47078109 0.047111735
-0.19702581 -0.47087574 0.047132656
-0.19717598 -0.47097051 0.04705685
-0.19734132 -0.47106153 0.047059387
-0.19748776 -0.47114992 0.047011286
-0.19765002 -0.47124082 0.047003452
-0.19783869 -0.47133952 0.047039296
-0.19800028 -0.47143203 0.047018789
-0.19816889 -0.47152805 0.047000546
-0.19832048 -0.47161844 0.046958186
-0.19849227 -0.47171172 0.046968758
-0.19864458 -0.47180071 0.04693792
-0.19880962 -0.47189066 0.04694622
-0.19898242 -0.47198719 0.046939489
-0.19914718 -0.4720802 0.046927031
-0.19930334 -0.47217256 0.046888098
-0.19946247 -0.47226369 0.046867602
-0.19963741 -0.47235766 0.046885077
-0.19977529 -0.4724471 0.046800107
-0.19995011 -0.47254261 0.046807203
-0.2001138 -0.47263432 0.046799373
-0.20027763 -0.47272751 0.046782311
-0.20045558 -0.47282493 0.046788231
-0.20062698 -0.4729175 0.046802264
-0.20078334 -0.47301444 0.046734504
-0.20095736 -0.47310737 0.046755441
-0.20110235 -0.47319749 0.04669119
-0.20126909 -0.47328979 0.046690263
-0.20142448 -0.47337958 0.046665177
-0.20159936 -0.47347426 0.046678033
-0.20177995 -0.47357243 0.046688557
-0.20194721 -0.473665 0.046687614
-0.20211528 -0.47376055 0.046670534
-0.20227373 -0.47385508 0.046625827
-0.20243603 -0.47394729 0.046609923
-0.2025854 -0.47403803 0.046557188
-0.20276943 -0.47413415 0.046593059
-0.20294751 -0.47422969 0.046611667
-0.20309737 -0.47432199 0.046550859
-0.20327023 -0.47441426 0.046571802
-0.2034387 -0.47451019 0.046553567
-0.20360854 -0.47460225 0.046565298
-0.20377196 -0.47469631 0.046541322
-0.20390573 -0.47478667 0.046435621
-0.20408982 -0.47488338 0.046468031
-0.20426023 -0.47497845 0.046462473
-0.20441933 -0.47507206 0.046425831
-0.20455575 -0.4751614 0.046336263
-0.20472512 -0.47525641 0.046327241
-0.20490146 -0.47535241 0.046336628
-0.20507841 -0.47544858 0.046347171
-0.20525511 -0.47554478 0.046356566
-0.20542333 -0.47563988 0.046342932
-0.20559384 -0.47573534 0.046335064
-0.20575534 -0.47582957 0.046303019
-0.20592433 -0.47592494 0.046290539
-0.20609784 -0.47602099 0.046289574
-0.20625523 -0.47611475 0.046246015
-0.2064378 -0.47621223 0.046268065
-0.20659316 -0.47630575 0.046218757
-0.20680627 -0.47640795 0.046319049
-0.20693156 -0.47649702 0.046191487
-0.20711124 -0.47659433 0.046204325
-0.20729426 -0.47669223 0.046225205
-0.20745677 -0.47678706 0.046193164
-0.20761801 -0.47688168 0.046157662
-0.11853929 -0.42640287 0.054162167
-0.11873783 -0.42652872 0.054058462
-0.11888891 -0.42660105 0.054130293
-0.1190971 -0.42671701 0.054124564
-0.11925264 -0.42679682 0.054164078
-0.11946803 -0.42691284 0.054183673
-0.11966597 -0.42703012 0.054133024
-0.11985465 -0.42713654 0.054119319
-0.12004369 -0.4272435 0.0541033
-0.12026235 -0.42738625 0.053962596
-0.12042047 -0.42745405 0.054088581
-0.12061942 -0.42757565 0.05401371
-0.12078859 -0.42767036 0.05400588
-0.12098868 -0.42777789 0.054025557
-0.12118185 -0.42789075 0.053986453
-0.12137556 -0.42800441 0.053943895
-0.12156316 -0.42811078 0.053926736
-0.12176217 -0.42823133 0.053858783
-0.12197398 -0.42836562 0.053748094
-0.12213935 -0.42844963 0.053795632
-0.12230657 -0.42852658 0.053895049
-0.12249241 -0.42863142 0.053881362
-0.12269065 -0.42875192 0.053811103
-0.12287144 -0.42885074 0.053818196
-0.12305166 -0.42894655 0.053842593
-0.12321101 -0.42903763 0.053823285
-0.12342773 -0.42917266 0.053725254
-0.1236228 -0.42928046 0.053725351
-0.12379785 -0.42938471 0.053677127
-0.12398612 -0.42948407 0.053707246
-0.12417175 -0.42958504 0.05371777
-0.12435395 -0.42968661 0.053712171
-0.12455875 -0.42981756 0.053598065
-0.12469595 -0.42988849 0.053629611
-0.12488309 -0.42998937 0.053645898
-0.12509917 -0.43011564 0.053602058
-0.12528946 -0.43022597 0.053568751
-0.12547123 -0.43032786 0.053559691
-0.12565333 -0.43043026 0.053548329
-0.1258408 -0.43053997 0.053509265
-0.12603104 -0.43065351 0.053455189
-0.12619901 -0.43073753 0.053511944
-0.1263961 -0.43086061 0.053420939
-0.12654217 -0.43093106 0.053487025
-0.12675723 -0.43106034 0.053420138
-0.12691934 -0.43115526 0.05338582
-0.12709132 -0.43124509 0.053419486
-0.12726435 -0.43134177 0.053412784
-0.12744692 -0.43144622 0.053389892
-0.12762199 -0.43153238 0.053458136
-0.12782304 -0.43165442 0.053387854
-0.12801388 -0.43176258 0.053370688
-0.12819815 -0.43186727 0.053352397
-0.12837873 -0.43196973 0.053335276
-0.12855905 -0.43206921 0.053336605
-0.12873912 -0.4321712 0.053320646
-0.12891446 -0.43226951 0.05331162
-0.12910345 -0.43238166 0.05326217
-0.12928888 -0.43248898 0.053231183
-0.12947044 -0.43259376 0.053202532
-0.12964977 -0.43269557 0.053185418
-0.12982173 -0.43278679 0.053209864
-0.13000648 -0.43289962 0.05314083
-0.13018411 -0.43299347 0.053168699
-0.13037576 -0.4331139 0.05307541
-0.13055652 -0.43321866 0.05304445
-0.13073304 -0.43331724 0.053037729
-0.13090542 -0.43340978 0.053055257
-0.13108569 -0.4335112 0.053043906
-0.13126633 -0.43361944 0.052989881
-0.13144213 -0.43371442 0.053003922
-0.13161777 -0.43381235 0.052998364
-0.13179317 -0.43390694 0.053013556
-0.1319748 -0.43401429 0.052968752
-0.13214174 -0.43410563 0.052974772
-0.13231741 -0.43420735 0.052944999
-0.13251044 -0.43432012 0.052905906
-0.13267966 -0.4344154 0.052894615
-0.13285786 -0.43451512 0.052886724
-0.13302334 -0.43461138 0.052855857
-0.13320057 -0.4347032 0.052895255
-0.13338077 -0.43480313 0.052893132
-0.13355546 -0.43490449 0.052862205
-0.13372555 -0.43499523 0.052883193
-0.1339193 -0.43511754 0.052785289
-0.13409412 -0.43521631 0.052771658
-0.13423638 -0.43529308 0.052783579
-0.13440777 -0.43538991 0.052769966
-0.13461246 -0.43550682 0.052745797
-0.13479364 -0.43561319 0.052705616
-0.13496822 -0.43570876 0.052711584
-0.13515124 -0.43581867 0.052655242
-0.13531654 -0.43590605 0.05268088
-0.13549204 -0.43600357 0.052677624
-0.13567741 -0.43611819 0.052599367
-0.13584456 -0.43620908 0.052608833
-0.1360089 -0.436299 0.052614868
-0.13618085 -0.43639469 0.052610479
-0.13636085 -0.43650475 0.052542631
-0.13654247 -0.43660635 0.052534722
-0.13671586 -0.43670127 0.052540705
-0.13688874 -0.43679929 0.052524783
-0.13706219 -0.43689853 0.052503094
-0.13723606 -0.43699872 0.052476779
-0.13740511 -0.43708619 0.052515082
-0.13758317 -0.43719444 0.052451842
-0.13775946 -0.43729973 0.052401312
-0.13792212 -0.43737972 0.05246501
-0.1381053 -0.43749422 0.052379839
-0.1382658 -0.4375872 0.052352451
-0.13840762 -0.43765312 0.052432399
-0.13857898 -0.43774566 0.05244647
-0.13879046 -0.43787688 0.052354228
-0.13895604 -0.4379673 0.052361403
-0.1391241 -0.43806264 0.052345507
-0.13930175 -0.43817282 0.052268445
-0.13947076 -0.43826601 0.052269831
-0.13962382 -0.4383547 0.052243643
-0.1398036 -0.43846083 0.052200001
-0.13999179 -0.43856105 0.052224349
-0.14015743 -0.43864793 0.052254591
-0.14031041 -0.43874192 0.052193806
-0.14048058 -0.43882877 0.052240163
-0.14063635 -0.43891445 0.052242778
-0.14082614 -0.43903348 0.052151814
-0.14100514 -0.43913975 0.052104726
-0.14116633 -0.43922773 0.052111924
-0.14134207 -0.43932733 0.052095979
-0.14150193 -0.43941259 0.052115873
-0.14166726 -0.43951023 0.052075777
-0.14183356 -0.43960494 0.052057587
-0.1420106 -0.43970296 0.052056618
-0.14216393 -0.43978998 0.052041955
-0.14232829 -0.43988633 0.052006476
-0.14249773 -0.43997815 0.052018248
-0.14267509 -0.44007757 0.052009214
-0.14285019 -0.44017756 0.051988672
-0.14300317 -0.44025883 0.052009754
-0.14318536 -0.4403708 0.051937275
-0.14336218 -0.44047585 0.051890187
-0.14352427 -0.44056845 0.051870868
-0.14368568 -0.44065332 0.051898822
-0.14387114 -0.44076279 0.051853999
-0.14405164 -0.44085965 0.051872633
-0.14421771 -0.44095069 0.051877506
-0.14439514 -0.44105929 0.051809661
-0.14454469 -0.44114584 0.051784638
-0.14468543 -0.44121516 0.051839229
-0.14485785 -0.44131076 0.051837139
-0.14504737 -0.44141999 0.051808443
-0.1452122 -0.44151571 0.05177873
-0.1453661 -0.44159424 0.051820561
-0.14553328 -0.44169739 0.051751621
-0.14570171 -0.44179726 0.05170805
-0.14586411 -0.44188678 0.051709473
-0.14603052 -0.44198105 0.05169474
-0.14621973 -0.44208381 0.051706407
-0.14637411 -0.4421725 0.051684819
-0.14653808 -0.44226792 0.051653948
-0.14669563 -0.44235083 0.051680773
-0.14687458 -0.44245419 0.051652133
-0.14701378 -0.44252712 0.051677898
-0.14718281 -0.44262338 0.051659688
-0.14736472 -0.44272909 0.051626414
-0.147531 -0.44282544 0.051597841
-0.14768964 -0.44292277 0.051535867
-0.14786997 -0.44302401 0.051525678
-0.14803639 -0.44312224 0.051485568
-0.14820223 -0.44321868 0.051454689
-0.14836134 -0.44330963 0.051435385
-0.14852634 -0.44340348 0.051418349
-0.14867881 -0.4434782 0.051479794
-0.14887547 -0.44359475 0.051429141
-0.14904796 -0.44369921 0.051370561
-0.14919694 -0.44378239 0.051365137
-0.14934227 -0.44386122 0.051374733
-0.14950451 -0.44395694 0.051335804
-0.14968126 -0.44405839 0.051311783
-0.14985961 -0.44415477 0.051325809
-0.1499968 -0.44422013 0.051393107
-0.15019195 -0.4443337 0.051356301
-0.15036029 -0.44443569 0.051298894
-0.15052471 -0.44453171 0.051265713
-0.1506872 -0.44461665 0.051297132
-0.15085155 -0.44471318 0.051260494
-0.15101571 -0.44480944 0.05122501
-0.15117683 -0.44490454 0.051186092
-0.1513418 -0.44498813 0.051234782
-0.15150581 -0.4450852 0.051193535
-0.15166925 -0.44517872 0.051173054
-0.15181163 -0.44526184 0.051144604
-0.15199551 -0.44536272 0.051149383
-0.15215951 -0.4454639 0.05108162
-0.15230492 -0.44555157 0.051034704
-0.15248382 -0.44563249 0.051150206
-0.15264809 -0.44574082 0.051037461
-0.15281205 -0.44584861 0.050927024
-0.1529744 -0.44593829 0.0509273
-0.15313672 -0.44602832 0.050925273
-0.15329966 -0.44612926 0.050855208
-0.17744693 -0.46192849 0.035082459
-0.18283333 -0.46282694 0.048448246
-0.18298721 -0.46291086 0.048455484
-0.18312983 -0.46299481 0.04842243
-0.18327865 -0.46308205 0.048390493
-0.18341972 -0.46317071 0.048321694
-0.18358891 -0.4632563 0.048372671
-0.18375444 -0.46334487 0.048391376
-0.18390669 -0.46344027 0.048319068
-0.18406487 -0.46352583 0.048330892
-0.1842455 -0.46361417 0.048404872
-0.18440618 -0.46370813 0.048371714
-0.18456388 -0.46380046 0.048338577
-0.18474519 -0.46389329 0.04838603
-0.18488519 -0.46398836 0.048272267
-0.18502901 -0.4640764 0.048217289
-0.18520893 -0.46416542 0.048284359
-0.18535568 -0.46425721 0.048215531
-0.18550359 -0.46434465 0.048178978
-0.18569927 -0.46443182 0.048313998
-0.18586104 -0.46452782 0.048271611
-0.18601727 -0.46462452 0.048205033
-0.18618099 -0.46471819 0.048184551
-0.18634093 -0.46481031 0.048160624
-0.18650511 -0.46489993 0.048167806
-0.18664676 -0.46499017 0.048090938
-0.18681157 -0.46507978 0.048100427
-0.18698248 -0.4651728 0.048109882
-0.18714501 -0.46526077 0.048121683
-0.187309 -0.46535856 0.048075829
-0.18746203 -0.46544757 0.048047327
-0.18762362 -0.46553773 0.048041835
-0.18778719 -0.4656297 0.048031736
-0.18794408 -0.46572229 0.047993988
-0.1881002 -0.46581301 0.047965471
-0.18826503 -0.46590495 0.047959961
-0.18841696 -0.46599033 0.047951072
-0.1886166 -0.46608165 0.048073374
-0.18872598 -0.46617213 0.047880217
-0.1889254 -0.46625993 0.048024438
-0.1890873 -0.46635798 0.047969364
-0.18923832 -0.46645108 0.047907431
-0.18939754 -0.46653995 0.047901951
-0.18954951 -0.46662927 0.0478677
-0.18974131 -0.46672377 0.04794161
-0.18989888 -0.46681654 0.047905017
-0.19005378 -0.46690947 0.047858052
-0.19020197 -0.46699902 0.047808819
-0.19036703 -0.46709147 0.04780101
-0.19052066 -0.46718261 0.047760971
-0.19068825 -0.46727502 0.047762375
-0.19085413 -0.46736577 0.047768399
-0.19102071 -0.46745655 0.047776718
-0.19117999 -0.46754935 0.047745883
-0.19134459 -0.46764031 0.047746148
-0.19150482 -0.4677349 0.04770723
-0.19164422 -0.46782121 0.04764767
-0.19182721 -0.46791714 0.047681265
-0.19199137 -0.46800998 0.047667701
-0.19215035 -0.4681012 0.04764609
-0.19231191 -0.46819243 0.047633678
-0.19247769 -0.46828365 0.047636244
-0.19264452 -0.46837494 0.047642265
-0.19281146 -0.46846968 0.047626365
-0.19295412 -0.46855941 0.047556408
-0.19311345 -0.46864742 0.047556709
-0.19331266 -0.46874064 0.047665175
-0.19346014 -0.46883717 0.047568668
-0.19362622 -0.46892875 0.04757008
-0.19376896 -0.46902013 0.047489744
-0.19392538 -0.46910834 0.047478523
-0.19411419 -0.46920532 0.047525927
-0.19427261 -0.46929696 0.047499705
-0.19445324 -0.46938905 0.047549471
-0.19458993 -0.46948031 0.047448404
-0.19476442 -0.46957403 0.04746592
-0.19492516 -0.46967071 0.047415461
-0.19508758 -0.46976259 0.047401898
-0.19525076 -0.46985292 0.047401018
-0.19541368 -0.4699465 0.047378235
-0.19557598 -0.4700385 0.04736352
-0.19572973 -0.47012863 0.047330398
-0.19589843 -0.47022092 0.047336407
-0.1960623 -0.47031468 0.047315914
-0.19623712 -0.47040895 0.047331121
-0.19640054 -0.47050121 0.047318701
-0.19656464 -0.47059509 0.047298208
-0.19673041 -0.47069222 0.047262721
-0.19689105 -0.47078133 0.047260705
-0.19705716 -0.47087544 0.047245972
-0.19722192 -0.4709695 0.047226626
-0.19738999 -0.47106379 0.047217652
-0.19753927 -0.47115394 0.047168415
-0.19769564 -0.47124606 0.047131818
-0.19786045 -0.47133875 0.0471217
-0.19804114 -0.47143248 0.047161087
-0.19819015 -0.47152573 0.047091097
-0.19836618 -0.47161779 0.047124743
-0.19853289 -0.4717108 0.047119223
-0.19871192 -0.47180775 0.047132093
-0.19885606 -0.47189918 0.047056362
-0.19903378 -0.47199613 0.047064632
-0.1992044 -0.47209111 0.047060251
-0.1993508 -0.47218272 0.046991423
-0.19951713 -0.47227299 0.047002055
-0.19968475 -0.47236344 0.047016136
-0.19983818 -0.47245717 0.046958812
-0.20000893 -0.47255385 0.046944052
-0.20017889 -0.47264612 0.046954665
-0.20033664 -0.47273883 0.046919219
-0.20050415 -0.4728339 0.04690332
-0.20068152 -0.47292846 0.046925429
-0.20086968 -0.47302994 0.046941709
-0.20102894 -0.47312295 0.046909716
-0.20118156 -0.47321388 0.046867382
-0.20133811 -0.47330809 0.046818096
-0.20150746 -0.47340074 0.046824101
-0.20167047 -0.47349706 0.046784017
-0.20185281 -0.47359261 0.046817631
-0.20203172 -0.47368932 0.046831653
-0.20220602 -0.47378418 0.046841089
-0.20237848 -0.47388592 0.046799794
-0.20253666 -0.47397491 0.046789713
-0.202676 -0.47406459 0.046708249
-0.20285472 -0.47416157 0.046719961
-0.20302325 -0.47425881 0.046693686
-0.20318949 -0.47435027 0.046696249
-0.20336898 -0.47444892 0.046699889
-0.20352177 -0.47454301 0.046637949
-0.20368946 -0.47463617 0.046634734
-0.20385309 -0.47472891 0.046620015
-0.20403266 -0.47482777 0.046622504
-0.20420183 -0.47492266 0.046613514
-0.20437177 -0.47501907 0.046597611
-0.20454286 -0.47511432 0.046593226
-0.20470557 -0.47520581 0.046583124
-0.20485942 -0.47529888 0.046531551
-0.20501906 -0.47539404 0.046486869
-0.20518261 -0.4754898 0.046452552
-0.20535812 -0.47558585 0.046458524
-0.20551303 -0.47567913 0.046409246
-0.20569228 -0.47577584 0.046424426
-0.20585096 -0.47587103 0.046376292
-0.20602876 -0.47596768 0.04638686
-0.2062104 -0.47606623 0.046398569
-0.20638505 -0.47616255 0.046399925
-0.20654851 -0.47625861 0.046363302
-0.20672786 -0.47635573 0.046376169
-0.20688574 -0.47645101 0.046324577
-0.20706417 -0.47654942 0.046325926
-0.2072432 -0.47664797 0.046328411
-0.207412 -0.47674376 0.046312511
-0.20760083 -0.47684398 0.046339169
-0.20776585 -0.47693926 0.046312902
-0.1185115 -0.4263452 0.054434188
-0.11868586 -0.42644906 0.054385956
-0.12489662 -0.43334323 0.032128669
-0.12505433 -0.43343088 0.03212551
-0.12520325 -0.43350813 0.032158151
-0.12536237 -0.43359762 0.032148063
-0.12551525 -0.43367976 0.032163374
-0.12567106 -0.43376544 0.032165997
-0.12582399 -0.43384778 0.032180157
-0.12597086 -0.43392852 0.032182824
-0.12615006 -0.43403724 0.03212072
-0.12249105 -0.42860636 0.054037772
-0.12268738 -0.42872453 0.053975586
-0.12287451 -0.42882901 0.053968798
-0.1230685 -0.42894465 0.053914692
-0.12325007 -0.42904481 0.053916022
-0.1234315 -0.42914486 0.053917341
-0.12360531 -0.42923534 0.053953309
-0.12379664 -0.42934826 0.053907283
-0.12397213 -0.42944592 0.053902879
-0.12417118 -0.42956418 0.053849895
-0.12436005 -0.42967448 0.053811964
-0.12453708 -0.42976958 0.053829465
-0.12472697 -0.42988151 0.053784609
-0.12490873 -0.42998302 0.053777851
-0.12508199 -0.43007356 0.053811509
-0.12527411 -0.43018886 0.053752802
-0.12545934 -0.43029535 0.053726427
-0.12563598 -0.43039063 0.053741612
-0.12582557 -0.4305006 0.053708296
-0.12600999 -0.43060642 0.053683076
-0.12620084 -0.43072104 0.053624377
-0.12637982 -0.43081993 0.053624563
-0.12656082 -0.43091905 0.053630494
-0.12673928 -0.43101749 0.053631831
-0.12691829 -0.43111676 0.053629708
-0.12710068 -0.43122077 0.053609118
-0.12728819 -0.43132922 0.053578109
-0.12747523 -0.43143994 0.053530961
-0.12764877 -0.43153223 0.053554241
-0.12783042 -0.43163583 0.053533655
-0.12801884 -0.43174624 0.053493414
-0.12819242 -0.4318389 0.053514384
-0.12837863 -0.43194935 0.053466089
-0.12855744 -0.43204957 0.053457044
-0.12874585 -0.43216068 0.053412199
-0.12893033 -0.43226925 0.053369679
-0.12910406 -0.43236274 0.05338604
-0.12927647 -0.43245441 0.053409327
-0.12945756 -0.4325586 0.053382974
-0.12963623 -0.43265948 0.053369313
-0.12981559 -0.43275857 0.053369496
-0.12999892 -0.43286651 0.053326983
-0.13017453 -0.43296927 0.053290274
-0.13034943 -0.43305928 0.053333152
-0.13053875 -0.43317357 0.053271003
-0.13071294 -0.43326876 0.053278133
-0.13088742 -0.43336442 0.053282946
-0.13106655 -0.43346718 0.053258918
-0.13125232 -0.433577 0.053212922
-0.13142711 -0.43367359 0.053213131
-0.13160385 -0.43377322 0.05320064
-0.13178262 -0.43387613 0.053174302
-0.13196161 -0.43397948 0.053145647
-0.13213566 -0.43407547 0.053147011
-0.13230348 -0.43415868 0.053208373
-0.13248722 -0.43426991 0.053146254
-0.13266909 -0.43437847 0.053094521
-0.13284546 -0.43447861 0.053077422
-0.13303274 -0.43459287 0.053008355
-0.1332089 -0.43469307 0.052990101
-0.13337699 -0.43478054 0.053024948
-0.13355972 -0.43489155 0.052960522
-0.13373508 -0.43498755 0.052966498
-0.13390426 -0.43507707 0.052992098
-0.13405575 -0.43516883 0.052940533
-0.13421504 -0.4352597 0.052922364
-0.13440782 -0.4353779 0.052847508
-0.13460891 -0.43547842 0.052915622
-0.13479035 -0.4355889 0.052850045
-0.13493836 -0.43566152 0.052909214
-0.13513367 -0.43577412 0.052879326
-0.13530856 -0.43587416 0.052857619
-0.1354847 -0.43597651 0.052825522
-0.13566233 -0.43608165 0.052780733
-0.13582774 -0.43616584 0.052827124
-0.13600099 -0.43625996 0.052837715
-0.13617717 -0.43635926 0.052825227
-0.1363561 -0.43646747 0.052765444
-0.1365273 -0.43656224 0.052764509
-0.13669853 -0.43665326 0.052787803
-0.13688439 -0.43677065 0.052693378
-0.13704851 -0.43685308 0.052746691
-0.1372295 -0.43696225 0.052688047
-0.1373876 -0.437058 0.052634135
-0.13756001 -0.43715593 0.052617058
-0.13772981 -0.4372451 0.052647274
-0.13792229 -0.43735182 0.052645076
-0.13809675 -0.43745413 0.052607223
-0.13827649 -0.43756673 0.05252206
-0.13843988 -0.43764839 0.052577674
-0.13861361 -0.43774563 0.052569821
-0.13878846 -0.43784958 0.052522738
-0.1389486 -0.43793821 0.052521873
-0.13909121 -0.43801466 0.05253724
-0.13927439 -0.43812233 0.052495882
-0.1394261 -0.4382081 0.052483525
-0.1395973 -0.43830124 0.05249298
-0.13976905 -0.43840027 0.052466676
-0.13994385 -0.43850583 0.052409213
-0.14011586 -0.43859637 0.05243827
-0.14031844 -0.43871731 0.052380659
-0.14046437 -0.43879682 0.052387942
-0.14062551 -0.43888423 0.0523986
-0.14082116 -0.43901601 0.052246451
-0.14098959 -0.43909958 0.052307822
-0.14115769 -0.43918741 0.052340351
-0.14133671 -0.43929943 0.052256338
-0.14149758 -0.43938184 0.052298144
-0.14167966 -0.4394803 0.052312151
-0.1418795 -0.4395979 0.052266091
-0.14204252 -0.43969086 0.052247904
-0.14220649 -0.43978071 0.052252777
-0.14238401 -0.43988025 0.052243743
-0.14253436 -0.4399606 0.052261379
-0.14269572 -0.44005027 0.052258201
-0.14289126 -0.44017664 0.052140653
-0.14305326 -0.44026846 0.052125931
-0.14323016 -0.44036764 0.052116901
-0.14338824 -0.44045603 0.052110281
-0.14355321 -0.44054985 0.052093245
-0.14373729 -0.44064313 0.052147601
-0.14391759 -0.44075191 0.052088957
-0.14408466 -0.44085193 0.052039605
-0.14424074 -0.440936 0.052053761
-0.14441052 -0.44102407 0.052090898
-0.14458045 -0.44112602 0.052039232
-0.14474551 -0.44122168 0.052010655
-0.14490847 -0.44131872 0.051965944
-0.14509857 -0.44142285 0.051971827
-0.14524551 -0.44150296 0.051979106
-0.14539638 -0.44158736 0.051972523
-0.14559056 -0.44170418 0.051911496
-0.14577037 -0.44180083 0.051928975
-0.14592391 -0.44188637 0.051924683
-0.1460626 -0.44195721 0.051961988
-0.14626476 -0.44207683 0.051911298
-0.14644644 -0.44218835 0.051839963
-0.14660892 -0.44227919 0.051833317
-0.14676699 -0.44236398 0.05184976
-0.14694545 -0.44246599 0.051828034
-0.14710043 -0.44254929 0.051843334
-0.14725763 -0.44264042 0.051815961
-0.14742151 -0.44273743 0.051774703
-0.14760447 -0.44283834 0.051776014
-0.14777148 -0.44293815 0.051727824
-0.14793199 -0.44303364 0.051684286
-0.14808434 -0.4431079 0.051748045
-0.14824724 -0.44321352 0.051647972
-0.14840731 -0.4432978 0.051674783
-0.1485762 -0.44339687 0.051638119
-0.14876115 -0.44349727 0.051649801
-0.1489253 -0.44358814 0.051648915
-0.1490773 -0.44367245 0.051646933
-0.14923239 -0.44375902 0.051641479
-0.14939664 -0.44383827 0.05171556
-0.14958505 -0.4439562 0.05162688
-0.14974882 -0.44406012 0.051540643
-0.14990662 -0.44414818 0.051535182
-0.15008286 -0.44424808 0.051519223
-0.15025754 -0.44433975 0.051550575
-0.15040916 -0.44442457 0.051543988
-0.15055566 -0.44451195 0.051502828
-0.15076523 -0.44463244 0.05147285
-0.15092453 -0.44473264 0.051394716
-0.15107462 -0.44480962 0.05143312
-0.15123478 -0.44489828 0.051432244
-0.15140431 -0.44499463 0.051415183
-0.15158021 -0.44509757 0.051378474
-0.15174636 -0.44519079 0.051369499
-0.15189706 -0.44527313 0.051375605
-0.15208527 -0.4453879 0.051306542
-0.15224177 -0.44547236 0.051319525
-0.15239197 -0.44555122 0.051346399
-0.15255214 -0.44564489 0.051313233
-0.15272725 -0.44574684 0.051279992
-0.15288089 -0.44583368 0.051267624
-0.15304081 -0.44592831 0.05122754
-0.15322396 -0.44602519 0.051255386
-0.15338345 -0.44611546 0.05124183
-0.1535372 -0.44620937 0.051184483
-0.1537022 -0.44629532 0.051218193
-0.15386158 -0.44638839 0.051186189
-0.15403885 -0.44649008 0.051162161
-0.15419193 -0.44657519 0.051159024
-0.15433884 -0.44664681 0.05122051
-0.15449788 -0.44673145 0.051241558
-0.15465994 -0.4468253 0.051214151
-0.15483081 -0.44693261 0.051131345
-0.15498956 -0.44702837 0.051079735
-0.15516633 -0.44712478 0.051088002
-0.155334 -0.44721994 0.051072098
-0.1554956 -0.4473117 0.051056232
-0.15564811 -0.4473992 0.051035792
-0.15581547 -0.44749558 0.051010665
-0.15596499 -0.44757909 0.051005237
-0.15612328 -0.44766957 0.050985929
-0.15629071 -0.44776207 0.050986174
-0.15647627 -0.44786173 0.051004779
-0.15662874 -0.44794559 0.051007405
-0.15678871 -0.44804832 0.050915431
-0.15694129 -0.44812974 0.050934203
-0.15709008 -0.44821659 0.050904565
-0.15725142 -0.44830444 0.050912924
-0.15740614 -0.44839367 0.050889015
-0.15757559 -0.44849178 0.050860416
-0.15775093 -0.44859314 0.050831787
-0.15790594 -0.44867894 0.050830949
-0.15806863 -0.4487769 0.05077932
-0.15824701 -0.44887778 0.050764512
-0.1584108 -0.44896847 0.050763618
-0.15856917 -0.44905308 0.050782371
-0.1587141 -0.44913849 0.050748136
-0.15887469 -0.44922811 0.050742649
-0.15903443 -0.44932139 0.050710645
-0.15919031 -0.44940194 0.050746705
-0.15936056 -0.44950694 0.050676581
-0.1595249 -0.44959432 0.050698761
-0.15969521 -0.44969791 0.050637864
-0.1598534 -0.44978261 0.050655454
-0.16000426 -0.44986898 0.050636187
-0.16016635 -0.44996393 0.050601866
-0.16032521 -0.45005777 0.050562937
-0.16048454 -0.4501386 0.050609358
-0.16063322 -0.4502202 0.050613176
-0.16081049 -0.45032156 0.050591454
-0.16097714 -0.45042259 0.050534036
-0.16112997 -0.45050216 0.050565496
-0.16127318 -0.45057893 0.05058087
-0.16143103 -0.450674 0.050530419
-0.16158818 -0.4507705 0.050468441
-0.16174427 -0.45086014 0.050446834
-0.16192043 -0.45096269 0.05041359
-0.16209026 -0.45105401 0.050429963
-0.16224866 -0.45114633 0.050399121
-0.16240092 -0.45123565 0.050365996
-0.16256359 -0.45131814 0.05041356
-0.16273345 -0.45140949 0.05042994
-0.16288809 -0.45150137 0.050388735
-0.16302592 -0.45158124 0.050364915
-0.16318066 -0.45166492 0.050376769
-0.16337466 -0.45178327 0.050305367
-0.16353203 -0.45186913 0.050312586
-0.16367607 -0.45195118 0.05029681
-0.163837 -0.4520236 0.050403193
-0.16399668 -0.45213315 0.050266236
-0.1641497 -0.45222646 0.05021004
-0.16431457 -0.45231268 0.050241448
-0.16446187 -0.4523955 0.050232574
-0.16464031 -0.45249212 0.050245449
-0.16479842 -0.45258304 0.05022268
-0.16493744 -0.45267236 0.050142344
-0.16508338 -0.45275083 0.050156545
-0.16524261 -0.45284578 0.050111853
-0.16540591 -0.45293456 0.050121352
-0.16556969 -0.45302272 0.050136603
-0.16572642 -0.45310929 0.050136909
-0.16587843 -0.45319092 0.050152238
-0.16603307 -0.45329159 0.050054509
-0.16619122 -0.4533872 0.050001755
-0.16636141 -0.45347244 0.050058499
-0.16651334 -0.45356497 0.050003469
-0.16666263 -0.45364994 0.049987666
-0.16680846 -0.45373911 0.04993267
-0.16697711 -0.45382652 0.049969815
-0.16715254 -0.45392147 0.049982704
-0.16732556 -0.45400918 0.050033662
-0.16746774 -0.4540922 0.05000522
-0.16761938 -0.45418924 0.049920198
-0.16777889 -0.45428219 0.049889352
-0.16794966 -0.45436776 0.049946092
-0.16809238 -0.45445463 0.049894571
-0.16825847 -0.45455 0.049871758
-0.16841887 -0.45463717 0.049881261
-0.16856223 -0.4547185 0.049867801
-0.168708 -0.45480654 0.049819723
-0.16886851 -0.45490256 0.049772717
-0.16903542 -0.45498794 0.049816798
-0.16920273 -0.45507753 0.049835492
-0.16934288 -0.45516604 0.04976438
-0.16950049 -0.45525581 0.049747381
-0.16966264 -0.45534572 0.049745347
-0.16981329 -0.45543307 0.049719159
-0.169973 -0.45552093 0.049721748
-0.17013939 -0.4556073 0.049757753
-0.17029168 -0.45569733 0.04972003
-0.1704565 -0.45578516 0.049741045
-0.17061192 -0.45587659 0.049705602
-0.17076702 -0.45596424 0.049693231
-0.17092733 -0.45605567 0.049675059
-0.17109163 -0.45614016 0.049715683
-0.17124124 -0.45623192 0.049657207
-0.17139842 -0.45632181 0.049637903
-0.17155571 -0.45641157 0.049619749
-0.17170452 -0.45650363 0.049556665
-0.17186648 -0.45659739 0.049529258
-0.17203642 -0.45668197 0.049589463
-0.17219757 -0.45677996 0.049532082
-0.17235592 -0.45686889 0.049523149
-0.17250983 -0.45696071 0.049479637
-0.17266451 -0.4570449 0.049488023
-0.17282808 -0.457127 0.04954135
-0.17297848 -0.45722443 0.049449414
-0.17313623 -0.45731714 0.04941396
-0.17329703 -0.45740452 0.049423471
-0.17345768 -0.45749885 0.049387999
-0.17361121 -0.45758381 0.049387164
-0.17377168 -0.45766816 0.049415134
-0.17394334 -0.45776284 0.049416505
-0.17409232 -0.45785373 0.049361493
-0.17424528 -0.45793912 0.049356047
-0.17440252 -0.45802864 0.049339052
-0.17456004 -0.45812124 0.049303599
-0.17382452 -0.45964622 0.036883865
-0.17404528 -0.45999479 0.035427157
-0.17418894 -0.46007448 0.03542522
-0.17433864 -0.46015161 0.035461318
-0.17449075 -0.46023044 0.035495091
-0.17464143 -0.46030739 0.035535801
-0.18172592 -0.46219692 0.048563518
-0.18185681 -0.4622694 0.048562802
-0.18201822 -0.46235353 0.048595376
-0.18218409 -0.46243906 0.048634846
-0.1823343 -0.46253279 0.048565987
-0.1824718 -0.46262002 0.048493728
-0.18266326 -0.46270484 0.048628792
-0.18282945 -0.46279523 0.048638262
-0.18298052 -0.46288872 0.048574008
-0.18315668 -0.46297941 0.048616882
-0.18331334 -0.46307403 0.048565287
-0.1834718 -0.46317267 0.048494074
-0.18362592 -0.46326104 0.048473638
-0.18378194 -0.46334687 0.048476245
-0.18395349 -0.46344307 0.048467241
-0.1841152 -0.46353889 0.048426006
-0.18426643 -0.46362993 0.048377901
-0.18442112 -0.46371394 0.048387434
-0.1845891 -0.46380442 0.048402674
-0.18472603 -0.4638935 0.048316583
-0.18490383 -0.46397829 0.048403278
-0.18506119 -0.46407688 0.048328601
-0.18522587 -0.46416804 0.048327714
-0.18540221 -0.46425757 0.048378654
-0.18555211 -0.46435508 0.048284419
-0.18571344 -0.46444473 0.048281241
-0.18587796 -0.46453401 0.048291881
-0.18603565 -0.4646222 0.048285261
-0.18617344 -0.46471083 0.048204932
-0.18636507 -0.46479899 0.048319228
-0.18652187 -0.46489549 0.048256095
-0.18666863 -0.46499106 0.048163041
-0.18683267 -0.46507666 0.048195601
-0.18701869 -0.4651719 0.048244178
-0.1871686 -0.46526513 0.04817763
-0.18732747 -0.46535736 0.048149087
-0.18750124 -0.46545014 0.048170056
-0.18764669 -0.46553981 0.048110444
-0.18780345 -0.46563035 0.048085384
-0.18796946 -0.46572009 0.048098315
-0.18810908 -0.46581405 0.0479903
-0.18827254 -0.46590024 0.048017096
-0.18847924 -0.46598881 0.048182048
-0.18862343 -0.46608621 0.048068244
-0.18877287 -0.4661831 0.047976322
-0.1889431 -0.46626908 0.048028454
-0.1891111 -0.46636656 0.047998704
-0.189255 -0.46645626 0.04793334
-0.18942551 -0.46654618 0.047961246
-0.18958563 -0.46663678 0.047947694
-0.18975337 -0.4667325 0.047928333
-0.18990704 -0.46682349 0.047889441
-0.19007896 -0.4669154 0.047909271
-0.1902426 -0.46700779 0.047896851
-0.19037892 -0.46709958 0.047791153
-0.19054106 -0.46719024 0.047784511
-0.19072726 -0.46727821 0.047880378
-0.19087502 -0.46737131 0.047806915
-0.19106247 -0.46746665 0.047860105
-0.191208 -0.46756157 0.047767054
-0.19135849 -0.46765274 0.047715493
-0.19153875 -0.46774322 0.04777449
-0.19170325 -0.46783587 0.047763214
-0.19187543 -0.46792671 0.047791112
-0.19203436 -0.46802133 0.047747582
-0.19219624 -0.46811414 0.047725942
-0.19235022 -0.46820709 0.047675509
-0.19251835 -0.4682982 0.047687292
-0.19268247 -0.46839282 0.04766218
-0.19284695 -0.46848404 0.047660135
-0.19300392 -0.46857703 0.047620066
-0.19317077 -0.46867171 0.047604166
-0.19334343 -0.46876478 0.047619384
-0.1934993 -0.46885446 0.047596626
-0.19366825 -0.46894762 0.047598016
-0.19382706 -0.46904075 0.047563706
-0.19399485 -0.46913397 0.047560491
-0.19414441 -0.46922699 0.047493935
-0.19431356 -0.46931702 0.047516089
-0.19448 -0.46941367 0.047486357
-0.19462915 -0.4695034 0.047439411
-0.19480543 -0.4695954 0.047474202
-0.19497544 -0.46969059 0.047466367
-0.19513084 -0.46978378 0.047419388
-0.19530755 -0.46987605 0.04745419
-0.19546203 -0.46996766 0.047414131
-0.195629 -0.47005972 0.047415532
-0.19578946 -0.4701516 0.047395058
-0.19595268 -0.47024679 0.047363035
-0.19611642 -0.47033885 0.047352925
-0.19629297 -0.47042996 0.047394633
-0.19645685 -0.47052997 0.04733377
-0.19661942 -0.47062212 0.047319055
-0.19679113 -0.47071791 0.047313511
-0.19696042 -0.47081357 0.047299899
-0.19712676 -0.47090298 0.047316302
-0.1972802 -0.47099632 0.04726126
-0.19743285 -0.47108656 0.047223527
-0.19761571 -0.47118476 0.047242146
-0.19777906 -0.47127876 0.047218189
-0.19793627 -0.47136936 0.047194276
-0.19810173 -0.47146508 0.047166847
-0.19825299 -0.47155383 0.047133736
-0.19842494 -0.47164702 0.04714549
-0.19859815 -0.47174039 0.0471607
-0.19875598 -0.47183424 0.047118317
-0.19893193 -0.47193092 0.047121979
-0.19910416 -0.47202587 0.04712335
-0.19926356 -0.47211844 0.047094814
-0.19943905 -0.47221377 0.047105394
-0.19960648 -0.47231147 0.047072187
-0.1997745 -0.47240484 0.047068972
-0.1999404 -0.47249955 0.047049619
-0.20010024 -0.47259375 0.047011845
-0.20026469 -0.47268695 0.046997111
-0.20044141 -0.47278711 0.04698116
-0.20059709 -0.47287813 0.046949178
-0.20076141 -0.47296998 0.046942521
-0.20093879 -0.47306457 0.04696463
-0.20110808 -0.47315991 0.046953328
-0.20126837 -0.47325581 0.046906322
-0.20144419 -0.47335187 0.046913445
-0.20161784 -0.47344494 0.046932112
-0.2017688 -0.47353855 0.0468667
-0.20192225 -0.47362959 0.046826661
-0.20209211 -0.47372523 0.046815358
-0.20225172 -0.47381699 0.046792582
-0.20242925 -0.47391778 0.046775475
-0.20259982 -0.47401363 0.046765316
-0.20274949 -0.47410437 0.046713758
-0.20290878 -0.474199 0.046671376
-0.20309019 -0.47429761 0.046681926
-0.203269 -0.47439051 0.046720177
-0.2034294 -0.4744854 0.046680085
-0.20360719 -0.47457969 0.046705656
-0.20378964 -0.47468284 0.046690822
-0.20395079 -0.47477382 0.046678416
-0.20413211 -0.47487152 0.046694733
-0.20428316 -0.47495997 0.046662774
