# .PCD v0.7 - Point Cloud Data file format
VERSION 0.7
FIELDS x y z
SIZE 4 4 4
TYPE F F F
COUNT 1 1 1
WIDTH 1215
HEIGHT 1
VIEWPOINT 0 0 0 1 0 0 0
POINTS 1215
DATA ascii
-0.057651311 -0.37021425 0.034302071
-0.057793237 -0.37028053 0.034453746
-0.057930164 -0.37034369 0.034605447
-0.058073357 -0.37040293 0.034809064
-0.061637897 -0.36932164 0.056863651
-0.061785992 -0.36941317 0.056873295
-0.061973967 -0.369524 0.056920845
-0.062144332 -0.36964899 0.056801099
-0.062310763 -0.36975101 0.056817591
-0.062480371 -0.36986005 0.056800582
-0.062646858 -0.36997113 0.056757037
-0.062816367 -0.37010148 0.056598037
-0.06298244 -0.3702189 0.056510635
-0.064655699 -0.37127241 0.056490775
-0.064809486 -0.3713637 0.056525797
-0.06495361 -0.37145448 0.056523919
-0.06513112 -0.37156934 0.056501105
-0.065281898 -0.37165856 0.0565373
-0.065462396 -0.37177515 0.056515619
-0.065630004 -0.37188816 0.056463994
-0.065779611 -0.37198582 0.056439005
-0.065951526 -0.37209043 0.056461237
-0.066117652 -0.37218928 0.056497358
-0.066292979 -0.37231442 0.056397207
-0.066442415 -0.37241131 0.056376837
-0.066615127 -0.37252963 0.056311332
-0.066782951 -0.37263668 0.056300104
-0.066945188 -0.37273708 0.056309693
-0.067105249 -0.37283143 0.056350455
-0.067284293 -0.3729504 0.056306846
-0.067458257 -0.37306046 0.05630137
-0.067608863 -0.37316504 0.056234822
-0.067772485 -0.37325937 0.056290567
-0.06794282 -0.37338278 0.0561812
-0.06812039 -0.37349159 0.056198798
-0.06827414 -0.37358305 0.056232654
-0.068444587 -0.3736794 0.056303386
-0.068608612 -0.37379745 0.056203291
-0.068761759 -0.37390274 0.056142502
-0.06893795 -0.37400427 0.056202807
-0.069106296 -0.37410766 0.056218132
-0.06929376 -0.37423089 0.056181408
-0.069446929 -0.37433481 0.056129854
-0.069628052 -0.37444398 0.056160122
-0.069791213 -0.37455088 0.056130458
-0.06995374 -0.37465912 0.056089241
-0.070102654 -0.37476298 0.056020387
-0.070262529 -0.37485844 0.056053076
-0.070442535 -0.3749702 0.056061409
-0.070613205 -0.37509432 0.055948589
-0.070755564 -0.3751767 0.055995207
-0.070912972 -0.3752692 0.056037143
-0.07107836 -0.37537837 0.056001678
-0.071244158 -0.37549457 0.055921204
-0.071409643 -0.37560293 0.055891525
-0.071576275 -0.37570107 0.05593456
-0.071750112 -0.37580878 0.055944085
-0.071910426 -0.37591892 0.055880949
-0.072079271 -0.37602073 0.055908971
-0.07224635 -0.37612575 0.05590814
-0.072403871 -0.37624004 0.055805776
-0.072572291 -0.37635651 0.055734515
-0.072750643 -0.37646323 0.05576941
-0.072922669 -0.37657344 0.055754706
-0.073069058 -0.37667713 0.055676635
-0.07322377 -0.37676117 0.055763599
-0.073395155 -0.37687862 0.055698097
-0.073556311 -0.37697905 0.055703074
-0.073725976 -0.37708604 0.055699918
-0.073887959 -0.37717918 0.055756837
-0.074058279 -0.37729144 0.05572135
-0.074224859 -0.37740257 0.055677813
-0.074382335 -0.37750784 0.055635475
-0.074547842 -0.37760839 0.05565773
-0.074714951 -0.37771273 0.055661514
-0.074871667 -0.37782428 0.055574156
-0.075037852 -0.3779296 0.055567566
-0.075201184 -0.37803277 0.055563282
-0.075363435 -0.3781372 0.055546325
-0.07551945 -0.37824866 0.055456657
-0.075692199 -0.37835169 0.055492733
-0.075862505 -0.37846273 0.055465333
-0.076026648 -0.37856486 0.055471443
-0.076188192 -0.37866467 0.055482194
-0.076359257 -0.37877479 0.055464014
-0.076518908 -0.37888643 0.055388197
-0.07668712 -0.3789894 0.055405825
-0.076851487 -0.37909132 0.055414237
-0.077019952 -0.37919897 0.055401862
-0.077186033 -0.37930405 0.055396412
-0.077350311 -0.37941077 0.055372514
-0.077512257 -0.37951952 0.05532553
-0.07767199 -0.37962097 0.055317812
-0.077843465 -0.37973034 0.055306569
-0.078020178 -0.37983081 0.055376105
-0.078174077 -0.37993276 0.055340707
-0.078341469 -0.38003677 0.055347957
-0.078516647 -0.38016477 0.055228189
-0.078667037 -0.38026485 0.055190496
-0.078828059 -0.38036937 0.055167757
-0.078996979 -0.38046792 0.055217713
-0.079159945 -0.38056687 0.055239987
-0.079325318 -0.38068056 0.055174526
-0.079486541 -0.38078484 0.055154096
-0.07965932 -0.3808971 0.055128995
-0.079818256 -0.38099891 0.055115506
-0.079986721 -0.3811022 0.055131983
-0.080152929 -0.38120702 0.05512885
-0.080323741 -0.38132048 0.055087592
-0.080483325 -0.38142946 0.055029076
-0.080644652 -0.3815335 0.05501096
-0.080801025 -0.38163298 0.055002104
-0.080965012 -0.38173538 0.055005904
-0.081132054 -0.38183969 0.055009689
-0.081297688 -0.38194484 0.055001941
-0.081454746 -0.38205487 0.054926123
-0.081626132 -0.38216034 0.054940276
-0.081794642 -0.38226035 0.054978695
-0.081968352 -0.38237178 0.054962818
-0.08214508 -0.38248861 0.054923847
-0.082283437 -0.38258705 0.054846969
-0.082450196 -0.38268128 0.054916553
-0.082605913 -0.3827948 0.054811887
-0.082769088 -0.3828977 0.054808766
-0.08293283 -0.38300705 0.054765243
-0.083099954 -0.3831048 0.054812897
-0.083265424 -0.38321334 0.054782055
-0.083429605 -0.38331914 0.054763924
-0.083597839 -0.38342315 0.054774631
-0.083759904 -0.3835299 0.054741494
-0.083920941 -0.38363704 0.054701451
-0.084088735 -0.38374129 0.054708693
-0.08425492 -0.38384625 0.054704405
-0.084410824 -0.38395226 0.054650523
-0.0845806 -0.38405272 0.05469124
-0.084749877 -0.38415965 0.054686934
-0.084917888 -0.38426402 0.054694176
-0.08507821 -0.38436827 0.0546703
-0.085220382 -0.38447607 0.05454722
-0.085390508 -0.38458267 0.054548688
-0.085564427 -0.38468504 0.054593999
-0.085733257 -0.38479221 0.054586232
-0.08589673 -0.38489825 0.054563481
-0.086057216 -0.38500816 0.054502659
-0.086226761 -0.38510936 0.054537602
-0.086386085 -0.38521385 0.054507952
-0.086551324 -0.38532501 0.054458637
-0.086715072 -0.3854281 0.054456674
-0.086877346 -0.38553166 0.054445475
-0.087042108 -0.38563731 0.054430805
-0.087204389 -0.38574368 0.054401133
-0.087369546 -0.38584924 0.054388773
-0.087537371 -0.38595679 0.054374088
-0.08770217 -0.38606247 0.054359417
-0.087869734 -0.38616747 0.054360885
-0.088031612 -0.38627389 0.054328915
-0.088202626 -0.38637811 0.054349996
-0.08836332 -0.38648483 0.0543111
-0.088517874 -0.38658771 0.054272238
-0.088685185 -0.3866955 0.054254092
-0.088858619 -0.38680452 0.054253232
-0.089015141 -0.38690951 0.054208584
-0.089179374 -0.38701794 0.054173134
-0.089344352 -0.38712114 0.054175772
-0.089532495 -0.38722479 0.054271806
-0.089696348 -0.38732588 0.054283693
-0.089855969 -0.38743281 0.054239031
-0.090007357 -0.38753876 0.054166704
-0.090164274 -0.38764608 0.05410821
-0.090337768 -0.38775045 0.054138508
-0.090507045 -0.38785562 0.054145753
-0.090658665 -0.38796136 0.054075729
-0.090824649 -0.38806951 0.054049511
-0.090991706 -0.3881799 0.054012887
-0.091164447 -0.38828465 0.054037433
-0.091330037 -0.38839293 0.054008905
-0.091505915 -0.38850677 0.053986091
-0.091649778 -0.38860399 0.053940356
-0.091809236 -0.38870838 0.053911857
-0.091977619 -0.38881856 0.053882156
-0.092159495 -0.38892019 0.053965531
-0.092334323 -0.38903201 0.05395196
-0.092489876 -0.38913015 0.053948876
-0.092658669 -0.38923588 0.053950347
-0.092819721 -0.38934475 0.053898752
-0.09298718 -0.38944846 0.053908311
-0.093146808 -0.38955522 0.053864799
-0.093318053 -0.38966531 0.053847782
-0.093482725 -0.38977158 0.0538285
-0.093647264 -0.38987571 0.053823058
-0.093814448 -0.38998184 0.053815302
-0.093955383 -0.39008573 0.05371302
-0.09412913 -0.3901892 0.05375025
-0.094317935 -0.39029816 0.053813953
-0.094466224 -0.39040142 0.053746264
-0.094635993 -0.39051181 0.053721178
-0.094811216 -0.39061552 0.053763017
-0.09495569 -0.39072526 0.053636465
-0.095123157 -0.39083156 0.053628705
-0.095285557 -0.39093608 0.053611737
-0.095457271 -0.39104021 0.053636286
-0.095619038 -0.39114276 0.053629708
-0.095782809 -0.39125142 0.053590801
-0.095964961 -0.39136559 0.053592198
-0.096114516 -0.39146861 0.053531431
-0.096291423 -0.39157286 0.053576723
-0.096451767 -0.39167765 0.053549372
-0.096618406 -0.39178431 0.053535841
-0.096783765 -0.39188704 0.053543098
-0.096944444 -0.39199585 0.053490356
-0.097105518 -0.39210266 0.053452611
-0.097262599 -0.39220557 0.053424124
-0.097440451 -0.39231423 0.05344402
-0.097604468 -0.39242497 0.05339241
-0.097770423 -0.392526 0.053413525
-0.097946823 -0.39262906 0.053464599
-0.098117433 -0.39274567 0.053401403
-0.098255947 -0.39284855 0.053295668
-0.098431222 -0.39295369 0.053328268
-0.098597296 -0.39306068 0.053310126
-0.098772846 -0.39316601 0.053342737
-0.09893392 -0.39327297 0.053303842
-0.099105977 -0.39337835 0.053321455
-0.099266171 -0.39348722 0.053266399
-0.099417225 -0.39359206 0.05319985
-0.099598229 -0.39369786 0.053252049
-0.099766277 -0.3938033 0.053252365
-0.09992899 -0.39391044 0.053219236
-0.10008978 -0.3940157 0.053190734
-0.10026455 -0.39412519 0.053192168
-0.10043438 -0.3942309 0.053198252
-0.10059389 -0.39434159 0.053128194
-0.10077007 -0.3944459 0.053170029
-0.10093002 -0.39454767 0.053161159
-0.10109925 -0.39465892 0.053127989
-0.10124878 -0.39476368 0.05305567
-0.10140762 -0.39486542 0.053042188
-0.1015965 -0.39497441 0.053105891
-0.10175036 -0.39507946 0.053049713
-0.10192725 -0.3951931 0.053032674
-0.10208078 -0.39529637 0.05298689
-0.10223806 -0.3953982 0.052966479
-0.1024079 -0.3955079 0.052946009
-0.10256656 -0.39560816 0.052941754
-0.10272805 -0.39571384 0.052913249
-0.10290454 -0.39582077 0.052938927
-0.10308298 -0.39593139 0.05294843
-0.10324365 -0.3960388 0.052904911
-0.10342003 -0.39614934 0.052906349
-0.10355168 -0.39624736 0.052804101
-0.10372688 -0.3963528 0.052834399
-0.10388656 -0.39645681 0.052809365
-0.10407174 -0.39656505 0.052862708
-0.10424368 -0.39667541 0.052846838
-0.10440411 -0.39678127 0.052812561
-0.10456707 -0.39688909 0.052775968
-0.1047197 -0.39699581 0.052703634
-0.10488036 -0.39710009 0.052680898
-0.10504028 -0.3972027 0.052666251
-0.10522582 -0.39731151 0.052717276
-0.10539252 -0.39741662 0.052714139
-0.10557592 -0.39752862 0.052735165
-0.10572568 -0.39763021 0.052684776
-0.10589032 -0.39773685 0.052663181
-0.10603437 -0.39784095 0.052572422
-0.10621502 -0.39795119 0.052593455
-0.10636798 -0.39805481 0.052543059
-0.10653421 -0.39816174 0.052526072
-0.10669946 -0.39826855 0.05250562
-0.1068718 -0.39837638 0.052508228
-0.10705697 -0.39848754 0.052541941
-0.10720943 -0.39859277 0.052478846
-0.10738709 -0.39870149 0.052497581
-0.10754779 -0.39880788 0.052461002
-0.10770495 -0.3989138 0.052412886
-0.10789949 -0.39902514 0.052484646
-0.10804303 -0.39913064 0.052382343
-0.10822064 -0.39923811 0.052409165
-0.10839362 -0.3993465 0.052410617
-0.10854585 -0.39945331 0.052335978
-0.10873438 -0.39956418 0.052385837
-0.10891131 -0.39967486 0.052388422
-0.1090593 -0.39977953 0.052310333
-0.1092417 -0.39988968 0.052339446
-0.10941166 -0.39999789 0.052329361
-0.10956642 -0.40010369 0.052272022
-0.10973652 -0.40021199 0.052261941
-0.10990562 -0.4003202 0.052248411
-0.11007272 -0.40042663 0.052238341
-0.11023651 -0.40053549 0.052198272
-0.11042354 -0.40064836 0.05222851
-0.11057915 -0.40075293 0.052182715
-0.11074106 -0.4008601 0.052146129
-0.11093184 -0.4009724 0.05219597
-0.11109665 -0.40108016 0.052167445
-0.11127432 -0.40119025 0.052176952
-0.11145096 -0.40130025 0.052183002
-0.11158847 -0.40140459 0.052063409
-0.11178251 -0.40151787 0.052120168
-0.1119387 -0.4016242 0.052065134
-0.11211628 -0.40173599 0.0520631
-0.11227493 -0.40184286 0.052014977
-0.11245744 -0.40195426 0.052036002
-0.11261861 -0.40206167 0.051994793
-0.11282667 -0.4021796 0.052079193
-0.11298013 -0.40228838 0.051996462
-0.11316773 -0.40240109 0.052030165
-0.113337 -0.40251306 0.051992379
-0.11347221 -0.40261403 0.051885501
-0.11366349 -0.40272766 0.05192842
-0.11382315 -0.40283775 0.051862977
-0.11399145 -0.40294546 0.05184944
-0.11414999 -0.4030512 0.051808245
-0.11434147 -0.40316927 0.051822297
-0.11450602 -0.40327498 0.05180648
-0.11469546 -0.40339005 0.051832095
-0.11487017 -0.40350074 0.051825449
-0.11502659 -0.40360758 0.051768102
-0.11519387 -0.40371811 0.051731486
-0.11535929 -0.40382558 0.051707573
-0.11557333 -0.403945 0.051806945
-0.11571606 -0.40405434 0.051675785
-0.1159004 -0.40416744 0.051693335
-0.11606926 -0.40427583 0.051677495
-0.11624781 -0.40438512 0.051696226
-0.1164059 -0.40449387 0.051633105
-0.11659085 -0.40461534 0.051597554
-0.11674012 -0.40471682 0.051546015
-0.11692417 -0.40482625 0.051586658
-0.11712109 -0.40494534 0.051616848
-0.11731076 -0.40506023 0.051644765
-0.11746688 -0.4051674 0.051583964
-0.11763401 -0.40527713 0.051551964
-0.1178019 -0.40539101 0.051495712
-0.03289533 -0.35479963 0.033452019
-0.033069164 -0.35490611 0.033469621
-0.033209678 -0.35499096 0.033492014
-0.033368275 -0.35509136 0.033486605
-0.033518091 -0.35518065 0.03351818
-0.033686567 -0.35529196 0.033481549
-0.033823978 -0.35537121 0.033528201
-0.033975661 -0.35546306 0.033550538
-0.034123559 -0.35555205 0.033576347
-0.034290299 -0.35566154 0.033544343
-0.034447026 -0.3557505 0.033607062
-0.034596 -0.3558391 0.033639804
-0.034771249 -0.3559522 0.033619307
-0.034892276 -0.35602012 0.033672966
-0.035030916 -0.35610518 0.033686128
-0.035204295 -0.35621417 0.03368526
-0.035353862 -0.35629985 0.033739936
-0.03550154 -0.35639301 0.033736892
-0.035675902 -0.35650158 0.033742942
-0.035834134 -0.35659686 0.033769861
-0.03596919 -0.35667551 0.033810757
-0.036091603 -0.35674134 0.033884037
-0.036271531 -0.35686171 0.033834651
-0.03641298 -0.35694909 0.033844326
-0.036585506 -0.35706395 0.033800751
-0.036755111 -0.35716882 0.03381145
-0.036896218 -0.35725179 0.033848844
-0.037039943 -0.35733414 0.033901241
-0.037194006 -0.35743064 0.033902775
-0.037345678 -0.3575303 0.033873156
-0.037514895 -0.3576372 0.033868842
-0.037653107 -0.35772288 0.033876244
-0.037809029 -0.35782018 0.033880074
-0.037989564 -0.35793227 0.033888415
-0.038118612 -0.35800973 0.033912018
-0.038287092 -0.3581205 0.033878841
-0.03844551 -0.3582173 0.033896532
-0.038602944 -0.35831279 0.033918831
-0.038769037 -0.35842952 0.033836029
-0.038945865 -0.35854608 0.03379935
-0.039107438 -0.35865459 0.033752356
-0.039267492 -0.35875884 0.033727311
-0.039438095 -0.3588784 0.033644486
-0.039597921 -0.35898271 0.03361829
-0.039762426 -0.35909393 0.033565506
-0.039931461 -0.35921425 0.033471137
-0.040096883 -0.35932726 0.033410273
-0.040265266 -0.35944718 0.033315912
-0.040442299 -0.35957775 0.033186864
-0.040615819 -0.35970351 0.03307515
-0.040784668 -0.35982269 0.032987714
-0.04095991 -0.35995403 0.032845981
-0.041139893 -0.36009043 0.032690369
-0.041305825 -0.36020866 0.032597169
-0.041479155 -0.36033586 0.032475065
-0.041657776 -0.36047143 0.032319456
-0.041833162 -0.3606025 0.03218003
-0.042000696 -0.36072451 0.032068357
-0.04271318 -0.36088076 0.034002218
-0.042869482 -0.36098215 0.033980653
-0.043030716 -0.36109149 0.033926733
-0.043182436 -0.36118859 0.033914428
-0.043336716 -0.36128992 0.033884797
-0.043487195 -0.3613826 0.033896752
-0.043639708 -0.36147863 0.033894833
-0.04379287 -0.36158136 0.03385134
-0.04394722 -0.3616834 0.033817083
-0.044099502 -0.36177671 0.033832494
-0.044253565 -0.3618758 0.033816714
-0.044405404 -0.36197418 0.033796322
-0.044562094 -0.36207512 0.033779379
-0.044714309 -0.36217445 0.033754371
-0.044868119 -0.36227372 0.033736281
-0.045022905 -0.36237189 0.033729739
-0.045174994 -0.36247149 0.033702418
-0.045327887 -0.36256969 0.033687808
-0.045480981 -0.36266837 0.033670872
-0.04563519 -0.3627691 0.033644702
-0.045788143 -0.36286786 0.033626616
-0.045937978 -0.36296743 0.033590078
-0.04609092 -0.36307573 0.033508494
-0.046242729 -0.36316994 0.033515818
-0.046399008 -0.36327529 0.033467703
-0.046529412 -0.36333469 0.033617139
-0.046653878 -0.36338946 0.033772394
-0.046806693 -0.36348552 0.033771627
-0.046958089 -0.36357912 0.033781264
-0.047108434 -0.36367413 0.033777054
-0.047261108 -0.36377028 0.033775136
-0.047409661 -0.36386558 0.033761688
-0.047555711 -0.36395633 0.033767886
-0.047705233 -0.36405033 0.033767145
-0.047853559 -0.36414215 0.033775639
-0.048002094 -0.36423448 0.033781826
-0.048152313 -0.36433011 0.033772994
-0.048302554 -0.36442596 0.033763006
-0.048451491 -0.36451939 0.03376342
-0.048600867 -0.36461383 0.033759207
-0.048754036 -0.36471584 0.033720341
-0.048911896 -0.36482739 0.033637568
-0.049093656 -0.36497971 0.033383805
-0.049245872 -0.3650884 0.033296451
-0.0493971 -0.365188 0.033265673
-0.049546339 -0.36528373 0.033252228
-0.04969655 -0.3653816 0.03322839
-0.049846753 -0.36547968 0.033203393
-0.049994595 -0.36557695 0.033173785
-0.050143674 -0.3656691 0.033183433
-0.050293371 -0.36576667 0.033159599
-0.050442014 -0.36586219 0.033144996
-0.050590314 -0.36595714 0.03313271
-0.050735846 -0.36605036 0.033120435
-0.050886586 -0.36615103 0.033080421
-0.051032644 -0.36624578 0.033060066
-0.05118091 -0.36634141 0.033043168
-0.051327154 -0.36643264 0.033047054
-0.051477671 -0.36652935 0.033032447
-0.051625874 -0.36662981 0.032983214
-0.051771738 -0.36672515 0.032958239
-0.051916275 -0.36681303 0.032977138
-0.05206674 -0.3669104 0.032957915
-0.052210893 -0.36700222 0.032949112
-0.052361012 -0.36710387 0.032899871
-0.052505668 -0.36719257 0.032914158
-0.052654538 -0.36728683 0.032908794
-0.05279813 -0.36737797 0.032902304
-0.052945852 -0.36747968 0.032842688
-0.053093873 -0.36757237 0.032844253
-0.05323749 -0.367659 0.032867782
-0.053384688 -0.367755 0.032843951
-0.05353076 -0.36785358 0.032798193
-0.053677604 -0.36794382 0.032811318
-0.05382362 -0.36803734 0.032799043
-0.053969368 -0.36813033 0.032789081
-0.054114543 -0.36822194 0.032786049
-0.054257408 -0.36831295 0.03277725
-0.054405387 -0.36840701 0.032769579
-0.05454886 -0.36850014 0.032749239
-0.054696072 -0.36859843 0.032710403
-0.054838259 -0.36868832 0.032706223
-0.054986078 -0.36877656 0.032736659
-0.055125751 -0.36886537 0.032729037
-0.055273537 -0.36895359 0.032759473
-0.055413235 -0.3690362 0.03279341
-0.055556677 -0.36912391 0.032808863
-0.055700347 -0.36921248 0.032819692
-0.055845965 -0.36930054 0.032842048
-0.055987351 -0.36938161 0.032893304
-0.056129172 -0.36946398 0.032937624
-0.056271594 -0.36954829 0.032971546
-0.056413069 -0.3696292 0.033023953
-0.056551814 -0.36970791 0.033079837
-0.056693658 -0.36978978 0.033127628
-0.056834824 -0.36986896 0.033190422
-0.056978166 -0.36994776 0.033264749
-0.057116736 -0.3700248 0.033331033
-0.05725731 -0.37010065 0.033413462
-0.057396851 -0.37017184 0.033522449
-0.057537436 -0.37024665 0.033611804
-0.057679642 -0.37031832 0.033728868
-0.057819486 -0.37038869 0.03384478
-0.057960913 -0.37045515 0.033993013
-0.058100428 -0.37052217 0.034129716
-0.058240853 -0.37059236 0.034249101
-0.058384381 -0.37065443 0.034435429
-0.058526576 -0.37071967 0.03459521
-0.062338687 -0.36977693 0.056761883
-0.062505037 -0.36989295 0.056684844
-0.062689453 -0.37000245 0.056726649
-0.062846258 -0.37010413 0.05670508
-0.06299378 -0.37019897 0.056690484
-0.063156851 -0.37028077 0.056827072
-0.063325763 -0.37039757 0.0567558
-0.06350375 -0.37051743 0.056701794
-0.063684464 -0.37064388 0.056615449
-0.063853376 -0.3707464 0.056638852
-0.064018756 -0.37085611 0.056599926
-0.064196944 -0.37096238 0.056637138
-0.06435214 -0.37107852 0.056512825
-0.064521626 -0.37117115 0.056604337
-0.064674892 -0.37126714 0.05660589
-0.064863563 -0.37140068 0.05650565
-0.06504982 -0.37152278 0.056471236
-0.065217815 -0.37163135 0.056450762
-0.065368362 -0.37172008 0.05648927
-0.065536559 -0.37182632 0.05648496
-0.065719008 -0.37194952 0.056427486
-0.065877669 -0.37205151 0.056411672
-0.066023447 -0.37214974 0.056367077
-0.066176027 -0.37224671 0.056359384
-0.066341318 -0.37234816 0.056374718
-0.066514961 -0.37245992 0.056356542
-0.066682786 -0.37256593 0.056352235
-0.066839404 -0.37267637 0.056271784
-0.067014672 -0.37277889 0.05632171
-0.067194603 -0.37289235 0.056318507
-0.067367114 -0.37300757 0.056272615
-0.067528956 -0.37310809 0.05627989
-0.067687109 -0.37320924 0.056267552
-0.067846492 -0.37330541 0.056293309
-0.068013102 -0.37341467 0.056262463
-0.068187967 -0.37351954 0.056295067
-0.068346515 -0.37363136 0.056213453
-0.068514302 -0.37374777 0.056139871
-0.068678729 -0.37385079 0.056141369
-0.068847857 -0.37395048 0.056184389
-0.069012217 -0.37406492 0.056109674
-0.069174476 -0.37415233 0.056205858
-0.069346979 -0.37427467 0.056112625
-0.069509968 -0.37438127 0.0560841
-0.069682807 -0.37448141 0.056139812
-0.069855437 -0.37459219 0.056123935
-0.070013866 -0.37469071 0.056130074
-0.070180111 -0.37480757 0.056047261
-0.070349239 -0.37492603 0.055965599
-0.070523798 -0.37504029 0.055934705
-0.070673689 -0.37513119 0.055955902
-0.070832983 -0.37523586 0.055925082
-0.070997238 -0.37533805 0.055931196
-0.071165182 -0.37544084 0.055948824
-0.071340144 -0.37554559 0.05598259
-0.071511753 -0.37565711 0.055957485
-0.071669154 -0.3757571 0.055949777
-0.071824454 -0.37585333 0.055958234
-0.071980126 -0.37594894 0.055972464
-0.072137885 -0.37606287 0.055873532
-0.072295591 -0.37618354 0.055729575
-0.072464749 -0.37629804 0.055674467
-0.072643198 -0.37638986 0.055808663
-0.072808109 -0.37649754 0.055781282
-0.072976463 -0.37660632 0.055760816
-0.07313519 -0.37671009 0.055733465
-0.073302619 -0.37682 0.055701457
-0.073472336 -0.37693277 0.055660196
-0.073631108 -0.37703606 0.055636317
-0.073791094 -0.37713748 0.055629738
-0.073961444 -0.37724283 0.055640429
-0.074124835 -0.37733963 0.055678874
-0.074290812 -0.37744501 0.055671114
-0.074459806 -0.37755227 0.055663347
-0.074621633 -0.37766284 0.055603649
-0.074777126 -0.37776408 0.055579778
-0.074942216 -0.37787026 0.055562794
-0.075107977 -0.37796456 0.055627782
-0.075269833 -0.37808004 0.055535752
-0.075430624 -0.37818563 0.055504937
-0.075605527 -0.37828583 0.055568717
-0.075759038 -0.37838894 0.055524074
-0.075926058 -0.37850311 0.055462051
-0.076084517 -0.37860063 0.055475108
-0.076251455 -0.37870958 0.055447724
-0.076413058 -0.37882385 0.055362634
-0.076576307 -0.37892142 0.05539529
-0.076737702 -0.37902096 0.055407193
-0.076907367 -0.37912223 0.055442132
-0.077072233 -0.37922812 0.0554263
-0.077240445 -0.37933558 0.055413917
-0.077404022 -0.37944257 0.055385388
-0.07756418 -0.37954792 0.055353414
-0.077729397 -0.37965336 0.055342194
-0.077896446 -0.37976167 0.055319425
-0.078058884 -0.37986931 0.055281661
-0.078214139 -0.37997404 0.055233549
-0.078369781 -0.38007829 0.055190057
-0.078537345 -0.3801859 0.055174209
-0.078707427 -0.38028723 0.055210311
-0.078875013 -0.38039485 0.055194452
-0.079042584 -0.38049826 0.055206325
-0.079212584 -0.38060409 0.055212397
-0.079372182 -0.38070926 0.055179276
-0.079531029 -0.38080686 0.055193491
-0.079693466 -0.38091001 0.055185758
-0.07984893 -0.38102579 0.055064894
-0.080018558 -0.38112789 0.055094071
-0.080171436 -0.38123721 0.055005562
-0.080332741 -0.38133705 0.055015139
-0.080498755 -0.38143775 0.055038556
-0.080666341 -0.38154134 0.055049263
-0.080838814 -0.38164577 0.05507496
-0.080991104 -0.38175121 0.055009548
-0.081159629 -0.38185802 0.055002924
-0.081319243 -0.38196269 0.054973267
-0.081480406 -0.38206643 0.054956302
-0.08164297 -0.38217294 0.054926615
-0.081807911 -0.38228169 0.054892316
-0.081970207 -0.38238475 0.054884575
-0.08212994 -0.38248566 0.054880306
-0.08229547 -0.38258362 0.054919895
-0.082465887 -0.38268954 0.054927126
-0.082623973 -0.38280159 0.054842051
-0.082785681 -0.38290498 0.054829698
-0.082946882 -0.38300526 0.054835822
-0.083122753 -0.38310868 0.054882284
-0.08327654 -0.38321909 0.054790296
-0.083435677 -0.38332364 0.05475948
-0.083597764 -0.3834236 0.054771379
-0.083756953 -0.3835313 0.05471978
-0.083920345 -0.38363716 0.054698177
-0.084085189 -0.3837392 0.054707751
-0.084245399 -0.38384321 0.054685004
-0.084401548 -0.3839457 0.054655362
-0.084572233 -0.38404864 0.054683372
-0.084734038 -0.38415816 0.054630611
-0.084905699 -0.38426086 0.054664388
-0.085067429 -0.38437036 0.054611627
-0.085224777 -0.38447532 0.054570429
-0.08538115 -0.38457468 0.054562718
-0.085550539 -0.38468131 0.054560713
-0.085709445 -0.38478276 0.054549538
-0.085872985 -0.38488853 0.054529086
-0.086037725 -0.38499677 0.054497089
-0.08620324 -0.38510185 0.054489341
-0.086361408 -0.38520926 0.054435436
-0.08652515 -0.38530925 0.054454241
-0.086689271 -0.38541761 0.054418787
-0.086852178 -0.38551793 0.05443183
-0.087023295 -0.38562426 0.054439057
-0.087184563 -0.38573068 0.054404765
-0.087345034 -0.38583729 0.054365862
-0.087502688 -0.38593915 0.054346602
-0.087672576 -0.38604596 0.05434576
-0.087838195 -0.38614848 0.054355316
-0.088012137 -0.38625434 0.054377545
-0.088160589 -0.38636121 0.054286744
-0.088323154 -0.38646722 0.054260522
-0.088487491 -0.38656759 0.054279335
-0.088662252 -0.38667604 0.054287694
-0.088820428 -0.38677791 0.054270748
-0.088986702 -0.3868857 0.054247983
-0.089154564 -0.3869881 0.054267917
-0.089319929 -0.3870936 0.054256707
-0.08946982 -0.38719723 0.054193605
-0.089636125 -0.38730505 0.054170839
-0.089796625 -0.3874115 0.054133087
-0.089955166 -0.38751829 0.054084957
-0.090118363 -0.38762173 0.05407837
-0.090289816 -0.38772622 0.054099448
-0.090444423 -0.38782877 0.054062888
-0.09062168 -0.38793725 0.054081626
-0.090786628 -0.38803816 0.054099273
-0.090947971 -0.38814688 0.05404998
-0.091114603 -0.38824761 0.054075707
-0.091269746 -0.38835487 0.054010265
-0.091423675 -0.38846222 0.053939067
-0.091600977 -0.38856393 0.054002848
-0.091769993 -0.38867155 0.053992759
-0.09193065 -0.38877568 0.053971171
-0.09209621 -0.38888147 0.0539588
-0.092258766 -0.3889854 0.053946443
-0.092419274 -0.38909185 0.053908702
-0.092579521 -0.3891983 0.053869791
-0.092757665 -0.38930508 0.053903546
-0.092917979 -0.38940933 0.053879648
-0.09307988 -0.38951787 0.053833812
-0.093247086 -0.38962367 0.053828359
-0.093408875 -0.3897278 0.053811383
-0.093578696 -0.38983124 0.053832479
-0.093734875 -0.38993812 0.053773958
-0.093896374 -0.39004448 0.053740829
-0.094063535 -0.39015043 0.053734221
-0.09421926 -0.39025509 0.053688407
-0.094388485 -0.39036095 0.05369103
-0.094566122 -0.39046842 0.053717855
-0.094727263 -0.39057702 0.053668559
-0.094883777 -0.39068374 0.053612351
-0.095057786 -0.39078531 0.053663447
-0.095227607 -0.39089552 0.053639501
-0.095381305 -0.3910003 0.053584468
-0.095541708 -0.3911027 0.053573273
-0.095711589 -0.39121294 0.053549334
-0.095887624 -0.39131892 0.053579632
-0.096047416 -0.39142144 0.053564973
-0.096211985 -0.39152992 0.053530667
-0.096370138 -0.39163455 0.053495239
-0.096544556 -0.3917388 0.053530168
-0.096727699 -0.39184698 0.05357543
-0.096878335 -0.39195383 0.053493857
-0.097040489 -0.39206043 0.053461872
-0.097213537 -0.39216694 0.053476017
-0.097372331 -0.39226973 0.053455591
-0.097538553 -0.3923803 0.05341436
-0.097699918 -0.39248502 0.053391606
-0.097863577 -0.39259171 0.053365391
-0.098032832 -0.39269847 0.053362239
-0.09820497 -0.39280528 0.053370614
-0.098387629 -0.39291036 0.053434364
-0.098538227 -0.39302084 0.05332854
-0.098706417 -0.39312395 0.053345021
-0.098874025 -0.39323279 0.05332109
-0.09902142 -0.39333743 0.053240683
-0.099206612 -0.39344671 0.053287096
-0.099368259 -0.39355543 0.053238951
-0.099520952 -0.39366201 0.05316776
-0.09969487 -0.3937656 0.053204991
-0.09986224 -0.39387274 0.053191457
-0.10004517 -0.39398232 0.053226329
-0.10020234 -0.3940891 0.053172443
-0.10036484 -0.39419612 0.053139295
-0.10051917 -0.39430094 0.053086571
-0.10069238 -0.39440671 0.053106491
-0.10088294 -0.39451882 0.053156339
-0.10103716 -0.39462551 0.053090904
-0.10118206 -0.39472806 0.053013988
-0.10136276 -0.39483625 0.053048871
-0.10154428 -0.39494461 0.053086065
-0.10171242 -0.39505395 0.053060979
-0.10186446 -0.39516047 0.052987475
-0.10204104 -0.39526695 0.053016618
-0.10221715 -0.39537522 0.053031906
-0.10237706 -0.3954806 0.052998774
-0.10254513 -0.3955918 0.052960984
-0.10268645 -0.39569402 0.052871384
-0.10286483 -0.39580095 0.052905127
-0.10302863 -0.39590842 0.052874289
-0.10319639 -0.39601457 0.052868828
-0.10337865 -0.39612374 0.052903719
-0.103535 -0.39622897 0.052856747
-0.10369846 -0.39633989 0.052801669
-0.10385687 -0.39644364 0.052773166
-0.10402945 -0.39655212 0.052772298
-0.10420281 -0.39666075 0.052773751
-0.10436174 -0.39676791 0.052724455
-0.10452548 -0.39687398 0.052702852
-0.1046999 -0.39698449 0.052696213
-0.10487095 -0.39709306 0.052688427
-0.10503946 -0.39719811 0.052693367
-0.10518485 -0.3973006 0.052618746
-0.10537562 -0.3974148 0.052655891
-0.10555442 -0.39752284 0.05268386
-0.10571982 -0.39763099 0.052655324
-0.10586695 -0.39773372 0.052586474
-0.10605065 -0.39784414 0.052619029
-0.10622416 -0.39795339 0.052617017
-0.10640749 -0.39806238 0.052657664
-0.10655376 -0.39816821 0.052564565
-0.10669608 -0.3982735 0.052458782
-0.10687619 -0.39838219 0.052487902
-0.10704803 -0.39848986 0.052489351
-0.10720511 -0.39859709 0.052431993
-0.10738672 -0.39870623 0.052464571
-0.10756243 -0.39881614 0.05246716
-0.10772324 -0.39892399 0.05242132
-0.10788152 -0.39903149 0.052367426
-0.10806696 -0.39914146 0.052410364
-0.10822572 -0.39924908 0.052357618
-0.10840632 -0.39935997 0.052374039
-0.10856527 -0.39946616 0.052331679
-0.10874723 -0.39957741 0.052351557
-0.108922 -0.39968762 0.052348368
-0.10907795 -0.3997919 0.052306026
-0.10927652 -0.3999075 0.052366227
-0.10942861 -0.40001422 0.052291572
-0.10960121 -0.40012428 0.052280325
-0.10976584 -0.40023157 0.052254096
-0.10994653 -0.40034309 0.052267049
-0.11010833 -0.40044999 0.052231606
-0.11029557 -0.40056127 0.052273385
-0.11044461 -0.40066606 0.052198745
-0.11062523 -0.40077925 0.052200153
-0.11079688 -0.40088803 0.052193522
-0.11096071 -0.40099689 0.052153453
-0.11113039 -0.40110686 0.052130662
-0.11130672 -0.40121806 0.052127473
-0.11146002 -0.40132225 0.052074753
-0.11165386 -0.40143818 0.052113038
-0.11183363 -0.40154874 0.052128308
-0.11199164 -0.40165675 0.052069791
-0.11216299 -0.40176585 0.052059695
-0.11231036 -0.40187186 0.05197005
-0.1125101 -0.40198645 0.052041795
-0.11266389 -0.40209374 0.051970597
-0.11284927 -0.40220574 0.051999692
-0.11303133 -0.4023214 0.051990703
-0.11321878 -0.40243819 0.051996686
-0.11336344 -0.40254232 0.051908217
-0.11353365 -0.40265295 0.05188312
-0.11372675 -0.40276965 0.051913328
-0.11390743 -0.40288252 0.051917046
-0.11405995 -0.40298831 0.051850468
-0.11424097 -0.40309721 0.051881902
-0.11440475 -0.40320539 0.051846445
-0.11458509 -0.40331978 0.051838614
-0.1147382 -0.40342575 0.051773194
-0.11491554 -0.40353689 0.051774617
-0.11508501 -0.40364775 0.051744897
-0.11527295 -0.40376398 0.051756665
-0.11544874 -0.40387362 0.05176156
-0.1156179 -0.40398723 0.051712222
-0.11579365 -0.40409562 0.051725194
-0.11594757 -0.40420192 0.051660921
-0.11615852 -0.40431958 0.051759165
-0.11632238 -0.40442953 0.05171217
-0.11644594 -0.40452909 0.051566072
-0.11665794 -0.40465525 0.051612344
-0.11685239 -0.40477484 0.051628694
-0.11703217 -0.40488857 0.051623177
-0.11718774 -0.40499017 0.051596999
-0.11734897 -0.40509969 0.051541932
-0.11751699 -0.40520686 0.051530696
-0.1176964 -0.40532067 0.05152287
-0.032857113 -0.35480139 0.033280853
-0.033008099 -0.35489213 0.033307798
-0.033160109 -0.35498422 0.033330135
-0.033291139 -0.35505718 0.033391833
-0.033456266 -0.35516602 0.033357501
-0.033620261 -0.35526982 0.033352055
-0.033768609 -0.35535559 0.033400964
-0.03392547 -0.35545418 0.033400174
-0.034081105 -0.35554749 0.03342941
-0.034228217 -0.35563946 0.033432133
-0.0343621 -0.35571632 0.033479962
-0.034513295 -0.35580787 0.033502292
-0.034658778 -0.35589984 0.033498086
-0.034813151 -0.35600349 0.033453431
-0.034960583 -0.35609233 0.033478092
-0.035142407 -0.35621253 0.0334379
-0.035267759 -0.35626855 0.033588547
-0.035416458 -0.35636517 0.033567011
-0.035582639 -0.35647503 0.033530373
-0.035738181 -0.35656288 0.033595413
-0.035879057 -0.35664535 0.033635117
-0.036042709 -0.35675013 0.033621583
-0.036187615 -0.35683808 0.033641644
-0.036339927 -0.35693401 0.033639718
-0.036489654 -0.35702446 0.033663217
-0.036634237 -0.35710597 0.033724844
-0.036801316 -0.35722002 0.033663951
-0.036960762 -0.35731766 0.033680465
-0.037112702 -0.3574135 0.033677388
-0.037272632 -0.35751197 0.033690438
-0.037409749 -0.3575919 0.033731315
-0.037564702 -0.35769641 0.033683181
-0.037743684 -0.35780859 0.033684585
-0.037878249 -0.35788083 0.033765901
-0.038030867 -0.35797814 0.033755895
-0.038178388 -0.35806409 0.033800185
-0.038340364 -0.35817251 0.033755481
-0.038488481 -0.35826162 0.03378129
-0.038633578 -0.3583532 0.033778246
-0.038792472 -0.35845098 0.0337913
-0.038954273 -0.35854626 0.033833217
-0.039099716 -0.35863855 0.033826709
-0.039243769 -0.35872442 0.033857163
-0.0394217 -0.35884529 0.033796202
-0.039564215 -0.35893139 0.033818576
-0.039724972 -0.35904166 0.033756562
-0.039881837 -0.35914183 0.033745375
-0.040061921 -0.35926199 0.033698268
-0.040212493 -0.35935557 0.033704437
-0.040380511 -0.35947493 0.033612359
-0.04054895 -0.3595928 0.033531819
-0.040710818 -0.35970357 0.033470951
-0.040867355 -0.35980669 0.033438973
-0.041043196 -0.35993877 0.033294879
-0.041219369 -0.3600693 0.033162344
-0.041384995 -0.36018682 0.03307258
-0.041558765 -0.36031446 0.032949287
-0.041728381 -0.36043864 0.032831788
-0.041897796 -0.36056286 0.032713138
-0.042073827 -0.36069506 0.032569043
-0.042242046 -0.36081818 0.03245271
-0.042407796 -0.36093783 0.032349095
-0.04257752 -0.36106399 0.032218892
-0.042748261 -0.36118957 0.032096766
-0.042917721 -0.36131608 0.031963103
-0.04308654 -0.36143941 0.031847917
-0.043256272 -0.36156714 0.031707328
-0.043421209 -0.36168766 0.031594466
-0.044070877 -0.3621732 0.031078428
-0.044192277 -0.36224917 0.03108013
-0.044332612 -0.36233982 0.031063247
-0.044376373 -0.36193854 0.03391204
-0.044535894 -0.36204976 0.033838473
-0.044695564 -0.36215866 0.033781078
-0.044849373 -0.36225796 0.03376298
-0.045000453 -0.36235571 0.033743743
-0.045151226 -0.36245307 0.033725657
-0.045301385 -0.36254954 0.033711039
-0.045452531 -0.36264786 0.033688329
-0.045603529 -0.36274609 0.033665627
-0.045757648 -0.36284384 0.033659071
-0.045904219 -0.36293769 0.033646781
-0.046056196 -0.36303809 0.033613674
-0.046206158 -0.36313513 0.033594444
-0.046356142 -0.36323237 0.033574052
-0.046504933 -0.36332765 0.033561751
-0.046654936 -0.36342523 0.033539049
-0.046808414 -0.36352605 0.0335094
-0.046953652 -0.36361858 0.033500582
-0.047103494 -0.36371312 0.033497516
-0.047253523 -0.3638081 0.033492133
-0.047404304 -0.36390463 0.033479825
-0.047545418 -0.36399332 0.033479117
-0.047689974 -0.36407846 0.033516493
-0.04782334 -0.36414248 0.03364747
-0.04795713 -0.36421737 0.033708002
-0.048103452 -0.36431265 0.033685315
-0.048248507 -0.36439514 0.033742331
-0.048387609 -0.36447668 0.033780884
-0.048535287 -0.36456776 0.033791691
-0.048683714 -0.36466402 0.033771306
-0.048829686 -0.3647556 0.033771724
-0.048978291 -0.36484882 0.033772126
-0.049124502 -0.36494857 0.033719424
-0.049272798 -0.36504525 0.033695575
-0.0494202 -0.36513653 0.033704061
-0.049565822 -0.36522806 0.033703327
-0.04971192 -0.36532459 0.033671416
-0.049862795 -0.36542341 0.03364408
-0.050012439 -0.36551991 0.033627164
-0.050161276 -0.36561885 0.033590611
-0.050308876 -0.36571947 0.033537891
-0.050466053 -0.36582869 0.033467807
-0.050637808 -0.36597821 0.033190932
-0.050785668 -0.36608487 0.033098955
-0.050932646 -0.36618161 0.033069339
-0.051079258 -0.36627775 0.033042036
-0.051222835 -0.36636731 0.033045925
-0.051370922 -0.36646283 0.033029005
-0.051517639 -0.36655542 0.033025958
-0.051660918 -0.36664912 0.033000983
-0.051804684 -0.36674419 0.032969069
-0.05194854 -0.36683515 0.032964882
-0.052097265 -0.36693314 0.032934107
-0.052240737 -0.3670235 0.032932222
-0.052384518 -0.36711475 0.032925725
-0.052529849 -0.36720994 0.032899577
-0.052674673 -0.36730409 0.03287806
-0.052817985 -0.36739469 0.032873865
-0.052962415 -0.36748827 0.032854661
-0.053105913 -0.3675797 0.032845851
-0.053249769 -0.3676722 0.032831267
-0.053392641 -0.36776757 0.032793593
-0.053537883 -0.36785886 0.032792851
-0.05368067 -0.36794913 0.032788668
-0.053824395 -0.36804208 0.032770619
-0.053967506 -0.3681336 0.032759499
-0.054110385 -0.36822465 0.032750692
-0.054253008 -0.36831516 0.032744199
-0.054398738 -0.36840886 0.032729603
-0.054542437 -0.36850283 0.032704625
-0.054684002 -0.36859685 0.032670412
-0.05482702 -0.36868328 0.032692794
-0.054969087 -0.3687731 0.032688607
-0.055110373 -0.36886069 0.032695983
-0.055254728 -0.36895144 0.032695245
-0.055394262 -0.36904037 0.032686453
-0.055535868 -0.36912939 0.032685742
-0.055679303 -0.36921763 0.032697722
-0.055818699 -0.36930665 0.03268778
-0.055958465 -0.36938998 0.032717094
-0.056104112 -0.36947876 0.032734837
-0.056241378 -0.36956087 0.032761861
-0.05638336 -0.36964437 0.032799251
-0.056521364 -0.36972904 0.032812409
-0.056663483 -0.369813 0.032847494
-0.056802794 -0.36989447 0.032887213
-0.056941804 -0.36997473 0.032933854
-0.057080384 -0.37005314 0.032990899
-0.057219148 -0.37013203 0.03304562
-0.057357572 -0.37020931 0.033109594
-0.057500683 -0.37028727 0.033188555
-0.057634555 -0.37036344 0.033241
-0.057778072 -0.37044236 0.033315346
-0.057917401 -0.37051222 0.033432432
-0.058055129 -0.37058419 0.033528749
-0.058194637 -0.37065327 0.033651609
-0.058332309 -0.37072349 0.033759464
-0.058473326 -0.37079805 0.033852298
-0.05861235 -0.3708618 0.034008652
-0.058751523 -0.37092495 0.034169629
-0.058893438 -0.37098879 0.034337521
-0.059030525 -0.37105009 0.03450197
-0.05917969 -0.37111169 0.034714866
-0.063038155 -0.37023324 0.056647882
-0.063210227 -0.37033236 0.056707062
-0.06337589 -0.37044448 0.056653105
-0.063541338 -0.37055838 0.056586441
-0.063682504 -0.37064505 0.05659958
-0.063851297 -0.37074837 0.056617215
-0.064016968 -0.37085077 0.056627922
-0.064191185 -0.37096983 0.056563519
-0.064356364 -0.37107801 0.05653381
-0.06451565 -0.37117779 0.056535318
-0.064680345 -0.37128982 0.056477904
-0.064840019 -0.37138411 0.056517519
-0.065035522 -0.37151101 0.056489959
-0.065194346 -0.37161344 0.05647184
-0.065337472 -0.37170914 0.056433
-0.065502346 -0.3718147 0.056419462
-0.06567318 -0.3719247 0.056401275
-0.065824799 -0.37202886 0.056341611
-0.065990016 -0.37213045 0.056355793
-0.06616006 -0.37222293 0.056450784
-0.066342898 -0.3723408 0.056430232
-0.066510953 -0.37244591 0.056432839
-0.066664025 -0.37255797 0.05632697
-0.06683436 -0.372668 0.056306478
-0.066999666 -0.37276858 0.056327589
-0.067171857 -0.37286952 0.05637522
-0.067339994 -0.37298876 0.056284294
-0.067494169 -0.37309194 0.056241937
-0.067640558 -0.3731977 0.056149967
-0.067811169 -0.37330443 0.056152564
-0.067977138 -0.37340179 0.056197919
-0.0681521 -0.37351874 0.056150839
-0.068306752 -0.37360567 0.056218196
-0.068491243 -0.37372652 0.056184933
-0.068648644 -0.37381694 0.056240723
-0.068818882 -0.37392482 0.056234077
-0.068980597 -0.37403622 0.056168593
-0.069130518 -0.37412733 0.056188621
-0.069298394 -0.37424153 0.056130037
-0.069464274 -0.37436074 0.056029879
-0.069627345 -0.37446657 0.05600711
-0.069795705 -0.3745583 0.056099802
-0.069953606 -0.37467721 0.055968508
-0.070118114 -0.3747789 0.055979222
-0.070294045 -0.37488079 0.05603607
-0.070465058 -0.37498549 0.056053687
-0.070612922 -0.37509876 0.055917818
-0.070797697 -0.37519857 0.056025438
-0.070949465 -0.37530249 0.055968083
-0.071111038 -0.37541032 0.055925697
-0.07127139 -0.37552032 0.055863671
-0.071447432 -0.37561464 0.055971339
-0.071595334 -0.37572518 0.055853959
-0.071771495 -0.37584269 0.055808023
-0.071927674 -0.37594435 0.055784136
-0.072089911 -0.37604961 0.055761371
-0.072252281 -0.37614733 0.05578943
-0.072414994 -0.3762517 0.055774748
-0.072591498 -0.3763538 0.055832744
-0.072749145 -0.37645271 0.055833105
-0.072915323 -0.37656498 0.055780292
-0.073086143 -0.37667638 0.05575287
-0.07325352 -0.37679288 0.055676959
-0.073410809 -0.37689835 0.055632278
-0.073563762 -0.376991 0.0556546
-0.073728658 -0.37710404 0.055591404
-0.073895715 -0.37720767 0.055599805
-0.074084647 -0.37732366 0.055617325
-0.074234188 -0.37740913 0.055673152
-0.074384063 -0.37751204 0.055614654
-0.074542508 -0.37762102 0.055551492
-0.074720308 -0.37772253 0.055618729
-0.074889012 -0.37783554 0.055571683
-0.075046927 -0.37793913 0.055542011
-0.075206183 -0.3780356 0.055565462
-0.075375065 -0.37814802 0.055523027
-0.075527944 -0.37825176 0.055471439
-0.075694881 -0.37835547 0.055478677
-0.075859644 -0.37845123 0.055529818
-0.076027133 -0.37854937 0.055576317
-0.076181144 -0.37866184 0.05547161
-0.076329507 -0.3787697 0.055373844
-0.076491207 -0.37887862 0.055324525
-0.076661512 -0.37898377 0.055336364
-0.076827422 -0.3790884 0.055333216
-0.07700064 -0.37920043 0.055311557
-0.077161372 -0.37929574 0.055348855
-0.07731349 -0.37940368 0.055266093
-0.077484891 -0.37949875 0.055349529
-0.07764671 -0.37961158 0.055274799
-0.077809125 -0.3797102 0.055297073
-0.077973627 -0.37981603 0.055280074
-0.07814192 -0.37991869 0.055300005
-0.078290492 -0.38002878 0.055188395
-0.078459211 -0.38013536 0.055184074
-0.078618757 -0.38023633 0.05517865
-0.078786746 -0.3803435 0.055167407
-0.078959756 -0.38045102 0.055174612
-0.079121448 -0.38055459 0.055161089
-0.079281084 -0.38065961 0.055129107
-0.079443432 -0.38075453 0.055175636
-0.079612881 -0.38086072 0.055177085
-0.079768211 -0.38097659 0.055055045
-0.079946771 -0.38107648 0.055136133
-0.080104314 -0.38118666 0.055061422
-0.080245987 -0.38129535 0.05493021
-0.080425166 -0.38139129 0.055040173
-0.080592677 -0.38149485 0.055050872
-0.08075878 -0.38160309 0.055024624
-0.080909006 -0.38170969 0.054943021
-0.081071183 -0.38180903 0.054959521
-0.081231698 -0.38191304 0.054937929
-0.081398085 -0.38202095 0.054915141
-0.081568696 -0.38212645 0.054925837
-0.081727996 -0.38223109 0.054894999
-0.081889637 -0.38233444 0.054882634
-0.082059108 -0.38243714 0.054907184
-0.082224257 -0.38254216 0.054898269
-0.082389109 -0.38264737 0.054887038
-0.082542375 -0.38275152 0.054834291
-0.082697198 -0.38285145 0.054816186
-0.082867116 -0.38296086 0.054798007
-0.083029673 -0.38306046 0.054814503
-0.083192922 -0.38316965 0.054769795
-0.083364807 -0.38327163 0.054809347
-0.083521366 -0.38337404 0.054781996
-0.083695054 -0.38348183 0.054790352
-0.083851889 -0.38359049 0.054722585
-0.084013999 -0.38369048 0.054734461
-0.084167331 -0.38379729 0.054664396
-0.084328622 -0.38390076 0.054649722
-0.084483631 -0.38400671 0.054592349
-0.084653035 -0.38411006 0.054612275
-0.084822588 -0.38421041 0.054653004
-0.084979601 -0.38431552 0.054609474
-0.0851482 -0.38442236 0.054602854
-0.085319445 -0.38452533 0.054633159
-0.08549384 -0.38463616 0.054624196
-0.085641123 -0.3847416 0.054537997
-0.085793845 -0.38484508 0.054487564
-0.08596082 -0.38494378 0.054528292
-0.086118869 -0.38504261 0.054530963
-0.086285405 -0.38515025 0.054510485
-0.086454332 -0.3852486 0.054561596
-0.086604476 -0.38535845 0.054458056
-0.086771168 -0.38546604 0.054438733
-0.08693862 -0.38557059 0.054442503
-0.087097943 -0.38567752 0.054396663
-0.087261297 -0.38577777 0.054412007
-0.08741805 -0.38588533 0.054351162
-0.087580621 -0.38598856 0.05434341
-0.087748311 -0.38609588 0.054329854
-0.087906405 -0.38620031 0.05429557
-0.088070884 -0.38630578 0.054280881
-0.088232324 -0.38640934 0.054266207
-0.088392563 -0.38651061 0.054261927
-0.088560529 -0.38661531 0.054266848
-0.088722877 -0.38671875 0.054256793
-0.088890672 -0.38682875 0.054225922
-0.089059591 -0.38693336 0.054235455
-0.089210406 -0.38703927 0.054160789
-0.089378119 -0.38714418 0.054163396
-0.089541391 -0.3872475 0.05415795
-0.089709222 -0.3873525 0.054160573
-0.089878604 -0.38745722 0.054171264
-0.090035856 -0.38756424 0.054116189
-0.090191908 -0.38766649 0.05408768
-0.090364449 -0.3877708 0.054114528
-0.090523377 -0.38787505 0.054084852
-0.090691008 -0.38798267 0.05406899
-0.090857871 -0.38808563 0.054080851
-0.091018096 -0.38819209 0.05404193
-0.091189995 -0.38829443 0.054079171
-0.091347769 -0.38840124 0.054027561
-0.091506526 -0.38850555 0.053996734
-0.091668107 -0.38860711 0.053995915
-0.091837615 -0.38871697 0.053973112
-0.091996372 -0.3888213 0.053942285
-0.09216091 -0.3889249 0.053940296
-0.092323929 -0.38903326 0.053900212
-0.092483148 -0.38913527 0.0538867
-0.092651784 -0.38924301 0.053874303
-0.092815325 -0.38934457 0.05388156
-0.092987865 -0.38945201 0.053887617
-0.093146726 -0.38955638 0.053856783
-0.093297333 -0.38966376 0.053771716
-0.093464345 -0.38976732 0.053780116
-0.09364146 -0.38987449 0.053806931
-0.093799978 -0.38998109 0.053759944
-0.093958855 -0.39008549 0.053729106
-0.094117239 -0.39018992 0.053695969
-0.094283231 -0.39029163 0.05371245
-0.094455704 -0.39039728 0.053730063
-0.094623119 -0.39050755 0.05369572
-0.094788402 -0.39061162 0.053693727
-0.094940074 -0.39071861 0.053615592
-0.09510795 -0.39082047 0.053638995
-0.095268257 -0.3909249 0.053613935
-0.095434994 -0.39103109 0.05360385
-0.0956093 -0.391137 0.053627215
-0.095774099 -0.39124337 0.053607911
-0.095925644 -0.39134821 0.053543627
-0.096093357 -0.39145449 0.053537004
-0.096256465 -0.39155895 0.05352347
-0.096428275 -0.39166519 0.053534158
-0.09659899 -0.39177355 0.053526364
-0.096750468 -0.39187834 0.053462084
