# .PCD v0.7 - Point Cloud Data file format
VERSION 0.7
FIELDS x y z
SIZE 4 4 4
TYPE F F F
COUNT 1 1 1
WIDTH 942
HEIGHT 1
VIEWPOINT 0 0 0 1 0 0 0
POINTS 942
DATA ascii
-0.33940399 -0.27928275 0.062542938
-0.33966377 -0.27926591 0.062457476
-0.33988586 -0.27924106 0.062460996
-0.3400884 -0.27920964 0.062528029
-0.34037921 -0.27920285 0.062344402
-0.34058049 -0.27917126 0.062413752
-0.3408258 -0.27915284 0.062351417
-0.34099573 -0.27911302 0.062506244
-0.34126312 -0.27909914 0.062393084
-0.34153503 -0.27908668 0.062266044
-0.34172404 -0.27905357 0.062356211
-0.34198433 -0.27903828 0.062259223
-0.34221074 -0.27901548 0.062244259
-0.34245619 -0.27899641 0.062186554
-0.34264812 -0.27896428 0.062267467
-0.34288445 -0.27894449 0.062222488
-0.34311035 -0.27892187 0.062206388
-0.34335864 -0.27890411 0.062137119
-0.34355178 -0.27887246 0.062213432
-0.34377989 -0.27884915 0.06220077
-0.34401044 -0.27882826 0.062168494
-0.34423041 -0.27880442 0.062166259
-0.34446323 -0.27878436 0.062125899
-0.34469545 -0.27876267 0.062098235
-0.3449069 -0.27873659 0.062119104
-0.3451221 -0.27871168 0.06212841
-0.34538499 -0.27870098 0.061995663
-0.34557971 -0.27866855 0.062076576
-0.34583563 -0.2786561 0.061962306
-0.34605664 -0.27863166 0.061963521
-0.34627232 -0.27860734 0.061968219
-0.3465251 -0.27859443 0.061859734
-0.34670731 -0.27856001 0.061964922
-0.34693593 -0.27853823 0.061940722
-0.34715536 -0.2785154 0.061931573
-0.3473821 -0.27849492 0.061899316
-0.3476119 -0.27847552 0.061856672
-0.34784245 -0.27845478 0.061823253
-0.34805989 -0.27843168 0.061817568
-0.34831643 -0.27842122 0.061688296
-0.34851402 -0.27839714 0.061705772
-0.34874088 -0.2783705 0.061718494
-0.34894258 -0.27834263 0.061760165
-0.34916982 -0.2783232 0.061719835
-0.34938172 -0.27829883 0.061728016
-0.34960353 -0.27827606 0.061716542
-0.34983787 -0.27825931 0.061650813
-0.35005027 -0.27823535 0.061655525
-0.35025439 -0.27820864 0.061686799
-0.35049459 -0.27819428 0.061599135
-0.35072392 -0.27817637 0.06154611
-0.35094193 -0.27815288 0.061542735
-0.35115132 -0.2781283 0.061554387
-0.35136679 -0.27810591 0.061545242
-0.35158068 -0.27808303 0.06154073
-0.35182238 -0.27807006 0.061441526
-0.35204533 -0.27805063 0.061404672
-0.35224861 -0.27802247 0.061447497
-0.35244423 -0.27799338 0.06150303
-0.35266596 -0.27797377 0.061468489
-0.35289046 -0.27795526 0.061423566
-0.35312557 -0.27794081 0.061340533
-0.35333991 -0.27791885 0.061329104
-0.35357597 -0.2779032 0.06125414
-0.35377187 -0.27787456 0.061306216
-0.35396418 -0.27784458 0.061370991
-0.35418206 -0.27782428 0.061344542
-0.3543933 -0.27780154 0.061341196
-0.35462135 -0.27778533 0.061276644
-0.35482651 -0.27775854 0.061307915
-0.35504168 -0.27773759 0.061288409
-0.35526234 -0.27771887 0.061248112
-0.35547018 -0.27769524 0.06125401
-0.35567039 -0.27766868 0.061287612
-0.35590288 -0.27765498 0.061201133
-0.35611475 -0.27763122 0.061204694
-0.35633704 -0.27761376 0.061154015
-0.35655144 -0.2775932 0.061132204
-0.35676348 -0.2775718 0.061118469
-0.35698384 -0.27755392 0.061072417
-0.35717896 -0.27752569 0.061122183
-0.35740846 -0.27750981 0.061054178
-0.35761532 -0.27748659 0.061057769
-0.35783419 -0.27746856 0.061014019
-0.35803545 -0.27744311 0.061038394
-0.35826242 -0.27742878 0.060961165
-0.35847098 -0.27740663 0.060955524
-0.35868844 -0.2773864 0.060929079
-0.35889897 -0.2773653 0.060914204
-0.35911107 -0.277345 0.060892403
-0.3593201 -0.27732345 0.060882151
-0.35951146 -0.27729407 0.060943469
-0.35973185 -0.27727774 0.060885884
-0.35994664 -0.27725905 0.060850225
-0.36015394 -0.27723706 0.060844593
-0.36036855 -0.27721632 0.060823929
-0.36057365 -0.27719346 0.06082638
-0.36078492 -0.27717358 0.060802273
-0.36099875 -0.27715498 0.060766622
-0.36122102 -0.2771405 0.060694031
-0.36141011 -0.2771104 0.060762282
-0.36162448 -0.27709016 0.060738161
-0.36183566 -0.27707076 0.060710602
-0.36201122 -0.27703407 0.060837727
-0.36225274 -0.27702966 0.060676254
-0.36247253 -0.27701485 0.06060829
-0.36266291 -0.27698556 0.060669616
-0.36287713 -0.27696818 0.060624741
-0.36308777 -0.27694914 0.060594872
-0.36329132 -0.27692661 0.060596168
-0.36347032 -0.27690566 0.06060566
-0.36368763 -0.27690923 0.060405113
-0.36393812 -0.27687827 0.060430389
-0.36411479 -0.27684921 0.060501017
-0.3643139 -0.27683917 0.060414694
-0.36455247 -0.27681172 0.060423903
-0.36473867 -0.27678052 0.060502544
-0.36493978 -0.2767573 0.060510781
-0.3651284 -0.27672979 0.060560584
-0.36537072 -0.27672684 0.060387574
-0.36556593 -0.27670068 0.060422353
-0.36577365 -0.27668148 0.060395956
-0.365969 -0.27665544 0.060429584
-0.36618111 -0.2766389 0.060380109
-0.3663888 -0.27662003 0.060351409
-0.36659962 -0.27660051 0.060324997
-0.36680949 -0.27658314 0.060283609
-0.3670103 -0.27656057 0.06028723
-0.36722478 -0.27654618 0.060220443
-0.36741301 -0.27651632 0.060287546
-0.36762244 -0.27649915 0.060245
-0.36783162 -0.27647933 0.060222059
-0.36803868 -0.27646101 0.060189903
-0.36823317 -0.27643505 0.060223538
-0.36844191 -0.27641794 0.060180996
-0.3686505 -0.27639818 0.060158055
-0.36885375 -0.27637792 0.060143214
-0.3690564 -0.27635735 0.060130686
-0.36925119 -0.27633184 0.060160857
-0.3694703 -0.2763193 0.060076751
-0.36967278 -0.27629894 0.06006306
-0.36987102 -0.2762759 0.060072459
-0.37007573 -0.27625719 0.060044929
-0.37026814 -0.27623037 0.060086645
-0.37047422 -0.27621275 0.060049884
-0.37068859 -0.27619806 0.059985407
-0.37086549 -0.27619311 0.059879601
-0.37108997 -0.27615616 0.059969582
-0.37126502 -0.27613232 0.060003318
-0.37146431 -0.27611658 0.059958514
-0.37164557 -0.27610025 0.059932247
-0.37190774 -0.27607813 0.059883676
-0.37209946 -0.27605736 0.059881575
-0.37231237 -0.27603981 0.059839018
-0.37251326 -0.27601978 0.059824184
-0.3727203 -0.2760013 0.059793182
-0.37291715 -0.27597839 0.059802592
-0.37310597 -0.27594945 0.059862763
-0.37331638 -0.27593705 0.059784476
-0.37351388 -0.27591488 0.059788112
-0.37367007 -0.27589309 0.059821926
-0.37392789 -0.27587917 0.059716877
-0.37412322 -0.27585548 0.059733212
-0.37431467 -0.27583206 0.059750713
-0.3745265 -0.27581859 0.059679329
-0.37472031 -0.27579728 0.059679531
-0.37492019 -0.27578115 0.059637029
-0.37511241 -0.27577263 0.059544988
-0.37531358 -0.2757439 0.059593577
-0.37553945 -0.27572936 0.059518665
-0.37572178 -0.2757093 0.059518911
-0.3759186 -0.27568042 0.05957213
-0.37611717 -0.27566034 0.059559621
-0.37632301 -0.27563581 0.059573598
-0.3765274 -0.27561745 0.059543766
-0.37673029 -0.27560541 0.059468959
-0.37690884 -0.2755861 0.059466928
-0.37710902 -0.27556425 0.059465945
-0.37729824 -0.2755436 0.059465002
-0.37749755 -0.27552107 0.059469789
-0.37771323 -0.27549881 0.059459493
-0.37792 -0.27548775 0.059374295
-0.3781057 -0.27546403 0.059398748
-0.37831312 -0.27544597 0.059364289
-0.37850186 -0.27542126 0.059393339
-0.37868661 -0.2754049 0.059364744
-0.37889421 -0.27538747 0.059325669
-0.37910512 -0.2753695 0.059287734
-0.37929764 -0.27535337 0.059251036
-0.37947449 -0.27532902 0.059287064
-0.37969834 -0.27530381 0.05929172
-0.3799035 -0.27528444 0.059268795
-0.38008124 -0.27527007 0.059231021
-0.38026518 -0.27526754 0.059102118
-0.38048044 -0.27523756 0.059148334
-0.38067436 -0.27521026 0.059192345
-0.38087028 -0.27519 0.059183303
-0.38108069 -0.27517304 0.059138443
-0.38127446 -0.27515519 0.059113279
-0.38146055 -0.27513283 0.059127349
-0.38166142 -0.27510935 0.059137885
-0.38186568 -0.27509525 0.059076916
-0.38206491 -0.27507493 0.059065565
-0.38226664 -0.27505797 0.059027664
-0.38245532 -0.27503425 0.059049793
-0.38264704 -0.27501458 0.059039623
-0.38284135 -0.27499858 0.059000608
-0.38304734 -0.27497202 0.059029575
-0.38324019 -0.2749598 0.058964044
-0.38343486 -0.27493936 0.058957323
-0.38364178 -0.27491993 0.058933236
-0.38383493 -0.27489743 0.058942661
-0.38402817 -0.27488092 0.058908269
-0.38422266 -0.27486065 0.058900386
-0.3844254 -0.27484137 0.05887863
-0.38463202 -0.27481616 0.058897212
-0.3848238 -0.2748042 0.058830537
-0.38501722 -0.27478263 0.05883304
-0.38521671 -0.27475849 0.05884935
-0.38541454 -0.27474463 0.058791883
-0.38560823 -0.27472383 0.05878862
-0.38582122 -0.2746968 0.058815233
-0.38602641 -0.27469018 0.058698915
-0.38619646 -0.27466816 0.058723442
-0.38637987 -0.27464989 0.058709856
-0.38657349 -0.27462956 0.058703136
-0.38677555 -0.27460355 0.058730967
-0.38695809 -0.27458379 0.058728904
-0.38713521 -0.27456069 0.058755707
-0.38733545 -0.27455446 0.058640558
-0.38755807 -0.27453253 0.058622167
-0.38774794 -0.27451292 0.058613155
-0.38793707 -0.27449182 0.058615685
-0.38813066 -0.27447242 0.058602042
-0.38832402 -0.2744526 0.058591858
-0.38852316 -0.27443796 0.058538988
-0.38872021 -0.2744185 0.058523029
-0.38892359 -0.27439633 0.058522023
-0.38910505 -0.27437526 0.058530349
-0.38931006 -0.27435762 0.058494739
-0.38950753 -0.27434003 0.058464937
-0.38970596 -0.27431473 0.058490485
-0.38988337 -0.27429286 0.058508061
-0.39009723 -0.27428073 0.058425128
-0.39028716 -0.27426362 0.058397677
-0.39047498 -0.27423999 0.058419809
-0.39066589 -0.27422658 0.058364671
-0.39085835 -0.27420637 0.058357954
-0.39105415 -0.27418515 0.058355834
-0.39124808 -0.27417061 0.058306448
-0.39143595 -0.27414727 0.05832627
-0.39163506 -0.27412507 0.058328748
-0.39182207 -0.27411336 0.058264405
-0.39201781 -0.27409279 0.058257677
-0.39221075 -0.27407616 0.058224436
-0.39241073 -0.27405891 0.05819001
-0.39260837 -0.27403039 0.058239769
-0.3927978 -0.27401543 0.05819732
-0.39298534 -0.27399054 0.058228675
-0.3931734 -0.27396813 0.058241591
-0.39336699 -0.27395803 0.058159918
-0.393563 -0.27394107 0.058126662
-0.39376074 -0.2739113 0.058185644
-0.39396763 -0.27389598 0.058131587
-0.39415583 -0.27387559 0.058129501
-0.39435527 -0.27385953 0.058087006
-0.39454734 -0.27384299 0.058053769
-0.39473504 -0.27381808 0.058085121
-0.39492708 -0.27380249 0.05804497
-0.39512205 -0.27377838 0.058064766
-0.39532819 -0.27376157 0.058022238
-0.39551264 -0.27374128 0.05802248
-0.39570779 -0.27372062 0.058016904
-0.39589602 -0.27370781 0.057959471
-0.39608395 -0.27368888 0.05794701
-0.39628255 -0.27367258 0.057906829
-0.39647397 -0.27366164 0.057833236
-0.39666182 -0.27363294 0.057892278
-0.39684966 -0.27361307 0.057886735
-0.39704114 -0.27358839 0.057913464
-0.39723611 -0.27356726 0.057911344
-0.39743176 -0.27353173 0.058014162
-0.39763001 -0.27351719 0.057961285
-0.39782417 -0.27350926 0.057863466
-0.39800417 -0.27349925 0.057792243
-0.39822048 -0.27347329 0.05780847
-0.39841872 -0.27345338 0.057794809
-0.39860907 -0.27344176 0.057726994
-0.39879036 -0.27341616 0.057768755
-0.39899111 -0.27340356 0.057699736
-0.39917544 -0.27338186 0.057710353
-0.39935896 -0.27336642 0.05767601
-0.39955774 -0.27334142 0.057699244
-0.39975646 -0.27331737 0.057715558
-0.39995006 -0.27330333 0.057662714
-0.40014017 -0.27328876 0.057616808
-0.40033752 -0.27327195 0.057581235
-0.40053931 -0.27324978 0.057581391
-0.40074041 -0.27323115 0.057556186
-0.4009341 -0.27321443 0.057522941
-0.4011167 -0.27318552 0.057587765
-0.4013212 -0.27316684 0.057560232
-0.40148336 -0.27316618 0.057434894
-0.4016861 -0.27313995 0.057463881
-0.40187556 -0.27311233 0.057513677
-0.40207291 -0.27309412 0.05748849
-0.40226352 -0.27307522 0.057473712
-0.40246454 -0.27305597 0.057453111
-0.40265918 -0.27303505 0.057449847
-0.40284872 -0.27301955 0.057410855
-0.40304655 -0.27301013 0.057321094
-0.40322351 -0.27299067 0.05732137
-0.40340105 -0.27296954 0.057333179
-0.40358984 -0.2729556 0.057283819
-0.40378341 -0.27292767 0.057332445
-0.40397775 -0.27289811 0.057392601
-0.40417984 -0.27287558 0.057395063
-0.40437272 -0.27286857 0.057291485
-0.40456146 -0.27285415 0.057245582
-0.40474427 -0.27283734 0.057221618
-0.40492958 -0.27282265 0.057180349
-0.40513036 -0.27278671 0.057281978
-0.40533301 -0.27275497 0.05735131
-0.40552557 -0.27274722 0.057253499
-0.4057166 -0.27273473 0.057191446
-0.40591913 -0.27271137 0.057199672
-0.40611011 -0.27269131 0.057192966
-0.40629604 -0.27268207 0.05711133
-0.40647262 -0.27267101 0.057050493
-0.40666565 -0.27264649 0.057074908
-0.40686023 -0.27261895 0.057120074
-0.40705413 -0.27259985 0.057104126
-0.40724015 -0.27258301 0.057077836
-0.40746585 -0.2725412 0.057202414
-0.40768418 -0.27251405 0.057225548
-0.40789276 -0.2724804 0.057304084
-0.40807107 -0.27244753 0.057401218
-0.40830195 -0.27240467 0.057529215
-0.40849274 -0.2723684 0.057641279
-0.40868708 -0.27234402 0.057663381
-0.40888354 -0.27231044 0.057751201
-0.4090963 -0.27227226 0.057859689
-0.40931091 -0.27223146 0.05798547
-0.40950876 -0.27219695 0.058079049
-0.40968868 -0.27216485 0.058169257
-0.40989724 -0.27213547 0.058216654
-0.41012332 -0.2720944 0.058335461
-0.41033229 -0.27205455 0.058458962
-0.41053423 -0.272021 0.058542136
-0.41074315 -0.27198225 0.058657572
-0.41090706 -0.2719565 0.05871442
-0.41113293 -0.27192315 0.058776721
-0.41135111 -0.27188185 0.058903631
-0.4115625 -0.27184126 0.059030585
-0.41177127 -0.27180019 0.05916331
-0.33943981 -0.27927279 0.062586956
-0.33966348 -0.27924824 0.062587015
-0.33994013 -0.27923745 0.062443867
-0.34015033 -0.27920961 0.062478565
-0.34035277 -0.27917978 0.062534064
-0.34060976 -0.27916279 0.062452108
-0.34082881 -0.27913746 0.062461402
-0.34104306 -0.27911094 0.062483408
-0.34126806 -0.27908733 0.062475387
-0.34150285 -0.27906644 0.062439654
-0.34176433 -0.27905291 0.062328849
-0.34199011 -0.27902985 0.062316217
-0.34226182 -0.27901945 0.062174253
-0.34245411 -0.27898583 0.062265523
-0.34267303 -0.27896115 0.062270213
-0.34292918 -0.27894694 0.062168665
-0.3431164 -0.27891359 0.062262267
-0.34331658 -0.27888384 0.062318929
-0.34360829 -0.27888325 0.062089249
-0.34383574 -0.27885827 0.062089279
-0.34401774 -0.27883321 0.062126428
-0.34422439 -0.27881366 0.06210351
-0.34447363 -0.27878061 0.062144943
-0.34470567 -0.27876049 0.062105767
-0.34492606 -0.2787371 0.062100068
-0.34514675 -0.27871221 0.06210475
-0.34536207 -0.27868748 0.062112916
-0.34559345 -0.27866757 0.062072583
-0.34582111 -0.27864668 0.062042646
-0.34605923 -0.27862906 0.061980382
-0.34628057 -0.27860647 0.06196776
-0.34649864 -0.27858302 0.061964393
-0.34669456 -0.2785528 0.06202798
-0.34694555 -0.2785396 0.061923001
-0.34713984 -0.27851069 0.061978534
-0.34735784 -0.27848577 0.061985537
-0.34760183 -0.27847084 0.061899029
-0.34783316 -0.27845207 0.061850633
-0.34807342 -0.27843624 0.061773371
-0.34828717 -0.2784104 0.061790757
-0.34850299 -0.27838701 0.061788552
-0.34871829 -0.27836353 0.061787494
-0.34895986 -0.27834868 0.061702162
-0.34915414 -0.27831849 0.0617669
-0.34937534 -0.27829719 0.06174507
-0.34960598 -0.27827913 0.061692066
-0.34981212 -0.27825299 0.06171757
-0.35003516 -0.2782326 0.061687652
-0.35025725 -0.27821201 0.061660044
-0.35047454 -0.27818987 0.061647456
-0.35068461 -0.27816537 0.061657947
-0.35092598 -0.2781499 0.06157722
-0.35109404 -0.2781308 0.061582167
-0.35134241 -0.27810544 0.061568253
-0.35156775 -0.27808115 0.061564852
-0.35179269 -0.27806228 0.061522242
-0.35196012 -0.27804685 0.061500676
-0.35219494 -0.27800971 0.061583675
-0.35243294 -0.27799401 0.061507575
-0.35265124 -0.27797318 0.061484605
-0.35286602 -0.27795115 0.061473165
-0.35308659 -0.27793136 0.06144096
-0.35329503 -0.27790719 0.061450321
-0.35351974 -0.27788913 0.061401945
-0.35373178 -0.27786648 0.061397444
-0.35394949 -0.27784604 0.061372168
-0.35416895 -0.27782446 0.061353803
-0.35438073 -0.27780387 0.061334319
-0.35458955 -0.27777839 0.061352894
-0.3548173 -0.27776223 0.061288372
-0.35502857 -0.27773979 0.061282717
-0.35523209 -0.27771443 0.061304774
-0.35547197 -0.2777034 0.061192933
-0.35567078 -0.27767634 0.061231151
-0.35587811 -0.27765074 0.061252043
-0.35601136 -0.27761522 0.061404705
-0.35631129 -0.27762696 0.061078142
-0.35654724 -0.27759933 0.06109082
-0.35675552 -0.27757645 0.061090954
-0.35697094 -0.27755657 0.061063379
-0.35716411 -0.27752554 0.061135054
-0.35738671 -0.27750883 0.061078627
-0.35759264 -0.27748525 0.06108569
-0.35780823 -0.27746585 0.061054658
-0.35802513 -0.27744502 0.061032847
-0.35823676 -0.27742413 0.061015666
-0.35845816 -0.27740756 0.060959242
-0.35867375 -0.2773886 0.060924754
-0.35887131 -0.27735978 0.060976818
-0.35909146 -0.277343 0.060922705
-0.35930476 -0.27732337 0.060895145
-0.35949746 -0.27729461 0.060950682
-0.35972613 -0.27727991 0.060874633
-0.35994166 -0.27726161 0.060835525
-0.36013579 -0.27723363 0.06088414
-0.36034796 -0.27721396 0.060857747
-0.36056373 -0.27719387 0.06083132
-0.36077794 -0.2771754 0.06079454
-0.36099303 -0.27715525 0.060769275
-0.36119491 -0.27713117 0.060783267
-0.36140963 -0.27711326 0.060741864
-0.36161104 -0.27708906 0.060757011
-0.36182809 -0.27707028 0.060720205
-0.36203453 -0.27704871 0.060712285
-0.36225304 -0.27703086 0.06066741
-0.36246672 -0.27701306 0.060626004
-0.36266059 -0.27698323 0.060688462
-0.36286777 -0.27696234 0.060674764
-0.36308765 -0.27694798 0.060603362
-0.36328018 -0.27691987 0.060654297
-0.3635107 -0.2769089 0.060549416
-0.36370835 -0.27688357 0.060576107
-0.36390799 -0.2768569 0.060610861
-0.3640658 -0.27684173 0.060595103
-0.36433545 -0.2768257 0.06049579
-0.36451924 -0.2768077 0.060479902
-0.36476201 -0.27678499 0.060451046
-0.36495763 -0.27675891 0.060484663
-0.36516047 -0.2767368 0.060483675
-0.36535907 -0.27670991 0.060520738
-0.36553791 -0.27669451 0.060489893
-0.36575457 -0.27667779 0.0604381
-0.36599794 -0.27665865 0.060382728
-0.36620224 -0.27663779 0.06037135
-0.36640847 -0.27661559 0.060368039
-0.36661732 -0.27659753 0.060332421
-0.36682904 -0.27657869 0.060300261
-0.36702183 -0.27655151 0.060344271
-0.36723417 -0.27653322 0.060307492
-0.36743116 -0.27650857 0.060329579
-0.3676616 -0.27650142 0.060197033
-0.36785236 -0.27647319 0.060250275
-0.36806154 -0.27645352 0.060226198
-0.36826858 -0.27643535 0.060192898
-0.36847639 -0.27641505 0.060174588
-0.36867836 -0.27639395 0.060166679
-0.3688826 -0.27637434 0.060146086
-0.36908117 -0.27635124 0.060155481
-0.36928862 -0.27633113 0.060136013
-0.36950058 -0.27631685 0.060070422
-0.36969614 -0.27628919 0.060115568
-0.36989418 -0.27626318 0.060146876
-0.37009928 -0.27624473 0.060117055
-0.37030926 -0.27622971 0.060058389
-0.37051311 -0.27620777 0.060055077
-0.37072226 -0.27619255 0.059998721
-0.37091914 -0.27616599 0.06003464
-0.37113249 -0.27615693 0.059929844
-0.37131366 -0.27613446 0.059948549
-0.37153417 -0.27610978 0.059952073
-0.37174189 -0.27609122 0.05992109
-0.37193546 -0.27606866 0.059930511
-0.37213272 -0.27604887 0.059916858
-0.37232673 -0.27602676 0.059922829
-0.37252033 -0.27601385 0.059861928
-0.37275544 -0.27599433 0.059815817
-0.37293494 -0.27597427 0.059818394
-0.37315935 -0.2759501 0.059814986
-0.37336305 -0.27592945 0.059802465
-0.37356353 -0.27590963 0.059786484
-0.37376559 -0.27588791 0.05978319
-0.37397209 -0.27587309 0.059725687
-0.37417039 -0.27585524 0.059697051
-0.37436956 -0.27583146 0.059711061
-0.374569 -0.27580798 0.059722759
-0.37475151 -0.27579105 0.059699968
-0.37494755 -0.27577865 0.059633292
-0.37516397 -0.27575582 0.05962646
-0.37535366 -0.27573135 0.0596532
-0.37554657 -0.27571675 0.059604988
-0.37576926 -0.2756961 0.059577379
-0.37596008 -0.27567637 0.059568375
-0.3761822 -0.27565181 0.059569594
-0.37636983 -0.2756331 0.059555985
-0.376562 -0.27561116 0.059561968
-0.37676936 -0.27559578 0.059507918
-0.37695062 -0.27557522 0.05951279
-0.37717187 -0.27555031 0.059517473
-0.37735426 -0.27553481 0.059484288
-0.37756011 -0.27551866 0.059437178
-0.37774602 -0.27549902 0.059431653
-0.37795439 -0.27547374 0.059449069
-0.37817079 -0.27545249 0.059430715
-0.37836501 -0.27543336 0.059414774
-0.37857977 -0.27541482 0.059377983
-0.37875605 -0.27539811 0.059358679
-0.37893435 -0.27537945 0.05935204
-0.37914336 -0.27535522 0.059361383
-0.37935603 -0.27533501 0.059338443
-0.37955669 -0.27531925 0.059292495
-0.37974617 -0.27530017 0.059280038
-0.37994099 -0.27528712 0.059219133
-0.38015437 -0.27525941 0.059250366
-0.38034287 -0.27523947 0.059244826
-0.38055497 -0.27521947 0.059220731
-0.38073865 -0.27520338 0.059191011
-0.38092846 -0.27518061 0.05920507
-0.38111627 -0.27516502 0.059168413
-0.38130623 -0.27515218 0.059109833
-0.3815254 -0.27512717 0.059116833
-0.3817234 -0.2751002 0.059155054
-0.38193184 -0.27508155 0.05912406
-0.38212723 -0.27506134 0.05911503
-0.38232267 -0.27504128 0.059104845
-0.38250515 -0.27501962 0.059116624
-0.38269106 -0.27501321 0.059014276
-0.38287708 -0.27500206 0.058946498
-0.38308525 -0.27497336 0.058989286
-0.38329041 -0.27494577 0.059026323
-0.38350353 -0.27493528 0.058931902
-0.38369039 -0.27490923 0.058972478
-0.38391119 -0.2748878 0.058951795
-0.38411209 -0.27487141 0.05891047
-0.38430086 -0.27485427 0.058884174
-0.38449103 -0.27483353 0.05888325
-0.38469839 -0.27480966 0.058891445
-0.38490126 -0.27478468 0.058911204
-0.38506362 -0.27476868 0.058897726
-0.38527587 -0.27475974 0.058792938
-0.38548392 -0.27473751 0.058788456
-0.38569084 -0.27471334 0.058798961
-0.38586226 -0.2746937 0.058805041
-0.38606173 -0.2746768 0.058768325
-0.38625544 -0.27465647 0.058761612
-0.38644651 -0.27463844 0.058739923
-0.3866398 -0.27462494 0.058683641
-0.38683781 -0.2745986 0.058717247
-0.38704076 -0.27457455 0.058730081
-0.38723102 -0.27456325 0.058659986
-0.38741887 -0.27453929 0.058684424
-0.38762286 -0.27451769 0.058678813
-0.38780603 -0.27449989 0.058661774
-0.38799679 -0.27448255 0.058635477
-0.38819882 -0.27446556 0.058597594
-0.38839573 -0.27444547 0.058586251
-0.3885867 -0.27442023 0.058617592
-0.38879296 -0.27440515 0.058562402
-0.38898221 -0.27438498 0.05855801
-0.38916403 -0.27435502 0.058630899
-0.38935131 -0.2743395 0.058594242
-0.38956183 -0.27432725 0.058514819
-0.38975373 -0.2743153 0.058448177
-0.389963 -0.27428961 0.058467895
-0.39015216 -0.27427009 0.058458898
-0.39035076 -0.27424556 0.058478668
-0.39055181 -0.27422899 0.058438491
-0.39076048 -0.27421379 0.058382127
-0.39094529 -0.27419269 0.058388144
-0.39112696 -0.2741735 0.058382642
-0.3913157 -0.27415338 0.058378253
-0.39151591 -0.27413547 0.058348443
-0.39170098 -0.27411574 0.058344085
-0.39190316 -0.27409115 0.05836153
-0.39209309 -0.27407706 0.058312181
-0.39229184 -0.27405363 0.05832389
-0.3924877 -0.27403384 0.058311403
-0.39268088 -0.27401924 0.058263186
-0.39287058 -0.2740061 0.058206923
-0.39306048 -0.27397403 0.058288991
-0.39324892 -0.27395394 0.058284603
-0.39345685 -0.27394357 0.058193669
-0.39364868 -0.2739231 0.058189273
-0.39384118 -0.27390793 0.058145672
-0.39403313 -0.27388918 0.058128595
-0.39421335 -0.27386242 0.058179587
-0.39441338 -0.27385259 0.058090985
-0.39460197 -0.27383769 0.058048561
-0.3947899 -0.27381641 0.0580534
-0.39498809 -0.27378893 0.058095079
-0.39517939 -0.27376333 0.058128726
-0.39538169 -0.27374172 0.058124274
-0.39558092 -0.2737315 0.058039144
-0.39577579 -0.27370536 0.058073923
-0.39596745 -0.27368808 0.058046464
-0.39616263 -0.27367386 0.057993636
-0.39635766 -0.27365875 0.057947721
-0.39654195 -0.27363706 0.057958346
-0.39673337 -0.27361742 0.05794818
-0.39692476 -0.27359655 0.057947248
-0.39713359 -0.27358261 0.057881661
-0.39731809 -0.27355599 0.057928022
-0.39751261 -0.27354217 0.057872888
-0.3977077 -0.2735171 0.057899587
-0.39789492 -0.27350521 0.057836425
-0.39809695 -0.27348158 0.057846963
-0.39828458 -0.27346268 0.057834517
-0.39848602 -0.27344543 0.057798937
-0.39867079 -0.27341974 0.05783838
-0.3988651 -0.27340296 0.057805143
-0.39905855 -0.27339259 0.05772581
-0.39926705 -0.2733725 0.057705183
-0.39944446 -0.27335063 0.057722759
-0.39963922 -0.27332923 0.05772296
-0.39982656 -0.27331084 0.057707056
-0.4000141 -0.27329099 0.057701524
-0.40021369 -0.27328122 0.057612933
-0.40041199 -0.2732591 0.057615414
-0.40061039 -0.27323651 0.057621356
-0.4008089 -0.2732136 0.057629604
-0.40099511 -0.27319956 0.057582583
-0.40117374 -0.27318811 0.057522908
-0.40136716 -0.2731719 0.057486225
-0.40155438 -0.27315259 0.05747724
-0.40174016 -0.27312538 0.057527043
-0.40193278 -0.27309901 0.05756529
-0.40213665 -0.2730695 0.057617325
-0.40233037 -0.27305213 0.0575887
-0.40250829 -0.27305356 0.057435662
-0.40270138 -0.27303752 0.057397824
-0.40288416 -0.27302137 0.057369258
-0.40308273 -0.27298754 0.057457048
-0.40328014 -0.27295813 0.057513721
-0.40348119 -0.2729387 0.057494298
-0.40367955 -0.27292702 0.057420693
-0.40388978 -0.27291006 0.057375856
-0.40405115 -0.27289641 0.057346243
-0.40423617 -0.27287385 0.057362624
-0.40443027 -0.27286324 0.05728443
-0.40461609 -0.27283868 0.057314649
-0.40480763 -0.27281702 0.05731947
-0.40500149 -0.27279806 0.057302386
-0.40519413 -0.27279013 0.057205755
-0.40539038 -0.27276525 0.057230152
-0.40558138 -0.27274489 0.057225756
-0.40577552 -0.27272511 0.057214424
-0.40597433 -0.27270249 0.057220373
-0.40616652 -0.27268702 0.057179082
-0.4063451 -0.27267179 0.057147078
-0.40653732 -0.27264893 0.057159964
-0.4067319 -0.27261445 0.057255849
-0.40695617 -0.27258164 0.057315841
-0.40717211 -0.27255902 0.057307865
-0.40736592 -0.27252081 0.057431415
-0.40758044 -0.27248213 0.057542175
-0.40778172 -0.27245006 0.057614971
-0.40797517 -0.27241427 0.057721227
-0.40816697 -0.27238813 0.057758331
-0.40836254 -0.27234945 0.057884172
-0.40857357 -0.27231365 0.05797651
-0.40878403 -0.27227932 0.058058478
-0.40898213 -0.27224368 0.0581601
-0.40916643 -0.2722092 0.058264099
-0.40938735 -0.27217549 0.058333334
-0.40958461 -0.27213708 0.058455706
-0.40979135 -0.27210552 0.058520403
-0.41000277 -0.27206683 0.058633495
-0.41020715 -0.27202925 0.058744311
-0.41039452 -0.27199775 0.058824085
-0.41061085 -0.27196327 0.058902562
-0.41081941 -0.27192569 0.059009902
-0.41102508 -0.27188793 0.059120707
-0.33958423 -0.27924591 0.062667504
-0.33984944 -0.27923211 0.062555604
-0.34005967 -0.2792027 0.062601872
-0.34029678 -0.27918187 0.062563874
-0.34052286 -0.27915671 0.062566265
-0.34077585 -0.27914029 0.062483236
-0.34102663 -0.27912191 0.06241636
-0.34124565 -0.27909675 0.062424548
-0.3414782 -0.27907375 0.062406152
-0.34171221 -0.27905276 0.062371626
-0.34196037 -0.2790342 0.062308218
-0.34213114 -0.27900091 0.062414601
-0.34239268 -0.27898151 0.062346518
-0.34262234 -0.27895975 0.062321234
-0.34282771 -0.27892977 0.062375583
-0.34306586 -0.27891055 0.062324904
-0.34329152 -0.27888796 0.062308855
-0.34354955 -0.27887464 0.062199295
-0.34377137 -0.27885279 0.062180951
-0.34394994 -0.27883315 0.062181272
-0.34417346 -0.27880228 0.062227465
-0.3444044 -0.27878654 0.062157229
-0.34463513 -0.27875143 0.06222875
-0.34490234 -0.27873677 0.062121455
-0.34513474 -0.27871534 0.062091537
-0.34534883 -0.27869025 0.062103212
-0.34558502 -0.27867013 0.062060606
-0.34582531 -0.27865306 0.061992615
-0.34601903 -0.27862042 0.062075846
-0.34627867 -0.27860942 0.061947837
-0.3464767 -0.27857819 0.06201721
-0.34667116 -0.2785475 0.06208545
-0.34692013 -0.278532 0.061998978
-0.34714743 -0.27851161 0.061965637
-0.34736425 -0.27848637 0.061976142
-0.34759989 -0.27846712 0.061927773
-0.34782603 -0.2784467 0.061895579
-0.34805036 -0.27842408 0.061880697
-0.34828293 -0.27840424 0.06183926
-0.34850243 -0.278382 0.06182554
-0.34870899 -0.27835396 0.061864913
-0.3489466 -0.27833781 0.061792329
-0.34917486 -0.27831697 0.061761282
-0.34938774 -0.27829295 0.061766043
-0.349608 -0.27826971 0.061759245
-0.34983125 -0.27824929 0.061729375
-0.35006669 -0.27823132 0.061671786
-0.35027635 -0.27820653 0.061684638
-0.3505137 -0.27818948 0.061618969
-0.35070518 -0.27815863 0.061690673
-0.35093611 -0.27813959 0.061644636
-0.3511349 -0.27810952 0.061704781
-0.35139635 -0.27810133 0.061554868
-0.35159504 -0.27807319 0.061601184
-0.35183752 -0.27805871 0.061512444
-0.35206649 -0.27804145 0.061454885
-0.35224602 -0.27800846 0.06155201
-0.35247168 -0.2779865 0.061531354
-0.35270256 -0.27796841 0.061478402
-0.35292155 -0.27794796 0.061452009
-0.35313001 -0.27792192 0.061475232
-0.35334167 -0.27789706 0.061486915
-0.35355586 -0.2778751 0.06147553
-0.35377735 -0.27785408 0.061451435
-0.3540132 -0.27783859 0.061375402
-0.35423836 -0.27782112 0.061322473
-0.35444814 -0.27779603 0.061337613
-0.3546645 -0.27777541 0.061314691
-0.35487753 -0.27775168 0.061317153
-0.35509726 -0.27773258 0.061280385
-0.35530776 -0.27770802 0.061290912
-0.35551518 -0.2776843 0.061298009
-0.35574228 -0.27766645 0.061246224
-0.35595092 -0.27764335 0.061247535
-0.35617903 -0.27762619 0.06118999
-0.35639253 -0.27760527 0.061171692
-0.35656822 -0.277567 0.061310332
-0.35675251 -0.2775442 0.061329052
-0.35700649 -0.27753004 0.061228737
-0.35722986 -0.27751151 0.061185032
-0.35744998 -0.27749172 0.061152883
-0.35766068 -0.27747014 0.06114151
-0.35787654 -0.2774488 0.061124347
-0.35810131 -0.27743343 0.061056446
-0.35828954 -0.2774004 0.061146613
-0.35852987 -0.277392 0.061015233
-0.35874635 -0.27737138 0.060992312
-0.35895365 -0.27734891 0.060990181
-0.35917434 -0.27733034 0.060948804
-0.35937449 -0.27730486 0.060974374
-0.3595832 -0.27728114 0.060980298
-0.35980484 -0.27726546 0.060917009
-0.3600032 -0.27723721 0.060964484
-0.36021575 -0.27721763 0.060936972
-0.36043832 -0.27720058 0.060882904
-0.36064306 -0.2771776 0.060886554
-0.36085939 -0.27715793 0.060856715
-0.36107796 -0.27714166 0.060800355
-0.3612833 -0.27711925 0.060799383
-0.36149073 -0.27709568 0.060805328
-0.3617017 -0.2770761 0.060778979
-0.36190641 -0.27705362 0.060779162
-0.36211687 -0.27703175 0.060770102
-0.3622613 -0.27700937 0.06081783
-0.36255133 -0.27699727 0.060673542
-0.36274505 -0.27696964 0.060719881
-0.36297292 -0.27695692 0.060630053
-0.36316726 -0.27692971 0.060672943
-0.36338112 -0.27691016 0.060644269
-0.36359885 -0.27689508 0.060579844
-0.36379197 -0.27686501 0.060644634
-0.3640053 -0.27684787 0.060598679
-0.36421549 -0.27682683 0.06058386
-0.36442152 -0.27680609 0.06057021
-0.3645772 -0.27678514 0.060598284
-0.36481199 -0.27678001 0.060447339
-0.36503103 -0.27675691 0.060440548
-0.36525983 -0.27672687 0.060476352
-0.36547312 -0.27670819 0.060441922
-0.365668 -0.27668187 0.060477883
-0.3658756 -0.27666014 0.060469985
-0.36607298 -0.27663529 0.060493257
-0.36628452 -0.27661598 0.060464606
-0.36649537 -0.27659896 0.060419813
-0.36671293 -0.27658343 0.060358848
-0.36691085 -0.27656436 0.060339477
-0.36711079 -0.27653354 0.060404226
-0.36732921 -0.27652153 0.060316749
-0.36753523 -0.27649969 0.060311172
-0.36773583 -0.27647731 0.060313679
-0.36794734 -0.27645895 0.06027811
-0.36814511 -0.27643502 0.060294457
-0.36836126 -0.27641976 0.060232352
-0.36856657 -0.27640069 0.060207188
-0.3687703 -0.27637798 0.060209684
-0.3689642 -0.27636012 0.060184561
-0.36915189 -0.2763412 0.060172155
-0.36938545 -0.2763184 0.06015145
-0.36958712 -0.27629748 0.060142435
-0.36979732 -0.27627945 0.060105711
-0.36999464 -0.27625585 0.06011977
-0.37020147 -0.27623579 0.060100354
-0.37040287 -0.27621508 0.060090177
-0.37060794 -0.27619696 0.060058095
-0.37081859 -0.2761828 0.059992552
-0.37101969 -0.27615929 0.060003132
-0.37121221 -0.27613273 0.06004256
-0.37138158 -0.27611095 0.06006597
-0.37161896 -0.27609214 0.060012985
-0.37183142 -0.276077 0.059953198
-0.37200937 -0.27605236 0.059990395
-0.37222797 -0.27602962 0.059981298
-0.37242991 -0.27601025 0.059960745
-0.37263706 -0.2759949 0.059906758
-0.37283373 -0.27597502 0.059894294
-0.37299389 -0.27594981 0.05995002
-0.37322962 -0.27593747 0.059850942
-0.37342969 -0.27592054 0.059814267
-0.37365332 -0.27589929 0.059790157
-0.3738541 -0.27587989 0.059770763
-0.37405443 -0.27586022 0.05975369
-0.37424821 -0.27583876 0.059755087
-0.37444508 -0.27580971 0.059809472
-0.3746475 -0.27579203 0.059776247
-0.37484962 -0.2757777 0.059718814
-0.37504843 -0.2757538 0.059734017
-0.3752557 -0.27573717 0.059689242
-0.37543228 -0.27571553 0.059705697
-0.37564582 -0.27569032 0.059718523
-0.37585986 -0.27568007 0.059621848
-0.37603417 -0.27566025 0.059626784
-0.3762289 -0.27563679 0.059642006
-0.37645796 -0.27561855 0.05959136
-0.37662995 -0.27560058 0.059584782
-0.37683767 -0.2755743 0.059610315
-0.37703899 -0.27555719 0.059573635
-0.37724018 -0.27553636 0.059564624
-0.37744761 -0.27552161 0.059506014
-0.37762326 -0.2754958 0.05955359
-0.37783596 -0.27547464 0.059537604
-0.37803718 -0.27545819 0.059496321
-0.37824091 -0.27544448 0.059433125
-0.3784292 -0.27542755 0.059405722
-0.37861979 -0.27540487 0.059418652
-0.37882212 -0.27537772 0.059454575
-0.37901825 -0.27536514 0.059389107
-0.37920466 -0.27535096 0.059343275
-0.37941423 -0.27532321 0.05937802
-0.379612 -0.27530429 0.05935749
-0.37982208 -0.27527711 0.059387621
-0.38002324 -0.27526224 0.059334811
-0.38021797 -0.27524477 0.059306227
-0.3804 -0.27523106 0.059260417
-0.38060349 -0.2752057 0.059282504
-0.38079944 -0.27518541 0.059273511
-0.38098535 -0.27516261 0.059291083
-0.38120043 -0.27515143 0.05920016
-0.38138804 -0.27513096 0.059199274
-0.38157293 -0.27511692 0.059153453
-0.38178593 -0.27508911 0.059185877
-0.38195786 -0.27506876 0.059196591
-0.38215473 -0.27505043 0.059172615
-0.38237342 -0.27503538 0.059107035
-0.38256171 -0.27502164 0.059056588
-0.38276809 -0.27499563 0.059080966
-0.3829585 -0.27497438 0.059083529
-0.38314342 -0.27495641 0.059066515
-0.38335419 -0.27493119 0.059081659
-0.38354787 -0.27490926 0.059086516
-0.38373569 -0.27489588 0.059033759
-0.38393614 -0.2748844 0.058956746
-0.38413832 -0.27485824 0.058985755
-0.38433373 -0.27483943 0.058966395
-0.38452166 -0.27482113 0.058949374
-0.38472944 -0.27479783 0.058953002
-0.38492882 -0.27477336 0.058971658
-0.38511729 -0.27476904 0.05885205
-0.38531858 -0.27474818 0.058843035
-0.38549766 -0.27472186 0.058891751
-0.38571191 -0.27470383 0.058851551
-0.38590038 -0.27468058 0.058870252
-0.38609496 -0.27466866 0.058801334
-0.38630709 -0.27464738 0.058786497
-0.38648984 -0.27462065 0.058835197
-0.38668114 -0.2746031 0.058810089
-0.38686788 -0.27459171 0.058743518
-0.38705891 -0.27456644 0.058774889
-0.38726217 -0.27454299 0.058783151
-0.38745236 -0.27453184 0.058711946
-0.38764724 -0.274515 0.058678754
-0.38783881 -0.27449095 0.058700901
-0.38803366 -0.27447441 0.058665402
-0.38823044 -0.27445388 0.058657557
-0.38841864 -0.27443081 0.058675118
-0.38861355 -0.27441505 0.058633849
-0.38881114 -0.27439696 0.058607563
