# .PCD v0.7 - Point Cloud Data file format
VERSION 0.7
FIELDS x y z
SIZE 4 4 4
TYPE F F F
COUNT 1 1 1
WIDTH 1249
HEIGHT 1
VIEWPOINT 0 0 0 1 0 0 0
POINTS 1249
DATA ascii
-0.062360574 -0.28770587 0.060620844
-0.062556177 -0.28782231 0.060547598
-0.062736936 -0.28791368 0.060586307
-0.06292408 -0.28801605 0.060575385
-0.063090533 -0.28810695 0.060566828
-0.06330128 -0.28823048 0.060500458
-0.063481987 -0.28832623 0.060510322
-0.063660011 -0.28842562 0.060486738
-0.063839838 -0.28852427 0.060474683
-0.064043924 -0.28864121 0.060427941
-0.064223483 -0.28873548 0.060443584
-0.064410046 -0.28883824 0.060428046
-0.064588025 -0.28893849 0.06039869
-0.064759403 -0.28903556 0.060367044
-0.064943746 -0.28914365 0.060308825
-0.065150872 -0.28925452 0.060312845
-0.065332286 -0.2893531 0.060306557
-0.065514758 -0.28946298 0.060229879
-0.065697424 -0.28955981 0.060239743
-0.065871894 -0.28966415 0.060171165
-0.066057816 -0.28974882 0.060272161
-0.06622038 -0.28982544 0.060343236
-0.066426121 -0.28994417 0.060290717
-0.066612884 -0.2900497 0.060257882
-0.066793412 -0.29014781 0.060251594
-0.066951498 -0.29025513 0.060105763
-0.067148045 -0.29036152 0.060101733
-0.067329615 -0.29046762 0.060046978
-0.067511998 -0.29054999 0.060150303
-0.067687064 -0.29065835 0.060057499
-0.067890204 -0.29075846 0.060118061
-0.068072759 -0.29085696 0.060116388
-0.068254396 -0.290959 0.060088176
-0.068432793 -0.29104877 0.060129203
-0.068617359 -0.29115766 0.060066361
-0.068793476 -0.29124251 0.060131621
-0.068980902 -0.29135841 0.060033008
-0.069157466 -0.29146162 0.059979431
-0.069348536 -0.29156944 0.059946567
-0.069524221 -0.2916595 0.059976064
-0.069698736 -0.29175279 0.059980184
-0.069886617 -0.29185978 0.059941564
-0.070067719 -0.29196313 0.059902973
-0.070252232 -0.29206887 0.0598609
-0.070427224 -0.29215783 0.059895016
-0.070603713 -0.29225695 0.059867978
-0.070792317 -0.29236731 0.059809737
-0.070960805 -0.29244664 0.059884258
-0.071138315 -0.29255578 0.059794899
-0.071314245 -0.29264772 0.059812855
-0.071505845 -0.29275358 0.059795
-0.071681663 -0.29284546 0.059812956
-0.071864508 -0.29294938 0.05977666
-0.072047271 -0.29305345 0.05973921
-0.072200179 -0.29314092 0.059705317
-0.072410725 -0.29326436 0.059638947
-0.072544865 -0.29333678 0.059637412
-0.072762184 -0.29344979 0.059663318
-0.072938718 -0.29354504 0.059661657
-0.073120721 -0.29364887 0.059623063
-0.073287204 -0.29373854 0.059622586
-0.073443644 -0.29382229 0.059625596
-0.073652551 -0.29393515 0.05962269
-0.073830575 -0.29402751 0.05964525
-0.074010715 -0.29413581 0.059570894
-0.07418716 -0.29422328 0.059619993
-0.074366949 -0.29433137 0.05954564
-0.074540563 -0.29442823 0.059523217
-0.074715108 -0.29452875 0.059480026
-0.074893937 -0.29462525 0.059478357
-0.075063735 -0.29472956 0.059393641
-0.075256214 -0.29482582 0.059441555
-0.075431615 -0.29492065 0.059438743
-0.075585298 -0.2950184 0.059340231
-0.075739793 -0.29509774 0.059365161
-0.075937413 -0.2952038 0.059366908
-0.076142818 -0.2953192 0.059335157
-0.076311544 -0.29541132 0.059326604
-0.076469839 -0.29549533 0.059334226
-0.076633975 -0.29558006 0.059357978
-0.076832488 -0.29569173 0.059326258
-0.076999359 -0.29578987 0.059271552
-0.077198014 -0.29588932 0.059320599
-0.07735268 -0.2959705 0.059334002
-0.077551067 -0.29608351 0.059293039
-0.077730685 -0.29619029 0.059226759
-0.077883057 -0.29627606 0.05920209
-0.078060679 -0.29637295 0.059193507
-0.078257322 -0.29647869 0.059194095
-0.078435361 -0.29657915 0.059163593
-0.078601763 -0.29668164 0.059078876
-0.078788295 -0.29678103 0.059085272
-0.078949615 -0.29687074 0.059066344
-0.079135127 -0.2969631 0.059115428
-0.079309486 -0.29706195 0.059082616
-0.079486676 -0.29716021 0.059063651
-0.079660699 -0.29725799 0.059036605
-0.079837881 -0.2973578 0.059007257
-0.080011107 -0.29744935 0.059018299
-0.080184288 -0.29754069 0.059030492
-0.080351643 -0.29763594 0.058996551
-0.08053834 -0.29774424 0.058945253
-0.080708116 -0.2978332 0.058960915
-0.080887713 -0.29793084 0.058954634
-0.081057377 -0.29801834 0.058979522
-0.081230864 -0.29812077 0.058920186
-0.081403859 -0.29821482 0.058913924
-0.081564009 -0.29830247 0.058904223
-0.08174324 -0.29839742 0.058914095
-0.081906334 -0.29847753 0.058964401
-0.082104951 -0.29860139 0.058853056
-0.082258448 -0.29868478 0.058848009
-0.082421511 -0.2987721 0.058850992
-0.082629055 -0.29890043 0.058741942
-0.082804754 -0.29899222 0.058759898
-0.082961157 -0.29907912 0.058742143
-0.083133809 -0.29916453 0.058791265
-0.083315775 -0.29926288 0.058788437
-0.083484203 -0.29936805 0.058693334
-0.083653077 -0.29946163 0.05867555
-0.083812796 -0.29954308 0.058705084
-0.083996922 -0.29965317 0.058633022
-0.084189057 -0.29974505 0.058708623
-0.084369756 -0.29985312 0.058637716
-0.084534988 -0.29994616 0.058610708
-0.084716171 -0.30004674 0.058590569
-0.084878683 -0.30013269 0.058600485
-0.085030623 -0.30022156 0.058553904
-0.085221529 -0.3003242 0.058554512
-0.085393511 -0.30041525 0.058564398
-0.085555159 -0.30050617 0.058538549
-0.085712746 -0.30060038 0.058476947
-0.085883938 -0.30069524 0.058459148
-0.086073115 -0.30080575 0.058402069
-0.086263254 -0.30089214 0.058506511
-0.086432725 -0.30099487 0.058431037
-0.086616114 -0.30109769 0.058403969
-0.086784229 -0.30118877 0.058400027
-0.08696837 -0.30128759 0.058401801
-0.087131284 -0.30137023 0.058434799
-0.087289736 -0.30145663 0.058427416
-0.087467983 -0.3015641 0.058351912
-0.087637298 -0.30164999 0.058386039
-0.087815665 -0.30175593 0.05832091
-0.087989822 -0.30185044 0.058315791
-0.088150173 -0.30194172 0.058283027
-0.088343069 -0.30204701 0.058273248
-0.088507652 -0.30212459 0.058345459
-0.088667691 -0.30222768 0.058234237
-0.088822767 -0.30232248 0.058159951
-0.089004755 -0.30241504 0.058195196
-0.089193575 -0.30252025 0.058171581
-0.08936277 -0.30260664 0.058202244
-0.089528061 -0.30269337 0.058216769
-0.089703493 -0.30279332 0.058180504
-0.089874923 -0.30288389 0.058191538
-0.09003289 -0.30296037 0.058247618
-0.090196103 -0.30307028 0.058102932
-0.090396799 -0.30318293 0.058072355
-0.090552621 -0.30325559 0.05814575
-0.090729982 -0.30336732 0.058039095
-0.09091714 -0.30347446 0.057997018
-0.091073826 -0.30355394 0.058028877
-0.091259725 -0.3036553 0.058020264
-0.091423236 -0.30375302 0.057956338
-0.091585658 -0.30382943 0.058028564
-0.091774814 -0.30393219 0.058022242
-0.091958538 -0.3040373 0.057981335
-0.092128433 -0.30413023 0.057971619
-0.092274338 -0.30421445 0.057934277
-0.092449203 -0.30431286 0.05790608
-0.092633702 -0.30441591 0.057881325
-0.092804335 -0.30450729 0.057884298
-0.092988499 -0.3046107 0.057856075
-0.093148261 -0.30469254 0.057883307
-0.093310639 -0.304777 0.057902459
-0.093479015 -0.30485907 0.05795851
-0.09364558 -0.30497536 0.057783809
-0.093825862 -0.30507755 0.057749826
-0.093997791 -0.30517298 0.05773088
-0.094180614 -0.30526546 0.057769582
-0.094348632 -0.3053602 0.057741404
-0.094516285 -0.30544943 0.057747845
-0.094685413 -0.30553684 0.057771586
-0.094859347 -0.30563527 0.057739936
-0.095031038 -0.30573636 0.057682909
-0.095200248 -0.30583471 0.057635114
-0.095378228 -0.30592793 0.057651915
-0.095557496 -0.30601975 0.057682548
-0.095731691 -0.30610687 0.057725891
-0.095895775 -0.30621073 0.057623886
-0.096047349 -0.30629185 0.057626911
-0.096231766 -0.30639365 0.057610229
-0.096396752 -0.30649078 0.057555534
-0.09657643 -0.30658737 0.057556171
-0.096744962 -0.30668554 0.057507224
-0.096909441 -0.30677307 0.057513673
-0.097073153 -0.3068662 0.057480901
-0.097258165 -0.30696708 0.057472292
-0.097441085 -0.30706525 0.057474069
-0.097590528 -0.30715296 0.057426337
-0.097777188 -0.30724767 0.057463881
-0.097950786 -0.30734524 0.057436839
-0.098107681 -0.3074306 0.057430618
-0.098280616 -0.30753309 0.057368971
-0.098464422 -0.3076261 0.057407673
-0.098633014 -0.30771902 0.057393346
-0.098789304 -0.30780917 0.057353672
-0.098957554 -0.30789804 0.057364717
-0.099134393 -0.30798852 0.057395369
-0.09931314 -0.30809432 0.057332549
-0.099489585 -0.30818936 0.057332046
-0.099644035 -0.30828065 0.057278529
-0.099814698 -0.30837184 0.057282649
-0.099993788 -0.30846497 0.057304054
-0.10017659 -0.30857134 0.05725161
-0.100354 -0.30866179 0.05728456
-0.10050534 -0.30875492 0.057207976
-0.1006811 -0.30884659 0.057227083
-0.10085625 -0.3089464 0.057190817
-0.10100738 -0.30902797 0.057189222
-0.10118595 -0.30913296 0.057131022
-0.10136498 -0.30923009 0.057125889
-0.10153864 -0.30931956 0.057151929
-0.10171563 -0.30942899 0.057059128
-0.10189319 -0.30952337 0.05706669
-0.10204816 -0.30960983 0.057046629
-0.10222252 -0.30970973 0.057006896
-0.10238832 -0.30980045 0.056997191
-0.10255367 -0.30988792 0.057007097
-0.10271084 -0.30997312 0.057003189
-0.10289012 -0.31008393 0.056909218
-0.10303474 -0.31016904 0.056861497
-0.10321796 -0.31025717 0.056930199
-0.10339093 -0.31035084 0.056926236
-0.10356512 -0.31044063 0.056952275
-0.10373153 -0.31053114 0.056946028
-0.10392265 -0.31062245 0.057021633
-0.10410933 -0.31072915 0.056980714
-0.10427678 -0.31082252 0.056959458
-0.1044716 -0.31093168 0.056931209
-0.10463165 -0.31102526 0.056882296
-0.10478519 -0.31110922 0.056873776
-0.10495626 -0.31120399 0.05685598
-0.10513194 -0.31129983 0.05684739
-0.1052966 -0.31139433 0.056808844
-0.10544804 -0.31148225 0.056766875
-0.10561088 -0.31157136 0.056757182
-0.10579066 -0.31166855 0.056754358
-0.1059621 -0.31176317 0.056738861
-0.1061268 -0.3118605 0.056681857
-0.10631585 -0.31196585 0.056658231
-0.10648063 -0.31205425 0.056660071
-0.10666004 -0.31214875 0.056673393
-0.10682734 -0.31224784 0.056614075
-0.10699189 -0.31233931 0.056595147
-0.10718426 -0.3124406 0.056609586
-0.10733955 -0.31252971 0.056573376
-0.10752594 -0.31262201 0.056625918
-0.1076808 -0.31271684 0.056550473
-0.10783213 -0.31280172 0.056528114
-0.10801633 -0.31290323 0.056512587
-0.10819973 -0.31299952 0.056528214
-0.10833928 -0.31309089 0.056421667
-0.10851769 -0.313178 0.056479998
-0.1086916 -0.31327203 0.056477193
-0.1088751 -0.31337386 0.05645705
-0.10906516 -0.31347376 0.056472655
-0.10922185 -0.31356502 0.056427203
-0.10940077 -0.31366298 0.056416303
-0.10956466 -0.31375477 0.056392759
-0.10973836 -0.31384903 0.056387641
-0.10990667 -0.31394479 0.056353707
-0.11007079 -0.31403142 0.056364767
-0.11024824 -0.31412733 0.056361951
-0.11041766 -0.31423038 0.056284167
-0.11059263 -0.31432444 0.056284815
-0.11074907 -0.31441066 0.056271669
-0.11092347 -0.3145074 0.056252714
-0.11109243 -0.31460544 0.056206077
-0.11126463 -0.31469536 0.056224041
-0.11143394 -0.31478605 0.056227017
-0.11162171 -0.31488717 0.05622647
-0.11179116 -0.31498513 0.056182142
-0.11196899 -0.31508127 0.056179326
-0.11213122 -0.3151688 0.056177713
-0.11229319 -0.31526592 0.056112625
-0.11245585 -0.3153581 0.056082167
-0.11264831 -0.31545383 0.056133531
-0.1128128 -0.31554806 0.056096133
-0.112976 -0.31563789 0.056082979
-0.11317109 -0.31573805 0.056114718
-0.1133408 -0.31583369 0.056086548
-0.11350883 -0.31592277 0.056095295
-0.11367539 -0.3160167 0.056067124
-0.11384456 -0.31611699 0.056006636
-0.11401141 -0.3162086 0.055994622
-0.11418126 -0.31630203 0.055981439
-0.11435638 -0.31639686 0.055977479
-0.11454 -0.31649488 0.055982724
-0.11471462 -0.31659213 0.055961445
-0.11488781 -0.31669173 0.055919416
-0.11503753 -0.3167794 0.055872835
-0.11521836 -0.31687364 0.055893086
-0.11540791 -0.31696466 0.055965222
-0.11557043 -0.31706575 0.05587592
-0.11573055 -0.31715637 0.055846617
-0.11592378 -0.31725359 0.055891059
-0.11606956 -0.31735024 0.055771798
-0.11624742 -0.31744304 0.055790897
-0.11644843 -0.31753123 0.055921856
-0.1165978 -0.31762949 0.055804893
-0.1167854 -0.31772768 0.055822816
-0.11695206 -0.31783226 0.055725425
-0.11711293 -0.31792295 0.055698417
-0.11728457 -0.31801873 0.05567601
-0.11746852 -0.31811342 0.055704318
-0.11764646 -0.31820872 0.055707272
-0.11782249 -0.31830829 0.055675611
-0.11799842 -0.31840587 0.055656642
-0.11817194 -0.31850564 0.055614613
-0.11831743 -0.31859371 0.055550732
-0.1184831 -0.31868416 0.055542178
-0.11867157 -0.31878093 0.0555728
-0.11883666 -0.3188774 0.055522703
-0.11899553 -0.31896845 0.055486485
-0.11920687 -0.31906009 0.05563125
-0.11939597 -0.31915718 0.055661857
-0.11956301 -0.3192614 0.055567924
-0.11972075 -0.31936222 0.055463634
-0.11990798 -0.31945956 0.055486169
-0.12008342 -0.31955561 0.05547528
-0.12025252 -0.3196539 0.055427492
-0.12042814 -0.31974816 0.055429287
-0.12059972 -0.31984076 0.055427648
-0.12075885 -0.31993383 0.055378731
-0.12094087 -0.32002801 0.055403586
-0.12113186 -0.32012755 0.05542497
-0.12129851 -0.32022786 0.055355262
-0.12147307 -0.32032609 0.055327065
-0.12163447 -0.32041919 0.055286221
-0.12181841 -0.32051545 0.055304155
-0.12200667 -0.32061896 0.055289768
-0.12218064 -0.32071373 0.055282343
-0.12233982 -0.32080331 0.055256501
-0.12252969 -0.32089978 0.055294033
-0.12267728 -0.3209967 0.055179384
-0.12288107 -0.32110029 0.055219181
-0.12304927 -0.3211953 0.055189852
-0.12319009 -0.32128152 0.055121377
-0.12338319 -0.32137832 0.05516813
-0.12355318 -0.32147339 0.055144556
-0.123735 -0.32157555 0.055116352
-0.123913 -0.32167247 0.055108912
-0.12410222 -0.32177651 0.055094525
-0.12427722 -0.32187006 0.055098638
-0.12444115 -0.32195836 0.055098169
-0.12462202 -0.32205382 0.055110339
-0.12478171 -0.3221541 0.055016425
-0.1249743 -0.32225502 0.055034332
-0.12515551 -0.32235914 0.054991119
-0.12533027 -0.32245466 0.054981396
-0.12550598 -0.32255197 0.054963574
-0.12566309 -0.32264203 0.054927357
-0.12581812 -0.32273203 0.054884221
-0.1260139 -0.32283008 0.054932117
-0.1261856 -0.32292575 0.054910857
-0.12637874 -0.32302555 0.054937992
-0.12653792 -0.32312077 0.054875236
-0.12674126 -0.32322609 0.054902345
-0.1269071 -0.32332492 0.054839555
-0.12707801 -0.32341906 0.05482522
-0.12723765 -0.32350788 0.054806307
-0.12742911 -0.32360801 0.054825366
-0.12761506 -0.32371116 0.054805219
-0.12778679 -0.32380715 0.054781653
-0.1279545 -0.32390136 0.054755785
-0.12813149 -0.32400092 0.054727584
-0.12830889 -0.32409418 0.054742076
-0.12846652 -0.32418787 0.054683931
-0.12869705 -0.32429728 0.054780185
-0.12884142 -0.32439175 0.054670162
-0.12900965 -0.32448307 0.054665063
-0.12919387 -0.32458335 0.054657608
-0.12936893 -0.32467991 0.054642111
-0.12953268 -0.32477728 0.054581638
-0.12967366 -0.32486516 0.054502774
-0.12988111 -0.32495967 0.054615259
-0.13008216 -0.32507077 0.054596219
-0.13024658 -0.3251667 0.054547288
-0.1304321 -0.32526594 0.054551367
-0.1306242 -0.32537186 0.054534659
-0.13080345 -0.32546613 0.054549146
-0.13095222 -0.32555628 0.054482959
-0.13111588 -0.32565078 0.054440945
-0.13132578 -0.32575396 0.054504961
-0.13149758 -0.32585829 0.054427158
-0.13167173 -0.32595682 0.054395504
-0.13186321 -0.32605857 0.054404188
-0.13203523 -0.32615104 0.054404847
-0.13221328 -0.32625011 0.054383572
-0.13240795 -0.32635531 0.054380707
-0.13254647 -0.32644013 0.054313388
-0.13274123 -0.32654837 0.054290906
-0.13294655 -0.32665193 0.054336462
-0.13311107 -0.32674247 0.054323293
-0.13326663 -0.32683647 0.054255929
-0.13345292 -0.3269338 0.054275014
-0.13360187 -0.32702565 0.054198436
-0.13381332 -0.32713461 0.054230131
-0.13397025 -0.32722881 0.05416622
-0.13415547 -0.3273263 0.054180689
-0.13436279 -0.32744217 0.054152403
-0.13455118 -0.3275359 0.054202627
-0.1347394 -0.32764679 0.054139778
-0.13492665 -0.32774764 0.054139245
-0.13508599 -0.32783943 0.054099556
-0.13527943 -0.32793975 0.054124389
-0.13544366 -0.32803226 0.054097384
-0.13562165 -0.32812655 0.054107253
-0.1358228 -0.32824069 0.054068595
-0.13596068 -0.32832429 0.054007046
-0.13615146 -0.32842597 0.054013424
-0.13634917 -0.32853425 0.05400132
-0.13653034 -0.3286334 0.053990416
-0.13670886 -0.32872674 0.054008365
-0.13687445 -0.32882527 0.053946737
-0.13699761 -0.32890689 0.053846005
-0.13727397 -0.32901543 0.054109428
-0.13741606 -0.32912174 0.053914025
-0.13763738 -0.32924056 0.053915706
-0.13782221 -0.32934067 0.053911708
-0.13799331 -0.32943878 0.053871986
-0.13816701 -0.32953465 0.053856492
-0.055397071 -0.28874379 0.029251765
-0.055571932 -0.28885293 0.029153191
-0.055743065 -0.28895777 0.029069612
-0.055914626 -0.28906339 0.028982572
-0.05607897 -0.28916037 0.028926712
-0.056243327 -0.28925556 0.028882388
-0.056404378 -0.28934884 0.028839221
-0.056570485 -0.28944656 0.028784502
-0.056727741 -0.28953743 0.028743658
-0.056886267 -0.28962404 0.028735105
-0.057039183 -0.28970975 0.028712731
-0.057194591 -0.28979468 0.028704196
-0.057349965 -0.28988174 0.028681815
-0.05750481 -0.2899662 0.028674435
-0.057655614 -0.2900497 0.028658982
-0.057808265 -0.29013157 0.028660836
-0.057962447 -0.29021549 0.028654605
-0.058110464 -0.29029575 0.02865071
-0.058258999 -0.29037258 0.028671034
-0.058406319 -0.29045001 0.028683279
-0.058552161 -0.29052556 0.028702458
-0.058694731 -0.2905969 0.028737795
-0.058837298 -0.29066613 0.028786978
-0.058980335 -0.29073596 0.028833851
-0.059121113 -0.29080281 0.028892271
-0.059262149 -0.29086998 0.028949527
-0.059402321 -0.29093596 0.029011408
-0.059541091 -0.29100227 0.029066373
-0.059674688 -0.29105714 0.029177882
-0.059806548 -0.2911118 0.029284779
-0.059943113 -0.29117268 0.029367438
-0.060077611 -0.29123071 0.029461628
-0.060209274 -0.291287 0.029556997
-0.060338307 -0.29133734 0.029682359
-0.06047025 -0.29139379 0.029777717
-0.060604926 -0.29144925 0.029889215
-0.060731955 -0.29149869 0.030013435
-0.060864639 -0.29155341 0.030122638
-0.060997076 -0.29160768 0.030234152
-0.061131425 -0.29165488 0.030398725
-0.061236463 -0.29167977 0.030606063
-0.061362021 -0.29172611 0.030745283
-0.061484244 -0.291765 0.030921429
-0.061606199 -0.29180324 0.031101033
-0.061724551 -0.2918385 0.031287577
-0.058237448 -0.28542715 0.061012626
-0.058441296 -0.28555101 0.060919728
-0.058615122 -0.28563321 0.060994193
-0.058808412 -0.28574154 0.060965933
-0.059002347 -0.28585446 0.060909979
-0.059194505 -0.28596148 0.060886335
-0.059380259 -0.28606224 0.060881168
-0.059570868 -0.28616717 0.060865603
-0.059763949 -0.28628314 0.060786575
-0.059946112 -0.28637177 0.060848325
-0.060138099 -0.28648293 0.060796995
-0.060324803 -0.28658596 0.060780287
-0.060510416 -0.2866838 0.060793582
-0.060700469 -0.28679252 0.060751475
-0.060887188 -0.28689608 0.060731314
-0.061070498 -0.28699058 0.060758449
-0.061259028 -0.28710112 0.060699061
-0.061403587 -0.28717721 0.060710162
-0.061634533 -0.28731287 0.060635637
-0.061819397 -0.28741807 0.060598172
-0.062014788 -0.2875219 0.060606819
-0.06219884 -0.2876184 0.060623579
-0.062385842 -0.28772387 0.060591869
-0.062572651 -0.28782925 0.060560171
-0.062755026 -0.28792328 0.060587309
-0.062941253 -0.28802797 0.060557909
-0.06310454 -0.28811732 0.060548194
-0.063315958 -0.2882379 0.060503729
-0.063497335 -0.2883347 0.060508959
-0.063665189 -0.28842846 0.060486544
-0.063863367 -0.28853872 0.06046287
-0.064060241 -0.28865111 0.060420759
-0.064237937 -0.28874189 0.060452536
-0.064423844 -0.28884766 0.060415059
-0.064603753 -0.28894702 0.06039837
-0.064766631 -0.28904143 0.060354047
-0.064967804 -0.28915858 0.060295761
-0.065165818 -0.28926119 0.060321704
-0.065348752 -0.28936255 0.060302705
-0.065533757 -0.28947717 0.060204089
-0.06571921 -0.28957 0.060249686
-0.065876625 -0.28966922 0.060154617
-0.066062354 -0.28974867 0.06028904
-0.066242091 -0.28983986 0.060325421
-0.066439763 -0.28995213 0.060286764
-0.066627458 -0.29005939 0.060245827
-0.066804841 -0.29015598 0.060238376
-0.066970721 -0.29026416 0.060114443
-0.067167081 -0.29037502 0.060080402
-0.067338496 -0.29047018 0.06006144
-0.067534715 -0.29056582 0.06012661
-0.067706123 -0.29066643 0.060071878
-0.067903854 -0.29076537 0.060120896
-0.068083853 -0.29086354 0.060112275
-0.068261929 -0.29096317 0.060087517
-0.068444371 -0.29105616 0.060121592
-0.06862849 -0.29116395 0.060064506
-0.068802625 -0.29124418 0.060152829
-0.068992525 -0.29136547 0.060027663
-0.069169879 -0.29147032 0.059965994
-0.069358431 -0.29157224 0.059963126
-0.069538817 -0.29166713 0.05997758
-0.069711283 -0.29176143 0.059967838
-0.069897138 -0.29186347 0.059954599
-0.070079938 -0.29197073 0.059896365
-0.070263416 -0.29207379 0.059868135
-0.07043907 -0.29216415 0.059895299
-0.070617445 -0.2922678 0.059845157
-0.070803635 -0.29237196 0.059819221
-0.070979178 -0.29246247 0.059845235
-0.071150951 -0.29256344 0.059789352
-0.071329728 -0.29265586 0.0598142
-0.07152193 -0.29276308 0.059789397
-0.071690038 -0.29284817 0.05982466
-0.0718778 -0.29295811 0.059766419
-0.072060414 -0.29306158 0.059732415
-0.072220176 -0.29315326 0.05969502
-0.072417244 -0.29326838 0.059635598
-0.072558075 -0.29334459 0.059632875
-0.072771423 -0.29345351 0.059671462
-0.072952993 -0.29355553 0.059643239
-0.073133357 -0.29365426 0.059632316
-0.07329765 -0.29374522 0.059615679
-0.073460013 -0.29383039 0.059630193
-0.073665962 -0.29394221 0.059623808
-0.073841281 -0.29403433 0.059638284
-0.074021429 -0.29414245 0.059565067
-0.074197464 -0.29422832 0.059623376
-0.074377537 -0.29433709 0.059545547
-0.074551716 -0.29443565 0.059513882
-0.074722506 -0.29453239 0.059482217
-0.074908338 -0.2946339 0.059472434
-0.075072885 -0.29473907 0.059363499
-0.075262763 -0.29482535 0.059467927
-0.07544291 -0.2949273 0.059435084
-0.075597338 -0.29502773 0.05932156
-0.075754583 -0.29510662 0.059359163
-0.075952493 -0.29521355 0.059356272
-0.076151274 -0.2953245 0.059330296
-0.076320499 -0.29541847 0.059311338
-0.076480754 -0.29549828 0.059353538
-0.076652385 -0.29559073 0.059353031
-0.076841369 -0.2956976 0.059319004
-0.077011585 -0.29579774 0.059263125
-0.077213347 -0.29589778 0.059319057
-0.077367514 -0.29597607 0.059349753
-0.077566825 -0.29609346 0.059283391
-0.077743188 -0.29619795 0.059220567
-0.077896088 -0.29628628 0.059180893
-0.07807634 -0.29638112 0.059195347
-0.078270391 -0.29648843 0.059176318
-0.078448243 -0.29658723 0.059156172
-0.078620978 -0.29669204 0.059078366
-0.078801364 -0.29678938 0.059076674
-0.078968897 -0.29688051 0.059070401
-0.079151548 -0.29697308 0.059107929
-0.079328656 -0.29706919 0.059102781
-0.07950335 -0.29717103 0.05905151
-0.079680383 -0.29726797 0.059040599
-0.079854473 -0.29736647 0.059008934
-0.080031022 -0.29745999 0.059018791
-0.080204323 -0.29755157 0.059029803
-0.080368675 -0.29764661 0.058986627
-0.080558658 -0.29775667 0.058935303
-0.080728456 -0.29784498 0.058955565
-0.080907978 -0.2979399 0.05896657
-0.081081063 -0.29803139 0.058977585
-0.081251472 -0.29813284 0.058913626
-0.081427723 -0.29822797 0.058911953
-0.081584759 -0.2983143 0.058899947
-0.081767239 -0.29840925 0.058921322
-0.081924021 -0.29848525 0.058976226
-0.082132369 -0.29861733 0.058845252
-0.082279541 -0.2986975 0.058839038
-0.082455471 -0.29879138 0.058844283
-0.082656711 -0.29891595 0.058737546
-0.082835697 -0.29900956 0.058755472
-0.082992211 -0.29909492 0.058748085
-0.083161727 -0.29918006 0.058787957
-0.083340615 -0.29927605 0.058789738
-0.08351215 -0.29938605 0.058673859
-0.083684467 -0.29947835 0.058676809
-0.083847202 -0.29956546 0.058679782
-0.084034905 -0.2996729 0.058637694
-0.084226884 -0.29976803 0.058691338
-0.084404595 -0.29987291 0.058630817
-0.084573157 -0.29996705 0.058608398
-0.084751427 -0.3000643 0.058599792
-0.084907353 -0.30014953 0.058591247
-0.085062705 -0.30023882 0.058553867
-0.08526314 -0.30034748 0.058548655
-0.085428894 -0.30043483 0.058560859
-0.085587189 -0.30052572 0.058523469
-0.085745864 -0.30061364 0.058506839
-0.08592207 -0.30072036 0.058429025
-0.0861184 -0.30083033 0.05840075
-0.086299159 -0.30091149 0.058506351
-0.086471595 -0.3010174 0.058420461
-0.086655051 -0.30112025 0.058393382
-0.086826704 -0.30121183 0.058398638
-0.087011084 -0.30131009 0.058405012
-0.08716768 -0.30138969 0.05843569
-0.087328956 -0.30147955 0.058415599
-0.087514222 -0.30158815 0.058357373
-0.087679535 -0.30167577 0.058366105
-0.087858826 -0.30177867 0.058324039
-0.088032499 -0.3018752 0.058303908
-0.088193335 -0.30196518 0.058281511
-0.088386461 -0.30207008 0.058275171
-0.0885479 -0.30214632 0.058345057
-0.088707142 -0.30225196 0.058214217
-0.088866599 -0.30234507 0.058166452
-0.089048237 -0.30243903 0.058191285
-0.089237094 -0.30254444 0.058166493
-0.089403428 -0.30262858 0.05820176
-0.089574918 -0.30271938 0.05821164
-0.089750029 -0.30282038 0.058167279
-0.08992666 -0.30290794 0.058216356
-0.090075649 -0.30298766 0.058219381
-0.090244651 -0.30310228 0.058064286
-0.090442367 -0.30320421 0.058093689
-0.090596765 -0.30328032 0.058139369
-0.090788729 -0.30340326 0.05801075
-0.090965055 -0.3035 0.057998687
-0.091124319 -0.30358261 0.058018979
-0.091319568 -0.30368954 0.058006853
-0.091463961 -0.30377752 0.057939518
-0.091631673 -0.30385184 0.058043994
-0.091825865 -0.30396065 0.058015734
-0.092012748 -0.30406764 0.057973638
-0.0921731 -0.30415577 0.057961632
-0.092325702 -0.30424291 0.057928868
-0.09249945 -0.30434334 0.057883359
-0.092692599 -0.30444616 0.057890866
-0.09285596 -0.3045359 0.057878841
-0.0930373 -0.30463728 0.057854075
-0.093204409 -0.30472112 0.057893954
-0.093364954 -0.30480215 0.05792924
-0.093539871 -0.30490023 0.057903334
-0.093701877 -0.30501056 0.057751719
-0.093882762 -0.30510587 0.057765029
-0.094060741 -0.30520526 0.057741426
-0.094240546 -0.30529612 0.057780117
-0.094404079 -0.30539107 0.057734638
-0.094572313 -0.30547974 0.057746824
-0.09474314 -0.30557087 0.057752084
-0.094916463 -0.30566457 0.05774926
-0.095088683 -0.30577073 0.057661071
-0.095259883 -0.30586681 0.057635173
-0.095443554 -0.30596432 0.057643861
-0.095617563 -0.3060517 0.057684876
-0.095786825 -0.30613935 0.05770744
-0.095953189 -0.30624077 0.057629652
-0.096106723 -0.30632505 0.057618819
-0.09629079 -0.30642736 0.057597496
-0.09645728 -0.30652303 0.057557773
-0.096632235 -0.3066197 0.057541106
-0.096808381 -0.30672005 0.057504818
-0.096966192 -0.30680469 0.057506654
-0.09714213 -0.30690509 0.057469208
-0.097322814 -0.30700082 0.057479061
-0.097495079 -0.3070952 0.057468161
-0.097657681 -0.30718929 0.057424992
-0.097843491 -0.30728498 0.057453278
-0.098012723 -0.30737755 0.057443544
-0.098169252 -0.30746782 0.057403851
-0.098351307 -0.30757135 0.057367548
-0.098532476 -0.30766243 0.057409696
-0.098686501 -0.30775031 0.057376936
-0.09885335 -0.30784476 0.057346445
-0.099024847 -0.30793113 0.057385158
-0.099203497 -0.30802879 0.05737539
-0.099376068 -0.30812702 0.057340272
-0.099552535 -0.30822629 0.057312064
-0.099702232 -0.30831307 0.057271227
-0.099883832 -0.30840841 0.057286836
-0.1000559 -0.3084988 0.057301324
-0.10024363 -0.30860573 0.057262693
-0.10041603 -0.30869594 0.05727949
-0.10056745 -0.30878913 0.057202894
-0.10074129 -0.30888224 0.057205837
-0.10092016 -0.30897963 0.05719839
-0.10107511 -0.30907014 0.05715178
-0.10124946 -0.3091667 0.057133958
-0.10143507 -0.30926719 0.057129934
-0.10160165 -0.30935392 0.057149056
-0.10177163 -0.30946043 0.057050485
-0.10195006 -0.30955443 0.057063803
-0.10210591 -0.3096405 0.057049491
-0.10228036 -0.30974042 0.057009745
-0.10244674 -0.30983093 0.057003483
-0.10261457 -0.30992064 0.0570076
-0.10277227 -0.31000909 0.056984052
-0.10294344 -0.31011412 0.056899324
-0.10310151 -0.31020227 0.056879245
-0.10327528 -0.31028882 0.056924872
-0.10345035 -0.31038153 0.056934729
-0.10361651 -0.31046891 0.056948084
-0.10379124 -0.31055865 0.0569764
-0.10398229 -0.31065345 0.057028901
-0.10416439 -0.31075928 0.056977596
-0.10433544 -0.31085423 0.056958631
-0.10452582 -0.31096238 0.056921154
-0.10468262 -0.31105441 0.056871071
-0.1048373 -0.31113791 0.056869458
-0.10501379 -0.31123349 0.056865476
-0.10518163 -0.31132671 0.056846518
-0.10534514 -0.31142181 0.056799885
-0.10550645 -0.3115117 0.056779787
-0.10566349 -0.31160033 0.05675279
-0.1058417 -0.31169826 0.056739565
-0.10601287 -0.31179309 0.056721747
-0.10618007 -0.3118895 0.056679726
-0.10636532 -0.31199348 0.05665148
-0.10653039 -0.31208187 0.056654446
-0.10671211 -0.31217852 0.056661986
-0.10687719 -0.31227854 0.056588814
-0.10704726 -0.31236801 0.05660215
-0.1072285 -0.31246495 0.056606229
-0.10739596 -0.31255829 0.056584962
-0.10756841 -0.31264713 0.056610979
-0.10772294 -0.31274217 0.056533225
-0.10788632 -0.3128286 0.056543127
-0.10805986 -0.31292823 0.056502227
-0.10824358 -0.31302452 0.056518979
-0.10838392 -0.31311297 0.056434348
-0.10856668 -0.31320155 0.056498408
-0.10873593 -0.31329712 0.056469068
-0.10892481 -0.31340009 0.056460422
-0.10910612 -0.31349474 0.056479499
-0.10925802 -0.31358749 0.056407515
-0.10944024 -0.31368458 0.056413896
-0.10960633 -0.31377843 0.056384563
-0.10978252 -0.3138721 0.056392111
-0.10994436 -0.31396455 0.056357019
-0.11011506 -0.3140572 0.056351893
-0.11028603 -0.31414983 0.056347925
-0.11046116 -0.31425402 0.056282803
-0.11063144 -0.31434432 0.056291528
-0.11078914 -0.31443277 0.056267977
-0.11097502 -0.31453431 0.056258198
-0.11112886 -0.31462613 0.056198906
-0.11130368 -0.31471556 0.056229532
-0.11146785 -0.31480503 0.056222115
-0.11165939 -0.31490785 0.056223858
-0.11183034 -0.31500554 0.056186423
-0.11200394 -0.31510031 0.05617784
-0.11217217 -0.31518668 0.056205027
-0.11232539 -0.3152833 0.056112278
-0.11249134 -0.31537727 0.056081787
-0.11268368 -0.31547311 0.056131974
-0.11284316 -0.31556606 0.056085352
-0.11301425 -0.31565678 0.056094073
-0.11320949 -0.31575704 0.05612579
-0.11337563 -0.31585339 0.056080304
-0.11354402 -0.3159425 0.05609018
-0.11370744 -0.31603703 0.056047007
-0.11388174 -0.31613424 0.056024574
-0.114039 -0.31622529 0.055982579
-0.11421289 -0.31632036 0.055972822
-0.11439614 -0.31641626 0.055990737
-0.11456391 -0.31651014 0.055967163
-0.11474836 -0.31661037 0.055960845
-0.11491346 -0.31670687 0.055910751
-0.11507358 -0.31679749 0.055881426
-0.11525282 -0.31688771 0.05592243
-0.11544055 -0.31698337 0.05595763
-0.11558694 -0.31708017 0.055839524
-0.11576628 -0.31717274 0.055865519
-0.1159538 -0.31727284 0.055870734
-0.11609937 -0.31736743 0.055764161
-0.11628811 -0.31745908 0.055829365
-0.116473 -0.31755337 0.055863421
-0.11663175 -0.31764644 0.055813335
-0.11681497 -0.31774938 0.055785105
-0.11697975 -0.31784797 0.055720013
-0.11714614 -0.31794024 0.055702209
-0.11731762 -0.31803611 0.055678621
-0.11750617 -0.31813046 0.055725366
-0.11768299 -0.31822798 0.055709835
-0.11785969 -0.31832758 0.055680476
-0.11802761 -0.3184219 0.055654589
-0.11819088 -0.31852055 0.05558373
-0.11835663 -0.31861109 0.055575158
-0.11852279 -0.31870356 0.055555053
-0.11870552 -0.31879687 0.05558797
-0.11886875 -0.31889552 0.0555171
-0.11904349 -0.31898755 0.055530429
-0.1192527 -0.3190814 0.055653252
-0.11943077 -0.31917924 0.055640023
-0.11959986 -0.31929109 0.055503387
-0.11976166 -0.31938404 0.055464838
-0.11994967 -0.3194795 0.055502348
-0.12011173 -0.31957629 0.055439573
-0.12028369 -0.31967261 0.055414833
-0.12047553 -0.31977192 0.055440795
-0.12063384 -0.31985945 0.055425324
-0.12079865 -0.31995615 0.05537292
-0.12099911 -0.32005164 0.055454224
-0.12116295 -0.32015026 0.055385679
-0.1213534 -0.32025549 0.055367805
-0.12150925 -0.32035244 0.055281974
-0.1216828 -0.32044345 0.055297606
-0.12187676 -0.3205469 0.05530395
-0.12205246 -0.32064345 0.055290729
-0.12222275 -0.32073835 0.055269457
-0.12239152 -0.32082608 0.055289723
-0.12256783 -0.32092458 0.05526612
-0.12273322 -0.32102138 0.055214874
-0.12292885 -0.3211287 0.055201598
-0.12308311 -0.3212167 0.055168841
-0.12325339 -0.32130826 0.055169486
-0.12344275 -0.3214069 0.055190843
-0.12360202 -0.32150379 0.055117685
-0.12378138 -0.32160074 0.055114843
-0.12397695 -0.32170483 0.055122338
-0.12415543 -0.32180539 0.055092961
-0.12432528 -0.32189721 0.055090144
-0.12450825 -0.32199103 0.055120748
-0.12466599 -0.32208619 0.055053368
-0.12485647 -0.32218879 0.055052802
-0.12504597 -0.32229313 0.055037245
-0.12521787 -0.32239541 0.054973282
-0.12538391 -0.32248572 0.05496702
-0.12555546 -0.32258463 0.054923825
-0.12571643 -0.32267487 0.054900266
-0.12589693 -0.32276911 0.05491934
-0.12608749 -0.32286873 0.054938383
-0.12626299 -0.32296628 0.054918252
-0.1264368 -0.32306376 0.054892354
-0.12662494 -0.32316351 0.054902174
-0.12681261 -0.32326987 0.054867003
-0.12698263 -0.32336566 0.05483881
-0.12715226 -0.32345986 0.054819848
-0.127327 -0.32355431 0.054817021
-0.12751691 -0.32365608 0.054819915
-0.12770811 -0.32375959 0.054815881
-0.12787268 -0.32385528 0.054769248
-0.12804499 -0.32395303 0.054736428
-0.12822208 -0.32404786 0.054739363
-0.12837166 -0.32413954 0.054666243
-0.12859994 -0.32424402 0.05478669
-0.12877145 -0.32434818 0.054708891
-0.12893115 -0.32444212 0.054656498
-0.12911475 -0.32453924 0.054667488
-0.12929429 -0.32463929 0.054645035
-0.12946157 -0.3247354 0.054605313
-0.12963286 -0.32483643 0.054547124
-0.12977645 -0.32491994 0.054506313
-0.13002893 -0.32503501 0.054642849
-0.13018946 -0.32513377 0.054561611
-0.13036373 -0.32522905 0.054551862
-0.13056518 -0.32534039 0.054532804
-0.13074602 -0.3254348 0.054551873
-0.13091561 -0.32552984 0.054527141
-0.13107231 -0.32562074 0.054483991
-0.1312601 -0.32572049 0.054492664
-0.13144931 -0.32582644 0.054465566
-0.13162656 -0.32593283 0.054393511
-0.13182466 -0.32603371 0.054430991
-0.13199475 -0.32612905 0.054406259
-0.13217567 -0.32622841 0.054393034
-0.13237405 -0.32633403 0.054400507
-0.13253585 -0.32642716 0.054360811
-0.13266331 -0.32651237 0.054251987
-0.13291526 -0.32663399 0.054343529
-0.133085 -0.32672808 0.054325715
-0.13323051 -0.32681665 0.054258369
-0.13342282 -0.32691759 0.054275095
-0.13358994 -0.32701728 0.054211147
-0.13377744 -0.32711494 0.054232512
-0.13396817 -0.32722312 0.054196183
-0.13412295 -0.32731283 0.054154184
-0.13435718 -0.32743478 0.054181173
-0.13454783 -0.32753024 0.054227915
-0.13472059 -0.32763791 0.054131646
-0.13491045 -0.32773912 0.054138001
-0.13508049 -0.32783228 0.054127108
-0.13527027 -0.32793644 0.054113857
-0.13544139 -0.32802984 0.054105271
-0.13561177 -0.32812461 0.054085147
-0.13582122 -0.32823706 0.05408683
-0.13597544 -0.3283312 0.054013688
-0.13614918 -0.32842514 0.054010872
-0.13633581 -0.32852918 0.053987242
-0.13654119 -0.32863858 0.053994697
-0.136712 -0.32872954 0.054001119
-0.13690133 -0.32883275 0.05399248
-0.13701566 -0.32891595 0.053850237
-0.13724852 -0.3290171 0.054008745
-0.13744159 -0.32913059 0.053945873
-0.13766208 -0.32925078 0.05393599
-0.13783979 -0.32935125 0.053904314
-0.13800633 -0.32944605 0.053870354
-0.13818149 -0.32954216 0.053858295
-0.055287737 -0.2886748 0.029318329
-0.055469912 -0.28879085 0.029200144
-0.055641595 -0.28889635 0.029114285
-0.055811904 -0.28900042 0.029033039
-0.055977531 -0.28909895 0.028971415
-0.056141105 -0.28919515 0.028917871
-0.056308985 -0.2892949 0.02885624
-0.056471564 -0.28938827 0.028817691
-0.056634653 -0.28948244 0.028775679
-0.056790255 -0.28956944 0.028754458
-0.056948218 -0.2896575 0.028734379
-0.05710322 -0.28974399 0.028714307
-0.057259619 -0.28983033 0.02869999
-0.057415236 -0.28991786 0.028675308
-0.057566963 -0.28999853 0.028681774
-0.057718512 -0.29008314 0.028661713
-0.057871893 -0.29016611 0.028658941
-0.058023077 -0.29024842 0.02865272
-0.058169663 -0.2903249 0.028668428
-0.058317315 -0.29040074 0.028692201
-0.058468387 -0.29048318 0.028684828
-0.058613796 -0.29055834 0.02870515
-0.058750916 -0.29062268 0.02876702
-0.058893565 -0.29069212 0.028815033
-0.059038296 -0.29076216 0.02886649
-0.059178263 -0.29082805 0.028928351
-0.05931684 -0.29089424 0.028983297
-0.059455991 -0.290959 0.029049767
-0.059593555 -0.29101938 0.029139321
-0.05972505 -0.29107594 0.029232342
-0.059861548 -0.29113469 0.029328816
-0.059994146 -0.29119256 0.029417213
-0.060126625 -0.2912479 0.029521771
-0.060260106 -0.2913045 0.029621713
-0.060392246 -0.29135913 0.02972973
-0.060524967 -0.29141444 0.029835433
-0.060654096 -0.29146463 0.029961918
-0.060782932 -0.2915166 0.030075703
-0.060914714 -0.29157019 0.030189488
-0.061054446 -0.29162994 0.030290563
-0.061168306 -0.29165557 0.030524345
-0.061284602 -0.29169393 0.030683149
-0.061409704 -0.2917372 0.030840779
-0.061528943 -0.29177433 0.031018034
-0.061650127 -0.29181147 0.031202208
-0.058127802 -0.28536782 0.06101469
-0.058325175 -0.28548205 0.060962193
-0.058516115 -0.28558683 0.060948931
-0.058691561 -0.28567165 0.061011843
-0.058891047 -0.28578967 0.060942039
-0.059083439 -0.2859005 0.060894176
-0.059270032 -0.28599924 0.060905144
-0.059464388 -0.2861101 0.060864195
-0.05965592 -0.28621677 0.060840555
-0.059838556 -0.28631672 0.060829625
-0.060028907 -0.28641838 0.060834821
-0.060222782 -0.28653285 0.060768496
-0.060404059 -0.28662395 0.060810633
-0.060597263 -0.28673419 0.060769677
-0.060788125 -0.28684086 0.060743738
-0.060970005 -0.28693691 0.060755879
-0.061160382 -0.28704312 0.060731087
-0.06132362 -0.28712755 0.060753658
-0.061497875 -0.28723758 0.060647033
-0.061725244 -0.28736022 0.0606452
-0.061922822 -0.28747544 0.060586933
-0.062104836 -0.28756875 0.060617529
-0.062274355 -0.28765652 0.060640082
-0.062482089 -0.28778177 0.060551811
-0.062660985 -0.28787005 0.060604323
-0.062845163 -0.28797138 0.060589932
-0.063027896 -0.28807437 0.060559392
-0.063226581 -0.28818911 0.06050805
-0.063409731 -0.28828514 0.060524806
-0.063595474 -0.28838995 0.060493104
-0.063758582 -0.28847972 0.060479928
-0.063967958 -0.28859779 0.060444698
-0.064152509 -0.28869683 0.060446449
-0.064335704 -0.28879356 0.060458586
-0.064524621 -0.28890517 0.060393434
-0.064699963 -0.28900087 0.060384836
-0.064867273 -0.28909943 0.060328975
-0.065084361 -0.28922004 0.060304098
-0.065265 -0.28931278 0.060333543
-0.065456212 -0.28942561 0.060268383
-0.065639593 -0.28953302 0.060211316
-0.065822966 -0.28963143 0.060213074
-0.065984271 -0.28971988 0.060202215
-0.06615629 -0.28979161 0.060338937
-0.066354573 -0.28990528 0.060293369
-0.066544339 -0.29000714 0.060295105
-0.066729262 -0.29010922 0.060278401
-0.066895574 -0.29021832 0.060149878
-0.067090072 -0.29032555 0.060133148
-0.067282557 -0.29044399 0.060035691
-0.067439161 -0.29050881 0.060163237
-0.067637458 -0.29062971 0.060070373
-0.067835324 -0.29072925 0.060115915
-0.0680134 -0.29082358 0.060125768
-0.068198748 -0.29092833 0.060092911
-0.068373434 -0.29101557 0.060137369
-0.068559796 -0.29112297 0.060090668
-0.06873703 -0.29121599 0.060106281
-0.068920508 -0.29131746 0.060088441
-0.069109119 -0.29143083 0.060010593
-0.069295675 -0.29153994 0.059953526
-0.069471292 -0.29162994 0.059982985
-0.069652244 -0.29172653 0.059988208
-0.06983085 -0.29182979 0.05994153
-0.070014708 -0.29192758 0.059949055
-0.070196949 -0.292034 0.059894305
-0.070377678 -0.29213083 0.059897214
-0.070556223 -0.29222876 0.059885152
-0.070742041 -0.2923387 0.059820008
-0.070900761 -0.29241312 0.059892196
-0.071088284 -0.292528 0.059800513
-0.071259364 -0.29262105 0.059794232
-0.071445085 -0.29271844 0.05981097
-0.071632326 -0.29281998 0.059805796
-0.071808435 -0.2929129 0.059817955
-0.071992308 -0.29302004 0.059764355
-0.07214988 -0.2931132 0.059709672
-0.072355859 -0.29323134 0.059661768
-0.072508141 -0.29331776 0.05963248
-0.07270278 -0.29341927 0.0596538
-0.072886638 -0.29351267 0.059690163
-0.073070392 -0.29362184 0.059622716
-0.073248953 -0.29371575 0.059637174
-0.073398024 -0.29380184 0.059598662
-0.073587887 -0.2938976 0.059640765
-0.07377623 -0.29399711 0.059652887
-0.073957853 -0.29410145 0.059609666
-0.074133709 -0.29419616 0.059609141
-0.074313812 -0.29429618 0.059588991
-0.074490838 -0.29439539 0.059563085
-0.074663192 -0.29449791 0.059499137
-0.074829325 -0.29458863 0.059490561
-0.07501661 -0.29469618 0.059446171
-0.075204492 -0.29480651 0.059385646
-0.075375251 -0.29488409 0.059479706
-0.075546995 -0.29498678 0.059412293
-0.07569328 -0.29507807 0.059329964
-0.075869195 -0.29516491 0.059381332
-0.076083705 -0.29528308 0.059363395
-0.076252952 -0.29537758 0.059340965
-0.076429062 -0.29547772 0.059305839
-0.076582536 -0.29555336 0.059351511
-0.076766632 -0.29565147 0.059357874
-0.076945923 -0.29575419 0.059316978
-0.077123612 -0.29584971 0.059317589
-0.077307746 -0.29594889 0.059317037
-0.077493742 -0.29604292 0.059356853
-0.077670775 -0.29615131 0.059270963
-0.07784 -0.29624984 0.05922202
-0.077999063 -0.29634115 0.059184637
-0.078196853 -0.29643661 0.059256703
-0.078373231 -0.29654497 0.059168525
-0.078551635 -0.2966488 0.059117243
-0.078725643 -0.29674393 0.059107497
-0.078897074 -0.29684243 0.059066612
-0.079072796 -0.29692918 0.05911798
-0.079237252 -0.29702109 0.059095573
-0.079422809 -0.29711416 0.059139989
-0.079597965 -0.29722172 0.05905297
-0.079771727 -0.29731831 0.05903285
-0.079948515 -0.29741564 0.059018478
-0.080108911 -0.29750133 0.059022605
-0.080298014 -0.2976009 0.059037022
-0.080465578 -0.29770029 0.058976553
-0.080645323 -0.29780009 0.0589564
-0.080818534 -0.2978957 0.058940887
-0.080994301 -0.29798296 0.058988802
-0.08116743 -0.29807869 0.058972139
-0.081337519 -0.29817823 0.058919728
-0.081507258 -0.29827228 0.058901917
-0.081664056 -0.2983571 0.058899138
-0.081849471 -0.29845047 0.058941253
-0.081999756 -0.29852578 0.058977708
-0.082201406 -0.29865181 0.058862917
-0.082348429 -0.29873592 0.05883019
-0.082549654 -0.29884887 0.058799602
-0.082731538 -0.29895425 0.058750607
-0.082903907 -0.2990464 0.058754705
-0.083066784 -0.29913059 0.058777288
-0.083232775 -0.29921842 0.058787171
-0.083401814 -0.29931086 0.058777429
-0.083582729 -0.2994245 0.058670778
-0.083739154 -0.29950455 0.058697995
-0.083917111 -0.29960778 0.058649015
-0.084105581 -0.29970244 0.058693431
-0.084286831 -0.29980394 0.058667518
-0.084461465 -0.29990345 0.058631234
-0.084633 -0.29999936 0.058607657
-0.084805109 -0.3000896 0.058623284
-0.084954001 -0.30017543 0.058585927
-0.085109472 -0.30026233 0.058564708
-0.085316278 -0.30037284 0.058569849
-0.085471898 -0.30045789 0.058561303
-0.08562611 -0.30055153 0.05849164
-0.085792415 -0.30063388 0.058538429
-0.085967198 -0.30074757 0.058409888
-0.086171269 -0.30085203 0.058445029
-0.086344227 -0.30093655 0.05850102
-0.086516872 -0.30104029 0.05843015
-0.086687207 -0.3011373 0.058395036
-0.086868227 -0.30123377 0.058401417
-0.087043338 -0.3013249 0.058421656
-0.087193027 -0.30140272 0.058439653
-0.087362818 -0.30150086 0.058395311
-0.087536715 -0.30159664 0.058380958
-0.087709844 -0.30169499 0.05834699
-0.08788991 -0.30179426 0.058331456
-0.088053316 -0.30188757 0.058296364
-0.088223837 -0.30198136 0.058283169
-0.088408068 -0.30207846 0.058296449
-0.088565029 -0.30215651 0.058338657
-0.088723883 -0.30226266 0.058203239
-0.088883825 -0.30235374 0.058170464
-0.089064956 -0.30244848 0.058188375
-0.089247659 -0.30254936 0.058171675
-0.089410342 -0.30263257 0.058200017
-0.089581646 -0.30272326 0.058209889
-0.089756228 -0.30282503 0.058158614
-0.08992812 -0.30290478 0.058242295
-0.090080455 -0.30299458 0.058191083
-0.090249673 -0.30310807 0.058044109
-0.090443179 -0.3032012 0.05811619
-0.090595253 -0.30328205 0.05812265
-0.090787716 -0.30340332 0.058006737
-0.090961702 -0.30349615 0.058011979
-0.091123074 -0.30358219 0.058017269
-0.091314621 -0.30368802 0.057999384
-0.091458708 -0.30377617 0.057929762
-0.09162616 -0.30385053 0.058033049
-0.091814421 -0.30395475 0.058014035
-0.092001408 -0.30406111 0.057976566
-0.092161439 -0.30414942 0.05796225
-0.092316955 -0.30423829 0.057928327
-0.092490532 -0.30433863 0.057882831
-0.092684127 -0.30444026 0.057899542
-0.092843592 -0.30452916 0.057879463
-0.093025334 -0.3046295 0.057862774
-0.093185723 -0.30471027 0.057899192
-0.093346611 -0.30479041 0.057941385
-0.093518652 -0.30488607 0.057921268
-0.09367989 -0.30499721 0.057761617
-0.093857899 -0.3050901 0.057780694
-0.09404128 -0.30519378 0.057747845
-0.094214879 -0.3052808 0.057789996
-0.094380751 -0.30537823 0.057736449
-0.094549373 -0.30546606 0.057755541
-0.094710872 -0.30555165 0.057764292
-0.094886094 -0.3056483 0.057748772
-0.095062509 -0.3057546 0.057674427
-0.095232829 -0.30585143 0.057640463
-0.095413774 -0.30594644 0.057656065
-0.09558405 -0.30603251 0.057692464
-0.095750622 -0.30611765 0.057721954
-0.095918916 -0.30622187 0.057632633
-0.096071646 -0.30630678 0.057614878
-0.096257374 -0.30640697 0.057613172
-0.096425764 -0.30650541 0.057561915
-0.096598841 -0.30659881 0.057560243
-0.096771121 -0.30669793 0.057518207
-0.096931927 -0.30678421 0.057520032
-0.097101636 -0.30688089 0.057484925
-0.097277462 -0.30697632 0.057479784
-0.097460903 -0.30707389 0.057487298
-0.097613193 -0.30716348 0.057437249
-0.097797118 -0.30725604 0.057479367
-0.097966895 -0.30735242 0.057446569
-0.098127119 -0.30743924 0.057442628
-0.098302126 -0.30754423 0.05737175
-0.098480694 -0.30763286 0.057420805
-0.098646209 -0.30772394 0.057407621
-0.098803513 -0.30781746 0.057349488
-0.098970637 -0.30790713 0.057351291
-0.09914346 -0.30799231 0.05740267
-0.099318713 -0.30809656 0.05733756
-0.099499702 -0.3081921 0.0573497
-0.099649191 -0.308283 0.0572812
-0.099819221 -0.30837458 0.057280693
-0.099995211 -0.30846587 0.057303227
-0.10017575 -0.30856979 0.057258859
-0.10035667 -0.30866161 0.057295229
-0.10051209 -0.3087557 0.05722671
-0.10068436 -0.30884585 0.057243496
-0.10085828 -0.3089464 0.057197988
-0.10100979 -0.30902764 0.057199843
-0.10118605 -0.30913404 0.05712435
-0.10136333 -0.30922845 0.057130732
-0.10153632 -0.3093183 0.057152126
-0.10171866 -0.30942795 0.057076614
-0.10188785 -0.30952013 0.057069194
-0.10204462 -0.30960545 0.057062946
-0.1022186 -0.3097055 0.057020903
-0.10238764 -0.30979776 0.057012331
-0.10255294 -0.30988523 0.057022206
-0.1027093 -0.30996734 0.057035577
-0.10288255 -0.31007457 0.056943946
-0.10304045 -0.31016946 0.05687888
-0.10321234 -0.31025341 0.056934882
-0.10338441 -0.3103475 0.056925144
-0.10355137 -0.31043428 0.056945391
-0.10371849 -0.31052762 0.05692298
-0.10390086 -0.31061336 0.057004318
-0.10408275 -0.31071258 0.056995697
-0.1042545 -0.31080702 0.056982499
-0.10445537 -0.31091645 0.056973819
-0.10462926 -0.31101626 0.056932937
-0.1047657 -0.31109855 0.056874853
-0.10493932 -0.31119522 0.056853577
-0.10511462 -0.31128806 0.056863427
-0.10528158 -0.31138152 0.056839865
-0.10543603 -0.3114742 0.05677712
