# .PCD v0.7 - Point Cloud Data file format
VERSION 0.7
FIELDS x y z
SIZE 4 4 4
TYPE F F F
COUNT 1 1 1
WIDTH 1282
HEIGHT 1
VIEWPOINT 0 0 0 1 0 0 0
POINTS 1282
DATA ascii
-0.33482951 -0.11145395 0.053435221
-0.33500883 -0.11138958 0.053403147
-0.33519724 -0.11131845 0.053395249
-0.33537528 -0.11125956 0.053326264
-0.33553705 -0.11120815 0.053248122
-0.33577499 -0.11109341 0.05342228
-0.33593217 -0.11105265 0.053278394
-0.33614329 -0.11095801 0.053380005
-0.33633298 -0.11089014 0.05334441
-0.3365227 -0.11082225 0.053308815
-0.33671504 -0.11074993 0.0532986
-0.33690146 -0.11068129 0.053278022
-0.33708489 -0.11061549 0.05324477
-0.33728528 -0.11053775 0.053251822
-0.33747175 -0.11047314 0.053201247
-0.33766419 -0.11039907 0.053203717
-0.3378427 -0.11033219 0.053192414
-0.33802918 -0.11025994 0.053198375
-0.33822888 -0.11018901 0.053156964
-0.33840251 -0.11012682 0.05312492
-0.33861765 -0.11003798 0.053172272
-0.33876926 -0.10999607 0.053052645
-0.33896461 -0.10991979 0.053063177
-0.33916014 -0.10984343 0.053073712
-0.33935559 -0.10976728 0.053083092
-0.33955234 -0.10969374 0.05306939
-0.33974266 -0.1096261 0.053030331
-0.33991539 -0.1095669 0.05297868
-0.34012949 -0.1094761 0.053043343
-0.34032246 -0.10940073 0.053053886
-0.34050429 -0.10934086 0.052981414
-0.34068245 -0.10927882 0.052935496
-0.34086305 -0.10921457 0.052898798
-0.34104642 -0.10914975 0.052858628
-0.34125125 -0.10906781 0.052884113
-0.34145725 -0.10898496 0.052913044
-0.34164178 -0.1089175 0.052889023
-0.34181592 -0.10885917 0.052826967
-0.34202302 -0.10877387 0.052870911
-0.34222224 -0.10869908 0.0528595
-0.34239826 -0.10864097 0.052790508
-0.34259212 -0.10856916 0.052772213
-0.34278408 -0.10849558 0.052772373
-0.34297854 -0.10842338 0.052755225
-0.34315404 -0.10836406 0.052696623
-0.34334937 -0.10828778 0.052707162
-0.34355345 -0.10821098 0.052696876
-0.34374171 -0.108146 0.052643992
-0.34395644 -0.10806028 0.052669425
-0.34414393 -0.10799433 0.052625768
-0.34432364 -0.10792997 0.052592527
-0.34452733 -0.10784878 0.052615717
-0.34471741 -0.10777749 0.052604355
-0.34488761 -0.10772456 0.052513476
-0.34510458 -0.10763253 0.052579287
-0.34529266 -0.10756309 0.05255986
-0.34549212 -0.10748585 0.052565753
-0.24508697 -0.14527287 0.057639837
-0.2453129 -0.14519331 0.057587937
-0.24555504 -0.1451121 0.057502482
-0.24578854 -0.14503261 0.057428606
-0.24602951 -0.14495309 0.057333935
-0.24626003 -0.14487396 0.057265848
-0.24652588 -0.14479148 0.057122573
-0.24675477 -0.14471407 0.057046425
-0.2469711 -0.14463429 0.057023417
-0.24718338 -0.14455606 0.057000428
-0.24741241 -0.14447626 0.056941576
-0.24763095 -0.14439812 0.056900099
-0.24784744 -0.14431876 0.056873627
-0.24807927 -0.14423929 0.056804374
-0.24830821 -0.14415999 0.056742068
-0.24853471 -0.14408226 0.056675158
-0.24877 -0.14400318 0.056593202
-0.2489804 -0.14392583 0.056569062
-0.24921454 -0.14384703 0.056488272
-0.24943921 -0.14376985 0.05642252
-0.24966313 -0.14369138 0.056368317
-0.24988629 -0.14361444 0.056304883
-0.25010914 -0.14353624 0.056251846
-0.25033689 -0.14345957 0.05617338
-0.2505635 -0.14338164 0.056107625
-0.25078928 -0.14330527 0.056032643
-0.25101316 -0.14322759 0.055972666
-0.2512418 -0.14315152 0.055887282
-0.25147215 -0.14307418 0.055806503
-0.25167349 -0.14299811 0.055798572
-0.25189722 -0.14292097 0.055735134
-0.25211826 -0.14284392 0.055678636
-0.25234172 -0.14276703 0.05561405
-0.25255844 -0.14269161 0.055557575
-0.25277385 -0.14261484 0.05551495
-0.25299153 -0.14253971 0.055453856
-0.25320634 -0.14246315 0.055411234
-0.25342339 -0.14238825 0.055350136
-0.25364068 -0.14231201 0.055298276
-0.25385404 -0.14223726 0.055246431
-0.25407225 -0.14216129 0.055189945
-0.25428161 -0.14208667 0.055148505
-0.25449434 -0.14201076 0.055107057
-0.25470579 -0.14193644 0.055057533
-0.25491759 -0.14186072 0.055017233
-0.25512877 -0.14178512 0.054978091
-0.25534633 -0.14170986 0.054918148
-0.25555515 -0.14163591 0.054873258
-0.25576624 -0.14156063 0.05483181
-0.25596946 -0.14148664 0.054803096
-0.25617713 -0.14141142 0.054770902
-0.256394 -0.1413383 0.054697115
-0.25663671 -0.14125733 0.054608196
-0.2567926 -0.14117976 0.05474012
-0.25696078 -0.14110902 0.054786589
-0.2571806 -0.1410365 0.054700091
-0.25750804 -0.14096884 0.05427264
-0.25769883 -0.1408951 0.05427745
-0.257837 -0.14081337 0.05449025
-0.25803944 -0.14074513 0.054421142
-0.25824913 -0.14067273 0.054362401
-0.2584531 -0.14059846 0.054333687
-0.25865465 -0.14052573 0.05430036
-0.25885886 -0.14045168 0.054269329
-0.25907221 -0.14037679 0.054218646
-0.25926578 -0.1403054 0.054198056
-0.25947067 -0.14023171 0.054162413
-0.25968054 -0.14015691 0.054120969
-0.25986749 -0.14008525 0.054121189
-0.26007473 -0.14001206 0.054075144
-0.26027715 -0.13994025 0.05403259
-0.2604765 -0.13986494 0.05402467
-0.26067027 -0.13979253 0.054011006
-0.26087067 -0.13971916 0.053985771
-0.26107228 -0.13964766 0.053943209
-0.26126966 -0.1395742 0.053927224
-0.26145592 -0.13950139 0.05393783
-0.26164624 -0.13942733 0.053946104
-0.26182944 -0.1393543 0.053967111
-0.26200169 -0.13927843 0.054040104
-0.26216638 -0.13920169 0.054140836
-0.26229966 -0.13912137 0.054357111
-0.26129729 -0.13850239 0.06177184
-0.26137099 -0.13840333 0.062295385
-0.26158592 -0.13833125 0.062219296
-0.26200435 -0.13807364 0.062938437
-0.26407543 -0.13775335 0.059439577
-0.26429337 -0.13767906 0.059371561
-0.26447627 -0.13759162 0.059499893
-0.2647281 -0.13750933 0.059394777
-0.26492 -0.13743703 0.059385732
-0.26509881 -0.13736457 0.059414841
-0.26531705 -0.13728499 0.059384897
-0.26552027 -0.13721287 0.05934234
-0.26570472 -0.13715154 0.059273332
-0.26590562 -0.13706923 0.059312709
-0.26612592 -0.13699651 0.059226215
-0.26630798 -0.136925 0.059239149
-0.26651576 -0.1368421 0.059263498
-0.26670158 -0.13676524 0.059305266
-0.26686546 -0.1366985 0.059334442
-0.26710397 -0.13662381 0.059210934
-0.26729685 -0.13656923 0.059068024
-0.26747105 -0.13649029 0.059158318
-0.26769975 -0.13639952 0.059181407
-0.2678757 -0.13633347 0.059171297
-0.26809981 -0.13625664 0.059104398
-0.26829585 -0.13618025 0.059113801
-0.26846942 -0.13611604 0.059096768
-0.26865008 -0.1360449 0.059110865
-0.26888496 -0.13596241 0.059055455
-0.26905963 -0.13589653 0.059047654
-0.26928568 -0.13581662 0.058998063
-0.26948631 -0.13574612 0.058950894
-0.26965913 -0.13567564 0.058982342
-0.26985949 -0.13560088 0.05896749
-0.27004716 -0.13553192 0.058945775
-0.27022639 -0.13545866 0.0589795
-0.27042079 -0.13539383 0.058908131
-0.27061993 -0.1353236 0.058863282
-0.270798 -0.13524565 0.058935095
-0.27104425 -0.13516082 0.058864623
-0.27119732 -0.13509446 0.058921561
-0.27139673 -0.13503161 0.058821313
-0.27159745 -0.13495077 0.058850311
-0.27179259 -0.13488004 0.058820479
-0.27198127 -0.13480756 0.05882185
-0.27216181 -0.13473272 0.05886364
-0.27236953 -0.13466123 0.058803752
-0.27253994 -0.13459058 0.058843285
-0.27275258 -0.13452564 0.058721047
-0.27298057 -0.13444638 0.058661059
-0.27315658 -0.13437282 0.058706336
-0.27333027 -0.13430093 0.058745854
-0.27353105 -0.13423537 0.058661759
-0.27373147 -0.13416246 0.058633059
-0.27391368 -0.13409103 0.058644839
-0.27411973 -0.13401519 0.058621883
-0.27430677 -0.13394302 0.058625564
-0.27450791 -0.13387327 0.058571469
-0.27470478 -0.13380218 0.058539327
-0.2749013 -0.13373107 0.05850834
-0.27505401 -0.13366485 0.058565274
-0.27524668 -0.13358724 0.058593169
-0.27545616 -0.13352382 0.058468632
-0.27564844 -0.13344887 0.058478057
-0.27583578 -0.13337471 0.058495581
-0.27603859 -0.13330932 0.058404565
-0.2762109 -0.13324013 0.05842793
-0.27641922 -0.13316372 0.05840265
-0.27659833 -0.13310832 0.05830482
-0.27679336 -0.1330267 0.058355771
-0.27700028 -0.13295005 0.058336277
-0.27716324 -0.1328743 0.058434695
-0.27736029 -0.13280751 0.05837024
-0.27752736 -0.13273345 0.058444418
-0.27774188 -0.13267465 0.058271393
-0.27793294 -0.13260283 0.058261208
-0.27812549 -0.13252886 0.058262557
-0.27831134 -0.13245185 0.058305472
-0.27849841 -0.13238418 0.058275685
-0.27869043 -0.13231309 0.058257416
-0.27889493 -0.1322511 0.058136381
-0.27907306 -0.13218249 0.058138944
-0.27925652 -0.13210748 0.058173798
-0.2794596 -0.13203932 0.058102399
-0.27964637 -0.13196304 0.058137231
-0.27982602 -0.13189229 0.058151335
-0.2799955 -0.13182247 0.058187414
-0.28020358 -0.13176067 0.058054812
-0.28039572 -0.13168423 0.058075774
-0.28057346 -0.13161264 0.058101431
-0.2807686 -0.1315508 0.058005832
-0.28097332 -0.13147515 0.057985183
-0.28117058 -0.13140516 0.057943806
-0.28136516 -0.13132714 0.057969376
-0.28156823 -0.13125415 0.057933733
-0.28175247 -0.1311868 0.057909735
-0.28190431 -0.1311167 0.05799783
-0.28209797 -0.13105184 0.057928778
-0.28228927 -0.13098225 0.057901278
-0.28249583 -0.13090512 0.057886396
-0.28265619 -0.13084736 0.057859048
-0.28283817 -0.13077198 0.057900831
-0.28302807 -0.13070184 0.057881426
-0.28323549 -0.13062562 0.057857305
-0.28342664 -0.13055657 0.057826344
-0.28361905 -0.13048485 0.057811536
-0.28381217 -0.13042861 0.057680167
-0.28398955 -0.1303539 0.057730049
-0.28418159 -0.13027465 0.057771791
-0.28437379 -0.13021082 0.057699274
-0.28454709 -0.13014065 0.057727255
-0.28469378 -0.13006173 0.057895008
-0.28491384 -0.13000411 0.057697728
-0.28508604 -0.12993309 0.057734936
-0.28527272 -0.12987369 0.057645157
-0.2854574 -0.12980072 0.057661541
-0.28565252 -0.12973233 0.057614401
-0.28583825 -0.12966034 0.057620399
-0.28602308 -0.12959182 0.057603311
-0.28620496 -0.12952507 0.057581633
-0.28638953 -0.12944791 0.057629175
-0.2865932 -0.12937485 0.057592377
-0.28676412 -0.1293115 0.057576522
-0.28694737 -0.12924641 0.057538681
-0.28713095 -0.12917727 0.05752968
-0.28732425 -0.12910849 0.057490639
-0.28752753 -0.12903588 0.057451531
-0.28770086 -0.12896147 0.057510667
-0.28788221 -0.1289046 0.057417441
-0.28804544 -0.12883404 0.05747664
-0.28824642 -0.12876919 0.057386771
-0.28843698 -0.12870333 0.057333894
-0.28863588 -0.12862693 0.057335198
-0.28880882 -0.12855189 0.057400115
-0.28898567 -0.1284811 0.057422303
-0.28916475 -0.12841807 0.057381019
-0.28935373 -0.1283564 0.0573016
-0.28953826 -0.12829503 0.057232596
-0.28973106 -0.12822784 0.057183158
-0.28991735 -0.1281583 0.057169531
-0.29008937 -0.12807064 0.057330228
-0.29025769 -0.12799455 0.057415936
-0.29045862 -0.12794985 0.057177212
-0.29064351 -0.12787867 0.057179742
-0.29083005 -0.12780388 0.057204194
-0.29100934 -0.12773687 0.057191752
-0.29120788 -0.12768543 0.057009593
-0.29138255 -0.12759349 0.057194505
-0.2915602 -0.12752427 0.057202846
-0.29175451 -0.12745479 0.057166096
-0.2919412 -0.12738667 0.057140931
-0.29211816 -0.1273232 0.057108887
-0.29230937 -0.12726285 0.057013303
-0.29250038 -0.12719573 0.056968503
-0.29267579 -0.12712331 0.057006858
-0.29285386 -0.12704818 0.057057895
-0.29303715 -0.12698214 0.057026967
-0.29322338 -0.12691434 0.057000645
-0.29339749 -0.126839 0.057064403
-0.29358429 -0.12678799 0.056912296
-0.29378363 -0.12673095 0.056769356
-0.29396152 -0.12663917 0.056943871
-0.29413298 -0.1265661 0.056998402
-0.29432601 -0.12651365 0.056839339
-0.29451591 -0.12642916 0.056926087
-0.29468757 -0.12636505 0.056913689
-0.29488182 -0.12631744 0.056715392
-0.29506457 -0.12622474 0.056882955
-0.29525599 -0.12616199 0.056804679
-0.29543832 -0.12609631 0.056773767
-0.29562113 -0.12603216 0.056730151
-0.29581109 -0.12595654 0.056751125
-0.29598472 -0.12587763 0.05684258
-0.29616493 -0.12581728 0.0567782
-0.29634523 -0.12575768 0.05670806
-0.29653627 -0.12568523 0.056702491
-0.29671711 -0.12561621 0.056700431
-0.29689744 -0.12554552 0.056712218
-0.29707977 -0.12548171 0.056667458
-0.29726106 -0.1254144 0.056651548
-0.29744956 -0.12534682 0.056617141
-0.29763815 -0.12527999 0.05657696
-0.29781359 -0.12520446 0.056638397
-0.29800254 -0.12513937 0.056584366
-0.29818514 -0.12506264 0.056634221
-0.29837796 -0.12499952 0.056554787
-0.29855573 -0.12493417 0.056534275
-0.29874262 -0.12486034 0.056550652
-0.2989127 -0.12479216 0.056572877
-0.29909927 -0.12473704 0.056451928
-0.29927894 -0.12466268 0.056492575
-0.29946306 -0.12459366 0.056481272
-0.29965174 -0.12453242 0.056399539
-0.29984891 -0.1244567 0.056400865
-0.30001888 -0.12438715 0.056433477
-0.30019656 -0.12432418 0.056395665
-0.30038413 -0.12425649 0.056364723
-0.30057484 -0.12418574 0.056347612
-0.30074468 -0.12411281 0.056405608
-0.30092889 -0.12404718 0.05636891
-0.30110931 -0.12397676 0.056378398
-0.30128697 -0.12391771 0.056311734
-0.30147418 -0.12384798 0.056296941
-0.30166143 -0.12377978 0.056270625
-0.30184519 -0.12370747 0.056284696
-0.30202907 -0.12364151 0.056251474
-0.30220953 -0.12357123 0.0562598
-0.30239668 -0.12350088 0.05624963
-0.30256721 -0.12343191 0.056276467
-0.3027572 -0.12338235 0.056104727
-0.30294102 -0.12330813 0.056132652
-0.30311516 -0.12323216 0.056201022
-0.30329818 -0.12317792 0.056083553
-0.30348527 -0.12310557 0.056088392
-0.30366585 -0.12303448 0.056102488
-0.30385363 -0.12295453 0.056161553
-0.30402973 -0.1228995 0.056069508
-0.30420947 -0.12283793 0.056015521
-0.30439666 -0.12276571 0.056019198
-0.3045769 -0.12269833 0.056006752
-0.30476555 -0.1226143 0.056093514
-0.3049517 -0.12255137 0.056031428
-0.30512947 -0.12250227 0.055890903
-0.30531123 -0.12244555 0.05579536
-0.30550057 -0.1223586 0.05590174
-0.3056775 -0.12229201 0.055892773
-0.30585876 -0.1222183 0.055924177
-0.30605063 -0.1221557 0.055843592
-0.30624273 -0.12207425 0.055901479
-0.30641675 -0.12200706 0.055905227
-0.30659458 -0.12193638 0.05592395
-0.30677286 -0.12187865 0.055845745
-0.30696368 -0.12180488 0.055850554
-0.3071413 -0.1217357 0.055858895
-0.30732402 -0.12168391 0.055724118
-0.30750826 -0.1216122 0.055732436
-0.3076897 -0.12153967 0.055754602
-0.30787924 -0.12147123 0.055723652
-0.30806234 -0.12140431 0.055699658
-0.30824298 -0.12133538 0.055697598
-0.30843249 -0.12126679 0.055667795
-0.30861521 -0.12120095 0.055636883
-0.30879197 -0.12113522 0.055622146
-0.30896917 -0.12105808 0.055690497
-0.30915144 -0.12099381 0.055649199
-0.30935344 -0.12091358 0.055670109
-0.30952814 -0.12085457 0.055611532
-0.30969995 -0.12079509 0.055564515
-0.30987829 -0.12072469 0.055579774
-0.31005669 -0.12066285 0.055531573
-0.31024542 -0.12058785 0.055551402
-0.31042981 -0.12051716 0.055551626
-0.31060761 -0.12044885 0.055553049
-0.31078142 -0.12039923 0.055427544
-0.31097239 -0.12032617 0.05542659
-0.31114283 -0.12027706 0.055306878
-0.31133223 -0.1201787 0.055497482
-0.31150219 -0.12013774 0.055318926
-0.31168357 -0.12006757 0.055323783
-0.31187487 -0.11998019 0.055427838
-0.31207463 -0.11989348 0.055503003
-0.31225261 -0.11983883 0.055402871
-0.31243467 -0.11978073 0.05531656
-0.31263584 -0.11967866 0.055501346
-0.31282926 -0.11961389 0.055432297
-0.31299454 -0.11956815 0.055302214
-0.31317407 -0.11950292 0.055275925
-0.31334767 -0.11943245 0.055305067
-0.31351727 -0.11938256 0.055193432
-0.3137213 -0.11929453 0.055266265
-0.31389648 -0.11923268 0.055227306
-0.31408489 -0.11916046 0.055227518
-0.31426069 -0.11909727 0.055196635
-0.31444013 -0.11903222 0.055169191
-0.3146145 -0.11896646 0.055161402
-0.31480485 -0.11889599 0.055143133
-0.31499475 -0.11882117 0.055158339
-0.31516781 -0.11876324 0.055096313
-0.3153469 -0.11869381 0.055102341
-0.31552809 -0.11863059 0.05505643
-0.31572086 -0.11855577 0.055063538
-0.31588939 -0.11850098 0.054991148
-0.31607646 -0.11842692 0.055008672
-0.31626669 -0.11835213 0.05502272
-0.31644553 -0.11828356 0.055022981
-0.31662691 -0.11821997 0.054979376
-0.31681228 -0.1181539 0.054942675
-0.31700277 -0.11807448 0.054990187
-0.31718063 -0.11801238 0.05494545
-0.31735831 -0.11794613 0.05493186
-0.31754106 -0.11788013 0.054902095
-0.31772664 -0.11780946 0.054898858
-0.31791937 -0.11773136 0.05493021
-0.3181074 -0.11766116 0.054916576
-0.31827468 -0.11760779 0.054837268
-0.31846693 -0.11753082 0.054861687
-0.31864747 -0.11746442 0.054841161
-0.3188262 -0.1174009 0.054804493
-0.31900829 -0.11733608 0.05476781
-0.3192021 -0.11725711 0.054802615
-0.31937218 -0.11720297 0.054720983
-0.31955376 -0.11713509 0.054708533
-0.31973374 -0.11706968 0.054682244
-0.31992862 -0.11698952 0.054722808
-0.3201234 -0.11690971 0.054761074
-0.32028416 -0.11686913 0.054605633
-0.32047769 -0.11678762 0.054660052
-0.32066816 -0.1167071 0.054715648
-0.32084888 -0.11664454 0.054666277
-0.3210246 -0.11659622 0.054525763
-0.32120746 -0.1165233 0.054546773
-0.32141328 -0.11642865 0.05466345
-0.32158878 -0.11636996 0.054600254
-0.32177314 -0.11630911 0.054527782
-0.32196099 -0.11623321 0.054556847
-0.32214922 -0.11616027 0.054562829
-0.32233515 -0.11609726 0.054501895
-0.32251847 -0.11602449 0.054520592
-0.3226831 -0.1159737 0.054429751
-0.32286814 -0.11590526 0.054411519
-0.32305866 -0.11582957 0.054431338
-0.32324332 -0.11576174 0.054409638
-0.32343993 -0.11567516 0.054492895
-0.32362622 -0.1156117 0.054434266
-0.32380646 -0.11554353 0.054427594
-0.32397217 -0.11549108 0.054345984
-0.32415441 -0.11542965 0.054283906
-0.32434762 -0.11534809 0.054339491
-0.32454455 -0.11526808 0.054373123
-0.32472593 -0.11520183 0.054349136
-0.32491109 -0.11513381 0.054327432
-0.32508346 -0.11507881 0.054245785
-0.32527927 -0.11499767 0.054290969
-0.32545322 -0.11494065 0.054219708
-0.32563177 -0.1148722 0.054219961
-0.3258031 -0.11482118 0.054111786
-0.32597741 -0.11476356 0.054043978
-0.32618612 -0.11466453 0.05418488
-0.32636225 -0.11460761 0.054106679
-0.32655382 -0.1145295 0.054141488
-0.32673293 -0.1144663 0.054101355
-0.32693803 -0.1143752 0.054193802
-0.32709187 -0.11434446 0.053985313
-0.32729179 -0.11425424 0.054085873
-0.32747248 -0.114192 0.054034188
-0.32766667 -0.11411148 0.05407938
-0.32785416 -0.11404148 0.054065738
-0.3280358 -0.1139756 0.05403829
-0.32821333 -0.1139144 0.053987782
-0.32840627 -0.11383577 0.054022584
-0.32858965 -0.11377062 0.053984743
-0.32878309 -0.11369163 0.054020703
-0.32895449 -0.11363997 0.053917132
-0.32915094 -0.11355779 0.053968087
-0.32933342 -0.11349127 0.053942934
-0.32951444 -0.1134264 0.053909715
-0.32969785 -0.1133614 0.053870711
-0.32988331 -0.11329171 0.053860553
-0.33007705 -0.11321307 0.053893052
-0.33025584 -0.11315077 0.053847149
-0.33043832 -0.1130869 0.053802386
-0.33062661 -0.11301442 0.0538049
-0.33082652 -0.11293436 0.053830441
-0.33101484 -0.11286201 0.053831812
-0.33117864 -0.11281575 0.053709824
-0.33135244 -0.11275645 0.05365587
-0.33156657 -0.11266175 0.053749423
-0.3317419 -0.11260327 0.05368508
-0.33193609 -0.11252508 0.053712953
-0.33214575 -0.11243099 0.053814612
-0.3323079 -0.11239083 0.053652238
-0.33249387 -0.11232141 0.053638615
-0.3326782 -0.11225825 0.053583451
-0.33286846 -0.11218453 0.053589422
-0.33308214 -0.11209375 0.053655282
-0.33325049 -0.11204246 0.053557508
-0.33344835 -0.11196131 0.05359691
-0.33362994 -0.11189888 0.053544067
-0.33381683 -0.11182678 0.053547747
-0.33401215 -0.11175065 0.053557158
-0.33419913 -0.11168506 0.053512365
-0.33439302 -0.11161481 0.053482547
-0.33456767 -0.11155081 0.0534609
-0.33475101 -0.11148256 0.053446129
-0.33492997 -0.11141863 0.053411774
-0.33511776 -0.11134821 0.053400449
-0.33530405 -0.11127929 0.053382203
-0.33547324 -0.11122908 0.053274039
-0.33568329 -0.11113314 0.05338838
-0.33586597 -0.111072 0.05332284
-0.33605069 -0.11100072 0.053326532
-0.33626196 -0.1109082 0.053412024
-0.336438 -0.11085554 0.053302675
-0.33663917 -0.11078094 0.053284347
-0.33682823 -0.11070783 0.053289175
-0.3370083 -0.11064333 0.053255964
-0.33720362 -0.11056846 0.053256139
-0.33738831 -0.11050563 0.053197518
-0.33758554 -0.11042909 0.053204607
-0.33777371 -0.11035524 0.053217512
-0.33795393 -0.11028693 0.053211994
-0.338157 -0.110213 0.05318328
-0.33833042 -0.11015494 0.05312125
-0.33854106 -0.11006454 0.053192899
-0.33871585 -0.1100072 0.053121626
-0.33887631 -0.10995534 0.053050429
-0.33907884 -0.10987835 0.053045951
-0.33929276 -0.10978544 0.053126816
-0.33947572 -0.10972263 0.053072818
-0.33967125 -0.10965221 0.053039525
-0.33984688 -0.1095905 0.05299826
-0.34005594 -0.10950616 0.053029519
-0.34025243 -0.10942585 0.053066622
-0.34042963 -0.10936837 0.052989565
-0.34062076 -0.10929668 0.052978225
-0.34079573 -0.10923755 0.052919645
-0.34098145 -0.10917073 0.052887563
-0.34118551 -0.10908955 0.052909624
-0.34137818 -0.1090185 0.052889042
-0.34157431 -0.10894271 0.052893821
-0.34174693 -0.10888402 0.052838728
-0.34194586 -0.10880589 0.052852727
-0.34215841 -0.10872132 0.052875891
-0.34233528 -0.10866256 0.052809231
-0.34253389 -0.10858846 0.052794389
-0.3427172 -0.10852069 0.052776169
-0.34291247 -0.10844786 0.052761346
-0.34309343 -0.10838567 0.052708507
-0.34328198 -0.10831527 0.052694868
-0.34349051 -0.10823301 0.052712284
-0.34366605 -0.10817555 0.052639853
-0.34389013 -0.10808703 0.052659508
-0.34408483 -0.10801505 0.052640073
-0.34426403 -0.10795118 0.052604556
-0.34447289 -0.10786739 0.052632362
-0.34464946 -0.10780251 0.052611854
-0.34482658 -0.10774554 0.052531343
-0.34504446 -0.10765611 0.05257526
-0.34523627 -0.10758195 0.052580066
-0.34542742 -0.10751009 0.052569874
-0.34560129 -0.10745592 0.052477844
-0.24507767 -0.14527586 0.057644092
-0.24530441 -0.14519615 0.057591014
-0.24554178 -0.14511628 0.057509039
-0.24577522 -0.14503667 0.057436317
-0.24600914 -0.14495718 0.05736129
-0.24624658 -0.14487776 0.05727585
-0.24650471 -0.14479667 0.057144139
-0.2467396 -0.144719 0.05705294
-0.2469465 -0.14464064 0.057046138
-0.24716222 -0.14456359 0.057004668
-0.24738529 -0.14448513 0.056952767
-0.2476055 -0.14440684 0.05690781
-0.24781904 -0.14432876 0.056880191
-0.24804075 -0.14425066 0.056829464
-0.24827307 -0.14417256 0.056748666
-0.24849954 -0.14409468 0.0566829
-0.24873108 -0.14401689 0.056602113
-0.24894229 -0.14393938 0.056576818
-0.24916317 -0.14386192 0.056523778
-0.2493965 -0.14378454 0.056434892
-0.24961917 -0.14370732 0.056374926
-0.24984026 -0.14363025 0.056318417
-0.25006062 -0.1435533 0.056263071
-0.2502827 -0.14347647 0.056201942
-0.25050849 -0.14339979 0.056129262
-0.25073591 -0.14332326 0.0560508
-0.25095731 -0.14324684 0.055988524
-0.25117719 -0.14317054 0.05592972
-0.25141388 -0.14309454 0.055821203
-0.25161958 -0.14301835 0.055801701
-0.25183648 -0.14294241 0.055748686
-0.2520535 -0.14286658 0.055694509
-0.25227332 -0.14279093 0.055631094
-0.25248814 -0.14271532 0.05558154
-0.25270304 -0.14263983 0.055530835
-0.25292268 -0.14256455 0.05546511
-0.25313276 -0.14248921 0.055427127
-0.25334713 -0.14241406 0.055375274
-0.25356543 -0.14233916 0.055310704
-0.25377849 -0.14226422 0.055261172
-0.25399122 -0.14218941 0.05521163
-0.25420427 -0.14211321 0.055171318
-0.25441006 -0.1420384 0.055141445
-0.25462535 -0.14196402 0.055081502
-0.2548362 -0.14188962 0.055034284
-0.25504643 -0.14181529 0.054988224
-0.25525266 -0.14174093 0.054953724
-0.25547037 -0.14166562 0.05489378
-0.25567794 -0.14159153 0.054853499
-0.25588375 -0.14151749 0.05481784
-0.25608754 -0.14144345 0.054787975
-0.25629506 -0.14136969 0.054745384
-0.25656763 -0.14129463 0.054528195
-0.2567417 -0.14121166 0.054648519
-0.25687394 -0.14114046 0.054800209
-0.25708878 -0.14107217 0.054696411
-0.25739786 -0.14099845 0.054365933
-0.25759923 -0.14092985 0.054302603
-0.25780517 -0.14085373 0.05428195
-0.25793675 -0.14077936 0.054459035
-0.25814763 -0.14070681 0.054397967
-0.25835589 -0.14063263 0.054356534
-0.25855926 -0.14055982 0.054318585
-0.25876069 -0.14048699 0.05428642
-0.25897288 -0.1404102 0.054253042
-0.25916541 -0.14034015 0.054225534
-0.25936958 -0.14026782 0.05418181
-0.25957248 -0.14019552 0.054141555
-0.25977483 -0.14012 0.054126695
-0.25996551 -0.14005019 0.054102659
-0.26016375 -0.13997778 0.054076277
-0.26037869 -0.13990198 0.054027881
-0.26056615 -0.13983215 0.0540131
-0.2607637 -0.1397583 0.053999417
-0.26096112 -0.13968623 0.053973034
-0.26115739 -0.13961411 0.053950131
-0.26134899 -0.13954332 0.053930707
-0.26153904 -0.13946906 0.053941302
-0.26172674 -0.13939461 0.053959984
-0.26190063 -0.13932216 0.05400297
-0.26206881 -0.13924739 0.054079466
-0.26222312 -0.13916759 0.054232188
-0.26084393 -0.13860157 0.062322766
-0.26115444 -0.13854448 0.061865326
-0.26129076 -0.13845877 0.062112793
-0.26144502 -0.13837509 0.062294379
-0.26195782 -0.13813163 0.062641524
-0.26239184 -0.13787413 0.063315682
-0.26414526 -0.13772757 0.05943244
-0.26434261 -0.1376538 0.05941876
-0.26455706 -0.13756725 0.059451152
-0.26479262 -0.13748808 0.059369192
-0.2649709 -0.13741535 0.059401773
-0.26516515 -0.13734137 0.059398491
-0.26537481 -0.13726413 0.059375517
-0.26557711 -0.13719769 0.059293717
-0.26573968 -0.13713238 0.059315987
-0.26598436 -0.13704565 0.059263982
-0.2661688 -0.13697837 0.059238829
-0.26635885 -0.13690412 0.059249416
-0.26656014 -0.13682182 0.059287645
-0.26674324 -0.13674632 0.059327133
-0.26691446 -0.13668083 0.059326272
-0.26714182 -0.13661619 0.059160095
-0.26732799 -0.13655184 0.059108384
-0.2675342 -0.13646251 0.059184685
-0.26773804 -0.13638313 0.059194051
-0.26791438 -0.13631912 0.05916778
-0.26814055 -0.13624042 0.059108943
-0.26832876 -0.13616639 0.059123009
-0.26849863 -0.13610548 0.059092153
-0.26868537 -0.13603123 0.05911199
-0.26891273 -0.13595113 0.059060071
-0.26910588 -0.1358785 0.059049882
-0.2693184 -0.13580611 0.058983032
-0.2695097 -0.13573544 0.058963604
-0.26967704 -0.13566783 0.058989316
-0.26988754 -0.13559091 0.058961719
-0.27006447 -0.13552356 0.05895853
-0.27023828 -0.13545097 0.059002675
-0.27045953 -0.13538383 0.058872297
-0.27063027 -0.13531509 0.058896843
-0.27082297 -0.13523622 0.05893397
-0.27105394 -0.13515849 0.058854327
-0.27120396 -0.13509113 0.058927447
-0.27141702 -0.13502492 0.058813281
-0.27160519 -0.13494733 0.05885388
-0.2717976 -0.13487795 0.058821764
-0.2719892 -0.13480373 0.058827728
-0.27217492 -0.13472784 0.058862582
-0.27237269 -0.13466032 0.058801569
-0.27254507 -0.13458766 0.058850348
-0.27276346 -0.13452427 0.058700368
-0.27297637 -0.13444737 0.058665834
-0.27315572 -0.13437219 0.058713414
-0.27333125 -0.13430068 0.058744855
-0.27352819 -0.13423613 0.058664232
-0.2737281 -0.13416527 0.058621679
-0.27391127 -0.13409147 0.058648471
-0.27411851 -0.13401578 0.058620889
-0.27430284 -0.13394497 0.058622278
-0.27449647 -0.13387747 0.058572836
-0.27469197 -0.13380565 0.058549926
-0.27488598 -0.13373597 0.058515493
-0.27504182 -0.13366808 0.058575884
-0.27523261 -0.13359213 0.058596861
-0.27544284 -0.13352874 0.058470003
-0.27563137 -0.13345475 0.058482908
-0.27581903 -0.13338047 0.058500443
-0.27602318 -0.13331534 0.058403634
-0.27619049 -0.13324666 0.058437422
-0.27639902 -0.13317002 0.058413289
-0.27657121 -0.13311431 0.058337409
-0.27677074 -0.13303424 0.058364116
-0.27697879 -0.13295777 0.058339998
-0.2771405 -0.13288125 0.058447674
-0.27733943 -0.132815 0.058373969
-0.27750221 -0.13274164 0.058455102
-0.27771673 -0.13268255 0.058284376
-0.27790427 -0.13261174 0.058276512
-0.27809793 -0.13253798 0.058273233
-0.27828866 -0.13246003 0.05830922
-0.27847096 -0.13239279 0.058289841
-0.27865952 -0.1323227 0.058273893
-0.27886856 -0.13225961 0.058148205
-0.27904412 -0.13219245 0.058147319
-0.27923274 -0.13211671 0.058172934
-0.27942821 -0.13205053 0.058108471
-0.27961534 -0.1319741 0.058143318
-0.27980152 -0.13190337 0.058138926
-0.27996337 -0.13183239 0.058205057
-0.28016874 -0.13177195 0.058070153
-0.28036541 -0.13169765 0.058062244
-0.28054196 -0.13162515 0.058098294
-0.28072393 -0.13156208 0.058048915
-0.28093973 -0.13148907 0.057977423
-0.28113618 -0.1314183 0.057944126
-0.28132814 -0.13134174 0.057966258
-0.28152478 -0.13126794 0.057954889
-0.28171566 -0.13120086 0.057910077
-0.28187212 -0.13112994 0.057991244
-0.2820569 -0.13106267 0.057964928
-0.28225213 -0.13099518 0.057910856
-0.2824555 -0.13091911 0.057897151
-0.28262284 -0.13085854 0.057870917
-0.28280041 -0.13078703 0.057896577
-0.28299317 -0.13071486 0.057884082
-0.28318715 -0.13064003 0.057887722
-0.28339031 -0.13057153 0.05781861
-0.28357631 -0.13049866 0.057830378
-0.28377205 -0.13044019 0.057708219
-0.28394124 -0.13037798 0.057688899
-0.28413436 -0.13029161 0.057780273
-0.2843315 -0.13022339 0.057726197
-0.28450638 -0.13016181 0.057686079
-0.28465331 -0.13007891 0.057882704
-0.284872 -0.13001586 0.057729267
-0.28504425 -0.12995248 0.057709944
-0.28522572 -0.12988853 0.057668641
-0.28542235 -0.12981676 0.057642266
-0.28560844 -0.1297487 0.057618253
-0.2857936 -0.12967584 0.057632327
-0.28598541 -0.12960449 0.057616375
-0.28616196 -0.12954119 0.05758433
-0.28634518 -0.12946673 0.057615735
-0.2865521 -0.1293918 0.05758353
-0.28672451 -0.12932506 0.057588443
-0.2869013 -0.12926243 0.057550628
-0.28708521 -0.12919319 0.057541627
-0.28727454 -0.12912467 0.057511829
-0.28747335 -0.12906097 0.057419658
-0.28765276 -0.12897828 0.057522632
-0.28784257 -0.12892005 0.057415508
-0.28801087 -0.12884958 0.057459682
-0.2881906 -0.1287813 0.057455316
-0.28838956 -0.12871893 0.057352759
-0.28858665 -0.12864995 0.057304449
-0.28877133 -0.12857243 0.057354316
-0.28894654 -0.12849434 0.057435386
-0.2891202 -0.12843494 0.057382584
-0.28929955 -0.12837195 0.05734013
-0.28949359 -0.12830538 0.057282612
-0.28968272 -0.12824927 0.05716164
-0.28986931 -0.12817416 0.057188403
-0.29004675 -0.12809847 0.057245228
-0.29022035 -0.12801194 0.057393245
-0.29040185 -0.1279525 0.057318468
-0.2905944 -0.12790243 0.05714323
-0.29078183 -0.12782246 0.057203464
-0.29096648 -0.12775043 0.057212926
-0.29115137 -0.12769094 0.057128906
-0.2913453 -0.12762643 0.057056382
-0.29151508 -0.12753886 0.057222892
-0.29170278 -0.12747145 0.057189636
-0.29189646 -0.12740703 0.057117112
-0.29207313 -0.12733586 0.057142768
-0.29225767 -0.12727745 0.057051823
-0.29244643 -0.12721275 0.056995485
-0.29263481 -0.12714069 0.056994542
-0.2928142 -0.12706724 0.057029426
-0.29299077 -0.12699594 0.057056244
-0.2931816 -0.12692827 0.057016052
-0.29335126 -0.12685914 0.057046365
-0.29352936 -0.12679055 0.057048939
-0.29372665 -0.12674412 0.056833278
-0.29392174 -0.12667014 0.05682769
-0.29408857 -0.12657884 0.057029992
-0.29426765 -0.12652096 0.05695061
-0.2944673 -0.12646551 0.056794956
-0.29463997 -0.12637667 0.056962602
-0.29482591 -0.12632678 0.056804709
-0.29501957 -0.1262591 0.056756429
-0.29519853 -0.12617472 0.056873251
-0.29539192 -0.12611637 0.056756869
-0.29556516 -0.12604636 0.056783702
-0.29575548 -0.1259809 0.056728505
-0.29593673 -0.12590127 0.056803778
-0.29611045 -0.12583216 0.056822527
-0.2962954 -0.12577391 0.056729279
-0.29648441 -0.12570566 0.056698319
-0.29666585 -0.12563752 0.056688178
-0.29684928 -0.12556361 0.056714971
-0.29702798 -0.12549885 0.056687526
-0.29721335 -0.12543169 0.056658901
-0.29739451 -0.12536286 0.056654535
-0.29758057 -0.12529887 0.056600519
-0.29775721 -0.12522693 0.056631945
-0.29794258 -0.12516071 0.056596398
-0.2981298 -0.12508675 0.056612782
-0.29831779 -0.12501641 0.056600295
-0.29849303 -0.12495453 0.056561336
-0.29868528 -0.12488802 0.056508441
-0.29885435 -0.12481289 0.056584917
-0.29902545 -0.12474854 0.056575984
-0.2992124 -0.12469451 0.056445789
-0.29939544 -0.12461653 0.056503735
-0.29958034 -0.12455065 0.056467034
-0.2997663 -0.12449373 0.056361075
-0.29995292 -0.12441501 0.056414392
-0.300127 -0.12434811 0.05641583
-0.30030492 -0.12428459 0.056381464
-0.30049938 -0.12421347 0.056356262
-0.30067641 -0.12414046 0.056394622
-0.30085051 -0.12407354 0.056396056
-0.30102485 -0.12401014 0.056370948
-0.30121231 -0.12393687 0.056381557
-0.30139351 -0.12387584 0.056319475
-0.30157775 -0.12380833 0.056296635
-0.30175865 -0.1237432 0.056265719
-0.3019461 -0.1236729 0.056254398
-0.30212352 -0.12360363 0.056263901
-0.30230427 -0.12353887 0.056230675
-0.30248508 -0.12346721 0.056248244
-0.30266586 -0.12339915 0.056239258
-0.30284595 -0.12335306 0.056069851
-0.30303058 -0.12326588 0.056191269
-0.30320457 -0.12320168 0.056173097
-0.30338475 -0.12314305 0.056096021
-0.30357212 -0.12307201 0.056090463
-0.30374631 -0.12300304 0.056106906
-0.30393422 -0.12292617 0.056142896
-0.30411083 -0.12286799 0.056072775
-0.30429062 -0.12280858 0.056002624
-0.3044717 -0.12273604 0.056025956
-0.30465245 -0.12266706 0.056023896
-0.30484077 -0.12258863 0.056070276
-0.30502367 -0.12252787 0.056001272
-0.30519447 -0.12248487 0.055835374
-0.30538473 -0.12241475 0.055814803
-0.30556789 -0.12232954 0.055925846
-0.30574155 -0.12226561 0.055906504
-0.30593303 -0.12218893 0.055930939
-0.30612561 -0.12212386 0.055866506
-0.30631101 -0.12204685 0.055910591
-0.30647853 -0.12198278 0.055909753
-0.30665734 -0.12190875 0.055950411
-0.30683729 -0.12185897 0.055808708
-0.30703387 -0.12177426 0.055878129
-0.30719593 -0.12172102 0.055812683
-0.30738929 -0.12166376 0.055688217
-0.30756575 -0.12158752 0.055751972
-0.30774972 -0.12151825 0.055742979
-0.30793813 -0.12145523 0.055675097
-0.30811709 -0.12138209 0.055708822
-0.30829716 -0.12131618 0.055685993
-0.30848372 -0.12124841 0.055658519
-0.30866343 -0.12118374 0.055627614
-0.30883756 -0.12111759 0.055623285
-0.30901951 -0.12103551 0.055714704
-0.30920798 -0.12097138 0.055654906
-0.30940041 -0.12090371 0.055610079
-0.30957147 -0.12083827 0.05560923
-0.30974394 -0.12077761 0.055569123
-0.30992439 -0.12071046 0.055554379
-0.31010136 -0.12064496 0.055537332
-0.31029442 -0.12056674 0.05556868
-0.31046817 -0.12050231 0.05555281
-0.31064725 -0.12043912 0.055512682
-0.31081927 -0.12038706 0.055410255
-0.31100878 -0.12031864 0.055379294
-0.31117618 -0.12025554 0.055371542
-0.31136769 -0.12017463 0.055427134
-0.31153762 -0.12011978 0.055351261
-0.31172022 -0.12004727 0.055369973
-0.31191486 -0.11995956 0.055467106
-0.31211075 -0.1198829 0.055478822
-0.31228468 -0.11983168 0.055364851
-0.31247383 -0.11976417 0.05532812
-0.31267202 -0.11966323 0.05551295
-0.31284857 -0.11961818 0.055345871
-0.31302479 -0.11955468 0.055316139
-0.31319988 -0.11949364 0.055271406
-0.3133736 -0.11942343 0.055298239
-0.31355059 -0.11936416 0.055235028
-0.3137424 -0.11929096 0.055232916
-0.31392992 -0.11921533 0.055260837
-0.31410465 -0.1191549 0.055212643
-0.31428888 -0.11908613 0.055199027
-0.31446403 -0.1190193 0.055196997
-0.31463867 -0.1189589 0.055148806
-0.31483132 -0.11888444 0.055153616
-0.31501734 -0.11881766 0.055120371
-0.3151888 -0.11875284 0.055113748
-0.31536728 -0.11868504 0.055109389
-0.31555039 -0.11862376 0.055043843
-0.31574038 -0.11854951 0.05505443
-0.31591085 -0.11849165 0.054999337
-0.31609857 -0.11841688 0.055020332
-0.31628934 -0.11834156 0.055036686
-0.31646416 -0.11828063 0.054991957
-0.31664795 -0.11821314 0.054970268
-0.31683615 -0.11814255 0.054958932
-0.3170214 -0.1180681 0.054984562
-0.31720316 -0.1180042 0.054942098
-0.31738353 -0.11793379 0.054951586
-0.31756169 -0.11787159 0.054906838
-0.31774795 -0.11780018 0.054907069
-0.31794065 -0.11772257 0.05493496
-0.31812412 -0.11765599 0.05490749
-0.31829181 -0.1176023 0.054829329
-0.31848782 -0.11751968 0.054884899
-0.31865844 -0.11746535 0.05480326
-0.31884408 -0.11739527 0.054795414
-0.31902564 -0.1173277 0.054780651
-0.3192203 -0.11724778 0.054820076
-0.31939194 -0.11719555 0.054719955
-0.31957248 -0.11712962 0.054695975
-0.3197625 -0.11705318 0.05472273
-0.31995842 -0.1169681 0.054796766
-0.3201341 -0.11691713 0.054675855
-0.32030877 -0.11685625 0.054631125
-0.32050583 -0.11676995 0.05471094
-0.32069516 -0.11669519 0.054727301
-0.32086882 -0.11664671 0.054593705
-0.32103798 -0.11659372 0.054506302
-0.32123494 -0.11650464 0.054606885
-0.32143131 -0.11642376 0.054648604
-0.3216148 -0.11636105 0.054592293
-0.32180184 -0.11629686 0.05453711
-0.32198969 -0.11622126 0.054563869
-0.32217547 -0.11614863 0.054574486
-0.32235414 -0.1160892 0.054507807
-0.32253164 -0.11602457 0.05448268
-0.32270873 -0.11596386 0.054429863
-0.3229011 -0.11588918 0.054436974
-0.32308128 -0.11582432 0.054406073
-0.323273 -0.11574427 0.05445474
-0.32346436 -0.11567123 0.054452635
-0.32364851 -0.11560454 0.05442401
-0.32382378 -0.11554313 0.05438159
-0.32400677 -0.11547485 0.054367982
-0.32417968 -0.11541948 0.054287475
-0.32438028 -0.11533494 0.054344188
-0.32457662 -0.11525297 0.054393992
-0.32475206 -0.11519445 0.054329634
-0.32493591 -0.11512834 0.054297555
-0.32511833 -0.115067 0.054234315
-0.32531634 -0.11498049 0.054312963
-0.32548019 -0.11493327 0.054197885
-0.32566458 -0.11486367 0.054190043
-0.32583198 -0.11481479 0.054077249
-0.3260276 -0.11473449 0.05411667
-0.32621086 -0.11466924 0.05407998
-0.32640758 -0.1145851 0.054144777
-0.32658598 -0.11452295 0.054098874
-0.32679603 -0.11442886 0.05419939
-0.32695955 -0.11438707 0.054045077
-0.32714245 -0.11431696 0.054045316
-0.32732874 -0.11424835 0.054024767
-0.32752818 -0.11416458 0.054079168
-0.32771549 -0.11409496 0.054063223
-0.32790187 -0.11402382 0.054061141
-0.3280834 -0.11396094 0.054011762
-0.32827505 -0.11388654 0.054018881
-0.32845953 -0.11382035 0.053985644
-0.32865211 -0.11374246 0.054015845
-0.3288376 -0.11367527 0.05398722
-0.32901323 -0.11361652 0.053924017
-0.32921809 -0.11353035 0.053980704
-0.32939768 -0.11346728 0.053938251
-0.32958186 -0.11340167 0.053901557
-0.32975861 -0.11334171 0.053844117
-0.32996288 -0.11325421 0.053912349
-0.3301509 -0.11318697 0.053876784
-0.33032978 -0.1131248 0.05382973
-0.3305127 -0.11305825 0.053803425
-0.33071125 -0.11297981 0.053820901
-0.33090439 -0.11290251 0.053845316
-0.33108029 -0.112846 0.053764805
-0.3312591 -0.11278635 0.053699281
-0.33146021 -0.11270083 0.053761758
-0.33162972 -0.11265098 0.053650111
-0.33182836 -0.11256829 0.053698748
-0.33203906 -0.11247551 0.053787716
-0.33222577 -0.11240785 0.053759091
-0.33239087 -0.11236702 0.053593222
-0.33258876 -0.11228555 0.053634934
-0.3327744 -0.11222126 0.053584382
-0.33299479 -0.11211932 0.053713698
-0.33315155 -0.11208449 0.053527091
-0.33336127 -0.11199146 0.053620689
-0.33355069 -0.11192355 0.053586274
-0.33373284 -0.11186074 0.053534582
-0.33392388 -0.11178689 0.053539399
-0.33410564 -0.11172235 0.053501558
-0.33431417 -0.11164415 0.053488974
-0.33448938 -0.11157979 0.053468473
-0.33467814 -0.11150634 0.053476766
-0.3348591 -0.11144273 0.053434312
-0.33504224 -0.11137706 0.053401083
-0.33523065 -0.11130624 0.053390909
-0.3354091 -0.11125141 0.053290762
-0.33559158 -0.1111802 0.053300239
-0.33581203 -0.11108479 0.053381078
-0.3359769 -0.11103282 0.053298313
-0.33619836 -0.11093061 0.053426471
-0.3363764 -0.11087626 0.053324014
-0.3365798 -0.1107997 0.053313773
-0.33676943 -0.11072826 0.053304739
-0.33696127 -0.11065878 0.05327493
-0.33714646 -0.11058967 0.05326131
-0.33734089 -0.11051982 0.05322687
-0.33753037 -0.11044875 0.053215537
-0.33772555 -0.11037441 0.053212252
-0.33790132 -0.11030842 0.053202145
-0.33810288 -0.11023022 0.053209215
-0.33829445 -0.11016522 0.053147089
-0.3384881 -0.11008678 0.053178437
-0.33867669 -0.11001886 0.053146333
-0.33883983 -0.10996474 0.053084344
-0.33904096 -0.10989108 0.053059101
-0.33925873 -0.10979483 0.053153813
-0.33943668 -0.10973676 0.053079054
-0.33965078 -0.10965532 0.053074528
-0.33982465 -0.10959538 0.053025179
-0.34001833 -0.10952315 0.053010363
-0.34022507 -0.10943566 0.053071655
-0.34040383 -0.10937695 0.052999213
-0.34059742 -0.10930322 0.052995935
-0.34077024 -0.10924616 0.052928131
-0.34096372 -0.10917263 0.052923702
-0.34116113 -0.10909931 0.052906558
-0.34134659 -0.10903117 0.052884851
-0.34155971 -0.1089442 0.052924179
-0.34173676 -0.10888178 0.052884061
-0.34192473 -0.10881519 0.052843884
-0.3421326 -0.1087313 0.052875157
-0.34232312 -0.10866436 0.052830353
-0.3425155 -0.10859233 0.052817844
-0.34270087 -0.10852642 0.052779984
-0.3428984 -0.1084501 0.052784767
-0.34308335 -0.1083881 0.052719213
-0.34326136 -0.10832515 0.052680239
-0.34348741 -0.10822979 0.052744891
-0.34366798 -0.1081665 0.052701294
-0.34388673 -0.1080861 0.052675962
-0.34407774 -0.10801913 0.052629992
-0.3442727 -0.10794377 0.052634791
-0.34447888 -0.10786241 0.052652225
-0.34465671 -0.1077983 0.052622486
-0.34483302 -0.10773882 0.052562743
-0.34504139 -0.10766082 0.052549012
-0.3452414 -0.10757668 0.052604564
-0.34543905 -0.10750452 0.052578185
-0.34561777 -0.10744318 0.05252536
-0.24486271 -0.14535353 0.057678819
-0.24508263 -0.14527252 0.057654612
-0.2453108 -0.14519276 0.057598036
-0.24555957 -0.14511119 0.057496328
-0.24579483 -0.14503151 0.057418935
-0.24603264 -0.14495054 0.057343837
-0.24626276 -0.14487126 0.057278015
-0.24652822 -0.14478862 0.057136975
-0.24676576 -0.14471088 0.057038799
-0.24697316 -0.1446325 0.057030804
-0.24718761 -0.14455406 0.057003155
-0.24741454 -0.14447413 0.056951206
-0.24763268 -0.14439586 0.05691199
-0.24785642 -0.14431621 0.056866981
-0.24808156 -0.14423805 0.056806959
-0.24831054 -0.1441586 0.05674576
-0.24853748 -0.1440807 0.056678802
-0.24877949 -0.14400141 0.056579441
-0.24898906 -0.14392391 0.056558743
-0.24921411 -0.14384641 0.056494106
-0.24943881 -0.14376906 0.056429464
-0.2496632 -0.14369041 0.056375209
-0.2498913 -0.14361332 0.056299016
-0.25011665 -0.14353494 0.056240141
-0.25033993 -0.14345813 0.056175508
-0.2505666 -0.14338002 0.056110855
-0.25079042 -0.14330347 0.056042753
-0.25102118 -0.14322565 0.055964235
-0.25124624 -0.14314941 0.055890355
-0.25147256 -0.14307331 0.05581186
-0.2516751 -0.14299709 0.055801589
-0.25190169 -0.14291979 0.055731162
-0.25211871 -0.14284398 0.055676956
-0.252343 -0.14276692 0.055611156
-0.25255743 -0.14269131 0.055562735
-0.25277522 -0.14261441 0.055514287
-0.25299564 -0.14253916 0.055446208
-0.25321245 -0.14246248 0.055398926
-0.25342336 -0.14238727 0.055357445
-0.25364226 -0.14231089 0.055302069
-0.25385606 -0.14223598 0.055250183
-0.25407562 -0.14216137 0.055179793
-0.25428301 -0.14208502 0.055156801
-0.25449294 -0.14201035 0.055114169
-0.25470844 -0.14193447 0.055064581
-0.2549167 -0.14185996 0.055025429
-0.25512841 -0.14178571 0.054974701
-0.25534344 -0.14171018 0.054923967
-0.2555542 -0.14163612 0.054874405
-0.25576317 -0.14156057 0.054841012
-0.25597301 -0.1414867 0.054792613
-0.25618291 -0.14141141 0.054754592
-0.25640056 -0.14133817 0.054679602
-0.25665456 -0.14125913 0.054544393
-0.25682333 -0.14117739 0.054670516
-0.25696751 -0.14110835 0.054772519
-0.25718921 -0.14103261 0.054704431
-0.25749505 -0.14096826 0.054313846
-0.25768447 -0.1408958 0.05431287
-0.25783545 -0.14081307 0.054496806
-0.25804427 -0.14074506 0.054408003
-0.25825378 -0.14067087 0.054363061
-0.25845355 -0.14059773 0.0543378
-0.25865945 -0.14052351 0.05430327
-0.25886226 -0.14045078 0.054266445
-0.25907668 -0.14037578 0.054213405
-0.25927183 -0.1403027 0.054200865
-0.25947613 -0.14022878 0.054168642
-0.25968865 -0.14015234 0.05413178
-0.25987715 -0.14008227 0.054115802
-0.26007792 -0.14001 0.054081298
-0.26028952 -0.13993546 0.054032892
-0.26047871 -0.13986406 0.054024994
-0.26067474 -0.13979 0.054017063
-0.26087567 -0.13971815 0.053979099
-0.26107955 -0.139645 0.053942271
-0.26126871 -0.1395739 0.053932071
-0.26145858 -0.13949956 0.053943798
-0.26164615 -0.13942672 0.053950917
-0.26183388 -0.13935226 0.053969577
-0.26199859 -0.13927709 0.054058786
-0.26216629 -0.13919872 0.054162979
-0.26229584 -0.13911951 0.054381642
-0.26073885 -0.1386233 0.062459946
-0.26131588 -0.1385019 0.061722808
-0.26137093 -0.13840213 0.06230434
-0.26159123 -0.13832676 0.062237412
-0.26200613 -0.13806985 0.0629614
-0.26227069 -0.13789229 0.063524552
-0.26407549 -0.13774997 0.059464566
-0.26428348 -0.13767774 0.059409242
-0.26449299 -0.1375884 0.059476286
-0.26473278 -0.13750979 0.059378088
-0.26492351 -0.13743512 0.059389811
-0.26510745 -0.13736133 0.059414268
-0.26532227 -0.13728292 0.059385464
-0.26552081 -0.13721572 0.059319798
-0.26570052 -0.13715136 0.059286557
-0.26593035 -0.13706392 0.05928193
-0.266121 -0.13699569 0.05924632
-0.26630652 -0.13692456 0.059246525
-0.26651806 -0.13684008 0.059271999
-0.26670343 -0.13676494 0.059302218
-0.26687017 -0.13669649 0.059335999
-0.26709482 -0.13662913 0.059197467
-0.26728341 -0.13656935 0.059105314
-0.26747638 -0.13648351 0.059193213
-0.26770264 -0.13639821 0.059182819
-0.26788384 -0.13633093 0.059166886
-0.26810762 -0.13625377 0.059103403
-0.26829541 -0.1361796 0.059119761
-0.26846531 -0.13611649 0.059105046
-0.26864839 -0.1360435 0.059126042
-0.26888502 -0.13596112 0.059064798
-0.26908365 -0.13588749 0.059046466
-0.26929045 -0.13581589 0.058990002
-0.26948667 -0.1357463 0.058948599
-0.26965964 -0.13567561 0.058981188
-0.26986068 -0.13560073 0.058965154
-0.2700415 -0.13553205 0.058960762
-0.27022347 -0.13545698 0.059000235
-0.27043241 -0.13539112 0.058895275
-0.27061018 -0.13532187 0.058903605
-0.27080229 -0.13524278 0.058944173
-0.27103883 -0.13516416 0.058855239
-0.27119267 -0.13509548 0.058927178
-0.27139786 -0.13503167 0.058817614
-0.27159578 -0.13495207 0.05884546
-0.27179319 -0.13487938 0.058823671
-0.27197924 -0.13480821 0.058822721
-0.27216768 -0.13473068 0.058862165
-0.2723704 -0.13466218 0.058794174
-0.27253959 -0.13459091 0.058841787
-0.27276021 -0.13452573 0.058698669
-0.27297413 -0.13444908 0.058659486
-0.27315336 -0.1343738 0.058708206
-0.27333203 -0.13430078 0.058741923
-0.2735275 -0.1342357 0.058669351
-0.27373126 -0.13416603 0.058607131
-0.27391863 -0.13408859 0.058648892
-0.2741271 -0.13401324 0.058615498
-0.27430904 -0.13394409 0.05861111
-0.27450886 -0.13387361 0.058566216
-0.27470383 -0.13380153 0.058546744
-0.27489856 -0.13373205 0.058508813
-0.27505112 -0.13366292 0.058587689
-0.27524617 -0.13358846 0.058585532
-0.2754581 -0.13352303 0.058469012
-0.27564424 -0.13344808 0.058495767
-0.27583936 -0.13337392 0.058491308
-0.27603704 -0.13331158 0.058392175
-0.27621025 -0.13323706 0.058452472
-0.27641955 -0.13316341 0.058404069
-0.27659073 -0.13310449 0.058354706
-0.27679214 -0.13302511 0.058370993
-0.27700168 -0.13294917 0.058338758
-0.27717945 -0.13287103 0.05841288
-0.27736863 -0.13280337 0.058377277
-0.27753571 -0.13273181 0.058432989
-0.27774701 -0.13267128 0.058281846
-0.27793279 -0.13259959 0.058285512
-0.27813426 -0.13252644 0.058255617
-0.2783154 -0.13244982 0.058308952
-0.27850634 -0.13238069 0.058279112
-0.2786966 -0.13231136 0.058252741
-0.27890366 -0.1322473 0.058139704
-0.27907589 -0.13217846 0.05816076
-0.27926788 -0.13210127 0.058187485
-0.27946538 -0.13203603 0.058110289
-0.2796571 -0.13195881 0.058138169
-0.27983472 -0.13188978 0.058145337
-0.28000632 -0.13181758 0.058192953
-0.28021017 -0.13175632 0.058068387
-0.28041089 -0.13168095 0.058056965
-0.28057796 -0.13160956 0.058111526
-0.28077644 -0.13154598 0.058019318
-0.2809813 -0.13147324 0.057976712
