# .PCD v0.7 - Point Cloud Data file format
VERSION 0.7
FIELDS x y z
SIZE 4 4 4
TYPE F F F
COUNT 1 1 1
WIDTH 1228
HEIGHT 1
VIEWPOINT 0 0 0 1 0 0 0
POINTS 1228
DATA ascii
-0.11240774 -0.33743751 0.053770363
-0.11257422 -0.33754432 0.053760599
-0.11273798 -0.33765343 0.053725481
-0.11290284 -0.3377572 0.053728409
-0.11308218 -0.33787379 0.053708218
-0.11325277 -0.33798721 0.053673081
-0.11343017 -0.33809656 0.053690955
-0.11362078 -0.33821848 0.053682268
-0.11379017 -0.33833042 0.053651743
-0.11394261 -0.33843598 0.053593583
-0.11413179 -0.33855224 0.053614888
-0.1142929 -0.33865565 0.053605139
-0.11446862 -0.33877325 0.053564213
-0.11464512 -0.3388842 0.053568263
-0.1148237 -0.33900249 0.053534236
-0.023662928 -0.27999705 0.06215325
-0.023872245 -0.28014174 0.062075332
-0.024055541 -0.28025025 0.062122058
-0.024269365 -0.28040126 0.062022209
-0.024473682 -0.28054002 0.061961606
-0.024657194 -0.2806516 0.061989874
-0.024847738 -0.28077254 0.061986987
-0.025038362 -0.28089371 0.061982937
-0.025239643 -0.28102672 0.061946567
-0.025440779 -0.2811622 0.061894052
-0.025627639 -0.28127882 0.061903857
-0.025824655 -0.28140914 0.061867498
-0.026026692 -0.28154394 0.061823044
-0.026210953 -0.28165743 0.061842088
-0.026409771 -0.28179073 0.061794192
-0.026596475 -0.28190777 0.061800539
-0.026778281 -0.28201824 0.061828811
-0.02696446 -0.2821348 0.061836317
-0.027179435 -0.28228834 0.061724927
-0.027371321 -0.28241307 0.061703585
-0.027561273 -0.28253525 0.061690308
-0.02775104 -0.28265736 0.061677046
-0.027926676 -0.28275737 0.061746858
-0.028127912 -0.28289565 0.061677039
-0.028324038 -0.28302705 0.061630301
-0.02850803 -0.28314167 0.061641276
-0.028698649 -0.28326303 0.061636075
-0.028897826 -0.28339928 0.061570868
-0.029088769 -0.28352413 0.06154491
-0.029282961 -0.28365374 0.061501641
-0.029461704 -0.28376156 0.061534543
-0.029645626 -0.28387687 0.061540898
-0.029841486 -0.28400663 0.061503384
-0.030030731 -0.28412986 0.061480891
-0.030208994 -0.28423738 0.061513796
-0.030397665 -0.28436005 0.061492454
-0.030601662 -0.28450519 0.061390329
-0.030774191 -0.2846047 0.061450936
-0.03097837 -0.28474778 0.061362647
-0.031162973 -0.28486806 0.061340161
-0.031319287 -0.28497827 0.061268181
-0.031553164 -0.28513157 0.061234005
-0.031730875 -0.28523636 0.061281901
-0.03191046 -0.2853469 0.061300963
-0.032101102 -0.28547409 0.061258852
-0.032299865 -0.28561375 0.061170585
-0.032463573 -0.28570074 0.061275043
-0.032654639 -0.28582913 0.061227173
-0.032847594 -0.2859576 0.061186206
-0.033019416 -0.28605703 0.061244503
-0.033203788 -0.2861757 0.061231248
-0.033395413 -0.28630573 0.061175294
-0.033586163 -0.28643465 0.06112282
-0.033764768 -0.28654492 0.061139561
-0.033946034 -0.28665945 0.061140165
-0.034139082 -0.28679255 0.061070368
-0.034319852 -0.28690347 0.061091721
-0.034512207 -0.28703597 0.061023086
-0.034694318 -0.28715247 0.061014451
-0.034872297 -0.28726256 0.061030056
-0.035057157 -0.28738374 0.061002959
-0.035247419 -0.28751379 0.060941249
-0.03542034 -0.2876161 0.060985699
-0.035610907 -0.28774709 0.060919367
-0.035783317 -0.28784543 0.060986888
-0.035968397 -0.28796783 0.060952879
-0.036152005 -0.28808802 0.060926937
-0.036334183 -0.28820607 0.060909078
-0.03651689 -0.28832513 0.060886607
-0.03669291 -0.28843325 0.060906827
-0.036882821 -0.28856125 0.06085664
-0.037070215 -0.28868878 0.060799554
-0.037246011 -0.28879693 0.060818613
-0.037420008 -0.2889021 0.060849227
-0.037612237 -0.28903854 0.060755219
-0.037782982 -0.28913838 0.060806591
-0.037969831 -0.28926244 0.060769115
-0.038161449 -0.28939864 0.060673941
-0.038334198 -0.28950232 0.060709175
-0.038508058 -0.28960794 0.060736313
-0.03870184 -0.28974882 0.060620386
-0.038877334 -0.28985769 0.060633689
-0.039057299 -0.28997084 0.06063775
-0.039224647 -0.29007289 0.060661457
-0.039389409 -0.29019722 0.060534075
-0.039597515 -0.29032326 0.060569189
-0.039776288 -0.29043877 0.060553655
-0.039957784 -0.29055944 0.060516186
-0.040136192 -0.29067069 0.060526021
-0.040310495 -0.29077846 0.060541637
-0.040493727 -0.29090297 0.060486861
-0.040676281 -0.29102653 0.060435548
-0.040856514 -0.29114184 0.060426928
-0.041038804 -0.2912654 0.060374457
-0.041210487 -0.29136893 0.060406234
-0.041385524 -0.29147899 0.06041031
-0.041569382 -0.29160628 0.060340542
-0.04174082 -0.29170966 0.060372312
-0.041917667 -0.29181936 0.060385607
-0.042095385 -0.29193529 0.060363144
-0.042272948 -0.29205111 0.060340691
-0.04245168 -0.29216951 0.060306694
-0.042626508 -0.29227576 0.060333841
-0.042810805 -0.29240587 0.06024792
-0.042986564 -0.29251894 0.060235843
-0.043161944 -0.29263136 0.060226075
-0.043342616 -0.29275501 0.060166702
-0.043510482 -0.29285684 0.06019387
-0.043694876 -0.29298413 0.060126413
-0.043867249 -0.293091 0.060139716
-0.04401914 -0.29319295 0.060102347
-0.044184893 -0.29329565 0.060115673
-0.044361666 -0.29340753 0.060115136
-0.044549193 -0.29353312 0.060070738
-0.04471229 -0.29363543 0.060075998
-0.044896521 -0.29374906 0.060093887
-0.045074284 -0.29386905 0.060046047
-0.045274369 -0.29400331 0.059997
-0.045445338 -0.29410842 0.060016081
-0.045620605 -0.29422352 0.059989013
-0.045765802 -0.29432306 0.059940126
-0.045943946 -0.29444546 0.05987845
-0.046106204 -0.2945472 0.059883714
-0.046261959 -0.29463357 0.059960518
-0.046451703 -0.29476202 0.059906885
-0.046638653 -0.2948783 0.059918985
-0.046807416 -0.29498494 0.059919626
-0.046981338 -0.29509863 0.05989603
-0.047148209 -0.29521281 0.059841305
-0.047312595 -0.295315 0.059852332
-0.047518954 -0.29543281 0.059932437
-0.047682747 -0.29556474 0.059753165
-0.047840361 -0.29565609 0.05980574
-0.048012041 -0.29577184 0.05976022
-0.048179403 -0.29588285 0.059727415
-0.048357002 -0.29598904 0.059766091
-0.048526123 -0.29610536 0.05970674
-0.048708923 -0.29621264 0.059759244
-0.048889644 -0.29633465 0.059710249
-0.049057014 -0.29644716 0.059668206
-0.049211912 -0.29653823 0.059711561
-0.049375504 -0.2966474 0.059675306
-0.049551491 -0.29677153 0.059594024
-0.049721312 -0.29687044 0.059647717
-0.049913213 -0.29699075 0.059654046
-0.050095037 -0.29711112 0.059620038
-0.050260745 -0.29722071 0.059589542
-0.050446257 -0.29733756 0.059592433
-0.050597504 -0.29743382 0.059588507
-0.050750449 -0.29752749 0.059607647
-0.050930843 -0.29764476 0.059587494
-0.051138878 -0.29779539 0.059466895
-0.051314712 -0.29790682 0.059465207
-0.051486161 -0.29802114 0.059427761
-0.051653329 -0.29812074 0.059466474
-0.051823281 -0.29823029 0.059453264
-0.051974699 -0.29831973 0.059493169
-0.052123901 -0.29841048 0.059515782
-0.052281886 -0.29853454 0.059363045
-0.052485701 -0.29866517 0.05935204
-0.052671243 -0.29877582 0.059394151
-0.05283903 -0.29889986 0.059280597
-0.053012203 -0.2990036 0.059316978
-0.053180121 -0.29910749 0.059331458
-0.053347267 -0.29920816 0.059363239
-0.053519487 -0.29933119 0.059273891
-0.053681161 -0.2994439 0.059207659
-0.053822801 -0.29952696 0.059248749
-0.053985666 -0.29963368 0.059225172
-0.054171953 -0.29976249 0.059155397
-0.054313984 -0.29984781 0.059183802
-0.054496665 -0.29998749 0.059030991
-0.054689147 -0.30009452 0.059123829
-0.054851156 -0.30019921 0.059109487
-0.055033192 -0.30030859 0.059145838
-0.055205241 -0.30042401 0.059103794
-0.055373587 -0.30053475 0.059076749
-0.055540241 -0.30063564 0.059105061
-0.055708766 -0.3007485 0.059065342
-0.055873953 -0.30085868 0.059029076
-0.056041218 -0.30096453 0.059028558
-0.056208644 -0.30107194 0.059018817
-0.056377109 -0.30118766 0.058960631
-0.056544539 -0.30129653 0.058941662
-0.056711636 -0.30140334 0.058934234
-0.05687445 -0.30149835 0.058984481
-0.05703536 -0.30160183 0.058973603
-0.057211913 -0.30171755 0.05894769
-0.057379119 -0.30182773 0.058919504
-0.057546407 -0.30193999 0.058878612
-0.05769182 -0.30203673 0.058848172
-0.057866905 -0.30213916 0.058900699
-0.058031768 -0.30226263 0.058779087
-0.058198154 -0.30236864 0.058773961
-0.058355041 -0.3024652 0.058790788
-0.058533613 -0.302578 0.058791392
-0.058712408 -0.30269697 0.05875393
-0.05886931 -0.30279627 0.058753446
-0.059026208 -0.30289683 0.058744892
-0.059192512 -0.30301264 0.058677483
-0.059376832 -0.30312765 0.058687299
-0.059542656 -0.30322656 0.058724858
-0.059708554 -0.30333519 0.058701281
-0.059874292 -0.3034614 0.058565825
-0.060040016 -0.30355808 0.058617219
-0.06020578 -0.30365604 0.058660537
-0.06035012 -0.30374119 0.058699314
-0.060488157 -0.3038289 0.058696583
-0.060643312 -0.30396208 0.058474649
-0.060818397 -0.30406031 0.058553696
-0.061008424 -0.30417818 0.058568113
-0.061198417 -0.30429623 0.058581367
-0.061357073 -0.30440518 0.058526676
-0.06152508 -0.30451551 0.058500782
-0.061689787 -0.30462575 0.05846221
-0.061817225 -0.30471772 0.058390312
-0.062001906 -0.30482036 0.058479711
-0.062174659 -0.30494428 0.058386911
-0.062349316 -0.30504969 0.058418669
-0.062513717 -0.30515826 0.058389328
-0.062678874 -0.30526042 0.058403812
-0.062836513 -0.30536875 0.058349125
-0.062998876 -0.30546674 0.058378614
-0.063166983 -0.30557111 0.058390781
-0.063311353 -0.30567634 0.058302686
-0.063501298 -0.30579069 0.058339015
-0.063665211 -0.30589879 0.058310825
-0.06383168 -0.3059932 0.058379523
-0.063967094 -0.30608892 0.058315665
-0.064157307 -0.30623499 0.05815246
-0.064300999 -0.30632246 0.058173925
-0.064470343 -0.30641976 0.05823569
-0.064653501 -0.30653313 0.058251277
-0.064816803 -0.3066414 0.058219634
-0.064960323 -0.30674371 0.058146529
-0.065124072 -0.30684933 0.058133345
-0.065281905 -0.30696324 0.058044046
-0.065467581 -0.30706671 0.058132283
-0.065635704 -0.30716926 0.058155991
-0.065790758 -0.30726719 0.058156677
-0.065949827 -0.30738699 0.058035072
-0.06609606 -0.30747771 0.058046162
-0.066265464 -0.30757615 0.058101006
-0.066450328 -0.30770519 0.058024317
-0.06661576 -0.30780458 0.058057256
-0.066768557 -0.30789781 0.058078706
-0.066901006 -0.30799529 0.057991788
-0.067054123 -0.30811682 0.057835609
-0.06723877 -0.30822471 0.057891563
-0.067392446 -0.30832469 0.057873785
-0.067565531 -0.30842403 0.057937846
-0.067745104 -0.3085444 0.057894617
-0.067882091 -0.30862924 0.057905741
-0.06806273 -0.30873829 0.057938628
-0.06821283 -0.30884567 0.057859741
-0.068385184 -0.30894727 0.057906501
-0.068533614 -0.30904117 0.057906039
-0.068713285 -0.30916035 0.057870891
-0.068870738 -0.30926782 0.057820812
-0.069025122 -0.30937317 0.057771895
-0.069195896 -0.30947796 0.057792135
-0.069350682 -0.30957481 0.057798579
-0.069537632 -0.30968747 0.057833765
-0.069699697 -0.30980042 0.057767518
-0.069874451 -0.30991265 0.057756606
-0.070035785 -0.31002623 0.057683446
-0.070196226 -0.3101137 0.057771761
-0.070343666 -0.31022215 0.057675578
-0.070501566 -0.31030074 0.057810038
-0.070659712 -0.31042507 0.057656158
-0.070809469 -0.31052914 0.057596866
-0.070980974 -0.31063911 0.057587124
-0.071133643 -0.31075105 0.05748976
-0.071303681 -0.31085664 0.057501931
-0.071505964 -0.3109726 0.057577439
-0.071669631 -0.31107509 0.05758385
-0.071830034 -0.31118187 0.057549916
-0.071972229 -0.31127715 0.057516027
-0.072142184 -0.31138307 0.057525888
-0.072318457 -0.31146431 0.057716817
-0.072471321 -0.31153005 0.057912417
-0.072623856 -0.31166306 0.057681274
-0.07277301 -0.31177732 0.057555094
-0.072926387 -0.31187019 0.057581149
-0.073078409 -0.31198591 0.057457268
-0.07323195 -0.31209946 0.057352994
-0.073389508 -0.31222379 0.057196803
-0.073530152 -0.31233996 0.057024509
-0.073703319 -0.31245193 0.057008989
-0.073901258 -0.31254855 0.057189465
-0.074084081 -0.31266588 0.05717852
-0.074239671 -0.31275156 0.057258785
-0.074391305 -0.31284133 0.057297535
-0.074576572 -0.31295654 0.057309657
-0.074743636 -0.31304166 0.057439473
-0.074872948 -0.31316161 0.057198014
-0.075032286 -0.31326774 0.05716408
-0.075215936 -0.31337062 0.057247721
-0.075351991 -0.3134788 0.057107732
-0.07552249 -0.31357518 0.057179883
-0.075684883 -0.31366974 0.057231281
-0.075860105 -0.3137759 0.057260737
-0.076027557 -0.31388405 0.057246376
-0.076192081 -0.31401587 0.057070553
-0.076347135 -0.31411636 0.057055082
-0.076505698 -0.31420997 0.057097275
-0.076687865 -0.3143152 0.057160154
-0.07687787 -0.31443962 0.057133041
-0.077021815 -0.31452781 0.057151061
-0.077164955 -0.3146368 0.057034127
-0.077335447 -0.3147465 0.057022069
-0.077497497 -0.31484613 0.057040028
-0.077651739 -0.31495103 0.056993421
-0.077821225 -0.31506139 0.056973293
-0.077992871 -0.31518185 0.056897789
-0.078157842 -0.31527203 0.056987248
-0.078324407 -0.31538418 0.056944061
-0.07846728 -0.31547695 0.056928635
-0.078619838 -0.31557879 0.056894712
-0.07879547 -0.31568536 0.056923006
-0.07895796 -0.31579968 0.056849852
-0.079148725 -0.31591949 0.056855034
-0.079302981 -0.31602022 0.056834947
-0.079451032 -0.31611717 0.056813732
-0.079614922 -0.31622326 0.056798235
-0.079780504 -0.31632495 0.056817342
-0.079945683 -0.31643036 0.056811057
-0.080103561 -0.31653264 0.056795582
-0.080264978 -0.31663316 0.056805469
-0.080422126 -0.31673241 0.056806136
-0.080589078 -0.31685394 0.056705285
-0.080745526 -0.31695348 0.056701344
-0.080902293 -0.31704959 0.056720469
-0.081065841 -0.31715253 0.056723431
-0.08123491 -0.31727263 0.056639865
-0.081384674 -0.31736869 0.056631334
-0.081547037 -0.31747216 0.056626223
-0.081711061 -0.31757814 0.056611873
-0.08187364 -0.31768158 0.056607917
-0.082041577 -0.31778914 0.056599326
-0.082192719 -0.31789407 0.056540042
-0.0823569 -0.31799376 0.056566063
-0.082583182 -0.3181158 0.056699172
-0.082772098 -0.31821564 0.056823149
-0.082959101 -0.31831047 0.056971367
-0.083130345 -0.31840533 0.057056196
-0.083333857 -0.31850091 0.057265494
-0.083504118 -0.31857875 0.057454128
-0.089283489 -0.32231271 0.056950815
-0.089391254 -0.32240462 0.056800544
-0.089517176 -0.32251039 0.05663522
-0.089652449 -0.3226217 0.056472182
-0.089782685 -0.32273114 0.056301072
-0.089929149 -0.32284513 0.05616568
-0.090063617 -0.3229512 0.056032628
-0.090203755 -0.32305175 0.055957217
-0.090343535 -0.32315916 0.055836838
-0.09049622 -0.3232649 0.055778697
-0.090665326 -0.32337099 0.05578395
-0.090820409 -0.32347643 0.055737343
-0.09099678 -0.32358184 0.055776015
-0.091161147 -0.3236886 0.055758201
-0.091317803 -0.32379612 0.055704668
-0.091480635 -0.32390079 0.055693794
-0.091638237 -0.3240082 0.055644866
-0.091815591 -0.32411385 0.055685844
-0.091983415 -0.32422259 0.055669181
-0.092144355 -0.32433194 0.055621393
-0.092308931 -0.3244366 0.055617433
-0.092480771 -0.324543 0.055631898
-0.092636727 -0.32465482 0.055548377
-0.092799664 -0.32475755 0.05555018
-0.09296295 -0.32486033 0.055553146
-0.0931409 -0.32496655 0.055592962
-0.093319751 -0.32508337 0.055569343
-0.093484625 -0.32518625 0.055578072
-0.093650073 -0.3252975 0.055536039
-0.093806185 -0.32540086 0.055506729
-0.09396293 -0.32551247 0.055427812
-0.094121724 -0.32561567 0.055410028
-0.094300754 -0.3257162 0.055490211
-0.094471268 -0.32582939 0.055456243
-0.0946301 -0.32593882 0.055399239
-0.094797783 -0.32604805 0.055379119
-0.094951786 -0.32614952 0.055353273
-0.095108047 -0.32625294 0.055323951
-0.095240667 -0.32635474 0.055210516
-0.095440604 -0.32646558 0.055309098
-0.09564466 -0.32657266 0.055448029
-0.095815629 -0.32669196 0.055377144
-0.095949039 -0.3267917 0.055279858
-0.096116967 -0.32689723 0.055283949
-0.096294358 -0.32700676 0.055300705
-0.096443564 -0.32711229 0.055229895
-0.096622325 -0.32722577 0.055227034
-0.096781731 -0.32732755 0.055220783
-0.096942224 -0.32743514 0.055182226
-0.097109281 -0.32753903 0.055193245
-0.097286046 -0.32764888 0.055205397
-0.097420104 -0.32775214 0.055088487
-0.09758544 -0.32785988 0.055068374
-0.097766146 -0.32796618 0.055118568
-0.097949862 -0.3280746 0.055167608
-0.098118782 -0.32819006 0.055112869
-0.098274246 -0.32829392 0.055077799
-0.098440707 -0.3284111 0.055002313
-0.098614052 -0.32851386 0.055045612
-0.098781087 -0.32862011 0.055041634
-0.098961905 -0.32873252 0.055053771
-0.099115133 -0.32882914 0.055055611
-0.099259846 -0.32893255 0.054980192
-0.099433124 -0.32904112 0.054986585
-0.099606946 -0.32915697 0.054949142
-0.099768892 -0.32925779 0.054959022
-0.099903531 -0.32935521 0.054881331
-0.1000822 -0.32945898 0.054939605
-0.10025761 -0.32957324 0.054918304
-0.10040526 -0.32967508 0.054864801
-0.10056239 -0.32978109 0.054822795
-0.10074117 -0.32989568 0.054813016
-0.10091278 -0.33000278 0.054821726
-0.10109325 -0.33011937 0.054806173
-0.10127303 -0.33022732 0.054842532
-0.10143705 -0.33033401 0.05482357
-0.10160708 -0.33044472 0.054803442
-0.10175432 -0.33054319 0.054769538
-0.10191202 -0.33064771 0.054739073
-0.10209984 -0.33076692 0.054736186
-0.10227172 -0.33087623 0.0547322
-0.10243563 -0.33098653 0.054690171
-0.10259441 -0.33108792 0.05468392
-0.10277681 -0.3312068 0.054661449
-0.10294417 -0.33131418 0.054651711
-0.10309655 -0.33141169 0.05464432
-0.1032673 -0.33152449 0.05461381
-0.10346048 -0.33164471 0.054625902
-0.1036219 -0.33174834 0.054616183
-0.10377321 -0.33185083 0.054573037
-0.10391329 -0.33194712 0.054524168
-0.1041031 -0.33206066 0.054565106
-0.10428438 -0.3321847 0.054505728
-0.10439966 -0.33227479 0.054396957
-0.10460989 -0.33239105 0.05450242
-0.10477671 -0.33250043 0.054477692
-0.10494138 -0.33260319 0.054486409
-0.10511263 -0.33271483 0.054465126
-0.10526615 -0.33281782 0.054427743
-0.10546163 -0.33293274 0.054482512
-0.10563198 -0.33305553 0.054387409
-0.10578026 -0.33315629 0.054343123
-0.10596938 -0.33327687 0.054336779
-0.10614866 -0.3333883 0.054348912
-0.10629651 -0.33348751 0.054312706
-0.10645706 -0.33358547 0.054335281
-0.10660525 -0.33368945 0.054270234
-0.10678028 -0.33380204 0.054258168
-0.10690852 -0.33389688 0.054171268
-0.10714289 -0.33402312 0.054310106
-0.10729305 -0.33413053 0.054231212
-0.10746518 -0.33423981 0.054228377
-0.10764321 -0.33435467 0.054213993
-0.10784045 -0.33447111 0.054266445
-0.10798057 -0.33457544 0.054166824
-0.10814944 -0.33468139 0.054172069
-0.10832302 -0.3347927 0.054162309
-0.10848512 -0.33489764 0.054146826
-0.10864678 -0.33500704 0.054101344
-0.1088362 -0.33512565 0.054108832
-0.10901345 -0.33523926 0.054099068
-0.10917565 -0.33534738 0.054063968
-0.10936831 -0.33546674 0.054079521
-0.10952622 -0.33557123 0.054050203
-0.10970158 -0.33568767 0.054015066
-0.10984874 -0.33578736 0.053973082
-0.11004595 -0.33590341 0.054027848
-0.11021394 -0.33601278 0.054007724
-0.11036779 -0.33612111 0.053938046
-0.11052692 -0.33622891 0.053892575
-0.11069445 -0.33632818 0.053934734
-0.11089769 -0.3364588 0.053921428
-0.11105878 -0.33656567 0.053889796
-0.1112397 -0.33667776 0.053904232
-0.11142187 -0.33679453 0.053894445
-0.11159912 -0.33691177 0.053861611
-0.11174779 -0.33701351 0.053812712
-0.11192845 -0.33712584 0.053824838
-0.11208448 -0.33722767 0.053804755
-0.11226736 -0.33734339 0.053804196
-0.11243189 -0.33745408 0.053762164
-0.11260746 -0.3375628 0.053776618
-0.11277686 -0.33767456 0.05374727
-0.11295874 -0.33779311 0.053724792
-0.11313359 -0.33790889 0.053691968
-0.11329864 -0.3380115 0.053702995
-0.11347879 -0.33812568 0.053701282
-0.11363313 -0.33823448 0.053630456
-0.11382768 -0.33835322 0.053657535
-0.11400425 -0.33846128 0.053680066
-0.11415351 -0.33856633 0.053612716
-0.11430319 -0.33867419 0.053529203
-0.11450833 -0.33878866 0.053625461
-0.11467789 -0.33891732 0.053490002
-0.11485825 -0.33902925 0.053503279
-0.023673769 -0.28002307 0.062032152
-0.023852844 -0.28012818 0.062083516
-0.024047274 -0.28025341 0.062069084
-0.024222706 -0.28035146 0.062150449
-0.024438228 -0.28050464 0.062043667
-0.024637673 -0.28063449 0.062019981
-0.024834141 -0.280763 0.061992854
-0.024991695 -0.2808401 0.062135421
-0.025187109 -0.28096738 0.062111743
-0.025411557 -0.28113115 0.06197378
-0.025614377 -0.28126878 0.061914332
-0.025801346 -0.28138289 0.061940297
-0.02600516 -0.28152227 0.061873924
-0.026213225 -0.28166762 0.061786767
-0.026411802 -0.28180039 0.061741173
-0.026597731 -0.28191367 0.061768293
-0.026807331 -0.28206182 0.061669599
-0.026977461 -0.28215379 0.061768282
-0.027159777 -0.28226495 0.061794262
-0.027367566 -0.28241122 0.061700188
-0.027547073 -0.2825188 0.061737709
-0.027745791 -0.28265038 0.06170018
-0.027944159 -0.28278428 0.061646517
-0.028142568 -0.28291586 0.061607845
-0.028326515 -0.28303006 0.06162113
-0.028517589 -0.28315172 0.061615929
-0.028712336 -0.28328133 0.061574958
-0.028900512 -0.28340188 0.061565153
-0.029087093 -0.28352031 0.061562277
-0.029269781 -0.28363061 0.061595175
-0.029466432 -0.28376365 0.061540358
-0.029668525 -0.28390193 0.061473981
-0.029848672 -0.28401172 0.061499968
-0.030035544 -0.28412852 0.061508626
-0.030227616 -0.28425571 0.061472282
-0.030412827 -0.28437036 0.061487861
-0.03061245 -0.28450891 0.061409965
-0.030810528 -0.28464264 0.061356299
-0.030989151 -0.28475094 0.061385743
-0.031175457 -0.28486773 0.061392102
-0.03136858 -0.28499758 0.061343055
-0.03155455 -0.28511417 0.061349414
-0.031747632 -0.28524441 0.061298065
-0.031936646 -0.28536582 0.061285954
-0.032121025 -0.28548342 0.061279617
-0.032304473 -0.28559676 0.061296366
-0.032493956 -0.28572232 0.06126003
-0.032685172 -0.28584769 0.061231762
-0.032869902 -0.28596643 0.061219655
-0.033057235 -0.28608623 0.061211005
-0.033246491 -0.28621221 0.061171211
-0.03343847 -0.28633952 0.061133709
-0.033620279 -0.28645438 0.061134312
-0.033810064 -0.28657869 0.061107196
-0.033994902 -0.28669858 0.061088178
-0.034185849 -0.28682506 0.061051831
-0.034366816 -0.2869392 0.061053585
-0.034552936 -0.28705844 0.061043791
-0.03473267 -0.28717089 0.061051324
-0.034921136 -0.28729418 0.061025359
-0.035104554 -0.28741279 0.061008658
-0.035291519 -0.28753403 0.060989626
-0.03546736 -0.28764075 0.061017923
-0.035659723 -0.28777105 0.06096312
-0.035844099 -0.28789189 0.060936026
-0.036024012 -0.28800228 0.060957402
-0.036212016 -0.28812948 0.060904913
-0.036407366 -0.28826568 0.060824718
-0.036592886 -0.28838927 0.060784936
-0.036769912 -0.28849545 0.060821306
-0.036956836 -0.2886183 0.060791902
-0.037136804 -0.28872964 0.0608075
-0.03731681 -0.28884465 0.060800031
-0.037505761 -0.28897148 0.060753308
-0.037683584 -0.28908312 0.060758531
-0.037865937 -0.28919905 0.060754508
-0.038048171 -0.28931856 0.060727432
-0.038238291 -0.28944835 0.060666867
-0.038415227 -0.28955904 0.060674392
-0.038596973 -0.28967461 0.060670383
-0.03877721 -0.28979889 0.060605235
-0.038960114 -0.28990933 0.060638122
-0.039068811 -0.28994036 0.060876582
-0.039315127 -0.29013014 0.060661264
-0.039500386 -0.29025668 0.060601864
-0.03968085 -0.29037088 0.06060132
-0.039856233 -0.29047987 0.060613476
-0.040037073 -0.29059502 0.060608312
-0.040226467 -0.29073018 0.060510825
-0.040402062 -0.29083601 0.060543746
-0.040583447 -0.29095683 0.060505122
-0.040748984 -0.29104388 0.060616519
-0.040943682 -0.29119024 0.060469419
-0.041125208 -0.29130787 0.06045156
-0.041300349 -0.2914176 0.060457945
-0.041488327 -0.29154804 0.060384694
-0.041661803 -0.29165488 0.060402624
-0.041842863 -0.2917724 0.060383618
-0.042021208 -0.29188907 0.060358845
-0.042202089 -0.29200664 0.060338687
-0.042380776 -0.29212445 0.060308151
-0.042557776 -0.29223463 0.060319137
-0.042737208 -0.29235438 0.060279377
-0.042919286 -0.29247525 0.060243055
-0.043092072 -0.29258186 0.06025983
-0.043272953 -0.29270068 0.060231596
-0.043446183 -0.29280847 0.060242593
-0.043630496 -0.29293498 0.060179748
-0.043802515 -0.29304054 0.060199983
-0.04397288 -0.29315236 0.060174085
-0.044159804 -0.29327556 0.060142368
-0.044338927 -0.29339203 0.060122207
-0.044514563 -0.29350609 0.060103223
-0.044683814 -0.29360625 0.06014654
-0.044865545 -0.29373419 0.060064077
-0.045037534 -0.29383555 0.060110852
-0.045216836 -0.29395869 0.060049161
-0.045391262 -0.29406577 0.060069401
-0.045566805 -0.29418087 0.060043484
-0.045748848 -0.29430592 0.059980631
-0.045913398 -0.29440129 0.060035504
-0.046047341 -0.29447967 0.060075466
-0.046264678 -0.29463363 0.05997099
-0.046439648 -0.29473722 0.060015447
-0.046622764 -0.29486641 0.059930671
-0.046801299 -0.29498488 0.059895523
-0.046972338 -0.29509091 0.059908841
-0.047150124 -0.295214 0.059841387
-0.047321733 -0.29532185 0.059845481
-0.047501646 -0.29544502 0.0597861
-0.047664888 -0.29555032 0.059772912
-0.047842756 -0.29564992 0.059854269
-0.048019756 -0.2957727 0.059785664
-0.048190229 -0.29588494 0.059757467
-0.048363328 -0.2959848 0.059818082
-0.048536263 -0.29609752 0.05979678
-0.048714183 -0.29622436 0.059706263
-0.048890702 -0.29634097 0.059674572
-0.049049102 -0.29644138 0.059672944
-0.049227796 -0.29655775 0.059651628
-0.049409203 -0.29667509 0.059634928
-0.049578331 -0.29677847 0.059657484
-0.049751066 -0.2968927 0.059625804
-0.049925514 -0.29700491 0.059613742
-0.050092809 -0.2971108 0.059613235
-0.050262447 -0.2972163 0.059624247
-0.050442383 -0.29733858 0.059570633
-0.050616577 -0.29745919 0.059504353
-0.050777674 -0.29755419 0.059547693
-0.050957941 -0.29767045 0.059533298
-0.05113019 -0.29778585 0.059492402
-0.051291537 -0.29789069 0.059474602
-0.051470615 -0.29800382 0.059475206
-0.051632777 -0.29811209 0.059438951
-0.051789999 -0.29821232 0.059433855
-0.051956326 -0.29831755 0.059433348
-0.052120157 -0.2984331 0.05935787
-0.05228829 -0.29854587 0.059316978
-0.05245664 -0.29864985 0.059332617
-0.052636392 -0.29876781 0.059305541
-0.052793354 -0.29885817 0.059361581
-0.052977927 -0.29899651 0.0592249
-0.053144284 -0.29910433 0.059208244
-0.053305909 -0.29919219 0.059298877
-0.053479377 -0.29929632 0.059334118
-0.053671636 -0.29943657 0.059215859
-0.053832013 -0.2995306 0.059262663
-0.053974863 -0.29960546 0.059360292
-0.054189198 -0.29978943 0.059053935
-0.054340601 -0.29985315 0.059256494
-0.054530412 -0.29999989 0.0590875
-0.054684456 -0.30007565 0.059224308
-0.054862633 -0.3001917 0.059202999
-0.055051267 -0.30032054 0.059142437
-0.055219702 -0.3004297 0.059125774
-0.055388205 -0.30053979 0.05910334
-0.055557925 -0.30064061 0.059144355
-0.055730179 -0.30075765 0.059093066
-0.055898912 -0.30087098 0.059051022
-0.056066386 -0.30097643 0.059053972
-0.056234226 -0.30108482 0.059039623
-0.056386605 -0.30118433 0.05901954
-0.05656454 -0.30130625 0.058960162
-0.05674044 -0.30141261 0.058990777
-0.056911569 -0.30152747 0.058948725
-0.057072848 -0.30163246 0.058929775
-0.057245824 -0.30173936 0.058945395
-0.057416309 -0.30185089 0.058921807
-0.057583462 -0.30195886 0.058907449
-0.05774349 -0.30205229 0.058956563
-0.057876967 -0.30214387 0.058911175
-0.058029227 -0.30225223 0.058834575
-0.058255319 -0.30240718 0.0587589
-0.058424558 -0.3025077 0.058799915
-0.058590654 -0.30260423 0.058853619
-0.058757365 -0.30271336 0.058830045
-0.05891202 -0.30282491 0.058743052
-0.059090771 -0.30294114 0.058722898
-0.059260108 -0.30304739 0.058728151
-0.059407927 -0.30314404 0.058708083
-0.059558816 -0.30325007 0.058640718
-0.059715621 -0.30333856 0.058708295
-0.059869435 -0.30343333 0.058723982
-0.060035512 -0.30353898 0.058720008
-0.060204469 -0.30365482 0.05866297
-0.060369968 -0.30377707 0.058551725
-0.060539078 -0.30387568 0.05860427
-0.060728263 -0.3040244 0.058420274
-0.06091623 -0.30412328 0.058546599
-0.061078258 -0.30423585 0.058482654
-0.061262473 -0.30434787 0.058510929
-0.061424963 -0.30445033 0.05851274
-0.061556902 -0.30453181 0.058525026
-0.061718721 -0.30464149 0.058478393
-0.061901815 -0.30476484 0.05843053
-0.062088445 -0.30488405 0.05842305
-0.06224246 -0.30497202 0.058482565
-0.062424734 -0.30509976 0.058403559
-0.062567577 -0.30519798 0.058353525
-0.062722862 -0.30530137 0.058320746
-0.062925018 -0.30542582 0.058342047
-0.063090369 -0.30552807 0.058356538
-0.063245587 -0.30563051 0.058329538
-0.06340082 -0.30571249 0.05843173
-0.063543119 -0.30581093 0.058378235
-0.063731819 -0.30595261 0.058236919
-0.063896149 -0.30604163 0.058331013
-0.06404759 -0.30614403 0.058289018
-0.064223304 -0.30624574 0.058348469
-0.064373128 -0.30635476 0.058258034
-0.064560235 -0.30648285 0.058196321
-0.064735092 -0.3065882 0.058229245
-0.064883821 -0.30668524 0.058210328
-0.065070242 -0.30680084 0.058224753
-0.065219469 -0.30689561 0.058221996
-0.065403655 -0.30703187 0.058096848
-0.065571517 -0.30713627 0.058107868
-0.065730147 -0.30723521 0.058116615
-0.065902054 -0.30733833 0.058151852
-0.066061959 -0.30744481 0.058117904
-0.066228494 -0.30756423 0.058028579
-0.066390462 -0.3076638 0.058046538
-0.06655404 -0.30775893 0.058099099
-0.066688374 -0.30785251 0.058044478
-0.066883266 -0.30797476 0.058050804
-0.067051627 -0.30808729 0.058012225
-0.067218341 -0.30819407 0.058003642
-0.067384243 -0.3082934 0.058038898
-0.067507647 -0.30838427 0.057957761
-0.067655846 -0.30849794 0.057831571
-0.067830279 -0.30860394 0.057858728
-0.068026572 -0.30871356 0.057950415
-0.068201333 -0.30882779 0.057926811
-0.068361044 -0.30894855 0.057801735
-0.068531573 -0.30904645 0.057864666
-0.068688974 -0.30914694 0.057858411
-0.068835333 -0.30924541 0.05782105
-0.068992756 -0.30936107 0.057719059
-0.06918288 -0.30947572 0.057754233
-0.069336042 -0.30956864 0.057779148
-0.069499098 -0.30966598 0.057815559
-0.06965255 -0.30976582 0.057797797
-0.069838479 -0.30989516 0.057723396
-0.069981657 -0.30999085 0.057690665
-0.070165917 -0.31010854 0.057683177
-0.070327654 -0.31020141 0.05774267
-0.070489921 -0.31028712 0.057849459
-0.070632145 -0.31037769 0.057845563
-0.070770942 -0.31049269 0.057673257
-0.070929639 -0.31060952 0.057568952
-0.071103923 -0.31073478 0.057473827
-0.071283899 -0.31083316 0.057571329
-0.071447007 -0.31093693 0.057567373
-0.071590863 -0.31102467 0.057587691
-0.071757056 -0.31112435 0.057621799
-0.071924455 -0.31124014 0.057558987
-0.072089307 -0.3113474 0.057540037
-0.07225851 -0.31144917 0.057572968
-0.072411075 -0.31156012 0.057481371
-0.07257615 -0.3116613 0.057501629
-0.072739929 -0.31178042 0.05740308
-0.07290037 -0.31187612 0.057439502
-0.073061138 -0.31198752 0.057377875
-0.073227838 -0.31207642 0.057482339
-0.073400684 -0.31219018 0.057454132
-0.073554374 -0.31229857 0.057383284
-0.073744014 -0.31241983 0.05737463
-0.073901549 -0.3125239 0.057346463
-0.074050501 -0.31261179 0.057386387
-0.074234985 -0.31273326 0.057355829
-0.074403897 -0.3128407 0.057351854
-0.074546658 -0.31293467 0.057328347
-0.074699037 -0.31303385 0.057310577
-0.074865602 -0.31313869 0.057313532
-0.075013928 -0.31324604 0.057227712
-0.075169437 -0.31334683 0.057212241
-0.075346425 -0.31346065 0.057200171
-0.075512059 -0.31355727 0.05725158
-0.075657681 -0.31364411 0.057284582
-0.075802431 -0.3137494 0.057197627
-0.075955696 -0.31386063 0.05710718
-0.07613185 -0.31397063 0.057115871
-0.076310642 -0.31407866 0.057147626
-0.076494932 -0.31420368 0.057094
-0.076666169 -0.31431329 0.057085395
-0.076828375 -0.31441304 0.057103366
-0.076962709 -0.31450021 0.057089105
-0.077123508 -0.31460106 0.057094388
-0.07729587 -0.31473002 0.056968119
-0.077449426 -0.31482774 0.056964185
-0.077605747 -0.31492758 0.056957942
-0.077778094 -0.31503242 0.056983948
-0.07793925 -0.31514078 0.056943089
-0.07808736 -0.31522283 0.057016462
-0.078261152 -0.31534231 0.056955941
-0.078417331 -0.31544605 0.056924321
-0.078580685 -0.31554541 0.056949206
-0.078747094 -0.31565419 0.056926776
-0.078900218 -0.31576329 0.056849021
-0.079054743 -0.3158569 0.056875076
-0.079223715 -0.31595689 0.056918401
-0.079384655 -0.31606147 0.056900606
-0.079538837 -0.31616613 0.05685515
-0.079703726 -0.3162756 0.056822337
-0.079877749 -0.31638372 0.056834497
-0.080051363 -0.31649557 0.056821283
-0.080193058 -0.31659949 0.056730866
-0.080383293 -0.31670982 0.056793734
-0.080539227 -0.31680322 0.056826711
-0.080700733 -0.31692091 0.056728169
-0.080865636 -0.31703347 0.056675747
-0.081026755 -0.31714109 0.0566395
-0.081180282 -0.3172324 0.056675948
-0.081330374 -0.31732208 0.056708947
-0.081477135 -0.31742626 0.056636974
-0.081644401 -0.31753758 0.056601852
-0.08180853 -0.31763744 0.056626737
-0.081965938 -0.31774014 0.056606639
-0.082123026 -0.31784612 0.056564633
-0.082278781 -0.31794631 0.056553774
-0.082450569 -0.31805575 0.056548636
-0.082608536 -0.31815207 0.05657123
-0.082761914 -0.31827158 0.056428865
-0.082929581 -0.31837037 0.056474496
-0.083097093 -0.31846634 0.056537434
-0.083271429 -0.31858996 0.056452692
-0.083378375 -0.31868938 0.056251638
-0.083571136 -0.31878272 0.056432169
-0.083737142 -0.31887665 0.056502026
-0.08391735 -0.31898648 0.056528013
-0.084083162 -0.31909817 0.056484818
-0.084251508 -0.31920323 0.056493536
-0.084405512 -0.31931564 0.05639847
-0.084543698 -0.31942132 0.056282695
-0.084707715 -0.31951636 0.056337565
-0.084877491 -0.31961268 0.056407411
-0.085037522 -0.31972307 0.056349244
-0.085284859 -0.31984511 0.056566514
-0.085487425 -0.31993863 0.056785081
-0.085676491 -0.32002798 0.056975994
-0.085873723 -0.32012925 0.057124205
-0.094130106 -0.32551679 0.056068864
-0.094253369 -0.32562196 0.055896606
-0.094379961 -0.32572889 0.05572664
-0.094508007 -0.32583967 0.055538218
-0.094631337 -0.32594013 0.055395953
-0.094793744 -0.32604966 0.055352777
-0.094986573 -0.32615855 0.055435248
-0.095151067 -0.32626611 0.055412829
-0.095334761 -0.3263734 0.055468794
-0.09549088 -0.32648313 0.055399101
-0.095645979 -0.32658294 0.055388242
-0.095805451 -0.32669261 0.055332385
-0.095969826 -0.32680026 0.055308808
-0.096133374 -0.32690796 0.055281781
-0.096301965 -0.32701373 0.055287037
-0.096443608 -0.32711357 0.055222001
-0.096653394 -0.32722753 0.055340182
-0.0968071 -0.32734102 0.055237047
-0.096964061 -0.32744491 0.055207722
-0.09713985 -0.32755488 0.055215262
-0.097321302 -0.32766312 0.05525624
-0.097461753 -0.32776296 0.055186596
-0.09762308 -0.32787272 0.055137645
-0.097790822 -0.32798451 0.055101376
-0.097963974 -0.32809463 0.055097386
-0.098127261 -0.32820818 0.055032291
-0.09829057 -0.32831243 0.055026025
-0.09845978 -0.32841513 0.055053197
-0.098627329 -0.32852152 0.055050377
-0.098798394 -0.32862994 0.055048697
-0.098974228 -0.32874233 0.055041239
-0.099135749 -0.32885399 0.054980766
-0.099284895 -0.32894692 0.054989539
-0.099451497 -0.3290571 0.05495904
-0.099616379 -0.32916179 0.054956228
-0.099776894 -0.32926628 0.054937281
-0.099957071 -0.32937738 0.054955192
-0.1001263 -0.32949853 0.054865845
-0.10028908 -0.32959971 0.054876879
-0.10045014 -0.32970434 0.054859091
-0.10061479 -0.32981458 0.054820519
-0.10078596 -0.32992178 0.054826915
-0.10095394 -0.33002883 0.054821786
-0.10109663 -0.33012694 0.054771747
-0.10130395 -0.330239 0.054892246
-0.1014223 -0.33034381 0.054702695
-0.10162394 -0.33046246 0.054758605
-0.10178719 -0.3305676 0.054746568
-0.10194963 -0.33066928 0.054752994
-0.10209731 -0.33077478 0.05467641
-0.10227722 -0.33088496 0.054698929
-0.10247381 -0.33100027 0.054756016
-0.10261775 -0.33109701 0.054719813
-0.10278516 -0.33120787 0.054688152
-0.10296454 -0.33132666 0.054654151
-0.10310945 -0.33143187 0.054568343
-0.10330781 -0.33154443 0.054649644
-0.10346785 -0.33165959 0.054561488
-0.10363862 -0.33176598 0.054571345
-0.10381794 -0.33187836 0.054577716
-0.1039872 -0.33198476 0.054581821
-0.10415903 -0.33209476 0.054573216
-0.10431381 -0.33220601 0.054488536
-0.10447493 -0.33230507 0.054506499
-0.1046473 -0.33241686 0.05448867
-0.10481773 -0.33252525 0.054484691
-0.10497461 -0.33263037 0.054447297
-0.10514766 -0.33274078 0.054440998
-0.10529344 -0.33284289 0.05437826
-0.10548116 -0.33295694 0.054407682
-0.10562518 -0.33306357 0.054309189
-0.10580029 -0.33316654 0.054358255
-0.10599437 -0.3332817 0.054406114
-0.10614829 -0.33339131 0.05432836
-0.10633609 -0.33350888 0.054335862
-0.10650589 -0.33362237 0.054297276
-0.10667967 -0.33373177 0.054300204
-0.10681743 -0.3338266 0.054251332
-0.10702498 -0.33395046 0.054297999
-0.10719603 -0.33406582 0.054252487
-0.10737289 -0.33417901 0.054243863
-0.10752489 -0.33427921 0.054218024
-0.10767614 -0.33437476 0.054218721
-0.10785396 -0.33448672 0.054221638
-0.10803884 -0.334609 0.054187618
-0.10818373 -0.33471274 0.054111041
-0.108373 -0.33481917 0.05419467
-0.10854238 -0.33493 0.054171085
-0.10872508 -0.33505511 0.054110542
-0.1088924 -0.33516118 0.05410888
-0.10904449 -0.33526617 0.054053042
-0.10918816 -0.33536676 0.053991459
-0.10937093 -0.33547857 0.05401513
-0.10956915 -0.33559617 0.054064129
-0.10972624 -0.33570069 0.054031353
-0.10989876 -0.33581388 0.054005444
-0.11008877 -0.33593613 0.053992178
-0.11025056 -0.3360489 0.053925928
-0.11043634 -0.3361617 0.053955358
-0.11060682 -0.33627325 0.053931769
-0.11077254 -0.33638102 0.053912804
-0.11091544 -0.3364802 0.053856995
-0.11110473 -0.33659396 0.053894483
-0.11129691 -0.33671558 0.053893898
-0.11146206 -0.33682775 0.053844944
-0.11164445 -0.33694044 0.053861685
-0.11180732 -0.3370508 0.053815052
-0.11194424 -0.33714893 0.053741954
-0.11210112 -0.33725387 0.053705715
-0.11234543 -0.33738199 0.053872243
-0.11250675 -0.33750069 0.053766772
-0.11267546 -0.33760819 0.053761639
-0.11285755 -0.33772269 0.053765699
-0.11300942 -0.33782682 0.05371448
-0.11319765 -0.33794409 0.05372544
-0.11334088 -0.33804786 0.053641953
-0.11354165 -0.33816651 0.053694401
-0.11372623 -0.33828187 0.053703062
-0.11387313 -0.33838922 0.05361148
-0.11406698 -0.33851081 0.053617813
-0.11421756 -0.33861485 0.053561978
-0.11442026 -0.33873436 0.053616732
-0.11461534 -0.3388578 0.05361614
-0.11476263 -0.33896396 0.053533785
-0.11493171 -0.33906949 0.053542502
-0.023630563 -0.27997789 0.062145181
-0.02383519 -0.28011376 0.062104147
-0.02403976 -0.28025216 0.06204696
-0.024242707 -0.28038624 0.062010542
-0.024439171 -0.28051439 0.061985686
-0.024624012 -0.28062499 0.062025487
-0.024828535 -0.28076407 0.061963685
-0.025032308 -0.28089997 0.061919183
-0.025221013 -0.28101847 0.061924353
-0.025418531 -0.28114638 0.061905272
-0.02560351 -0.28126016 0.061925441
-0.025792137 -0.28137642 0.061944462
-0.025996063 -0.28151587 0.06187804
-0.026189156 -0.28163841 0.061875127
-0.026387691 -0.281771 0.06183064
-0.026585653 -0.28190047 0.061803479
-0.02676462 -0.2820068 0.061846752
-0.02696817 -0.28214416 0.061791882
-0.027166683 -0.28227746 0.061742786
-0.027363464 -0.282406 0.061716765
-0.027557518 -0.28253356 0.061686158
-0.027748 -0.28265372 0.061687849
-0.027939435 -0.28277797 0.061667636
-0.028129809 -0.28289825 0.061668176
-0.028329197 -0.28303391 0.061607547
-0.028519873 -0.28315493 0.06160463
-0.028709047 -0.28327668 0.061591342
-0.028921407 -0.28342858 0.061479896
-0.029094104 -0.28355703 0.061358199
-0.029294804 -0.28366321 0.06148909
-0.0294737 -0.28377095 0.061523132
-0.02966946 -0.28390014 0.061489057
-0.029846068 -0.28400478 0.061533488
-0.030027661 -0.28411385 0.061569832
-0.030231334 -0.28425771 0.061474569
-0.030426681 -0.28438696 0.061438188
-0.030615564 -0.28450707 0.061434124
-0.030804068 -0.28462669 0.061431214
-0.030992933 -0.28474987 0.061407533
-0.031179782 -0.28486738 0.06141156
-0.031377334 -0.28500372 0.061339386
-0.031561021 -0.28511685 0.061358422
-0.031759523 -0.28525507 0.061278168
-0.031958338 -0.28539109 0.06121292
-0.032127578 -0.28548595 0.061289698
-0.032322604 -0.28561667 0.061242923
-0.032500494 -0.2857247 0.061271202
-0.032680865 -0.28583354 0.061304092
-0.032884516 -0.28597793 0.061205365
-0.033077609 -0.2861065 0.061164372
-0.033253554 -0.286212 0.061200734
-0.033404879 -0.28630722 0.061203711
-0.033642113 -0.28647688 0.061079495
-0.033820048 -0.28658271 0.06112162
-0.03400854 -0.28670511 0.061101407
-0.034192566 -0.28682065 0.061106592
-0.034377154 -0.28694037 0.061087538
-0.034571458 -0.28707245 0.061029226
-0.034750871 -0.28718436 0.061039045
-0.034943756 -0.28731462 0.060986511
-0.035127956 -0.28743446 0.060965158
-0.03531326 -0.28755301 0.060956486
-0.035499148 -0.28767264 0.060943205
-0.035680838 -0.28778562 0.060955316
-0.035866909 -0.28790921 0.060917806
-0.036050856 -0.28802615 0.06091376
-0.036242753 -0.28815636 0.060857758
-0.036423139 -0.28826776 0.060874492
-0.036605954 -0.28838676 0.060853146
-0.036788233 -0.28850156 0.060856022
-0.036970895 -0.28862062 0.060833521
-0.037159458 -0.28874633 0.060792532
-0.037339918 -0.2888585 0.060804658
-0.037522662 -0.2889747 0.060800612
-0.037705489 -0.28909478 0.060772337
-0.037901133 -0.28923357 0.060677104
-0.038082667 -0.28934824 0.060677677
-0.03826195 -0.28945914 0.060693257
-0.038433768 -0.28956077 0.060737714
-0.03862939 -0.2897006 0.060635559
-0.0388228 -0.2898407 0.060523018
-0.038994957 -0.28995091 0.06051439
-0.039172519 -0.29004815 0.060609594
-0.039357036 -0.2901693 0.060581315
-0.039538704 -0.29028937 0.060548428
-0.039718237 -0.29040188 0.060554788
-0.039900109 -0.29051879 0.060542665
-0.040082134 -0.29063618 0.060528241
-0.040260583 -0.2907511 0.060514987
-0.040442467 -0.29086858 0.060499407
-0.040616371 -0.29097533 0.060519613
-0.040801041 -0.29109842 0.060479797
-0.040987082 -0.29122436 0.060427286
-0.041162066 -0.29132944 0.060462501
-0.041346602 -0.29145715 0.060392685
-0.041534536 -0.29158759 0.060319394
-0.041702479 -0.29168364 0.060383473
-0.041885175 -0.29179999 0.060378272
-0.042063974 -0.2919175 0.060350016
-0.042243421 -0.29203215 0.060342513
-0.042430282 -0.29216629 0.060241539
-0.04260635 -0.29227459 0.060260601
-0.042750813 -0.29237771 0.060186297
-0.042962432 -0.29249957 0.060261771
-0.043140136 -0.29261622 0.060234666
-0.043316007 -0.29272461 0.06025257
-0.04349754 -0.29284495 0.060217381
-0.043683223 -0.29297432 0.060141787
-0.043852456 -0.29307392 0.060188554
-0.044023994 -0.29317847 0.060213391
-0.044207312 -0.29329866 0.060186267
-0.044385936 -0.29341391 0.060171865
-0.044522066 -0.2934964 0.060194507
-0.044741087 -0.29364538 0.060128033
-0.044919394 -0.29376572 0.060080156
-0.045094635 -0.29387423 0.060094602
-0.045271263 -0.29398602 0.06009404
-0.045450311 -0.2941035 0.060066931
-0.045630239 -0.29422867 0.059994821
-0.045807213 -0.29434195 0.059986189
-0.045982592 -0.29445165 0.059993703
-0.046157688 -0.29456082 0.060003527
-0.046335913 -0.29468328 0.05994181
-0.046507481 -0.29479003 0.059952796
-0.046689235 -0.29491597 0.059882998
-0.046862192 -0.2950207 0.059912443
-0.047039349 -0.29513592 0.059892267
-0.047217138 -0.29525298 0.059862852
-0.047390632 -0.29536551 0.059844993
-0.047568496 -0.29548335 0.059810966
-0.047744814 -0.29559749 0.059794247
-0.04791845 -0.29570481 0.059809849
-0.048087597 -0.29580674 0.059841625
-0.048266824 -0.29592928 0.059783366
-0.048444316 -0.29605418 0.059703179
-0.048599944 -0.2961598 0.059657689
-0.048759311 -0.29624203 0.059774868
-0.04895781 -0.29637879 0.059703853
-0.049097039 -0.29646653 0.059705719
-0.049314298 -0.29660839 0.059677333
-0.049488015 -0.29672489 0.059635244
-0.049664702 -0.29683578 0.059640452
-0.049823258 -0.29691476 0.059774943
-0.050007556 -0.29704893 0.059663594
-0.050183497 -0.29717356 0.059578806
-0.050357535 -0.29728499 0.059570171
-0.050530776 -0.29739407 0.059573084
-0.050702535 -0.29750678 0.059547149
-0.050878547 -0.29762545 0.059500441
-0.051049341 -0.29772717 0.059540279
-0.051222935 -0.29784703 0.059476271
-0.051395707 -0.29795584 0.05947917
-0.051570196 -0.29807082 0.059449777
-0.051742867 -0.29817972 0.059451535
-0.051909618 -0.29828614 0.059445232
-0.052082866 -0.2983976 0.059433147
-0.052262791 -0.2985248 0.059348345
-0.052424602 -0.29862335 0.05937206
-0.0525738 -0.29871374 0.059396964
-0.052773952 -0.29884973 0.059337482
-0.052938767 -0.2989502 0.059361197
-0.053108871 -0.29906166 0.059336416
-0.053292364 -0.29918528 0.059288532
-0.053465556 -0.2992996 0.059257984
-0.053633459 -0.29940277 0.059277061
-0.053806543 -0.29951739 0.059244201
-0.053974207 -0.29961985 0.059266742
-0.054145299 -0.29972574 0.0592812
-0.054317452 -0.29983705 0.059265655
-0.054492369 -0.29996291 0.05916933
-0.054660846 -0.30007061 0.059161864
-0.054831944 -0.30017796 0.059167095
-0.054990318 -0.30029151 0.059082363
-0.055171203 -0.30039248 0.059167169
-0.055340931 -0.30050901 0.059108943
-0.055512182 -0.30061883 0.05909916
-0.055680133 -0.30072585 0.059094008
-0.055853244 -0.3008489 0.059008077
-0.056008056 -0.30094451 0.059022579
-0.0561851 -0.30105764 0.059015099
-0.05635548 -0.30116379 0.059024937
-0.05652922 -0.3012743 0.059020929
-0.056687713 -0.30137751 0.05900196
-0.056868304 -0.30149874 0.058957543
-0.057031736 -0.30159613 0.058995098
-0.057205498 -0.3017092 0.058974925
-0.057377331 -0.30183345 0.058876313
-0.057535727 -0.3019408 0.058830798
-0.057714816 -0.30205229 0.058841772
-0.057884902 -0.30216157 0.058830842
-0.05805162 -0.30226597 0.058837235
-0.058218431 -0.30237228 0.058832087
-0.058385484 -0.30248383 0.05879464
-0.058554828 -0.30258405 0.058837947
-0.058715552 -0.30269179 0.058799356
-0.058891531 -0.30280808 0.058767639
-0.059051566 -0.30290097 0.058820207
-0.059211992 -0.30300739 0.058788545
-0.059390742 -0.30312252 0.058775283
-0.059560254 -0.30324003 0.058710132
-0.059708014 -0.30333334 0.05871081
-0.059877291 -0.30343792 0.058726434
-0.060061865 -0.30355927 0.058696996
-0.060227901 -0.30366671 0.058681469
-0.060390662 -0.30377737 0.058632486
-0.060562644 -0.30388948 0.058611173
-0.060728278 -0.30400014 0.05857373
-0.060879342 -0.3040826 0.058656324
-0.06106022 -0.30420327 0.058616519
-0.061228085 -0.30432537 0.058515597
-0.061393894 -0.30442756 0.058532372
-0.061547153 -0.30452564 0.05852497
-0.061724711 -0.30464131 0.058503635
-0.061867874 -0.30474192 0.058439717
-0.062048934 -0.30485305 0.058461063
-0.062214784 -0.3049536 0.058488227
-0.062379546 -0.30506355 0.058451936
-0.062556945 -0.30517724 0.058442134
-0.062697738 -0.30526635 0.058441691
-0.062880531 -0.30538824 0.058401883
-0.063052177 -0.30549431 0.058417488
-0.063202292 -0.30558765 0.058427393
-0.063374609 -0.30568975 0.058470689
-0.063514851 -0.30580059 0.058330629
