# .PCD v0.7 - Point Cloud Data file format
VERSION 0.7
FIELDS x y z
SIZE 4 4 4
TYPE F F F
COUNT 1 1 1
WIDTH 695
HEIGHT 1
VIEWPOINT 0 0 0 1 0 0 0
POINTS 695
DATA ascii
-0.18816587 -0.33282539 0.060434353
-0.18835609 -0.33286101 0.060432423
-0.18859521 -0.33291227 0.060383014
-0.18880127 -0.33296213 0.060299128
-0.18899764 -0.33299315 0.060338698
-0.18916191 -0.33302394 0.060336873
-0.18938422 -0.33306521 0.060337119
-0.18957469 -0.33310199 0.060327124
-0.18980345 -0.33316356 0.06018893
-0.18996884 -0.3331815 0.060281686
-0.19014163 -0.33320591 0.060337503
-0.1903609 -0.33325839 0.060252409
-0.19058912 -0.33330491 0.060222641
-0.19075765 -0.33333299 0.060246184
-0.19096501 -0.33337736 0.060203813
-0.19119143 -0.3334215 0.060189046
-0.19138548 -0.33345464 0.060210183
-0.19158104 -0.33349046 0.060213998
-0.19176993 -0.33353743 0.060127877
-0.19195728 -0.33357632 0.060098276
-0.19215912 -0.3336122 0.060110144
-0.19235027 -0.33365244 0.06007592
-0.19255051 -0.33369774 0.060017429
-0.19275884 -0.33372781 0.060080022
-0.19294347 -0.33376238 0.060078114
-0.19314989 -0.33380771 0.060027674
-0.19333655 -0.3338401 0.060044222
-0.19351728 -0.33386728 0.060090773
-0.1937017 -0.33390179 0.060088865
-0.19393088 -0.33396107 0.059967987
-0.19411503 -0.33399555 0.05996608
-0.19430134 -0.33403474 0.059933029
-0.19450675 -0.33407271 0.059934497
-0.19470575 -0.33410391 0.059976362
-0.19490583 -0.33415982 0.059840601
-0.19510815 -0.33421409 0.059719823
-0.19531977 -0.33423665 0.059841231
-0.19551593 -0.33426926 0.05986926
-0.19572023 -0.33431354 0.05982345
-0.19589773 -0.33434948 0.059801959
-0.19606747 -0.33437443 0.059849717
-0.19626471 -0.33440992 0.059858136
-0.19646114 -0.33445212 0.059816971
-0.19668341 -0.33451933 0.059629217
-0.19686466 -0.33453941 0.059727665
-0.19705132 -0.33457422 0.059726913
-0.19727576 -0.33462131 0.059687927
-0.19746512 -0.33465454 0.059702158
-0.19767167 -0.33469906 0.059657484
-0.19782706 -0.3347317 0.059630331
-0.19804136 -0.33476958 0.059644453
-0.1981996 -0.33478984 0.059710704
-0.19837967 -0.33483756 0.059607312
-0.19857748 -0.33487731 0.05958575
-0.19878763 -0.33492506 0.059522618
-0.19898459 -0.33496258 0.059516042
-0.19918829 -0.33500007 0.059518673
-0.19939449 -0.33503404 0.059550133
-0.19956169 -0.33506188 0.059573673
-0.1997727 -0.33511585 0.059466705
-0.19997008 -0.33515644 0.059438214
-0.20018014 -0.33519292 0.059456967
-0.20034656 -0.33521757 0.059502423
-0.20054936 -0.33526874 0.059404716
-0.20073485 -0.33530298 0.059406266
-0.20096748 -0.33535016 0.059377633
-0.20113869 -0.33538222 0.059375793
-0.2012967 -0.33541805 0.059329007
-0.20149416 -0.33546343 0.059265919
-0.20173445 -0.33549568 0.059356064
-0.20188957 -0.33551297 0.059439629
-0.20208719 -0.3355611 0.059356928
-0.20227033 -0.33560655 0.059274297
-0.20248578 -0.33563191 0.05938068
-0.2026574 -0.33566979 0.059337314
-0.20283298 -0.33571348 0.059257016
-0.20305178 -0.33577368 0.059115406
-0.20325759 -0.33580759 0.05914687
-0.20342386 -0.33582711 0.05922924
-0.20361611 -0.3358663 0.059204228
-0.20380455 -0.33590141 0.059203468
-0.20399702 -0.33594859 0.059120785
-0.20417792 -0.33597404 0.059180021
-0.20437358 -0.33601862 0.059120413
-0.20457251 -0.33605793 0.059103452
-0.2047572 -0.33609444 0.059087709
-0.20495246 -0.33613068 0.059088066
-0.20514421 -0.33616307 0.059111498
-0.20533575 -0.33620736 0.059048451
-0.20553793 -0.33624774 0.059028015
-0.20572218 -0.33628765 0.058986895
-0.20591709 -0.33632717 0.058963034
-0.20610517 -0.33635953 0.058981873
-0.20628855 -0.3364082 0.058876172
-0.20648175 -0.33642033 0.059048392
-0.20666927 -0.33646071 0.059008412
-0.2068599 -0.336505 0.058944203
-0.20706944 -0.33653989 0.058973335
-0.20725033 -0.33657268 0.058979515
-0.20743266 -0.33662257 0.058863439
-0.20762479 -0.33665168 0.058911104
-0.20782997 -0.33669201 0.058895268
-0.20800897 -0.33673602 0.05881726
-0.20819637 -0.33677238 0.058806114
-0.20838791 -0.3368057 0.058822643
-0.20857222 -0.33683878 0.058831114
-0.2087658 -0.33688077 0.058787655
-0.20895566 -0.33692235 0.058741905
-0.20916355 -0.33694822 0.058834475
-0.20938462 -0.33696604 0.05900313
-0.20959969 -0.33698019 0.059190258
-0.20980065 -0.33699349 0.059364744
-0.20999783 -0.33700874 0.059519656
-0.21019615 -0.33702138 0.059695318
-0.21039484 -0.3370344 0.059868671
-0.21059287 -0.33705124 0.060013194
-0.21077672 -0.33706644 0.060150847
-0.21099058 -0.33708355 0.060314916
-0.21119204 -0.33709359 0.060513634
-0.21139307 -0.33710656 0.060690433
-0.21159548 -0.33711693 0.060887989
-0.15404165 -0.32610515 0.063179664
-0.15424949 -0.32613736 0.063226074
-0.15450512 -0.32619679 0.063139617
-0.15473419 -0.32624206 0.063120186
-0.15497315 -0.32629171 0.063082255
-0.15520917 -0.32634142 0.063039713
-0.15542957 -0.32637995 0.063057229
-0.1556364 -0.32641199 0.063103646
-0.15586022 -0.32645276 0.063109607
-0.15610221 -0.32650664 0.063045129
-0.15634312 -0.32655823 0.06299565
-0.15656574 -0.32660037 0.062990084
-0.15678269 -0.32663906 0.063001849
-0.15701404 -0.32668507 0.062980101
-0.15724719 -0.3267341 0.062938727
-0.15747032 -0.32677695 0.06292855
-0.15767841 -0.3268086 0.062979564
-0.1579214 -0.32686424 0.062903553
-0.15813909 -0.32690212 0.062922232
-0.15836349 -0.32694617 0.062905118
-0.15860148 -0.32699722 0.062855661
-0.15883473 -0.32704723 0.062807366
-0.1590665 -0.32709458 0.062776379
-0.15927602 -0.32712951 0.062805481
-0.15951008 -0.32717854 0.06276527
-0.15974182 -0.32722813 0.062718131
-0.15996538 -0.3272706 0.06271141
-0.16016746 -0.32730094 0.062763616
-0.1604102 -0.32735622 0.0626899
-0.16063213 -0.32739982 0.062672801
-0.16087283 -0.32745409 0.062603712
-0.16108659 -0.32749251 0.062613182
-0.16128848 -0.32752886 0.062621564
-0.16143651 -0.32754469 0.062706284
-0.16171078 -0.32761618 0.062557459
-0.16196899 -0.32765955 0.062590957
-0.16218385 -0.32769912 0.062593505
-0.16239898 -0.327737 0.062608734
-0.16264758 -0.32779783 0.062502705
-0.16287485 -0.32784626 0.062457904
-0.16308044 -0.32787788 0.062505469
-0.16330472 -0.32792449 0.0624699
-0.16354814 -0.32798451 0.062362745
-0.16375579 -0.3280178 0.062401079
-0.16396648 -0.32805327 0.062427863
-0.1641953 -0.32810354 0.062371515
-0.16440967 -0.32814178 0.062383287
-0.16462971 -0.32818612 0.062358126
-0.16485649 -0.32823333 0.062321398
-0.1650712 -0.32827416 0.062314704
-0.16530108 -0.32832387 0.06226413
-0.16550463 -0.32835686 0.062299021
-0.16575186 -0.32841936 0.062179152
-0.16592018 -0.32842702 0.062350299
-0.16616386 -0.32848725 0.062241986
-0.16637862 -0.32852873 0.062230684
-0.16660088 -0.32858226 0.062142074
-0.16680424 -0.32860696 0.062236942
-0.16702209 -0.32864884 0.06222678
-0.16725528 -0.32870442 0.062138122
-0.16748315 -0.32875404 0.062085241
-0.16769326 -0.32879275 0.062087808
-0.16790347 -0.32882938 0.062105365
-0.16812171 -0.32887658 0.062057137
-0.16832796 -0.32893494 0.061912064
-0.16855164 -0.32895753 0.06204953
-0.16874976 -0.32898524 0.062115591
-0.1689934 -0.32905024 0.06197267
-0.16920647 -0.32908964 0.061974064
-0.16940475 -0.32911992 0.062021658
-0.16965164 -0.32918584 0.061876424
-0.16984588 -0.32921314 0.061940186
-0.17004019 -0.32924744 0.061953202
-0.17026466 -0.32928929 0.061952241
-0.17047669 -0.32934251 0.061852135
-0.17071024 -0.32938716 0.061843064
-0.1709207 -0.32942528 0.061850235
-0.1711228 -0.32945675 0.061894357
-0.17135423 -0.329512 0.06180571
-0.17157611 -0.3295621 0.061741315
-0.1717806 -0.32959577 0.061772738
-0.17198396 -0.32963097 0.061791483
-0.17219752 -0.32967222 0.061780188
-0.17241549 -0.32971972 0.061729647
-0.17263147 -0.32976571 0.061687209
-0.17283109 -0.32980561 0.061666746
-0.17306162 -0.32985163 0.061643843
-0.17326294 -0.32988566 0.061668355
-0.17348598 -0.32993567 0.061606273
-0.17368752 -0.32997006 0.061628476
-0.17390014 -0.33001143 0.061614886
-0.17410176 -0.330046 0.061635941
-0.1743241 -0.33009604 0.061572701
-0.17455044 -0.33015239 0.061469074
-0.17475146 -0.33018416 0.061509736
-0.17495184 -0.33021802 0.061534263
-0.17515257 -0.33024955 0.06157608
-0.17536798 -0.33029956 0.061503641
-0.17559378 -0.33035105 0.061434627
-0.17580591 -0.33039585 0.061395649
-0.17601699 -0.33043709 0.061380904
-0.17620507 -0.33046022 0.061466612
-0.17639259 -0.33049661 0.061455436
-0.17662677 -0.33054554 0.061416365
-0.17683616 -0.33059126 0.061367024
-0.17702772 -0.3306233 0.061392739
-0.17724049 -0.33066678 0.061364144
-0.17746332 -0.33071136 0.061341275
-0.17767443 -0.33075643 0.061298851
-0.17785171 -0.33078966 0.061296936
-0.1780493 -0.33083078 0.061264947
-0.1782959 -0.33087835 0.061252363
-0.17850694 -0.33092102 0.061227236
-0.17871763 -0.3309665 0.061181344
-0.17892292 -0.33100384 0.06118739
-0.17911729 -0.33103338 0.061235003
-0.17932104 -0.33107233 0.061227217
-0.17953241 -0.33111906 0.061173253
-0.17974401 -0.33116311 0.061138891
-0.17994004 -0.33119455 0.061174974
-0.18015648 -0.331247 0.061086375
-0.18037222 -0.33130217 0.060977027
-0.18055296 -0.33133078 0.061013177
-0.18077007 -0.33136538 0.061054926
-0.18098024 -0.33140886 0.061022885
-0.18117723 -0.33144176 0.061049722
-0.18138997 -0.33148825 0.060999207
-0.18159485 -0.3315298 0.060974117
-0.18179742 -0.33156899 0.060962871
-0.18199812 -0.33160624 0.060963161
-0.18218343 -0.33164364 0.060941614
-0.18238182 -0.33168542 0.060906157
-0.18257406 -0.33172047 0.0609111
-0.18280742 -0.33177048 0.060862817
-0.18299823 -0.33180764 0.060850456
-0.18322085 -0.33184582 0.060873732
-0.18338059 -0.3318724 0.060896121
-0.18354882 -0.33189803 0.060936928
-0.18384422 -0.33199242 0.060650751
-0.18403935 -0.3320097 0.060788341
-0.18423817 -0.33204597 0.060793258
-0.18444128 -0.33208749 0.060765855
-0.18464878 -0.33213827 0.060677305
-0.18485597 -0.33217752 0.060671806
-0.18504161 -0.33220577 0.060717158
-0.18523811 -0.33223969 0.060735926
-0.18544877 -0.33227962 0.060730409
-0.18564327 -0.33231905 0.060706511
-0.18582259 -0.33235931 0.060656145
-0.18599585 -0.33238795 0.060681935
-0.18621448 -0.33244687 0.060549494
-0.18643373 -0.3324782 0.060617775
-0.18663326 -0.33252922 0.060516566
-0.18686256 -0.33256561 0.060561724
-0.18706723 -0.33260712 0.06053663
-0.18725397 -0.33263731 0.060569286
-0.18745458 -0.33266914 0.060608797
-0.18766296 -0.33272055 0.060516782
-0.18786083 -0.33275315 0.060547076
-0.18806435 -0.33279824 0.060494304
-0.18824956 -0.33283564 0.060472749
-0.18846279 -0.33287683 0.060461458
-0.1886709 -0.33292469 0.060394816
-0.18887155 -0.33296657 0.060361665
-0.18906111 -0.33299202 0.060432371
-0.18926165 -0.33303881 0.060363449
-0.18943615 -0.33307546 0.060332719
-0.18966287 -0.33311376 0.060360588
-0.18984129 -0.33314177 0.060397889
-0.19003157 -0.33317837 0.060389005
-0.19026098 -0.3332313 0.060314193
-0.19045198 -0.3332642 0.060332999
-0.19062388 -0.33329752 0.060323037
-0.19083996 -0.33335069 0.060228672
-0.19102037 -0.33338243 0.060241748
-0.19122797 -0.33342192 0.060235098
-0.19144802 -0.33347186 0.060169555
-0.19163284 -0.33351156 0.0601307
-0.19183855 -0.33354259 0.060182884
-0.19204922 -0.33358824 0.060135838
-0.192246 -0.33362666 0.060122315
-0.19240941 -0.33365172 0.060160831
-0.19260249 -0.33370173 0.060058497
-0.1928269 -0.33374977 0.060012549
-0.19303322 -0.33378217 0.060055509
-0.19322716 -0.33382231 0.060025841
-0.19340669 -0.3338666 0.059946634
-0.19357207 -0.33388281 0.060052052
-0.19377185 -0.33392194 0.060037356
-0.19397458 -0.33395371 0.060080327
-0.19418882 -0.33400971 0.059962906
-0.19438158 -0.33404151 0.059992075
-0.19456472 -0.3340739 0.060003981
-0.19475962 -0.33411038 0.060001992
-0.19495574 -0.33415729 0.059926175
-0.19514929 -0.33420643 0.059830766
-0.19534945 -0.33424836 0.059796456
-0.19554344 -0.33429167 0.059743721
-0.19574986 -0.33431712 0.059837427
-0.19596352 -0.33436012 0.059813447
-0.19615215 -0.3343991 0.059784953
-0.19635595 -0.33443439 0.059803687
-0.19657063 -0.33448094 0.059755482
-0.19674301 -0.33451292 0.059755899
-0.1969402 -0.33455813 0.059693921
-0.19712225 -0.33458936 0.059712745
-0.19731458 -0.33462122 0.059740767
-0.19748998 -0.33464262 0.059821919
-0.19770251 -0.33469465 0.059731036
-0.19790731 -0.33474445 0.059645958
-0.19811177 -0.33478305 0.059641622
-0.19831313 -0.33481151 0.059706509
-0.19847876 -0.33485639 0.059604291
-0.19868909 -0.33490437 0.059539951
-0.19888918 -0.3349283 0.059635989
-0.19907147 -0.3349739 0.059551004
-0.19926365 -0.33500606 0.05957672
-0.199451 -0.3350324 0.05963821
-0.1996538 -0.33507976 0.059568129
-0.19985133 -0.33512008 0.059541907
-0.20004478 -0.3351579 0.059528399
-0.2002537 -0.33522007 0.059359081
-0.20044786 -0.33524641 0.05942978
-0.20063779 -0.33528531 0.059403591
-0.20083044 -0.33532092 0.059405066
-0.20102295 -0.33535585 0.059411176
-0.20121428 -0.33538404 0.059464574
-0.20142205 -0.33542755 0.059429079
-0.20161533 -0.33546773 0.05939826
-0.20181224 -0.33550966 0.059359353
-0.2020226 -0.33554935 0.059354991
-0.20223264 -0.33558694 0.05936563
-0.20239899 -0.33560839 0.059434127
-0.20256335 -0.33564255 0.059408054
-0.20275468 -0.33570206 0.059234206
-0.2029873 -0.33575943 0.059131704
-0.20319983 -0.33578905 0.059203476
-0.20336998 -0.33581248 0.059262723
-0.20353116 -0.33585876 0.059144381
-0.20374742 -0.33588827 0.059221894
-0.20392846 -0.33591437 0.059276491
-0.20416726 -0.33597243 0.059177421
-0.20433779 -0.33600056 0.059203226
-0.20449787 -0.33603659 0.059157547
-0.20471105 -0.33607253 0.05918432
-0.20490296 -0.33609828 0.059256177
-0.20509478 -0.3361482 0.0591527
-0.20528674 -0.33617714 0.059201472
-0.20547819 -0.33622715 0.059096847
-0.20569091 -0.3362743 0.059041724
-0.20586511 -0.33630025 0.059088271
-0.20605689 -0.33633426 0.05910014
-0.20624787 -0.33638051 0.059022039
-0.20644705 -0.33641079 0.059070788
-0.20663114 -0.33645004 0.05903424
-0.20682254 -0.33648732 0.059021886
-0.20700948 -0.33653221 0.05894842
-0.20720835 -0.33656609 0.058970641
-0.20739995 -0.33660054 0.058979053
-0.20759453 -0.33663982 0.058956303
-0.20778607 -0.3366746 0.058962405
-0.20798251 -0.33672473 0.058863513
-0.20817006 -0.33676082 0.05885464
-0.20836458 -0.33679867 0.058842275
-0.20855112 -0.3368398 0.05879534
-0.20874538 -0.33687842 0.058777206
-0.20893979 -0.33691594 0.058767144
-0.20913155 -0.33694848 0.058789399
-0.20932101 -0.33699161 0.058732063
-0.20950885 -0.33700961 0.058854695
-0.20970151 -0.33705443 0.058789268
-0.20989002 -0.33710024 0.058711186
-0.21008264 -0.33712995 0.058755349
-0.21027763 -0.33716485 0.058764897
-0.21048179 -0.3372069 0.058735184
-0.21073703 -0.33722806 0.058925584
-0.21093141 -0.33722994 0.059173904
-0.21111067 -0.3372457 0.059301183
-0.2113454 -0.33725461 0.0595528
-0.21154878 -0.33726883 0.059723802
-0.21174738 -0.33728707 0.059859063
-0.21195222 -0.33729979 0.060042754
-0.21215312 -0.33731419 0.060209159
-0.21235919 -0.33732635 0.060398608
-0.21256372 -0.3373341 0.060618058
-0.21277103 -0.33734599 0.060810965
-0.15400407 -0.32608327 0.063287698
-0.15423466 -0.32612738 0.063278623
-0.15446696 -0.32617435 0.063251078
-0.15469591 -0.32621765 0.063245468
-0.15491523 -0.32625696 0.06325604
-0.15516923 -0.32631576 0.063171893
-0.15540636 -0.32636443 0.063138552
-0.15652773 -0.32657334 0.063134819
-0.15679003 -0.32664022 0.063003331
-0.15700343 -0.32667491 0.06303931
-0.15721047 -0.32670748 0.063082233
-0.15744087 -0.32675299 0.063062772
-0.15766765 -0.32679811 0.063041031
-0.15790038 -0.32684532 0.063012332
-0.15812063 -0.32688653 0.063010216
-0.15835318 -0.32693389 0.062980369
-0.15858418 -0.3269822 0.06294129
-0.15881613 -0.32702944 0.062911443
-0.15904585 -0.32707718 0.06287469
-0.15927105 -0.32712027 0.06286563
-0.15947893 -0.3271541 0.062900476
-0.1597314 -0.32721519 0.062797874
-0.15995148 -0.32725716 0.062790006
-0.16016322 -0.32729188 0.062823668
-0.1603833 -0.32733402 0.062814638
-0.16062593 -0.32738927 0.062740915
-0.16084217 -0.32742912 0.062743433
-0.16105627 -0.32746568 0.062766723
-0.16127217 -0.32750547 0.062769234
-0.16150308 -0.32755345 0.062732473
-0.16173196 -0.32760218 0.06268765
-0.1619613 -0.32764938 0.062654346
-0.16217184 -0.32768592 0.062673032
-0.1623933 -0.327728 0.062666304
-0.16263759 -0.32778582 0.062576428
-0.16284804 -0.3278206 0.062607802
-0.16306931 -0.32786486 0.062584922
-0.16329178 -0.3279081 0.062571257
-0.16349429 -0.32794362 0.062586524
-0.16371103 -0.32798913 0.062548675
-0.16395062 -0.32803649 0.062528014
-0.16415741 -0.3280814 0.062480982
-0.1644133 -0.32813644 0.062426805
-0.16463929 -0.32818288 0.062394679
-0.16484042 -0.32821384 0.062441085
-0.16505814 -0.32825458 0.062438987
-0.16528802 -0.32830414 0.062389538
-0.16550919 -0.32834759 0.062372424
-0.16570616 -0.32838845 0.062341578
-0.1659354 -0.32842737 0.062368255
-0.16615276 -0.32846838 0.062363852
-0.1663904 -0.32852429 0.062278613
-0.16658798 -0.32855317 0.06233542
-0.16683224 -0.32861429 0.062221326
-0.16704309 -0.32865316 0.062223867
-0.16720778 -0.32867303 0.062301576
-0.16746241 -0.32873148 0.062220875
-0.16767406 -0.32876235 0.062282242
-0.16790205 -0.32881442 0.062212039
-0.16811912 -0.32885614 0.062201869
-0.1683529 -0.32891294 0.062105112
-0.16855623 -0.32894447 0.062150359
-0.16877456 -0.3289898 0.062115964
-0.16899136 -0.32903183 0.062103476
-0.16921736 -0.32908332 0.062034439
-0.16941808 -0.32911313 0.062088925
-0.16963032 -0.32915652 0.062060326
-0.16985744 -0.32920474 0.062016655
-0.17008094 -0.3292526 0.061970692
-0.17027366 -0.32927629 0.062058665
-0.17049737 -0.3293269 0.0619931
-0.17071916 -0.32937384 0.061951764
-0.1709291 -0.32941377 0.061945084
-0.17114426 -0.32945803 0.061914146
-0.17136613 -0.32950541 0.061869353
-0.17157301 -0.32954082 0.061891511
-0.17178303 -0.32958123 0.061881371
-0.17199673 -0.32962236 0.061871219
-0.17220417 -0.32966086 0.061871454
-0.17241171 -0.32970449 0.061834797
-0.17262055 -0.32973692 0.061881181
-0.1728368 -0.32978058 0.061856009
-0.1730403 -0.32981613 0.061872419
-0.1732668 -0.3298687 0.061796464
-0.173481 -0.32991356 0.061759777
-0.17368332 -0.32995096 0.061761193
-0.17390335 -0.32999596 0.061731398
-0.1741184 -0.33003941 0.061706245
-0.17432779 -0.33008066 0.061689179
-0.17455009 -0.3301307 0.061625928
-0.17476161 -0.33017412 0.061596166
-0.17495695 -0.33021927 0.061531879
-0.17519034 -0.33026376 0.061523944
-0.17539155 -0.33029571 0.061563432
-0.17559518 -0.33033255 0.061570611
-0.17579783 -0.33036858 0.061582416
-0.17599116 -0.33040717 0.061563119
-0.17619988 -0.33046821 0.061401889
-0.17643696 -0.33051127 0.06140893
-0.17664099 -0.33053786 0.06149108
-0.17684665 -0.33057716 0.06148326
-0.17705448 -0.33061576 0.061483502
-0.17726661 -0.33066136 0.061438758
-0.17747141 -0.3306973 0.061454013
-0.17769229 -0.33075154 0.061358467
-0.17788981 -0.33078071 0.061412968
-0.17809585 -0.33082104 0.061398223
-0.17830022 -0.33085692 0.061413482
-0.17852108 -0.33091193 0.061312169
-0.17869291 -0.33094302 0.061318345
-0.17893234 -0.33099276 0.061280388
-0.17914543 -0.33103773 0.061241396
-0.17935356 -0.331081 0.061208196
-0.17954817 -0.33111075 0.061254628
-0.17975536 -0.33115017 0.06124796
-0.17996719 -0.33119443 0.061212428
-0.18017206 -0.33123487 0.061195396
-0.18038425 -0.33127984 0.061155248
-0.18058451 -0.33131573 0.061164752
-0.18079004 -0.33135724 0.061140783
-0.1809932 -0.3313964 0.061130673
-0.18119907 -0.33143523 0.061126322
-0.1814018 -0.33147416 0.061117359
-0.18160316 -0.33150837 0.061140694
-0.18181328 -0.33155549 0.061082114
-0.18202443 -0.33160058 0.061039671
-0.18223217 -0.33164552 0.060993783
-0.18244168 -0.33168918 0.060959425
-0.18263519 -0.33171859 0.061007015
-0.18284208 -0.33176306 0.060963437
-0.1830474 -0.33180594 0.06092909
-0.18324409 -0.33183911 0.06095361
-0.18344268 -0.33187088 0.060990803
-0.18364584 -0.33191162 0.060969152
-0.18385094 -0.33195114 0.060959034
-0.18405961 -0.33199498 0.060922362
-0.18421923 -0.33201772 0.060972422
-0.18447985 -0.3320905 0.06079597
-0.18467581 -0.33212337 0.060821638
-0.18487881 -0.33216107 0.060821902
-0.18507001 -0.33218813 0.060883354
-0.1852866 -0.33224282 0.060778603
-0.18546921 -0.33227497 0.060791649
-0.18569072 -0.33232054 0.060759541
-0.18588792 -0.33235541 0.060772516
-0.18610221 -0.33241239 0.060648169
-0.18629777 -0.33245361 0.060612708
-0.18646887 -0.33249187 0.060565829
-0.18664652 -0.33250558 0.06070577
-0.18685983 -0.33255395 0.060642555
-0.18709201 -0.33259392 0.060665756
-0.18730803 -0.33264214 0.06060715
-0.18749119 -0.33267596 0.060608651
-0.18770705 -0.33272004 0.060580034
-0.18789832 -0.33274758 0.060638018
-0.18810028 -0.3327857 0.060633678
-0.18829578 -0.33283296 0.060554393
-0.18851474 -0.33288223 0.060492307
-0.18871279 -0.33292454 0.06045223
-0.18890013 -0.33297014 0.060374141
-0.18911453 -0.33299914 0.060452782
-0.1893066 -0.33302811 0.060501531
-0.18947189 -0.33305526 0.060527347
-0.18971336 -0.33311588 0.060413256
-0.18987802 -0.33314228 0.060443681
-0.19010106 -0.33318466 0.060436945
-0.19030856 -0.33322811 0.060401432
-0.1904797 -0.33326513 0.060363777
-0.1906556 -0.33329424 0.060389541
-0.19091454 -0.33335939 0.060266145
-0.19111274 -0.33339363 0.060284898
-0.1912979 -0.3334167 0.060367126
-0.19148497 -0.33345971 0.060307488
-0.19169061 -0.33350712 0.06024085
-0.19190943 -0.33355522 0.060186841
-0.19207087 -0.33359408 0.060122691
-0.19224949 -0.33359921 0.060326055
-0.19246727 -0.33365795 0.060193628
-0.19267476 -0.33369806 0.06018234
-0.19286984 -0.33372092 0.060279526
-0.19307794 -0.33376864 0.06021402
-0.19327627 -0.33381689 0.06013127
-0.19346766 -0.33385178 0.060136203
-0.19366185 -0.33389243 0.060103059
-0.19386896 -0.33391929 0.060187504
-0.19405364 -0.33395404 0.060184389
-0.19424702 -0.33399343 0.060159326
-0.19444312 -0.33403888 0.060093883
-0.19463231 -0.33407688 0.06007345
-0.19483621 -0.3341184 0.060047179
-0.19503923 -0.33417326 0.059922881
-0.19523054 -0.33420941 0.05991859
-0.19543268 -0.33424774 0.059913091
-0.19563282 -0.33428138 0.059938747
-0.19582179 -0.33432028 0.059911393
-0.19602188 -0.33435392 0.059937052
-0.19621989 -0.33439067 0.059937336
-0.19643243 -0.33443063 0.059934106
-0.19664551 -0.33449024 0.059789002
-0.19683653 -0.3345179 0.059845839
-0.1970266 -0.33455205 0.059854236
-0.19720607 -0.33459443 0.059788853
-0.1974044 -0.33462361 0.059844509
-0.19759287 -0.33466336 0.05981024
-0.19779728 -0.33472151 0.059664026
-0.19800453 -0.33475778 0.059680417
-0.19822136 -0.33479217 0.059723295
-0.19840518 -0.33481783 0.05978477
-0.19859716 -0.33485967 0.059740111
-0.19878438 -0.33489713 0.05972084
-0.19897437 -0.33494511 0.059628893
-0.19919267 -0.33498517 0.059632555
-0.19939284 -0.33502105 0.059642058
-0.19957764 -0.33505011 0.059680469
-0.1997492 -0.33508083 0.059688941
-0.19994864 -0.33514345 0.059503533
-0.20015854 -0.33517799 0.059536066
-0.20035844 -0.33521381 0.059545573
-0.20056209 -0.33525115 0.059549294
-0.2007689 -0.33528715 0.059566848
-0.20094141 -0.33532426 0.059530333
-0.20116779 -0.33537361 0.059477441
-0.2013614 -0.33541432 0.05944315
-0.20154597 -0.33544222 0.059489638
-0.2017125 -0.33546498 0.059548885
-0.20192526 -0.33551899 0.059444148
-0.20212485 -0.3355546 0.059454814
-0.20230465 -0.33559924 0.059373297
-0.20252582 -0.33564159 0.059364252
-0.20272548 -0.33567932 0.059359923
-0.20289892 -0.33569908 0.05945028
-0.20310703 -0.33575299 0.059339806
-0.20330341 -0.33579516 0.059298575
-0.2034993 -0.335832 0.059295408
-0.20369855 -0.33586645 0.059314158
-0.20388383 -0.33590356 0.059294887
-0.20408313 -0.33593911 0.059305552
-0.20427226 -0.33599061 0.059187081
-0.20444265 -0.33600646 0.059301682
-0.20465976 -0.33604789 0.05929381
-0.20484124 -0.33608142 0.059295319
-0.20502971 -0.33613086 0.059190691
-0.20524298 -0.33617347 0.059169002
-0.20543155 -0.33620149 0.059220079
-0.20561983 -0.33624089 0.05918812
-0.2058154 -0.33627561 0.059199952
-0.20601054 -0.33631834 0.059152961
-0.20623362 -0.33637139 0.059068941
-0.20641877 -0.3363989 0.059118886
-0.20659295 -0.33642963 0.059130806
-0.20678398 -0.33647338 0.059071153
-0.20698836 -0.33652627 0.058962997
-0.20718451 -0.33655345 0.059030198
-0.20736226 -0.33658403 0.05904787
-0.20755789 -0.33661717 0.059071239
-0.2077522 -0.33665976 0.059024252
-0.20794021 -0.33669513 0.05902113
-0.20812769 -0.33673343 0.058996089
-0.20832393 -0.33678433 0.058891423
-0.20852253 -0.33682072 0.058895171
-0.20872213 -0.33687082 0.058800872
-0.20889956 -0.33690232 0.058811635
-0.20909418 -0.33692238 0.05892843
-0.20929235 -0.33696091 0.058916032
-0.20948569 -0.33700413 0.058863286
-0.20968159 -0.33703634 0.058893569
-0.20987549 -0.33707663 0.058862738
-0.2100694 -0.3371166 0.058834203
-0.21025386 -0.33715004 0.058840323
-0.21043837 -0.33719638 0.05875301
-0.21062805 -0.3372497 0.05862185
-0.21082266 -0.33728582 0.058622163
-0.21101865 -0.33731759 0.058655903
-0.21121244 -0.33733353 0.058801532
-0.21140486 -0.33737689 0.058746487
-0.21159521 -0.33742574 0.058648773
-0.21180137 -0.33746147 0.058667481
-0.21205576 -0.33747977 0.058877438
-0.21226846 -0.33747998 0.059162538
-0.21244545 -0.33748561 0.05936015
-0.21267039 -0.33750638 0.059512571
-0.21288031 -0.33751833 0.059708871
-0.21308443 -0.33753619 0.059854463
-0.21328633 -0.33755124 0.060017362
-0.21348964 -0.33757275 0.060135271
-0.2136981 -0.33758393 0.06033504
-0.2139072 -0.33758679 0.060595945
-0.21411404 -0.3376039 0.060750745
