# .PCD v0.7 - Point Cloud Data file format
VERSION 0.7
FIELDS x y z
SIZE 4 4 4
TYPE F F F
COUNT 1 1 1
WIDTH 1278
HEIGHT 1
VIEWPOINT 0 0 0 1 0 0 0
POINTS 1278
DATA ascii
-0.034410793 -0.2912426 0.02931712
-0.034547679 -0.29132134 0.029365147
-0.034685772 -0.29140171 0.029407408
-0.034821164 -0.2914784 0.02946236
-0.03495384 -0.29155335 0.029517319
-0.035093501 -0.29163182 0.029578023
-0.035224162 -0.29170182 0.029656056
-0.035346959 -0.29176286 0.029759489
-0.035479192 -0.29183498 0.029830595
-0.03561008 -0.29190516 0.029908637
-0.035738397 -0.29196948 0.030013202
-0.03586413 -0.29203218 0.030117776
-0.035990451 -0.29209563 0.030220047
-0.036115296 -0.29215685 0.030330392
-0.036242109 -0.29222077 0.030431503
-0.036364984 -0.29227892 0.030553382
-0.036488257 -0.29233751 0.030674111
-0.0366171 -0.29240182 0.030780986
-0.036745578 -0.29246771 0.030876331
-0.036869481 -0.29252228 0.031024737
-0.036990762 -0.29255909 0.03127465
-0.037103154 -0.29259616 0.031487681
-0.037193839 -0.29262391 0.0316731
-0.033493906 -0.28556904 0.061400585
-0.033664048 -0.28566581 0.061466962
-0.033863824 -0.28580859 0.061361402
-0.034038153 -0.28591517 0.061382793
-0.034194697 -0.28600025 0.061468825
-0.034409963 -0.28616178 0.0613067
-0.034596782 -0.28628209 0.061291143
-0.034772791 -0.28638861 0.061319444
-0.034911361 -0.28647095 0.061351314
-0.0351112 -0.28661889 0.061213467
-0.035309456 -0.28675175 0.061164424
-0.035458684 -0.28684831 0.061148979
-0.035687216 -0.28699112 0.061157513
-0.035872117 -0.28710288 0.061188102
-0.0360559 -0.28722292 0.061162166
-0.036240749 -0.28734493 0.061128162
-0.036421806 -0.28746086 0.061117236
-0.036598612 -0.28756991 0.061132848
-0.036732249 -0.28762773 0.061299682
-0.036963899 -0.28780782 0.061085619
-0.037152365 -0.28793687 0.061021615
-0.037319981 -0.28803444 0.061073001
-0.037507001 -0.28816146 0.061015919
-0.037684422 -0.28827238 0.061022311
-0.037863601 -0.28838637 0.061016001
-0.038043968 -0.28850263 0.061000466
-0.038225185 -0.2886205 0.060978003
-0.03841034 -0.28874543 0.060926698
-0.038588889 -0.28885907 0.060920388
-0.038769089 -0.28897575 0.060901392
-0.038962133 -0.28911537 0.060788929
-0.039127413 -0.28920597 0.060874932
-0.039300203 -0.28930992 0.060906701
-0.03948234 -0.28943074 0.060869247
-0.039650701 -0.28954235 0.060835287
-0.039834656 -0.28966305 0.060805902
-0.039994299 -0.28976694 0.060785811
-0.040174171 -0.28988451 0.060759902
-0.04034657 -0.28999242 0.060765147
-0.040549729 -0.29011753 0.060784142
-0.040732399 -0.29024091 0.060732834
-0.040914021 -0.29035848 0.060713835
-0.041062266 -0.29045829 0.060674168
-0.041272856 -0.29059416 0.060655087
-0.041437272 -0.29068348 0.060745697
-0.041620743 -0.29080954 0.060680561
-0.041781649 -0.29092193 0.060612027
-0.041986033 -0.29105517 0.060584884
-0.042160727 -0.29116488 0.060587816
-0.042332359 -0.29126865 0.060616128
-0.042510234 -0.29138497 0.060590215
-0.042689271 -0.29150385 0.060552768
-0.042865239 -0.29161677 0.060540706
-0.043044049 -0.29173568 0.060502104
-0.043220505 -0.29185 0.060483113
-0.043396302 -0.29196316 0.060468741
-0.043574303 -0.29207644 0.060462438
-0.043749101 -0.29218787 0.060454994
-0.04392796 -0.29230812 0.060408317
-0.044098593 -0.29241106 0.060437787
-0.044270158 -0.29251605 0.060458034
-0.044451192 -0.2926417 0.060385972
-0.04460774 -0.29272917 0.060457014
-0.044799794 -0.2928645 0.060367621
-0.044977993 -0.29297975 0.060349785
-0.045152847 -0.29309285 0.060331956
-0.045329142 -0.29320946 0.060297973
-0.045501843 -0.29332343 0.060266312
-0.045661412 -0.29341811 0.060303893
-0.045850515 -0.29354352 0.060265258
-0.046010554 -0.29365042 0.060227863
-0.046200581 -0.29377311 0.06020999
-0.046378631 -0.29388991 0.060181774
-0.046548501 -0.29399291 0.060207788
-0.04672569 -0.29410806 0.06018649
-0.046898957 -0.29421964 0.060172126
-0.04706794 -0.29432082 0.06020622
-0.047250118 -0.29445505 0.060084563
-0.047420263 -0.29455951 0.060102504
-0.047590181 -0.29466349 0.060122758
-0.047768578 -0.29478323 0.060077231
-0.047943145 -0.29489967 0.060037494
-0.048109159 -0.29499382 0.060103886
-0.048286736 -0.29511875 0.060022615
-0.048457325 -0.29522532 0.060029019
-0.048631512 -0.29534188 0.059986975
-0.04879868 -0.29545289 0.059951872
-0.048960268 -0.29553494 0.060077094
-0.049149517 -0.295674 0.059953116
-0.049313717 -0.29578444 0.059909943
-0.049494691 -0.29589373 0.059940532
-0.049667299 -0.29600763 0.059908871
-0.049840774 -0.29612446 0.059862219
-0.05001124 -0.29623261 0.059858244
-0.05018162 -0.29634073 0.059854269
-0.050353244 -0.29645291 0.059829529
-0.050525926 -0.29656082 0.059835926
-0.050697617 -0.29667377 0.059806578
-0.050864682 -0.29677209 0.059851043
-0.051036928 -0.2968874 0.059809007
-0.051211618 -0.29700282 0.059776183
-0.05138322 -0.29711682 0.059739918
-0.051549666 -0.29724002 0.059625231
-0.051722381 -0.29734099 0.059675451
-0.051894493 -0.2974489 0.059679549
-0.052055232 -0.2975533 0.059660614
-0.052236184 -0.29766551 0.059672758
-0.052404851 -0.29777089 0.059679162
-0.052573696 -0.2978771 0.059680961
-0.052745871 -0.29799658 0.059612386
-0.052915607 -0.29810703 0.059591115
-0.053085551 -0.2982187 0.059562922
-0.053248927 -0.29831451 0.059608568
-0.053423382 -0.2984347 0.059544608
-0.053583086 -0.29853791 0.059529122
-0.053764664 -0.29865545 0.059510127
-0.053932272 -0.29875869 0.059525765
-0.054100715 -0.29886594 0.059519485
-0.054267723 -0.29896659 0.059548974
-0.054439127 -0.2990889 0.059459642
-0.054610319 -0.29919752 0.059455663
-0.054778617 -0.29930559 0.059443623
-0.054948077 -0.29942024 0.059394676
-0.055111781 -0.29951918 0.059421852
-0.055260286 -0.29962575 0.059340678
-0.05542811 -0.29973316 0.05933094
-0.055611912 -0.29983672 0.059408817
-0.055787623 -0.299959 0.059336774
-0.05596026 -0.30008081 0.059255518
-0.056086779 -0.3001579 0.059272438
-0.056284998 -0.30026343 0.059395246
-0.056442492 -0.30038044 0.059284046
-0.056629606 -0.30050883 0.059218898
-0.056784187 -0.30060622 0.059219588
-0.056965962 -0.30071619 0.059249025
-0.05712457 -0.30082437 0.059197798
-0.057300072 -0.30093023 0.059228405
-0.057442538 -0.30102381 0.05920491
-0.057606865 -0.3011345 0.059160583
-0.057801567 -0.30126089 0.059138082
-0.057958588 -0.30135688 0.059157208
-0.058116145 -0.30146021 0.059132524
-0.058291499 -0.30156612 0.059161969
-0.058470666 -0.30168581 0.05911991
-0.058633812 -0.30178699 0.059130955
-0.058784425 -0.30187619 0.059167411
-0.058936231 -0.30199271 0.05903662
-0.059121091 -0.30211765 0.05898416
-0.059302505 -0.30223346 0.05897554
-0.059453025 -0.30232516 0.05899585
-0.059625134 -0.3024362 0.058980327
-0.059803315 -0.30255088 0.058965951
-0.059972197 -0.30266169 0.058938909
-0.060137972 -0.30276266 0.058961485
-0.060291275 -0.30287042 0.05889181
-0.060460046 -0.30297294 0.058916681
-0.060613051 -0.3030816 0.0588401
-0.060765732 -0.30319428 0.058736987
-0.06093796 -0.30328432 0.058854111
-0.061112676 -0.30339262 0.058866262
-0.061269037 -0.30348855 0.058883093
-0.061445862 -0.30361319 0.058800675
-0.061611623 -0.30371067 0.058845147
-0.061765101 -0.30380169 0.058881596
-0.061922651 -0.30392057 0.058758862
-0.062109716 -0.30403262 0.058796361
-0.062262874 -0.30412653 0.058813203
-0.062417325 -0.30423832 0.058722772
-0.062591143 -0.30435097 0.058703788
-0.06275405 -0.30444503 0.058758654
-0.062938884 -0.3045736 0.058683135
-0.063118957 -0.30468747 0.05868144
-0.063282654 -0.30479866 0.058631346
-0.063442692 -0.30488998 0.058691986
-0.063588388 -0.30498689 0.058660414
-0.063742913 -0.30509084 0.058619577
-0.063924223 -0.30521482 0.058559053
-0.064071432 -0.30530226 0.058593214
-0.064235546 -0.30542508 0.058471613
-0.064415306 -0.30552155 0.058578331
-0.064561084 -0.30561575 0.058564045
-0.064732917 -0.30574784 0.05841475
-0.064910866 -0.30585286 0.058460347
-0.065068536 -0.30595475 0.05844488
-0.06524802 -0.30606788 0.058445483
-0.065411806 -0.30615991 0.058516502
-0.065564729 -0.3062658 0.058457218
-0.065735333 -0.30638447 0.058387499
-0.06589444 -0.3064805 0.058414701
-0.066047974 -0.30655947 0.058527261
-0.066197574 -0.3066746 0.058396481
-0.066369161 -0.30681095 0.0582195
-0.066547416 -0.30690444 0.05833891
-0.066717155 -0.3070125 0.058332633
-0.066865966 -0.30711651 0.058268748
-0.067054823 -0.30724323 0.058220889
-0.067217633 -0.30733922 0.058263071
-0.067375824 -0.30742791 0.05833295
-0.067526683 -0.30753523 0.058256369
-0.067698479 -0.30763763 0.058293916
-0.067852065 -0.30774686 0.058216173
-0.06801492 -0.30785203 0.058200691
-0.068185538 -0.30796579 0.058162116
-0.068355843 -0.30807146 0.058173131
-0.068507679 -0.30817464 0.058126539
-0.068686269 -0.30828753 0.058124851
-0.068858817 -0.30838859 0.058173925
-0.069006242 -0.30848423 0.058157325
-0.069163442 -0.30859187 0.0581038
-0.069334954 -0.30870271 0.058087133
-0.069483452 -0.30876604 0.058278143
-0.069632769 -0.30889511 0.058058549
-0.069793917 -0.30901662 0.057933502
-0.069965407 -0.30911258 0.058010262
-0.070130564 -0.3092196 0.057992462
-0.070318282 -0.30933753 0.057995357
-0.070492044 -0.30943733 0.058057111
-0.070638798 -0.30951989 0.058120098
-0.070777841 -0.30960143 0.058158897
-0.070925683 -0.3097347 0.057907011
-0.071083546 -0.30985191 0.057795811
-0.071256071 -0.30995369 0.057840273
-0.071426734 -0.3100583 0.057859369
-0.071593203 -0.31015661 0.057901539
-0.071746916 -0.31026042 0.0578584
-0.0719162 -0.31037295 0.057822131
-0.072087295 -0.31047711 0.057845842
-0.0722619 -0.31058845 0.057838395
-0.072436973 -0.31068778 0.057908215
-0.072583161 -0.31078354 0.057885863
-0.072732866 -0.31088609 0.057834662
-0.072891213 -0.31099465 0.057779975
-0.073062032 -0.3111102 0.057731021
-0.073223293 -0.31119367 0.057845868
-0.073389009 -0.311299 0.057840757
-0.073548943 -0.31141591 0.057739928
-0.073709153 -0.3115218 0.057709455
-0.073870748 -0.31162104 0.057726271
-0.074046806 -0.31174061 0.057672687
-0.074197136 -0.31183642 0.057666466
-0.074353836 -0.31193572 0.057663679
-0.07451845 -0.31204182 0.057649344
-0.074685648 -0.31215981 0.057570413
-0.074833423 -0.31226262 0.057509989
-0.07500533 -0.3123664 0.057539463
-0.075166605 -0.312466 0.057552811
-0.075343609 -0.31257463 0.057571884
-0.075502053 -0.31267682 0.057557561
-0.075656548 -0.31278241 0.057506349
-0.075805582 -0.31288803 0.05743324
-0.075998664 -0.31300974 0.057433806
-0.076158591 -0.3131105 0.057434481
-0.076331109 -0.31320986 0.057493933
-0.076469675 -0.31330192 0.057464682
-0.076654747 -0.31342149 0.057446823
-0.076807417 -0.31351531 0.057462506
-0.076958679 -0.31362268 0.057387084
-0.077108331 -0.31372285 0.057350881
-0.077275813 -0.31382635 0.05736421
-0.07743293 -0.31393728 0.057289917
-0.077620193 -0.31404704 0.05734241
-0.077783003 -0.31414598 0.05736614
-0.077935889 -0.31424376 0.057357606
-0.078088 -0.31434986 0.057293706
-0.078254342 -0.31445432 0.057296664
-0.078421593 -0.31455439 0.057330761
-0.078568272 -0.31466365 0.057225365
-0.078730866 -0.31475917 0.057269856
-0.078900442 -0.31487665 0.057203598
-0.079059146 -0.31498194 0.057170831
-0.079219319 -0.31508636 0.057149582
-0.079381451 -0.31518963 0.057143323
-0.079537868 -0.3152889 0.057139397
-0.079687394 -0.31540272 0.057016682
-0.079865307 -0.3155044 0.057083048
-0.080029622 -0.31560299 0.057114843
-0.080184184 -0.3157033 0.057097077
-0.080334581 -0.31580576 0.057049334
-0.08051043 -0.31591585 0.057054568
-0.080674335 -0.31602168 0.057039082
-0.080832429 -0.31612697 0.057003994
-0.08099746 -0.31623226 0.056996584
-0.081150226 -0.31632337 0.057029568
-0.081302077 -0.31642821 0.056972601
-0.081475399 -0.31653303 0.057000902
-0.081641249 -0.3166478 0.056936964
-0.081805773 -0.31674689 0.056966461
-0.08198116 -0.31687024 0.056886345
-0.082120389 -0.31696418 0.056847863
-0.082272276 -0.31705913 0.056853171
-0.082439862 -0.31716657 0.056842282
-0.082611732 -0.31726921 0.056878679
-0.082769074 -0.31737146 0.056859743
-0.082916029 -0.31747156 0.056813166
-0.083085306 -0.31757841 0.056812655
-0.083233371 -0.31768709 0.056716479
-0.083404541 -0.31778121 0.056803614
-0.083569042 -0.31788689 0.056791585
-0.083733931 -0.31799245 0.056781866
-0.083902627 -0.31809965 0.056776743
-0.08406508 -0.31820899 0.056733575
-0.084224515 -0.31831053 0.056727331
-0.084371537 -0.31841326 0.056664597
-0.084514976 -0.31851697 0.056581128
-0.084687412 -0.31862015 0.056616362
-0.084851742 -0.31872588 0.056603175
-0.085016027 -0.31882885 0.056607295
-0.085171469 -0.31892607 0.056612592
-0.085340731 -0.31903604 0.056592468
-0.085516833 -0.31913859 0.05664615
-0.085683562 -0.31925207 0.056593738
-0.085835926 -0.31935027 0.056580596
-0.08600089 -0.3194533 0.056587014
-0.086151674 -0.31956002 0.056513902
-0.086298272 -0.31966501 0.056435034
-0.086461574 -0.31976315 0.056465674
-0.086635612 -0.31987467 0.056454767
-0.086782306 -0.31997424 0.056410503
-0.086947106 -0.32007223 0.056448061
-0.087119162 -0.32017386 0.056491375
-0.08727552 -0.32028943 0.056384787
-0.087438837 -0.32039306 0.056380831
-0.087602615 -0.32049921 0.056363035
-0.087766699 -0.32060021 0.056378696
-0.087917455 -0.32070142 0.05634018
-0.088083297 -0.32080722 0.05633276
-0.088249974 -0.32091534 0.056313794
-0.088403612 -0.32101601 0.056290269
-0.088568315 -0.32111466 0.056323215
-0.088739455 -0.32122946 0.056280032
-0.08889322 -0.32133257 0.056241505
-0.089049138 -0.32143044 0.056244493
-0.089222796 -0.32153276 0.056290098
-0.089386754 -0.32164869 0.056211181
-0.08954376 -0.32174891 0.056203783
-0.089697979 -0.32185194 0.056167558
-0.089856006 -0.32194966 0.056179773
-0.09003903 -0.32206044 0.056209207
-0.090194806 -0.32216099 0.056194894
-0.09035904 -0.32226738 0.056177098
-0.090519264 -0.32237896 0.056110874
-0.090666629 -0.32247365 0.056100048
-0.090840176 -0.32258356 0.056097213
-0.090993926 -0.32269126 0.05602986
-0.09116444 -0.32279247 0.056069709
-0.091318727 -0.32289556 0.056033492
-0.091488212 -0.323006 0.056011062
-0.09164609 -0.32311317 0.055963296
-0.091797002 -0.32321212 0.055939779
-0.091964409 -0.32331175 0.055977337
-0.092125595 -0.32341641 0.055958387
-0.092295513 -0.32352257 0.055964801
-0.092461675 -0.32362694 0.055967756
-0.092609048 -0.32373276 0.055886574
-0.092765652 -0.32383785 0.055846892
-0.092939295 -0.32393959 0.055895962
-0.093119875 -0.32404956 0.055920783
-0.093286835 -0.32414982 0.055952571
-0.093438856 -0.32425532 0.055892147
-0.093600288 -0.32436654 0.055832829
-0.093763173 -0.32447138 0.055819657
-0.093917005 -0.32457253 0.055793811
-0.094074547 -0.32467765 0.055757582
-0.094239078 -0.3247804 0.055764005
-0.094411761 -0.32488704 0.055778477
-0.094556987 -0.32499063 0.055703074
-0.094717339 -0.32509568 0.055678368
-0.094892152 -0.32520238 0.055700906
-0.095060959 -0.32530728 0.055710781
-0.095181189 -0.32541138 0.055532798
-0.095369384 -0.32551187 0.055647559
-0.095548771 -0.32562473 0.055649325
-0.095704623 -0.32572606 0.055630405
-0.095875189 -0.32583317 0.055633347
-0.096048422 -0.32594031 0.055646669
-0.096199043 -0.32604769 0.055568941
-0.096355736 -0.32615301 0.055528097
-0.096533224 -0.32626027 0.055557545
-0.096700609 -0.32636374 0.055570886
-0.096850798 -0.32646716 0.055516224
-0.097026139 -0.32657272 0.05554799
-0.097208425 -0.32668227 0.055582032
-0.097358532 -0.32678765 0.055514682
-0.097522199 -0.32689133 0.055511884
-0.097703144 -0.327003 0.055527486
-0.09785001 -0.32711017 0.055435926
-0.097994849 -0.32720783 0.055396281
-0.098151438 -0.32731146 0.055365816
-0.098348223 -0.32742375 0.055440184
-0.098503783 -0.32752928 0.055393584
-0.098659977 -0.32763669 0.055337757
-0.098824739 -0.32773885 0.055348784
-0.099002056 -0.32784712 0.055371325
-0.099153638 -0.32795435 0.055298202
-0.099332355 -0.32806826 0.05529074
-0.09948834 -0.32817203 0.055256817
-0.0996494 -0.32827607 0.055241339
-0.099814579 -0.32838219 0.05522931
-0.099992074 -0.3284944 0.055227622
-0.10014893 -0.32859653 0.055207536
-0.10031521 -0.32870463 0.055187434
-0.10047466 -0.32880875 0.05516503
-0.10063663 -0.32890955 0.055173766
-0.10081002 -0.32902172 0.055155944
-0.10097642 -0.32913172 0.055124301
-0.10114133 -0.32923636 0.055120341
-0.10132168 -0.32934746 0.055137105
-0.10147572 -0.32945311 0.05508358
-0.1016551 -0.329566 0.055085346
-0.10181456 -0.32966867 0.055072173
-0.10197891 -0.32977352 0.055064764
-0.10214023 -0.32988158 0.055025056
-0.10231249 -0.3299872 0.055044144
-0.10247506 -0.33009201 0.055029809
-0.10264358 -0.33019912 0.055024691
-0.10279648 -0.3303048 0.054966561
-0.10296246 -0.33041343 0.05494184
-0.1031302 -0.33052224 0.054922882
-0.10328788 -0.33062509 0.054901645
-0.10345368 -0.33073378 0.054875761
-0.10364714 -0.33085039 0.054909784
-0.10379907 -0.33094776 0.054900102
-0.10396829 -0.33106026 0.054863833
-0.10413408 -0.33116418 0.054867949
-0.10428435 -0.33126968 0.0548006
-0.10446584 -0.3313804 0.054824267
-0.10463154 -0.33148608 0.054816842
-0.1048023 -0.33159405 0.054815177
-0.10496051 -0.33170217 0.054762799
-0.10510619 -0.33179909 0.05473122
-0.10524786 -0.33190352 0.054636214
-0.10544657 -0.33201358 0.054732494
-0.10562786 -0.33213112 0.05471234
-0.10576828 -0.33222747 0.054663476
-0.10597864 -0.33234578 0.054753963
-0.10613422 -0.33245847 0.054662369
-0.10627037 -0.33255741 0.05458007
-0.10645568 -0.33266157 0.05466025
-0.1066346 -0.33278221 0.054611266
-0.10678951 -0.33289006 0.054547369
-0.10696191 -0.33299577 0.054566454
-0.10711651 -0.33310363 0.054501399
-0.10729592 -0.33321357 0.054521613
-0.10745145 -0.33331543 0.054498073
-0.10765075 -0.33343774 0.054519389
-0.10780864 -0.3335385 0.05451199
-0.10797163 -0.33364928 0.054461911
-0.10815115 -0.33375657 0.054499425
-0.10833642 -0.333877 0.054476954
-0.10849338 -0.33398083 0.054446489
-0.10867184 -0.33408818 0.054479398
-0.10883811 -0.33420265 0.054418918
-0.10900092 -0.33431056 0.054386135
-0.10916933 -0.33441943 0.054369476
-0.10931018 -0.33451474 0.054328691
-0.1095036 -0.33463538 0.054337323
-0.10967993 -0.33474872 0.054324113
-0.10984103 -0.33485204 0.054313242
-0.11001075 -0.33496138 0.054298889
-0.11015636 -0.33506209 0.054243091
-0.11034764 -0.33518118 0.054252893
-0.11051644 -0.33528757 0.05425353
-0.11069305 -0.33540124 0.054239158
-0.11086608 -0.3355158 0.054205187
-0.11102422 -0.33561891 0.054183956
-0.11121029 -0.3357316 0.054213382
-0.11135828 -0.33583435 0.054154105
-0.11153017 -0.3359445 0.054143205
-0.11171354 -0.33606264 0.054127663
-0.11189526 -0.33617479 0.054143261
-0.1120597 -0.33628225 0.054119695
-0.11223074 -0.33639389 0.054096118
-0.11242506 -0.33651581 0.054100141
-0.11257397 -0.3366175 0.05405125
-0.11273289 -0.33671838 0.054047309
-0.11291941 -0.33683613 0.054046743
-0.11307362 -0.33693898 0.054011676
-0.11324829 -0.3370516 0.053996161
-0.11343576 -0.33717251 0.053979445
-0.11359626 -0.33727676 0.05396051
-0.11378987 -0.33740044 0.053950693
-0.11395995 -0.33750817 0.05394787
-0.11409176 -0.33760235 0.05387827
-0.11429185 -0.3377248 0.053901888
-0.11447001 -0.33783856 0.053893276
-0.11463621 -0.33794019 0.05391353
-0.11478975 -0.3380501 0.053831182
-0.11498798 -0.33816701 0.053882487
-0.032151472 -0.28976312 0.029659515
-0.032321267 -0.28988421 0.029571399
-0.032489382 -0.29000333 0.029489055
-0.032654256 -0.2901184 0.0294194
-0.032816716 -0.29023048 0.029358983
-0.032976549 -0.29033923 0.029308952
-0.033134308 -0.29044542 0.029266994
-0.033293378 -0.29055351 0.029218126
-0.033449117 -0.29065731 0.029183093
-0.033600744 -0.29075375 0.029178053
-0.033760075 -0.29086071 0.029137252
-0.033908881 -0.29095557 0.029131068
-0.034055799 -0.29104996 0.029120279
-0.03420382 -0.29114392 0.029116407
-0.034353662 -0.29123852 0.029115992
-0.03450606 -0.29134077 0.029077511
-0.034650944 -0.29142874 0.029099017
-0.034796443 -0.29151967 0.029104371
-0.034939114 -0.29160881 0.029109744
-0.03508462 -0.29169992 0.029113948
-0.035224754 -0.2917836 0.029143538
-0.035365883 -0.29186663 0.029181194
-0.035501424 -0.29194397 0.029232711
-0.035634506 -0.2920157 0.029309597
-0.035772424 -0.29209635 0.02934958
-0.035910916 -0.29217571 0.029399931
-0.036045205 -0.29224691 0.02948489
-0.036173478 -0.29231378 0.029573318
-0.036301617 -0.29238036 0.029662907
-0.03643392 -0.2924529 0.029731732
-0.036568087 -0.29252365 0.029818993
-0.036695816 -0.29258946 0.029912043
-0.036824394 -0.29265195 0.030029306
-0.036951043 -0.29271594 0.030129276
-0.037077442 -0.29277724 0.030245397
-0.037203923 -0.29284078 0.030347679
-0.037328262 -0.29289874 0.030476484
-0.037451372 -0.29295704 0.030598372
-0.037579086 -0.29301971 0.030711029
-0.037702754 -0.29307854 0.030831756
-0.037829734 -0.29313982 0.030950185
-0.037948709 -0.29318893 0.031113591
-0.038059022 -0.29322705 0.031311631
-0.03817137 -0.29326555 0.031515427
-0.038282055 -0.29330117 0.03173076
-0.03452218 -0.28622571 0.061349805
-0.034657329 -0.28629619 0.06144283
-0.034900721 -0.28649047 0.06118615
-0.035007369 -0.28652209 0.061410714
-0.035251196 -0.28669521 0.061288953
-0.035454389 -0.28683612 0.061208822
-0.035635181 -0.28694767 0.061224461
-0.035810884 -0.28705436 0.061250493
-0.035924502 -0.28710976 0.061352804
-0.036199644 -0.28732923 0.061063748
-0.036347065 -0.28739315 0.061246693
-0.03655703 -0.28754675 0.061113492
-0.036740929 -0.28766429 0.061103746
-0.03691908 -0.28777584 0.061109014
-0.037098173 -0.28789952 0.061041631
-0.037293579 -0.28802651 0.06101802
-0.037471492 -0.2881346 0.061044049
-0.037657954 -0.28826091 0.060989328
-0.037843917 -0.28838307 0.060958833
-0.038015943 -0.2884922 0.060954891
-0.038198367 -0.28860494 0.060969368
-0.038380206 -0.28872046 0.060964245
-0.038569242 -0.28885242 0.060884152
-0.03874144 -0.28895509 0.060921725
-0.038920272 -0.28906575 0.060935065
-0.039105609 -0.2891919 0.060876887
-0.039288916 -0.2893109 0.060855612
-0.03946691 -0.28942436 0.060848206
-0.039648958 -0.28954145 0.060833856
-0.039814323 -0.28965169 0.060796499
-0.039972104 -0.28975222 0.060790285
-0.040180437 -0.28987473 0.060846217
-0.04036814 -0.29000697 0.060759194
-0.040536232 -0.29011509 0.060746044
-0.040722318 -0.29022869 0.06076974
-0.040901132 -0.29034504 0.060747329
-0.041083757 -0.2904647 0.060719151
-0.041259661 -0.29057592 0.060717497
-0.041441128 -0.29069376 0.060696237
-0.041609883 -0.29079571 0.060724594
-0.041794509 -0.29092434 0.060647972
-0.041971274 -0.29103792 0.060634788
-0.042159166 -0.29116493 0.060581226
-0.04233291 -0.29127297 0.060591117
-0.042508215 -0.29137978 0.060614847
-0.042680368 -0.29148477 0.060637418
-0.042866696 -0.29161412 0.060563102
-0.043049388 -0.29174098 0.060489945
-0.04320918 -0.29183486 0.060533315
-0.04339277 -0.29195023 0.060536262
-0.04357405 -0.29207966 0.060441203
-0.043737751 -0.29218206 0.060446501
-0.043906979 -0.29228193 0.060489856
-0.044099912 -0.29240334 0.060491621
-0.044271588 -0.29252324 0.060418487
-0.044455156 -0.29263967 0.060414523
-0.04463663 -0.29276666 0.060335599
-0.044807307 -0.29286525 0.060392775
-0.044988945 -0.29298812 0.060340382
-0.045164764 -0.29310352 0.060312212
-0.045337625 -0.29321244 0.06031289
-0.045512855 -0.29333222 0.060254741
-0.045687601 -0.29343519 0.060300376
-0.045863852 -0.29355249 0.060261827
-0.046038743 -0.29366142 0.060270563
-0.046218287 -0.293787 0.060192801
-0.046387453 -0.2938883 0.060226925
-0.046560209 -0.29399824 0.06022067
-0.04671856 -0.29410204 0.06019602
-0.046906844 -0.2942273 0.060155135
-0.047071286 -0.29433495 0.060130455
-0.047264304 -0.29446083 0.060104545
-0.047435496 -0.29456192 0.060147882
-0.047608931 -0.29467487 0.060125489
-0.047775783 -0.29477727 0.060143478
-0.047896102 -0.29484624 0.060186964
-0.048102297 -0.29498243 0.060148329
-0.048304237 -0.29512712 0.060039368
-0.048479024 -0.29523855 0.060031958
-0.04864908 -0.29534388 0.060044169
-0.048823778 -0.29546222 0.059992947
-0.048995093 -0.29557145 0.059985548
-0.049170204 -0.29568473 0.059967756
-0.049342535 -0.29579735 0.059943069
-0.049515702 -0.29591268 0.059904527
-0.049684901 -0.29601675 0.05992135
-0.049861498 -0.29613554 0.059874728
-0.05003009 -0.29623812 0.059898473
-0.050202049 -0.29635105 0.059870318
-0.050370984 -0.29645494 0.059887141
-0.050545432 -0.29656836 0.059865907
-0.050722871 -0.29669976 0.059743173
-0.050887659 -0.29679096 0.059823431
-0.051056474 -0.29689515 0.059837949
-0.051228721 -0.2970024 0.059846692
-0.051404629 -0.29713103 0.059735499
-0.051574152 -0.29723838 0.059732728
-0.05174201 -0.29734012 0.059758775
-0.05191721 -0.29745895 0.059706397
-0.052087575 -0.29757017 0.059682854
-0.052257642 -0.29768062 0.059662782
-0.052427303 -0.2977899 0.059648465
-0.052595895 -0.29789543 0.059653752
-0.052765664 -0.2980057 0.05963368
-0.052928902 -0.29811129 0.059617076
-0.053092115 -0.29821706 0.059599333
-0.053274199 -0.29833567 0.059575751
-0.053446304 -0.29844612 0.059563741
-0.053609692 -0.29855382 0.059534457
-0.053784229 -0.298664 0.059533965
-0.053952932 -0.29877234 0.059521966
-0.054117635 -0.29887483 0.059530735
-0.054289743 -0.29898712 0.059507184
-0.054451928 -0.29909113 0.059496351
-0.054630823 -0.2992112 0.059450887
-0.054799072 -0.29931924 0.059438884
-0.05496886 -0.29943594 0.059378445
-0.055136286 -0.29954052 0.059384897
-0.055299778 -0.2996386 0.059416726
-0.055474989 -0.29975668 0.059368961
-0.055642597 -0.29986322 0.059363879
-0.055791635 -0.29995859 0.059355386
-0.055967763 -0.30006665 0.059374504
-0.056145761 -0.30018759 0.059319809
-0.056313887 -0.30029976 0.059281278
-0.056443974 -0.30038261 0.059276301
-0.056645036 -0.30050933 0.059276894
-0.056819551 -0.30062956 0.059212983
-0.056986492 -0.3007355 0.059209056
-0.05712847 -0.30082402 0.059215583
-0.057308093 -0.3009418 0.059187409
-0.057489846 -0.30105284 0.059209958
-0.057657458 -0.30116835 0.059148371
-0.057817444 -0.30126494 0.059175603
-0.057972159 -0.30136865 0.059137113
-0.058150738 -0.3014788 0.059152763
-0.058305763 -0.30158985 0.059069298
-0.058466084 -0.30169415 0.059049256
-0.058659699 -0.30181086 0.059083305
-0.058822706 -0.30191138 0.059097841
-0.058986288 -0.30202636 0.059023574
-0.059158716 -0.30214179 0.05898159
-0.059324786 -0.30225065 0.058955748
-0.05948437 -0.30234352 0.059004895
-0.059656516 -0.30246022 0.058953669
-0.05982231 -0.30256251 0.058968201
-0.059981946 -0.30266654 0.058947001
-0.060138509 -0.3027575 0.058996148
-0.060282689 -0.30285436 0.058958843
-0.060475484 -0.30299768 0.05882223
-0.060632009 -0.30308732 0.05887945
-0.060815744 -0.30320716 0.058854714
-0.060960092 -0.30328965 0.058908522
-0.061098553 -0.30336478 0.05898539
-0.061293602 -0.30350751 0.058861464
-0.061458595 -0.30361676 0.058828712
-0.061599445 -0.30370456 0.058835231
-0.061791867 -0.30383042 0.058807023
-0.061957024 -0.30393466 0.058806561
-0.062130734 -0.30405074 0.058765717
-0.062280945 -0.30414099 0.058794126
-0.062448759 -0.30424964 0.05877636
-0.062609181 -0.30436444 0.058690578
-0.062774755 -0.30446312 0.058727011
-0.062936805 -0.30456355 0.058738101
-0.063092366 -0.30466285 0.058730736
-0.063244209 -0.30478618 0.058557339
-0.063432254 -0.30489057 0.058646761
-0.063596278 -0.30499834 0.05861979
-0.063759334 -0.30509192 0.058678135
-0.06390018 -0.30519566 0.05858434
-0.064086929 -0.30532581 0.058506556
-0.064240381 -0.3054159 0.058548793
-0.064395718 -0.30551374 0.058549508
-0.06456504 -0.30562666 0.058510989
-0.064755283 -0.30573907 0.058558889
-0.06491252 -0.30584326 0.058527313
-0.065084487 -0.30595857 0.058484167
-0.06525176 -0.30606416 0.058483697
-0.065407105 -0.30616114 0.058490187
-0.065574169 -0.30626732 0.058485106
-0.065714873 -0.3063651 0.058428206
-0.065875828 -0.30646706 0.058425456
-0.066033617 -0.30655566 0.058494195
-0.066185117 -0.30668756 0.058265448
-0.066372648 -0.30679697 0.058321431
-0.066555373 -0.3069101 0.05833476
-0.066721663 -0.30701727 0.058320455
-0.066874944 -0.3071087 0.058353469
-0.067024156 -0.30721131 0.058300003
-0.067204691 -0.30733004 0.058269523
-0.067359127 -0.30741856 0.058325596
-0.067508295 -0.30751106 0.058335558
-0.067670658 -0.30763644 0.058190957
-0.06783691 -0.30773351 0.058240078
-0.068007477 -0.30784756 0.058199245
-0.068163268 -0.30794224 0.058221869
-0.068328284 -0.30805099 0.058192581
-0.068478964 -0.30816495 0.058073383
-0.068658508 -0.30825925 0.058192819
-0.068806365 -0.30835402 0.058183175
-0.068987444 -0.30848572 0.058073118
-0.069147862 -0.30857912 0.058122255
-0.069300361 -0.30867246 0.058140278
-0.069462627 -0.30878532 0.058074091
-0.069632657 -0.30889848 0.058036719
-0.069794677 -0.30900389 0.058016665
-0.069952682 -0.30910891 0.05798278
-0.070129767 -0.30921668 0.05800765
-0.070294529 -0.30932415 0.057985283
-0.070464395 -0.30943009 0.057992887
-0.070612356 -0.30952385 0.057990164
-0.070765249 -0.30962971 0.057930924
-0.070944458 -0.30974081 0.057943113
-0.071102291 -0.30983898 0.05795189
-0.071250312 -0.30993882 0.05791112
-0.071417861 -0.31005409 0.057850689
-0.071582288 -0.31015512 0.057867527
-0.071723409 -0.31024584 0.057856757
-0.071896099 -0.31035376 0.057863191
-0.072081067 -0.3104749 0.057834994
-0.072233573 -0.31056824 0.057853017
-0.072403848 -0.31067353 0.05786638
-0.072549641 -0.31077525 0.05780486
-0.07269913 -0.31087786 0.05775255
-0.072861083 -0.31098741 0.057705972
-0.073038265 -0.31110072 0.057696257
-0.07319764 -0.31120223 0.057690039
-0.073346056 -0.31130543 0.057629663
-0.073513873 -0.3114132 0.057617664
-0.07369113 -0.31152105 0.057642534
-0.073849924 -0.311618 0.057662852
-0.074017271 -0.31172124 0.05767737
-0.074175507 -0.31182387 0.05765963
-0.074331909 -0.31192827 0.057623446
-0.074505895 -0.31203479 0.057643719
-0.074670315 -0.31214097 0.05762827
-0.07482069 -0.31223184 0.057653219
-0.074969731 -0.3123382 0.057575542
-0.075129151 -0.31244415 0.05754165
-0.075299621 -0.31256309 0.057469681
-0.075454921 -0.31265873 0.057484236
-0.075615078 -0.31275928 0.057487246
-0.075782299 -0.31286722 0.057471789
-0.075943343 -0.31296703 0.057482868
-0.076109059 -0.31307182 0.057481255
-0.076267906 -0.31318218 0.057417389
-0.076422215 -0.31328306 0.057395052
-0.076585032 -0.31339425 0.05734155
-0.076765612 -0.31350017 0.057391778
-0.076919273 -0.31359312 0.05741673
-0.077079713 -0.3136977 0.057395522
-0.077252552 -0.31380552 0.057403106
-0.077419266 -0.31390965 0.057409562
-0.077577628 -0.31401163 0.057396442
-0.07774312 -0.31411663 0.057392508
-0.07791011 -0.3142246 0.0573759
-0.078058258 -0.31432161 0.057353582
-0.078215159 -0.31442448 0.057328925
-0.078394011 -0.31453627 0.057335343
-0.07854858 -0.31463677 0.057316463
-0.078704759 -0.31474379 0.057262972
-0.078869201 -0.31484941 0.057250984
-0.079028696 -0.31495795 0.057200953
-0.079188704 -0.31505877 0.057201669
-0.079343379 -0.31516996 0.057115894
-0.0795056 -0.31527308 0.057110831
-0.079663269 -0.31536803 0.057139218
-0.079813018 -0.31546384 0.057130732
-0.079984054 -0.31557289 0.057123333
-0.080141611 -0.31567511 0.057105597
-0.080314912 -0.31577954 0.057136245
-0.080471806 -0.31588554 0.057091985
-0.080632038 -0.31598979 0.057071939
-0.080790386 -0.31609157 0.057059966
-0.080952086 -0.3161951 0.057050288
-0.081124052 -0.31630713 0.057027899
-0.081281394 -0.31640938 0.057009
-0.081442744 -0.31651634 0.056976262
-0.081597887 -0.3166163 0.056963149
-0.081755817 -0.31672147 0.056928113
-0.081914127 -0.31682324 0.056916144
-0.082064047 -0.31692538 0.056868441
-0.082235426 -0.31703117 0.056882948
-0.082398564 -0.31713727 0.056862894
-0.082557254 -0.317242 0.056833625
-0.082719304 -0.31734538 0.056826252
-0.082885981 -0.31745318 0.056809638
-0.083054006 -0.31755739 0.056820706
-0.083208248 -0.31765163 0.056839876
-0.083373785 -0.31776291 0.056796744
-0.083545767 -0.31787184 0.05679395
-0.083695561 -0.3179737 0.05674741
-0.083862431 -0.31807557 0.056768864
-0.084022962 -0.31817964 0.056751113
-0.084183849 -0.31828651 0.056717221
-0.084349498 -0.3183918 0.056712147
-0.084506489 -0.31849125 0.056709398
-0.084697098 -0.31858885 0.05685186
-0.084829152 -0.31869894 0.056683131
-0.08496625 -0.31880161 0.05658127
-0.085144639 -0.31891438 0.05657962
-0.085290641 -0.31901148 0.056548078
-0.085461751 -0.31910703 0.056626007
-0.085635081 -0.31921589 0.056628983
-0.085785806 -0.31931451 0.056606658
-0.08593592 -0.31942686 0.056495529
-0.086079679 -0.31952986 0.056417868
-0.086236179 -0.31962958 0.056411669
-0.086410768 -0.31973282 0.056454998
-0.0865786 -0.31983253 0.056493733
-0.086736381 -0.31994 0.056443706
-0.086896636 -0.32004681 0.056407511
-0.087061062 -0.32016051 0.056344792
-0.08723522 -0.32026419 0.056383505
-0.087410823 -0.32036772 0.05642914
-0.087570466 -0.32047471 0.056389488
-0.087727137 -0.32057214 0.05639828
-0.087885663 -0.32067934 0.056352861
-0.088053584 -0.32077968 0.05638814
-0.088215366 -0.32088876 0.056343861
-0.088380128 -0.32099476 0.056330722
-0.088534899 -0.3210952 0.056312993
-0.088688128 -0.32119101 0.056318335
-0.088848256 -0.32128567 0.056358244
-0.089009076 -0.32139251 0.056324348
-0.089137077 -0.32150224 0.056141794
-0.089276306 -0.3216075 0.056031857
-0.089477204 -0.32171509 0.056152377
-0.089657336 -0.32182366 0.056184161
-0.089825943 -0.32191983 0.056248274
-0.089995608 -0.32203719 0.056183212
-0.090141147 -0.32213435 0.056149371
-0.090304554 -0.3222408 0.056128159
-0.090467989 -0.32234031 0.056150768
-0.090629198 -0.32244939 0.056104183
-0.090789996 -0.3225562 0.056070298
-0.090957783 -0.32265991 0.056083664
-0.091110341 -0.32275859 0.056068253
-0.091282085 -0.32286423 0.056085069
-0.0914426 -0.32297564 0.056021195
-0.091586672 -0.32307297 0.055980429
-0.091750227 -0.32317734 0.055973053
-0.091929346 -0.32328689 0.05599447
-0.092086434 -0.32339191 0.055957124
-0.092242241 -0.32349485 0.055927861
-0.092402667 -0.3235974 0.055919345
-0.092556499 -0.32369614 0.055908527
-0.092736639 -0.32380161 0.055959918
-0.092892721 -0.32390893 0.055904135
-0.093056172 -0.32401356 0.055894449
-0.093205899 -0.32411483 0.055851366
-0.093367711 -0.32422173 0.055820927
-0.093542159 -0.3243258 0.055858497
-0.093698576 -0.32443517 0.055791177
-0.093862094 -0.32453784 0.055794179
-0.094025597 -0.32463846 0.05580987
-0.094180152 -0.32474372 0.055761002
-0.094346404 -0.32484847 0.055761687
-0.094510056 -0.32495543 0.055738173
-0.094666809 -0.32506061 0.055698529
-0.094817176 -0.32516596 0.055632375
-0.094967425 -0.3252652 0.055604283
-0.095155671 -0.32536954 0.055694856
-0.09530887 -0.32547283 0.055652909
-0.095497459 -0.32558548 0.055692747
-0.095663115 -0.32569259 0.055676144
-0.095820569 -0.32579988 0.055626109
-0.095969886 -0.32590127 0.055580728
-0.09614516 -0.32600641 0.055614837
-0.09630271 -0.3261117 0.055577487
-0.096450895 -0.32621312 0.055527493
-0.09662199 -0.32632038 0.055531621
-0.096786298 -0.32642576 0.055520784
-0.096942127 -0.32652724 0.055500749
-0.097131044 -0.32663676 0.055561334
-0.097281389 -0.32674211 0.055495191
-0.097439401 -0.32684752 0.055459004
-0.097618774 -0.32695526 0.055493098
-0.097784869 -0.32707036 0.055428047
-0.097943403 -0.32717207 0.055417225
-0.098107755 -0.32727396 0.055428304
-0.098263636 -0.32737383 0.05541864
-0.098423526 -0.32748502 0.055353623
-0.098593101 -0.32759094 0.055360064
-0.098746061 -0.32769263 0.055327345
-0.098919541 -0.32780066 0.055336088
-0.099073529 -0.32790244 0.05530683
-0.099244691 -0.32800865 0.055317879
-0.099405318 -0.32811445 0.055289753
-0.099563099 -0.32822192 0.05523973
-0.099747896 -0.328338 0.05524268
-0.099924155 -0.32844651 0.055259481
-0.10005365 -0.32854345 0.055163406
-0.10021556 -0.32864583 0.055161804
-0.1003765 -0.32874998 0.055145204
-0.10055215 -0.32885867 0.055158548
-0.10073399 -0.3289696 0.055182256
-0.10091155 -0.32906976 0.055256724
-0.10105732 -0.32918358 0.05511909
-0.10121369 -0.32928759 0.055085205
-0.10139698 -0.32939887 0.055112369
-0.10152882 -0.32949585 0.055025522
-0.10171449 -0.3296057 0.055071127
-0.10187432 -0.32971355 0.055026855
-0.10203816 -0.32981661 0.055028707
-0.10221265 -0.32992235 0.055055894
-0.10238028 -0.33003438 0.05501622
-0.10252634 -0.33013427 0.054967377
-0.10271539 -0.33024666 0.055010673
-0.10287434 -0.33035117 0.054983713
-0.10305554 -0.33046466 0.054988962
-0.10319965 -0.33056277 0.054943584
-0.1033644 -0.33067298 0.054903917
-0.10354474 -0.33077985 0.054947238
-0.10370018 -0.33088419 0.054907598
-0.10385597 -0.33099186 0.054848351
-0.10401177 -0.33109462 0.05482024
-0.10419656 -0.33120227 0.054876234
-0.10436237 -0.33131281 0.054838866
-0.10453211 -0.33142379 0.054814171
-0.1047097 -0.33153901 0.054794073
-0.10485585 -0.33163914 0.054744083
-0.10501748 -0.33174115 0.054743633
-0.10517915 -0.33184484 0.0547328
-0.10534225 -0.33195037 0.054716196
-0.10550508 -0.3320559 0.054698445
-0.10571624 -0.33217251 0.054802798
-0.10582972 -0.33227324 0.054619122
-0.10602097 -0.33237952 0.054709688
-0.10621563 -0.33249745 0.054740287
-0.10636888 -0.33260661 0.054661434
-0.10650428 -0.33270547 0.054576881
-0.10670456 -0.33281028 0.054712392
-0.10687798 -0.33293328 0.054626573
-0.107045 -0.33304292 0.054599591
-0.1072006 -0.33314627 0.054566856
-0.10736725 -0.33325127 0.054567553
-0.107529 -0.33335868 0.054533653
-0.1076798 -0.33346137 0.054485958
-0.10786731 -0.33357278 0.054529257
-0.10803325 -0.33368248 0.054497655
-0.10822395 -0.33380064 0.054510958
-0.10835691 -0.33390215 0.054399882
-0.10853747 -0.33400971 0.054439738
-0.10872272 -0.33412719 0.05443576
-0.10888301 -0.33423313 0.054405335
-0.10904203 -0.33433589 0.054389901
-0.10920849 -0.33444592 0.0543583
-0.10940909 -0.33457217 0.054360043
-0.10956195 -0.33467102 0.054344628
-0.10975403 -0.33479446 0.054330252
-0.10991597 -0.33489943 0.054312501
-0.11005741 -0.33499202 0.054291349
-0.11024091 -0.33510527 0.054306984
-0.11041044 -0.3352176 0.054273069
-0.11058898 -0.33532572 0.054301396
-0.11076029 -0.33544427 0.054235183
-0.11091348 -0.33554354 0.05421862
-0.11107686 -0.33565053 0.054193944
-0.11124671 -0.33576596 0.054141574
-0.11142304 -0.33587545 0.054152615
-0.11158334 -0.33597332 0.054172926
-0.11175723 -0.33608821 0.054140154
-0.11194189 -0.33620092 0.054163855
-0.11211064 -0.33631349 0.054125324
-0.11227593 -0.33642825 0.054059129
-0.1124407 -0.33652732 0.054089807
-0.1126037 -0.33663461 0.054061681
-0.11279939 -0.33675411 0.054086499
-0.11297688 -0.33687568 0.054026037
-0.11314131 -0.33698055 0.054018658
-0.11332113 -0.33709425 0.054017004
-0.11348298 -0.3371973 0.05401079
-0.11364159 -0.33730257 0.053978063
-0.11381841 -0.33741856 0.053949889
-0.11401062 -0.33754063 0.053944737
-0.11414234 -0.337632 0.053892478
-0.11433479 -0.33775422 0.053887326
-0.11449841 -0.33785659 0.053892639
-0.11467867 -0.33797219 0.053880602
-0.11484365 -0.33807909 0.053862847
-0.11501266 -0.33819234 0.053820856
-0.032946005 -0.29028341 0.029539194
-0.033116262 -0.29040405 0.029455703
-0.033279635 -0.29051962 0.029376855
-0.033445813 -0.29063332 0.029321054
-0.03360749 -0.29074505 0.029259508
-0.033772882 -0.29086009 0.029192183
-0.033925701 -0.29096222 0.02915602
-0.034083519 -0.29106733 0.029121002
-0.034235895 -0.29116717 0.029097538
-0.034392297 -0.29127064 0.029067136
-0.03454132 -0.29136819 0.029044833
-0.034695879 -0.2914674 0.029034045
-0.034844346 -0.29156238 0.029025581
-0.034996595 -0.2916607 0.029011337
-0.035145964 -0.29175717 0.028997105
-0.035295166 -0.29185352 0.02898287
-0.03544113 -0.29194549 0.028983643
-0.03558331 -0.2920343 0.028989028
-0.035725635 -0.2921192 0.029019788
-0.035869539 -0.29220635 0.029042477
-0.036013138 -0.29229316 0.029066315
-0.036151439 -0.29237458 0.029102858
-0.036291715 -0.29245672 0.029142845
-0.036428139 -0.29253551 0.029188622
-0.036565881 -0.29261401 0.029241305
-0.036700267 -0.29268768 0.029311296
-0.036832914 -0.29275876 0.029390521
-0.036968984 -0.29283255 0.029466275
-0.037098423 -0.29290107 0.029548971
-0.037230413 -0.29297101 0.029632818
-0.037357613 -0.2930361 0.029728197
-0.03748934 -0.29310092 0.029843181
-0.037615944 -0.29316491 0.029943172
-0.037746135 -0.29322949 0.030053543
-0.037868183 -0.29328877 0.030165095
-0.037996784 -0.2933507 0.030285848
-0.038117666 -0.29340556 0.030420452
-0.038246024 -0.29346681 0.030544665
-0.03836567 -0.29351944 0.030688513
-0.038487047 -0.29356968 0.030854262
-0.0385985 -0.29360688 0.031062707
-0.038705915 -0.29363748 0.03129654
-0.038819879 -0.29367536 0.031510748
-0.038934782 -0.29371181 0.031737629
-0.039039887 -0.2937426 0.031961091
-0.039160922 -0.29379794 0.032093398
-0.035492841 -0.28682548 0.06142839
-0.035708629 -0.28699338 0.061228309
-0.035890914 -0.28711063 0.061213993
-0.036058892 -0.28722471 0.061162803
-0.036260042 -0.28734636 0.061195716
-0.036444824 -0.28746483 0.061183695
-0.036586542 -0.28753248 0.061320558
-0.036726318 -0.28761393 0.061362855
-0.036980383 -0.28780362 0.061177664
-0.037125666 -0.28789458 0.061181888
-0.037372656 -0.28807336 0.061037078
-0.037557248 -0.28819263 0.061019294
-0.037735898 -0.28830191 0.061040729
-0.03792844 -0.28843516 0.060966417
-0.038104199 -0.28854334 0.060983252
-0.038289294 -0.28866422 0.06095738
-0.038472235 -0.28878152 0.060945369
-0.038651936 -0.28889328 0.060955271
-0.038809203 -0.28898796 0.060983691
-0.039023116 -0.28914186 0.060864341
-0.039203189 -0.28925478 0.060868472
-0.039354533 -0.28934684 0.060889989
-0.039561749 -0.28948203 0.060861759
-0.039743327 -0.28959811 0.060852058
-0.039925996 -0.28971633 0.060833126
-0.040110014 -0.28983724 0.060802653
-0.040268667 -0.28993535 0.060814917
-0.040464245 -0.29005808 0.060819015
-0.040649422 -0.29018173 0.060775854
-0.04083249 -0.29030168 0.06074769
-0.041019861 -0.29043001 0.060683768
-0.041196492 -0.29053822 0.06070406
-0.041375771 -0.29065576 0.0606759
-0.041531984 -0.29075438 0.060675494
-0.041737247 -0.2908887 0.060644969
-0.04191459 -0.29099879 0.06065603
-0.042092167 -0.29111382 0.060637113
-0.042273648 -0.29123238 0.060611255
-0.042455226 -0.29135141 0.0605831
-0.04263331 -0.29146361 0.060583778
-0.042814098 -0.29158598 0.060531408
-0.042994648 -0.29170361 0.06050786
-0.043177739 -0.29182667 0.060460091
-0.04335285 -0.29193354 0.060482696
-0.043507077 -0.2920298 0.060489208
-0.043707795 -0.29216215 0.060452923
-0.043872368 -0.29226622 0.060451336
-0.044042997 -0.29237849 0.060422063
-0.044240389 -0.29250455 0.060412303
-0.044415955 -0.29261318 0.06042568
-0.044598132 -0.29274133 0.060342163
-0.044784579 -0.29286927 0.060277089
-0.044949282 -0.29295951 0.060363151
-0.045109894 -0.29306108 0.060361572
-0.045300528 -0.29320446 0.060215756
-0.04544276 -0.29328582 0.060268428
-0.045660891 -0.29342404 0.060264394
-0.045836069 -0.29353315 0.060273163
-0.046012037 -0.29364422 0.060272694
-0.046153732 -0.29372433 0.060331136
-0.046365395 -0.29387587 0.060217559
-0.046544626 -0.29399541 0.060176723
-0.046721734 -0.29411012 0.060157795
-0.046896104 -0.29421836 0.060168866
-0.047070488 -0.29433262 0.060141876
-0.047246158 -0.29444444 0.060135655
-0.04741979 -0.29456335 0.060076378
-0.047601745 -0.29467949 0.060067825
-0.047771238 -0.29478228 0.060093898
-0.047946744 -0.29489452 0.060084209
-0.048124149 -0.295012 0.060049143
-0.048299599 -0.29512456 0.060037151
-0.048467964 -0.29522479 0.060074754
-0.048635647 -0.29533648 0.060037412
-0.048823554 -0.29546389 0.059981555
-0.048995923 -0.29556882 0.060005322
-0.049168259 -0.2956807 0.059985258
-0.049345337 -0.29579943 0.059940968
-0.0495224 -0.29591852 0.059894364
-0.049695797 -0.29602724 0.059898518
-0.049867682 -0.29613903 0.05987731
-0.050040849 -0.29624742 0.059882611
-0.050211538 -0.29635608 0.059876405
-0.05038809 -0.29647538 0.059826344
-0.050561994 -0.29658681 0.059815511
-0.05073601 -0.29669884 0.059801202
-0.050891817 -0.29678491 0.059878059
-0.051063601 -0.29688987 0.059899524
-0.051248908 -0.29702312 0.059796393
-0.051423732 -0.29713896 0.05976133
-0.051595706 -0.29725429 0.059718214
-0.051764615 -0.29735926 0.059728134
-0.051937774 -0.29746103 0.059774965
-0.052112117 -0.29757658 0.059739903
-0.05226852 -0.29768389 0.05968529
-0.052421853 -0.29778016 0.059688345
-0.052609041 -0.29792631 0.059511393
-0.052799113 -0.2980234 0.059655055
-0.052970789 -0.29814109 0.05959579
-0.053143553 -0.29825306 0.059576876
-0.053314008 -0.29836687 0.05953721
-0.053486235 -0.29847741 0.059525229
-0.053655244 -0.29858592 0.059513249
-0.053825296 -0.2986874 0.059549697
-0.053994827 -0.2987988 0.059521575
-0.054166678 -0.29890892 0.059510745
-0.054333217 -0.2990199 0.059473395
-0.054507855 -0.29913124 0.059466016
-0.054675952 -0.29923734 0.059465572
-0.054847758 -0.29934889 0.059445515
-0.055015936 -0.29945615 0.059438143
-0.055182267 -0.29956883 0.059389271
-0.055351641 -0.29968396 0.059336923
-0.055527683 -0.29979014 0.059367597
-0.055696048 -0.29990044 0.059341781
-0.055861887 -0.30001318 0.059290599
-0.056016926 -0.30011103 0.059290186
-0.056182157 -0.30020177 0.059375096
-0.05637395 -0.30034041 0.059263878
-0.056544982 -0.30045313 0.059233442
-0.056712538 -0.30056182 0.059214544
-0.056876656 -0.30066633 0.059208345
-0.05704616 -0.30076838 0.059239026
-0.057198763 -0.30087367 0.059182115
-0.05738413 -0.30098993 0.059186246
-0.057548136 -0.30109584 0.05917082
-0.057721205 -0.30120617 0.059163436
-0.057893343 -0.30130604 0.059218347
-0.058060467 -0.30141628 0.059187911
-0.058230981 -0.30153435 0.059121728
-0.058398046 -0.30164766 0.059071697
-0.058564469 -0.30175254 0.059072413
-0.058724675 -0.30185312 0.059075445
-0.05889418 -0.30196157 0.05906577
-0.059036165 -0.30205941 0.059013501
-0.059208546 -0.30216879 0.059009589
-0.059368495 -0.30226755 0.059023
-0.059534688 -0.30237609 0.058999494
-0.059719309 -0.30250326 0.058932111
-0.059888314 -0.30260774 0.058945507
-0.060063444 -0.30271918 0.058939278
-0.060232386 -0.30282509 0.058943443
-0.060410295 -0.30294856 0.058872622
-0.060566872 -0.30304444 0.058890663
-0.06072012 -0.30314648 0.058856819
-0.060898125 -0.30325592 0.058874801
-0.061063558 -0.30336401 0.058851298
-0.061238959 -0.30346227 0.058929257
-0.061370209 -0.30355537 0.058864318
-0.061549582 -0.30369002 0.058728918
-0.061727528 -0.30379683 0.058763046
-0.061907921 -0.30391327 0.058746424
-0.062051404 -0.30400768 0.058721825
-0.062234752 -0.3041254 0.058708653
-0.062409572 -0.30423081 0.058739327
-0.062577359 -0.30434036 0.05871582
-0.062729873 -0.30443957 0.05869697
-0.062884308 -0.30452386 0.05877959
-0.063072413 -0.30465358 0.058709897
-0.063222222 -0.3047474 0.058714122
-0.063391663 -0.30486554 0.058643322
-0.063530572 -0.30496329 0.058579523
-0.063711949 -0.30506915 0.058633246
-0.063897513 -0.30518976 0.058610849
-0.064047463 -0.30528167 0.058627747
-0.064187586 -0.3053712 0.05862046
-0.064363942 -0.30550176 0.058498897
-0.064547159 -0.30559963 0.058610283
-0.064693905 -0.30570543 0.058526851
-0.064861536 -0.30581087 0.058528721
-0.065022789 -0.30591357 0.058522522
-0.065175846 -0.30603418 0.058371037
-0.0653589 -0.30613416 0.058468588
-0.065512747 -0.3062371 0.058431283
-0.065698922 -0.30636472 0.058367353
-0.065871082 -0.30646586 0.058414184
-0.066021465 -0.30656737 0.058372274
-0.066188037 -0.3066749 0.058356836
-0.066338465 -0.30677551 0.05832069
-0.066527918 -0.30689126 0.058344405
-0.066708125 -0.30701232 0.058297794
-0.066852964 -0.3070966 0.058342397
-0.067003593 -0.3071959 0.058315471
-0.067171685 -0.30728862 0.058399208
-0.067316793 -0.30740201 0.058261588
-0.067488626 -0.30752364 0.058178108
-0.067667007 -0.30762872 0.058224913
-0.067838781 -0.30774063 0.05820255
-0.067998067 -0.30783659 0.058230955
-0.068172924 -0.30795008 0.058210887
-0.068330251 -0.30805048 0.058203556
-0.068489932 -0.30814576 0.058237728
-0.068640903 -0.30825114 0.058173902
