# .PCD v0.7 - Point Cloud Data file format
VERSION 0.7
FIELDS x y z
SIZE 4 4 4
TYPE F F F
COUNT 1 1 1
WIDTH 1206
HEIGHT 1
VIEWPOINT 0 0 0 1 0 0 0
POINTS 1206
DATA ascii
-0.068209484 -0.37324408 0.061836235
-0.068350419 -0.37332734 0.061806709
-0.068537146 -0.37344232 0.061737761
-0.068753906 -0.37356174 0.061748236
-0.068937168 -0.37367529 0.061675843
-0.069119036 -0.37377858 0.061664574
-0.06930121 -0.37389013 0.061601408
-0.069474325 -0.37397707 0.061664
-0.069655247 -0.37408575 0.06161467
-0.069829173 -0.37418246 0.061617289
-0.070006497 -0.37428913 0.061567992
-0.070189945 -0.37438312 0.061622456
-0.070372611 -0.37449044 0.061588116
-0.07055074 -0.37459254 0.061571099
-0.07073278 -0.37470686 0.061489485
-0.070914313 -0.37481195 0.061465532
-0.071068361 -0.37489861 0.061461322
-0.071242072 -0.37498787 0.061511222
-0.071442515 -0.37510228 0.061495252
-0.071625516 -0.37522233 0.061380185
-0.071794003 -0.37532189 0.061344761
-0.071954176 -0.37540269 0.061400495
-0.072147422 -0.37550303 0.061449148
-0.07233271 -0.37561417 0.061399803
-0.072496377 -0.3757275 0.061258301
-0.072688431 -0.37582415 0.061326563
-0.072844125 -0.37589848 0.061407693
-0.073014654 -0.37599742 0.061383791
-0.073166862 -0.37609059 0.061331149
-0.07336054 -0.37622717 0.061147984
-0.073567554 -0.37631625 0.061318822
-0.073715538 -0.37639308 0.061356157
-0.073923983 -0.37652323 0.061267495
-0.074105635 -0.37663645 0.061191641
-0.074279211 -0.37672669 0.061234623
-0.074447036 -0.37681657 0.061259177
-0.07462956 -0.37692204 0.061236382
-0.074808612 -0.37703934 0.06112479
-0.074965611 -0.37711906 0.06117592
-0.075160623 -0.37723097 0.061156522
-0.075336538 -0.37733436 0.061123367
-0.075512357 -0.37743786 0.061089061
-0.075687736 -0.37753949 0.061065145
-0.075862512 -0.3776381 0.061058521
-0.076034434 -0.37773764 0.061035775
-0.0761896 -0.37782475 0.061032712
-0.076391354 -0.37794688 0.060971759
-0.076564811 -0.37803832 0.061006665
-0.076735988 -0.37813473 0.061001215
-0.076900788 -0.37822866 0.060988881
-0.077079535 -0.37833899 0.060921125
-0.07725957 -0.37843591 0.06094446
-0.077440985 -0.37854558 0.060890526
-0.077602118 -0.37863657 0.060883973
-0.077775352 -0.37872717 0.060923498
-0.077962108 -0.37883177 0.060921438
-0.078136586 -0.37893718 0.060869843
-0.078313939 -0.37904191 0.060833219
-0.078480989 -0.37913334 0.060845088
-0.078648016 -0.3792246 0.060858116
-0.078805879 -0.37931949 0.060814675
-0.078979716 -0.37942404 0.060766544
-0.079166196 -0.37953472 0.060724117
-0.079342663 -0.37963268 0.060727876
-0.079505883 -0.37970874 0.060825109
-0.079660058 -0.37980032 0.060789753
-0.079830326 -0.37991521 0.060662068
-0.080009781 -0.38001215 0.060683101
-0.080166794 -0.38010103 0.06067542
-0.080336213 -0.38023567 0.060417406
-0.080512255 -0.38032353 0.060484596
-0.080697604 -0.38043308 0.060445637
-0.080883458 -0.38052338 0.060532376
-0.081049502 -0.38062215 0.060493506
-0.081263892 -0.38073736 0.060522452
-0.081436902 -0.38082656 0.060570046
-0.081599727 -0.38092083 0.060548492
-0.081750274 -0.38099983 0.060581204
-0.081912734 -0.38109747 0.060536593
-0.082129516 -0.3812235 0.060504396
-0.08229845 -0.38132101 0.060483962
-0.082473136 -0.38142711 0.060428903
-0.082645603 -0.38152173 0.060439598
-0.08281637 -0.38162994 0.060356881
-0.082977034 -0.38170922 0.060424142
-0.083141573 -0.38181087 0.060361065
-0.083335057 -0.38192549 0.060318608
-0.08350803 -0.38201541 0.060361587
-0.083673023 -0.38211197 0.060333099
-0.083821602 -0.38220185 0.060288552
-0.083994769 -0.38229096 0.060337298
-0.08419545 -0.38240245 0.060340941
-0.084371403 -0.382496 0.060371213
-0.084535882 -0.38259351 0.06033466
-0.084671311 -0.38267642 0.060287878
-0.084863737 -0.38280746 0.060135853
-0.085053973 -0.38291562 0.060123399
-0.085229076 -0.38299721 0.060227495
-0.085362315 -0.38307279 0.060219925
-0.08553008 -0.38318309 0.060112998
-0.085741028 -0.38330838 0.060064692
-0.085888818 -0.38337094 0.06019314
-0.086048536 -0.38348156 0.060055118
-0.08625979 -0.38359269 0.060099065
-0.086431295 -0.38368806 0.060101684
-0.086603276 -0.38378188 0.06011584
-0.086740255 -0.38387889 0.059983701
-0.086908557 -0.38398284 0.059919447
-0.087121628 -0.38406777 0.060138687
-0.087283291 -0.38416892 0.060068704
-0.087415524 -0.3842459 0.06004845
-0.08758983 -0.38436323 0.059919588
-0.087785617 -0.38447449 0.059907105
-0.087956287 -0.38458031 0.059839379
-0.088136375 -0.38467276 0.059891552
-0.088308915 -0.38476476 0.05991954
-0.088463753 -0.38485223 0.059913032
-0.088636443 -0.38495272 0.059886806
-0.088815935 -0.3850556 0.059869796
-0.088977821 -0.38514486 0.059877075
-0.089146324 -0.3852371 0.059888937
-0.08933039 -0.3853547 0.059793472
-0.089492962 -0.38545027 0.059762694
-0.089652985 -0.38553509 0.0597919
-0.089828663 -0.38563672 0.059769131
-0.089988664 -0.38573655 0.059701458
-0.090164378 -0.38584501 0.059634868
-0.090371937 -0.3859489 0.059712276
-0.090541877 -0.38604552 0.059701063
-0.090699643 -0.38613427 0.059696838
-0.090874523 -0.38622972 0.059710979
-0.091041379 -0.38633108 0.05965827
-0.091198638 -0.38642707 0.059605606
-0.091365434 -0.38652802 0.059555203
-0.091543838 -0.38661811 0.05961661
-0.091734983 -0.38673431 0.059555709
-0.091890365 -0.38680738 0.059643753
-0.092056252 -0.38691536 0.059544913
-0.092222631 -0.38701019 0.059532579
-0.092374638 -0.38710019 0.059499547
-0.092572145 -0.38720721 0.05952049
-0.09275011 -0.3873103 0.059496555
-0.092891037 -0.38739106 0.059483185
-0.093078643 -0.38748217 0.05957108
-0.093246512 -0.38757515 0.059576027
-0.093417287 -0.38768119 0.059507146
-0.093582928 -0.38777667 0.059487887
-0.093733363 -0.38787869 0.059371825
-0.093908012 -0.38798493 0.059315622
-0.094085664 -0.38808247 0.059326276
-0.094281174 -0.38819182 0.059325323
-0.094435766 -0.38827306 0.059358019
-0.094615556 -0.38836855 0.059389435
-0.094791457 -0.38846818 0.059380509
-0.094957888 -0.38856247 0.05937162
-0.095125929 -0.38865519 0.059378877
-0.095315568 -0.38877517 0.059287995
-0.095461309 -0.38886043 0.059263069
-0.095628098 -0.38895422 0.059258789
-0.09579695 -0.38904613 0.059274122
-0.095955998 -0.38913774 0.05925604
-0.096120648 -0.38922891 0.059261009
-0.096319422 -0.38934901 0.059202373
-0.096465468 -0.38944265 0.059124395
-0.096639857 -0.38952997 0.059189282
-0.096815072 -0.3896299 0.059175737
-0.096996322 -0.38973787 0.059132185
-0.097171344 -0.38983789 0.059117492
-0.097338416 -0.38992718 0.059143208
-0.097513139 -0.39002326 0.05915273
-0.097691402 -0.39013743 0.059058443
-0.09784621 -0.39022365 0.05906
-0.098025575 -0.39032447 0.059055664
-0.09818469 -0.39041969 0.059014518
-0.098348141 -0.39051181 0.05900912
-0.098526783 -0.39061314 0.058999017
-0.098706424 -0.39071769 0.058971614
-0.098863751 -0.39081389 0.058917794
-0.099034861 -0.39090472 0.0589481
-0.099193126 -0.39100021 0.058902349
-0.099372327 -0.39110112 0.058896866
-0.099515587 -0.3911984 0.058785453
-0.09970089 -0.39128429 0.058898721
-0.099869832 -0.39137679 0.058910593
-0.10004603 -0.39147961 0.05888205
-0.10017267 -0.39158979 0.058627713
-0.10035544 -0.3916741 0.058742151
-0.10054967 -0.39176998 0.058823083
-0.10072284 -0.39187792 0.058750734
-0.10088396 -0.39197481 0.058706135
-0.1010636 -0.39207202 0.058726013
-0.10124004 -0.39217103 0.058722846
-0.10139823 -0.39225912 0.058724381
-0.10157771 -0.3923634 0.058698133
-0.10171983 -0.39245629 0.058610946
-0.1018971 -0.39255488 0.058613539
-0.10206837 -0.39264652 0.058639236
-0.10224003 -0.39274466 0.058624558
-0.10240752 -0.39284477 0.05858222
-0.10257003 -0.39294064 0.058549136
-0.10275394 -0.39303952 0.058573619
-0.10292617 -0.39313421 0.058583152
-0.1031005 -0.3932249 0.05862613
-0.10326291 -0.39333344 0.05851116
-0.10342548 -0.39341986 0.058539197
-0.10359725 -0.39352107 0.058504924
-0.10376936 -0.39362216 0.058472943
-0.10394142 -0.39371407 0.058499787
-0.10411506 -0.39380541 0.05853584
-0.10428794 -0.39390925 0.058488861
-0.1044488 -0.39400867 0.058426961
-0.10461919 -0.39410144 0.058442272
-0.10479714 -0.39420328 0.058426414
-0.10495402 -0.39429814 0.05837952
-0.10512318 -0.39439148 0.058386769
-0.10529879 -0.39449415 0.058357075
-0.10547043 -0.3945953 0.058322802
-0.10564029 -0.39468849 0.058333501
-0.10579042 -0.39478549 0.058248576
-0.10596613 -0.39488804 0.058220044
-0.10614695 -0.39498055 0.058274519
-0.10632119 -0.39508083 0.058255222
-0.10648417 -0.39517912 0.058208298
-0.10663083 -0.39526865 0.058159143
-0.10681679 -0.39537084 0.058169771
-0.10699249 -0.395468 0.058175828
-0.10716233 -0.39555883 0.058201533
-0.10732097 -0.395661 0.058114257
-0.10750784 -0.39576045 0.058145639
-0.10767876 -0.39585119 0.058175948
-0.10784179 -0.39595202 0.058112875
-0.10801888 -0.39604905 0.058124699
-0.10818873 -0.39614546 0.058114648
-0.10836032 -0.39623371 0.058163397
-0.10852607 -0.39633891 0.058081858
-0.10868646 -0.39644024 0.058006112
-0.10886332 -0.39653501 0.058031783
-0.1090426 -0.39663434 0.058036674
-0.10920763 -0.3967295 0.058017418
-0.10937336 -0.39682448 0.058001615
-0.10952561 -0.39691749 0.057950124
-0.10970836 -0.39701375 0.057987295
-0.10988507 -0.39711633 0.057962216
-0.11005105 -0.39721379 0.057931423
-0.11022563 -0.39731196 0.057927109
-0.11039032 -0.39741209 0.057874411
-0.11054292 -0.39750493 0.057825226
-0.11072529 -0.39760405 0.057842791
-0.11088865 -0.39770201 0.057799328
-0.1110561 -0.39780155 0.057760451
-0.11124329 -0.3978976 0.057814889
-0.11143535 -0.39799532 0.057876233
-0.1115727 -0.39809307 0.057740632
-0.11175559 -0.39818782 0.057788186
-0.11193018 -0.39828399 0.057796557
-0.11209705 -0.39838374 0.057754226
-0.11226749 -0.39848065 0.057743013
-0.11242676 -0.39858153 0.057666123
-0.11259186 -0.39867923 0.057630718
-0.11275914 -0.39877883 0.057590693
-0.11292952 -0.39887357 0.057593316
-0.11310826 -0.39896724 0.057632815
-0.11328351 -0.39906809 0.057613499
-0.11346658 -0.39916581 0.057642601
-0.11363056 -0.39926374 0.057601433
-0.11380485 -0.39936262 0.057591364
-0.11396565 -0.39946097 0.057536371
-0.11415548 -0.39955816 0.057593107
-0.11430182 -0.39965591 0.05748976
-0.11447146 -0.39975113 0.057486616
-0.11465819 -0.39984676 0.05754222
-0.11483851 -0.3999474 0.057542495
-0.11499358 -0.40004629 0.057463314
-0.11516322 -0.40014166 0.057459034
-0.1153143 -0.40024081 0.057363722
-0.11548246 -0.40033844 0.057339843
-0.11566909 -0.40043455 0.057391983
-0.11585043 -0.40053737 0.057381868
-0.11601771 -0.40063107 0.057379898
-0.11617848 -0.40072939 0.057324916
-0.11635638 -0.40082851 0.057326358
-0.11653229 -0.40092579 0.057332415
-0.11669601 -0.40102592 0.05727626
-0.11685997 -0.401126 0.057221252
-0.11704414 -0.40122092 0.057272255
-0.11721863 -0.40131849 0.057271414
-0.11737298 -0.40141717 0.057191074
-0.11754432 -0.40151492 0.057177559
-0.11772873 -0.40161213 0.057214722
-0.11789816 -0.40171009 0.057193134
-0.11807799 -0.40181154 0.057186496
-0.1182524 -0.40190741 0.057196021
-0.11842773 -0.40200529 0.057196323
-0.1185829 -0.40210387 0.057119451
-0.11877 -0.40219954 0.057176195
-0.11893949 -0.40229771 0.05715346
-0.11909492 -0.40239623 0.057077736
-0.11926259 -0.40249446 0.05704809
-0.1194464 -0.40259618 0.05705411
-0.11961105 -0.40269449 0.057012949
-0.11979103 -0.40279263 0.057028215
-0.11996989 -0.40289083 0.057038881
-0.12013785 -0.40298924 0.05700922
-0.1202995 -0.40308768 0.056956533
-0.12048816 -0.40318599 0.057001747
-0.12064669 -0.40328449 0.056937546
-0.12083372 -0.40338296 0.056975849
-0.12100998 -0.40348151 0.056974985
-0.12117796 -0.4035801 0.056944188
-0.12134529 -0.40367869 0.056911081
-0.12149799 -0.4037807 0.056803077
-0.12169252 -0.40387604 0.056888625
-0.1218445 -0.40397626 0.056789853
-0.12202153 -0.40407506 0.056790143
-0.12219837 -0.40417212 0.05680082
-0.12236062 -0.40427074 0.056749281
-0.12254287 -0.40437156 0.056755319
-0.1227002 -0.4044683 0.056698032
-0.12286787 -0.40456706 0.056664925
-0.12305693 -0.40466651 0.056704365
-0.12320808 -0.40476483 0.056614824
-0.12337533 -0.40486193 0.056590948
-0.12355366 -0.40496287 0.056582008
-0.12375155 -0.40506297 0.056649085
-0.12391822 -0.40516189 0.056611374
-0.12407589 -0.40526041 0.056543708
-0.12427083 -0.40536064 0.056599267
-0.12445413 -0.40546045 0.05661568
-0.12460981 -0.40555897 0.056541108
-0.1247713 -0.40565607 0.056496501
-0.12498879 -0.40576118 0.056601539
-0.12513447 -0.4058575 0.056505103
-0.12530799 -0.40595704 0.056488115
-0.12549163 -0.40605721 0.056503367
-0.12566681 -0.40615696 0.05649098
-0.12583701 -0.40625641 0.05646247
-0.12601525 -0.40635642 0.056459289
-0.12619179 -0.40645638 0.05645036
-0.12635529 -0.40655711 0.056389593
-0.12653893 -0.40665603 0.056412913
-0.12669991 -0.406755 0.056354471
-0.12688345 -0.40685567 0.056366265
-0.12706307 -0.40695608 0.056365386
-0.1272234 -0.40705505 0.056304637
-0.12739792 -0.40715674 0.056277256
-0.12758684 -0.40725809 0.056304011
-0.12775481 -0.40735772 0.056266293
-0.12792844 -0.40745947 0.056235459
-0.12810686 -0.4075585 0.056239203
-0.12827617 -0.40765837 0.05620493
-0.12845971 -0.40775955 0.056213263
-0.12862495 -0.40785912 0.056166328
-0.12879831 -0.40795946 0.056143574
-0.12898052 -0.40806222 0.056136914
-0.12913439 -0.4081592 0.056065816
-0.12933785 -0.40826416 0.056121338
-0.12950493 -0.40836403 0.056079008
-0.12971434 -0.40846986 0.056150638
-0.12987947 -0.40857112 0.056092165
-0.13005432 -0.40867195 0.056071714
-0.13022967 -0.40877286 0.056052409
-0.13039987 -0.40887624 0.055998523
-0.13057582 -0.40897429 0.055999972
-0.13075738 -0.40907902 0.055978328
-0.13095032 -0.40918511 0.055988923
-0.13110377 -0.40928218 0.05591552
-0.13128155 -0.40938213 0.055911191
-0.13147113 -0.4094865 0.055920646
-0.13164452 -0.40958899 0.055884052
-0.13186714 -0.4096961 0.055994835
-0.13202393 -0.40979668 0.055911027
-0.13220334 -0.40989861 0.055899784
-0.13237733 -0.40999696 0.055892013
-0.13255197 -0.41009837 0.055866942
-0.13272046 -0.41019902 0.0558246
-0.13288818 -0.41030103 0.055770736
-0.13307486 -0.41040561 0.055768665
-0.1332524 -0.41050756 0.055750512
-0.1334381 -0.41061068 0.055754215
-0.1336078 -0.41071165 0.055714179
-0.13380402 -0.41081777 0.055736288
-0.1339611 -0.41091561 0.055670936
-0.13416278 -0.41102409 0.055697631
-0.13431519 -0.41112131 0.05561962
-0.13450214 -0.41122496 0.05562447
-0.13469627 -0.41132832 0.05565697
-0.13488221 -0.41143477 0.055639923
-0.13505191 -0.41153324 0.055616025
-0.13523632 -0.41163957 0.055594366
-0.13541822 -0.41174558 0.055565804
-0.13560933 -0.41184884 0.055587936
-0.13579938 -0.41195762 0.055570863
-0.13594609 -0.41205272 0.05548596
-0.13612559 -0.41215989 0.05544126
-0.13630077 -0.41226089 0.055420797
-0.13649032 -0.41236562 0.05542795
-0.13665645 -0.41246387 0.055392541
-0.047238145 -0.36476207 0.041045405
-0.047367372 -0.36480531 0.041231614
-0.047484897 -0.36483845 0.041440941
-0.047605392 -0.36487091 0.041665245
-0.053036019 -0.36457026 0.063132629
-0.053281069 -0.36474162 0.062910065
-0.05344744 -0.36481211 0.063054584
-0.053641915 -0.36492637 0.063017935
-0.05383905 -0.36504161 0.06298472
-0.054027371 -0.36514726 0.062981546
-0.054223523 -0.36526141 0.062951788
-0.054423921 -0.36538205 0.062895507
-0.054608062 -0.36547872 0.06293501
-0.054797865 -0.36558717 0.062919125
-0.054984711 -0.36568806 0.06294132
-0.055176292 -0.36579946 0.06291274
-0.055368707 -0.36590901 0.062899165
-0.055574127 -0.36603856 0.062803641
-0.055773661 -0.36615941 0.06274274
-0.055953018 -0.3662529 0.062785722
-0.05614233 -0.36635837 0.062787145
-0.056326095 -0.3664588 0.062801279
-0.056510527 -0.36655691 0.062832706
-0.056706343 -0.36667642 0.062767208
-0.05689127 -0.36677551 0.062794022
-0.057090934 -0.36689806 0.06272275
-0.057280108 -0.36700419 0.062719554
-0.057468969 -0.36711353 0.06269446
-0.057662275 -0.36722663 0.06266126
-0.057842001 -0.36732158 0.062696166
-0.058028135 -0.3674233 0.0627103
-0.058234781 -0.36756247 0.062557109
-0.058420524 -0.36766401 0.062571228
-0.05861124 -0.36777386 0.062549576
-0.058785476 -0.36785641 0.062644482
-0.058982342 -0.36798063 0.062552467
-0.059181157 -0.36810467 0.062468503
-0.059365876 -0.36820903 0.062460721
-0.059555743 -0.36831841 0.062439077
-0.059734166 -0.36841226 0.0624763
-0.059922539 -0.36851937 0.06246388
-0.060108036 -0.36862165 0.062472247
-0.060300499 -0.36873624 0.062426373
-0.060484447 -0.36884016 0.062418595
-0.06067533 -0.36895242 0.062381953
-0.060875628 -0.36908591 0.062242635
-0.061027922 -0.36915457 0.062348008
-0.061221704 -0.36925164 0.062419757
-0.061379768 -0.36932623 0.062507816
-0.061572943 -0.36945644 0.062363915
-0.061768994 -0.36957946 0.062276512
-0.061981142 -0.36970222 0.062248997
-0.062164754 -0.36980271 0.062261976
-0.06234964 -0.36991021 0.062234588
-0.062501706 -0.36999166 0.062256947
-0.062679514 -0.37010413 0.062171936
-0.062881574 -0.37021783 0.062166378
-0.063099004 -0.37034762 0.06211232
-0.063285366 -0.37045449 0.062094145
-0.063451111 -0.37054932 0.06207953
-0.06362018 -0.37064135 0.06209489
-0.063819081 -0.37074968 0.062112406
-0.063995108 -0.37086082 0.062029712
-0.064200193 -0.37097225 0.062049508
-0.064384088 -0.37107524 0.062047493
-0.064553469 -0.37116852 0.06205593
-0.064739525 -0.37127629 0.062030844
-0.064929664 -0.37138259 0.062029958
-0.065113142 -0.37148538 0.062027939
-0.065268993 -0.37156069 0.062103324
-0.065451466 -0.37169352 0.061904129
-0.065666392 -0.37180614 0.061951563
-0.065848574 -0.3719123 0.061923023
-0.066028677 -0.37200853 0.061951019
-0.066210821 -0.37211502 0.061920181
-0.066402815 -0.37223849 0.0618155
-0.066565275 -0.37234077 0.061740935
-0.066765375 -0.37245497 0.061725006
-0.066951379 -0.37256005 0.061717216
-0.067121521 -0.37264568 0.061777543
-0.067265853 -0.37272406 0.061791856
-0.06749323 -0.37286192 0.061721608
-0.067668073 -0.37295288 0.061764613
-0.067847922 -0.37304986 0.06178683
-0.068026736 -0.37315074 0.061780229
-0.068212137 -0.37325546 0.061772443
-0.068392277 -0.37336013 0.06174624
-0.068563223 -0.37345463 0.061752357
-0.068698473 -0.37353721 0.061706752
-0.068902276 -0.37365025 0.061711561
-0.069086321 -0.37375244 0.061715312
-0.069264725 -0.37386078 0.061659127
-0.069454089 -0.37397814 0.061584435
-0.069618762 -0.37407842 0.061530627
-0.069798484 -0.37418446 0.061494041
-0.069999233 -0.37429813 0.061483875
-0.070159853 -0.37438005 0.061533861
-0.070326559 -0.37447202 0.061541148
-0.070509359 -0.37458837 0.0614492
-0.07071092 -0.37471378 0.061366379
-0.070879683 -0.37478808 0.061494745
-0.071034767 -0.37486959 0.061527465
-0.071266651 -0.37500677 0.061477952
-0.071406603 -0.37507445 0.061545327
-0.071564212 -0.37516436 0.061533064
-0.071752682 -0.37528494 0.061434157
-0.071976475 -0.37540576 0.061460793
-0.072134674 -0.37546986 0.06161689
-0.072336361 -0.37561953 0.061378382
-0.072519019 -0.37574205 0.061246071
-0.072687134 -0.37583229 0.061269503
-0.072870359 -0.37592721 0.061317079
-0.073047101 -0.37602925 0.061295498
-0.073223837 -0.37613165 0.061271608
-0.073403388 -0.37624583 0.06118197
-0.073580466 -0.37633911 0.061218049
-0.073754556 -0.37643158 0.061248373
-0.073934533 -0.3765496 0.061135672
-0.074107081 -0.3766484 0.061119877
-0.074282892 -0.37673649 0.061184786
-0.074459888 -0.37684312 0.061134368
-0.074638814 -0.37694603 0.061115086
-0.074816473 -0.37705737 0.061036989
-0.074971721 -0.37714362 0.061039723
-0.075158566 -0.37724414 0.061064217
-0.075306147 -0.37732059 0.06110274
-0.07551834 -0.37746537 0.060933389
-0.075695038 -0.37755895 0.060966
-0.075856842 -0.37765104 0.060954865
-0.076003589 -0.37772289 0.061019912
-0.07617633 -0.37782878 0.060959134
-0.076373912 -0.37794372 0.060929384
-0.07656455 -0.37805244 0.060914658
-0.076723121 -0.37814504 0.060888544
-0.076905958 -0.378241 0.060928054
-0.077093393 -0.37834975 0.060901798
-0.077268369 -0.378456 0.060846791
-0.077429086 -0.3785437 0.060859881
-0.077603564 -0.37864751 0.060818702
-0.07779333 -0.37875324 0.060820118
-0.077967584 -0.37885714 0.060777791
-0.078134961 -0.3789534 0.060759708
-0.078273274 -0.3790327 0.060746379
-0.078454204 -0.37914854 0.060650975
-0.078655615 -0.37924898 0.060728446
-0.078832187 -0.37934804 0.060725309
-0.079011828 -0.37944722 0.060732551
-0.079182632 -0.37956133 0.060611822
-0.079332903 -0.37963444 0.060681462
-0.079519056 -0.37974676 0.060627539
-0.079685852 -0.37985003 0.06056219
-0.079862088 -0.37996039 0.060485251
-0.080015585 -0.38002902 0.060595237
-0.080188453 -0.38012514 0.060597889
-0.080370851 -0.3802298 0.06057974
-0.080543503 -0.38033262 0.060538575
-0.080719374 -0.38043147 0.060534291
-0.080882415 -0.38052318 0.06053007
-0.081032306 -0.38061556 0.060474023
-0.081198066 -0.38071612 0.060422502
-0.081379548 -0.38082707 0.060360536
-0.081581317 -0.38092807 0.060435705
-0.081750832 -0.38101783 0.060467198
-0.081920028 -0.38111207 0.060468715
-0.082113408 -0.38123524 0.060370948
-0.082295559 -0.38133278 0.060397774
-0.082454644 -0.38142511 0.060375117
-0.082639307 -0.38153034 0.060361564
-0.082813807 -0.38163453 0.06031809
-0.082960933 -0.38171178 0.060349688
-0.08312007 -0.38180181 0.060342021
-0.083303757 -0.38191205 0.060292736
-0.08347749 -0.38201848 0.060231954
-0.08366549 -0.38212162 0.060243763
-0.083821982 -0.38220519 0.060268402
-0.083982177 -0.38228795 0.060311474
-0.084153906 -0.38240278 0.060189582
-0.084351242 -0.38251168 0.06019789
-0.084525906 -0.38261002 0.060192455
-0.084693596 -0.38270754 0.060167469
-0.084856957 -0.38279226 0.060209364
-0.085047729 -0.38291323 0.060116224
-0.085219249 -0.38300878 0.060117722
-0.085393727 -0.38310689 0.060113445
-0.085564323 -0.38320565 0.060090743
-0.085740171 -0.38328534 0.060209848
-0.085883901 -0.38336232 0.06023109
-0.086026415 -0.38346848 0.060059752
-0.086215794 -0.38358995 0.05995854
-0.08639916 -0.38367063 0.060098365
-0.086548127 -0.38375428 0.06009537
-0.08675196 -0.3838985 0.059899531
-0.086923487 -0.38399261 0.059910256
-0.087079898 -0.38406536 0.060004093
-0.087266035 -0.38418233 0.059920184
-0.087448724 -0.38427749 0.059964307
-0.087620102 -0.38437223 0.059970424
-0.087788574 -0.38447413 0.059920058
-0.087940432 -0.38456869 0.059857078
-0.088110924 -0.3846651 0.059849352
-0.088267103 -0.38475814 0.059811719
-0.088466555 -0.38486913 0.059814248
-0.088638067 -0.38497165 0.059770785
-0.088797815 -0.3850565 0.059798867
-0.088941537 -0.38513309 0.05982241
-0.089127317 -0.38524717 0.059755813
-0.089282751 -0.38533264 0.059764318
-0.08949393 -0.38546002 0.059703358
-0.089664377 -0.38555565 0.059700254
-0.089819841 -0.38563347 0.059758339
-0.090001389 -0.38573909 0.059730969
-0.090154797 -0.38583541 0.059662223
-0.090300001 -0.38592395 0.059614249
-0.090497024 -0.38603124 0.059631787
-0.09068159 -0.38613817 0.059606709
-0.090844661 -0.38622487 0.059634775
-0.091006644 -0.38632011 0.059604034
-0.091162339 -0.38641164 0.05957447
-0.091346979 -0.38651809 0.059552852
-0.09151388 -0.38661212 0.059547465
-0.091672152 -0.38669327 0.059594009
-0.091855474 -0.38680148 0.05955625
-0.092010498 -0.38689354 0.05952093
-0.092190675 -0.38699964 0.059485488
-0.092354313 -0.38709185 0.059480108
-0.092526264 -0.38718495 0.059498917
-0.092715874 -0.38729614 0.059464589
-0.092896521 -0.387407 0.059400313
-0.093054906 -0.38749984 0.059371896
-0.093227953 -0.3875916 0.059403375
-0.093391463 -0.38768926 0.059362248
-0.093565598 -0.38779074 0.059334919
-0.093736514 -0.38789043 0.059307598
-0.093911275 -0.38798043 0.059356362
-0.094098799 -0.38808796 0.05933819
-0.094245516 -0.38817751 0.059289075
-0.094405957 -0.38827276 0.059252568
-0.09457317 -0.38836589 0.059254102
-0.094740719 -0.38846371 0.059226789
-0.094926491 -0.38856775 0.059224773
-0.095098838 -0.3886607 0.059245877
-0.095243745 -0.38876107 0.059120648
-0.095422514 -0.3888526 0.059174016
-0.095600709 -0.38894489 0.05922047
-0.095776945 -0.38905308 0.059157375
-0.095915586 -0.38914439 0.059067931
-0.096111774 -0.38924816 0.059105068
-0.096282639 -0.38934711 0.059082355
-0.096460164 -0.38944921 0.059063077
-0.096627302 -0.38954678 0.059035778
-0.09679009 -0.38964352 0.058998112
-0.096949413 -0.38974729 0.0589028
-0.097123578 -0.38984323 0.058911219
-0.097295672 -0.38992816 0.058983061
-0.097469091 -0.39002907 0.058956888
-0.097639874 -0.39012778 0.058935322
-0.097829707 -0.39022461 0.058994409
-0.097987086 -0.3903169 0.058965996
-0.098144986 -0.39040875 0.058942195
-0.098328643 -0.3905023 0.059000149
-0.098490633 -0.39061114 0.05888176
-0.098652311 -0.39070028 0.058889084
-0.098822817 -0.39080295 0.058841005
-0.098995283 -0.39090422 0.058809064
-0.099143833 -0.3909905 0.058787614
-0.099312171 -0.39109051 0.058748767
-0.099502712 -0.39118776 0.058807846
-0.099691473 -0.3912974 0.058780439
-0.099872351 -0.39140445 0.058741543
-0.10004543 -0.39149421 0.058785707
-0.10020592 -0.39158431 0.058782645
-0.10035367 -0.39167821 0.058709309
-0.10052058 -0.3917717 0.058707371
-0.10068101 -0.39186534 0.058681257
-0.10086235 -0.39197192 0.058646962
-0.10101865 -0.39206773 0.058592033
-0.10119415 -0.39216352 0.0586062
-0.10136376 -0.39225906 0.058600798
-0.1015369 -0.39234942 0.058641508
-0.1017032 -0.39245009 0.058591139
-0.10188227 -0.39255434 0.058563776
-0.1020662 -0.39265287 0.058590595
-0.10222492 -0.39274395 0.058574867
-0.1023929 -0.39283714 0.058578692
-0.10256183 -0.39293966 0.058526009
-0.10271959 -0.39304397 0.058421493
-0.10290381 -0.39313301 0.058510579
-0.10306206 -0.39323062 0.058451019
-0.10323778 -0.39332992 0.058443278
-0.10340449 -0.3934269 0.058418285
-0.10356762 -0.39351916 0.058410604
-0.10374226 -0.39361593 0.058415558
-0.10391807 -0.39371529 0.058407821
-0.10407659 -0.39381254 0.058351718
-0.10425015 -0.39391279 0.058330148
-0.10444753 -0.39401579 0.05837651
-0.10460773 -0.39410341 0.058388442
-0.10476353 -0.39420447 0.058297768
-0.10493743 -0.39430171 0.058296956
-0.10510811 -0.39440304 0.058258105
-0.10528973 -0.3944976 0.058302231
-0.10545903 -0.39459655 0.058273766
-0.10562159 -0.39469209 0.058243021
-0.10579251 -0.39478767 0.058242224
-0.10595056 -0.39488748 0.058167677
-0.10612096 -0.39498043 0.058181871
-0.10630677 -0.39507967 0.058210988
-0.10646324 -0.39517984 0.058128379
-0.10663317 -0.39527306 0.058139116
-0.10680264 -0.39537194 0.058111809
-0.10699061 -0.39547077 0.058151286
-0.10714599 -0.39556569 0.058098666
-0.10730658 -0.39566174 0.058057554
-0.10747798 -0.39576009 0.058040604
-0.10764899 -0.39586645 0.057970621
-0.10782471 -0.39595574 0.058027461
-0.10799388 -0.39605212 0.05801513
-0.10817085 -0.3961491 0.058026992
-0.10834034 -0.39624545 0.058015823
-0.10851124 -0.39634407 0.05799542
-0.10867362 -0.39644217 0.057947382
-0.10884725 -0.39654267 0.057924662
-0.10900119 -0.39664268 0.057833988
-0.10918321 -0.39673123 0.057918474
-0.10934295 -0.39683485 0.057825476
-0.1095279 -0.39693037 0.057875354
-0.10969873 -0.39703646 0.057806518
-0.10989331 -0.39712769 0.057918619
-0.11005893 -0.39722514 0.057886701
-0.11022018 -0.3973307 0.057786778
-0.11037166 -0.39742362 0.057733025
-0.11055496 -0.39752233 0.057756387
-0.11073609 -0.3976168 0.057799354
-0.11089158 -0.3977161 0.057719063
-0.11106462 -0.3978098 0.057737861
-0.1112415 -0.39791226 0.057713971
-0.11139339 -0.39801207 0.057617545
-0.11157152 -0.39810503 0.057659376
-0.11174212 -0.39819935 0.057665501
-0.11191422 -0.39829805 0.057648547
-0.11209123 -0.3984006 0.057624668
-0.11226867 -0.39850536 0.057588082
-0.11243556 -0.39859813 0.057590764
-0.1125977 -0.39869612 0.057542726
-0.11276584 -0.39879104 0.05753617
-0.11293171 -0.39888629 0.057519261
-0.11310429 -0.39899173 0.057460792
-0.11328509 -0.39908725 0.057495695
-0.1134567 -0.39918625 0.057475284
-0.11362926 -0.39929169 0.057416819
-0.11380576 -0.39937925 0.057487495
-0.11397593 -0.39947852 0.057460174
-0.11416695 -0.39957979 0.057495028
-0.11432733 -0.39967588 0.057452764
-0.11448768 -0.39977199 0.057410501
-0.11466147 -0.39987096 0.057398163
-0.1148283 -0.39996853 0.057369709
-0.11500274 -0.40006748 0.057359666
-0.11516374 -0.4001677 0.057293184
-0.11532949 -0.4002654 0.057260118
-0.11552698 -0.40036452 0.057331845
-0.11571943 -0.40046012 0.057408206
-0.11588179 -0.40055823 0.057360161
-0.11603244 -0.40065518 0.057277583
-0.11620104 -0.40075484 0.0572422
-0.11637215 -0.40085229 0.057229873
-0.11653985 -0.40094998 0.057203718
-0.11672378 -0.40104869 0.057229385
-0.11690062 -0.40114793 0.057226248
-0.11707003 -0.40124962 0.057180487
-0.11724055 -0.40134731 0.057164699
-0.11741464 -0.40144286 0.057175416
-0.11757202 -0.4015432 0.057095114
-0.11772933 -0.40164152 0.057027489
-0.11792853 -0.40173805 0.057122275
-0.11808894 -0.40183434 0.057078853
-0.11826332 -0.401934 0.057064202
-0.11843294 -0.40203384 0.057031125
-0.11861227 -0.40213341 0.057034895
-0.11877903 -0.40223145 0.057002984
-0.11895376 -0.40232933 0.05700101
-0.11912249 -0.40243119 0.056951787
-0.11929256 -0.40252736 0.056944076
-0.11947775 -0.40262517 0.056980114
-0.11964644 -0.40272522 0.056942426
-0.1197968 -0.40282735 0.05682525
-0.11999338 -0.4029215 0.056925807
-0.12015356 -0.40301985 0.056868557
-0.12032972 -0.40312174 0.056845821
-0.12051241 -0.40321815 0.056881871
-0.12069035 -0.40332013 0.056864895
-0.12085055 -0.40341669 0.056819171
-0.12102141 -0.4035151 0.056799918
-0.12119623 -0.40361354 0.056794494
-0.12137571 -0.40371388 0.056793652
-0.12153994 -0.40381235 0.056750216
-0.12170843 -0.40391085 0.056721754
-0.12188754 -0.40400776 0.056741673
-0.12205974 -0.40410995 0.056702815
-0.12221344 -0.40420824 0.056622531
-0.12237207 -0.40430659 0.056559511
-0.12255815 -0.40440562 0.056590937
-0.12275224 -0.40450323 0.056660369
-0.12290765 -0.40460157 0.056585833
-0.12307541 -0.40470198 0.056542389
-0.12327503 -0.40480179 0.056617565
-0.12342121 -0.40489981 0.056511939
-0.12361467 -0.40499955 0.05656524
-0.12376748 -0.40509948 0.056471121
-0.12397339 -0.40519994 0.056564715
-0.12411806 -0.40529782 0.056454487
-0.12430799 -0.40539774 0.056493964
-0.12448074 -0.40549862 0.056465469
-0.12466315 -0.40559667 0.056489997
-0.12481402 -0.40569481 0.056400497
-0.12500776 -0.40579528 0.056450322
-0.12519541 -0.40589714 0.056469053
-0.12534094 -0.40599498 0.056362282
-0.12552592 -0.40609679 0.056371797
-0.12570773 -0.40619683 0.056381326
-0.12589549 -0.40629733 0.056409277
-0.12607618 -0.40639746 0.056414202
-0.12623037 -0.40649745 0.056324687
-0.12638924 -0.40659612 0.056260515
-0.12658779 -0.40669763 0.056320708
-0.12676078 -0.40679902 0.056289915
-0.12692901 -0.40689844 0.056254536
-0.12710102 -0.40699819 0.056230664
-0.12726748 -0.40709752 0.056189526
-0.12745872 -0.40719891 0.056224376
-0.12762566 -0.40729994 0.056174014
-0.12781195 -0.40740106 0.056192756
-0.12799692 -0.40750214 0.056206878
-0.1281451 -0.40760005 0.05610932
-0.12831677 -0.40770155 0.056072764
-0.12851277 -0.4078038 0.056119133
-0.12867516 -0.40790302 0.056064174
-0.1288673 -0.40800506 0.056097873
-0.12903598 -0.40810493 0.056061327
-0.12921235 -0.40820712 0.056037441
-0.12939389 -0.40830988 0.056028523
-0.12957218 -0.40841082 0.056019623
-0.12974826 -0.40851158 0.056003805
-0.12992185 -0.40861365 0.05597071
-0.13010302 -0.4087196 0.055939876
-0.13029794 -0.40881801 0.056006998
-0.1305142 -0.40892497 0.056095935
-0.13064383 -0.40902233 0.055935044
-0.13083971 -0.40912414 0.055983711
-0.13101497 -0.4092252 0.055963285
-0.13116954 -0.40932235 0.055893376
-0.13134047 -0.40942293 0.055860285
-0.13154233 -0.40953022 0.055895098
-0.13169748 -0.40962899 0.055817105
-0.13186701 -0.40972948 0.055779409
-0.132044 -0.40983096 0.055762433
-0.13221827 -0.4099336 0.055728186
-0.13241628 -0.41003785 0.055768777
-0.13258161 -0.41013941 0.055709183
-0.13274826 -0.41024262 0.055643834
-0.13292992 -0.41034347 0.055647597
-0.13312319 -0.41044882 0.055663992
-0.1333103 -0.41055346 0.055663109
-0.13350269 -0.4106603 0.05566683
-0.13366117 -0.41075677 0.055615347
-0.13382179 -0.41085643 0.055551168
-0.13403131 -0.410963 0.05561823
-0.13420884 -0.41106656 0.055589724
-0.13437395 -0.41116837 0.055527836
-0.13457774 -0.411273 0.055586845
-0.13474834 -0.41137287 0.055557221
-0.13494676 -0.41148111 0.055573594
-0.13510963 -0.41158131 0.055514012
-0.13530198 -0.41168597 0.055531569
-0.13547106 -0.41178858 0.055478878
-0.13567027 -0.41189584 0.055504479
-0.13582854 -0.41199541 0.055432238
-0.13600907 -0.4120985 0.05541756
-0.1361908 -0.41220459 0.055387884
-0.13639876 -0.41230941 0.055460714
-0.13655475 -0.41241148 0.05536427
-0.047804825 -0.3653456 0.039325133
-0.04795859 -0.36542135 0.039390154
-0.048102986 -0.36548793 0.039480586
-0.048250262 -0.36555594 0.039572164
-0.048394777 -0.36561868 0.03968798
-0.048536628 -0.36568204 0.039789964
-0.04867553 -0.36573982 0.039917335
-0.0488104 -0.36579463 0.040049337
-0.048945554 -0.36584568 0.040206708
-0.049075127 -0.36589178 0.04037565
-0.049207624 -0.36594331 0.040520348
-0.049334627 -0.36598799 0.040689297
-0.049464315 -0.36603168 0.040874384
-0.049581822 -0.36606228 0.041099891
-0.04970393 -0.36609617 0.041320756
-0.049816627 -0.36612445 0.041543983
-0.055161424 -0.36583614 0.062623128
-0.055325419 -0.36590651 0.062759608
-0.055504229 -0.36599591 0.062826812
-0.055696737 -0.36610624 0.062808603
-0.055896401 -0.36622772 0.062744237
-0.056092139 -0.36634344 0.062702946
-0.056278784 -0.36644867 0.062696308
-0.056474641 -0.36656499 0.06265156
-0.056660973 -0.36667007 0.062644914
-0.056850769 -0.36677724 0.062637106
-0.057044957 -0.36689156 0.062599286
-0.0572249 -0.36698338 0.062654957
-0.057412952 -0.36709535 0.062610246
-0.05760815 -0.36720824 0.062585115
-0.057789084 -0.36730188 0.062632695
-0.057984773 -0.36741951 0.062578723
-0.058177955 -0.36753702 0.062516689
-0.058370315 -0.36764976 0.062482338
-0.058555618 -0.36775103 0.062496461
-0.058739044 -0.36785308 0.062499065
-0.058933958 -0.36797065 0.062442783
-0.05911557 -0.36806607 0.06248115
-0.059296522 -0.36816046 0.062524125
-0.059486847 -0.36827081 0.062497854
-0.059688307 -0.36840439 0.062361963
-0.059842899 -0.3684774 0.062447742
-0.060042299 -0.36860412 0.062348776
-0.060245737 -0.36871821 0.062345505
-0.060436465 -0.36883038 0.062308863
-0.060620777 -0.36893147 0.062320679
-0.060814075 -0.36904868 0.062260956
-0.060998425 -0.36915016 0.062270466
-0.061186858 -0.36925909 0.062246516
-0.061373413 -0.36936483 0.062236406
-0.061556876 -0.36946937 0.062222864
-0.061745685 -0.36957958 0.062191986
-0.061929606 -0.36968097 0.062200349
-0.062093206 -0.36976653 0.06223765
-0.062305704 -0.36989969 0.062144384
-0.062468491 -0.36997941 0.062216271
-0.062660113 -0.37008691 0.062213067
-0.062864311 -0.37021881 0.062097929
-0.063052773 -0.37033457 0.062030144
-0.063263677 -0.3704899 0.061788104
-0.063424416 -0.37054735 0.061996114
-0.063607894 -0.3706494 0.061998706
-0.063796245 -0.37076133 0.061955154
-0.063978374 -0.37086102 0.061968133
-0.064160317 -0.37096041 0.06198227
-0.064346872 -0.37106937 0.061951406
-0.06453111 -0.37117884 0.06190902
-0.064704217 -0.37127042 0.061941657
-0.064900689 -0.37139067 0.061873838
-0.065030068 -0.37144688 0.061977029
-0.065264411 -0.37159079 0.061892889
-0.065452412 -0.37170434 0.0618378
-0.065643594 -0.37183055 0.06171234
-0.065825626 -0.37193179 0.061714947
-0.066004671 -0.37202653 0.061748706
-0.06618838 -0.37213176 0.061731692
-0.066369221 -0.37223071 0.061744686
-0.066555597 -0.37234819 0.061658457
-0.06673234 -0.37243804 0.061715305
-0.066919781 -0.37254697 0.061687894
-0.067097843 -0.37265188 0.061652459
-0.067249984 -0.37274948 0.061571002
-0.067440629 -0.37284264 0.061656617
-0.067647122 -0.37296185 0.061631419
-0.067831039 -0.3730697 0.061598267
-0.068013132 -0.3731733 0.061585877
-0.06819056 -0.37326533 0.06163118
-0.0683707 -0.37336427 0.061641872
-0.068556868 -0.37347892 0.061572939
-0.068743743 -0.37359595 0.061491333
-0.068922579 -0.37369215 0.061514713
-0.069086999 -0.37379161 0.061465494
-0.069264658 -0.37389201 0.061457746
-0.069469914 -0.37401107 0.061429102
-0.06964983 -0.3741183 0.061385579
-0.06982258 -0.37420556 0.061444744
-0.069979794 -0.37428594 0.061492451
-0.070175618 -0.37440941 0.061401561
-0.070359685 -0.37451446 0.061386853
-0.070530675 -0.37462047 0.061319169
-0.070689544 -0.37469819 0.061389923
-0.070864514 -0.37480891 0.061306059
-0.071037151 -0.37490451 0.061311014
-0.071238264 -0.37503111 0.061218962
-0.071430504 -0.37512964 0.061275724
-0.071585834 -0.3752045 0.061352268
-0.071779355 -0.37531608 0.061329447
-0.071943946 -0.37540364 0.061357506
-0.07210312 -0.37549138 0.06136483
-0.072297007 -0.37563434 0.06114132
-0.072519571 -0.37575358 0.061173726
-0.072661757 -0.37581018 0.061320692
-0.072843075 -0.37595093 0.061066091
-0.073014967 -0.37599313 0.061412457
-0.07317701 -0.376104 0.061281361
-0.073358044 -0.37622491 0.061153643
-0.073546715 -0.37635547 0.06099128
-0.073738299 -0.37645254 0.061054979
-0.073888101 -0.37650281 0.061269954
-0.07407818 -0.37665457 0.060976103
-0.074262798 -0.37675869 0.060969472
-0.074453399 -0.37685111 0.061059687
-0.07464499 -0.37694767 0.061126843
-0.074837141 -0.3770465 0.061181299
-0.075026073 -0.3771731 0.061045468
-0.075206965 -0.37728944 0.060946576
-0.075386003 -0.37739706 0.060897298
-0.075565286 -0.37750697 0.060834173
-0.075743228 -0.37761006 0.060810275
-0.075918332 -0.37769631 0.060884416
-0.076076776 -0.37778813 0.060862914
-0.076238267 -0.37788111 0.060844861
-0.07642746 -0.37798205 0.06087511
-0.076627806 -0.37809908 0.060841873
-0.0768058 -0.37820593 0.06079375
-0.076982751 -0.37830558 0.060788304
-0.077157415 -0.37841183 0.060732126
-0.077330865 -0.37850863 0.060732469
-0.077491283 -0.3785969 0.060740937
-0.077677131 -0.37869722 0.060763136
-0.077842705 -0.37880859 0.060641252
-0.078026123 -0.37891814 0.060595401
-0.078200854 -0.37899685 0.060716849
-0.078380257 -0.37909481 0.060731001
-0.078537561 -0.37918544 0.060712956
-0.078707397 -0.3792797 0.060716774
-0.078903571 -0.379403 0.060628191
-0.079070359 -0.37950268 0.06058589
-0.079252638 -0.37960136 0.060605794
-0.079451181 -0.37971812 0.060567953
-0.079623975 -0.37981918 0.060538314
-0.079783678 -0.37989917 0.060597539
-0.079940401 -0.37999451 0.060547203
-0.080151275 -0.38012818 0.06044472
-0.080326825 -0.38023043 0.060417369
-0.080489635 -0.3803179 0.060439669
-0.080662161 -0.3804054 0.060496524
-0.0808402 -0.38052714 0.060352676
-0.081002839 -0.38061664 0.060361136
-0.081197269 -0.38072518 0.060361378
-0.081340417 -0.38081002 0.060329564
-0.081519395 -0.38090044 0.060391009
-0.081691176 -0.38100043 0.06036482
-0.08185938 -0.38110253 0.060312137
-0.082028061 -0.38119718 0.060309038
-0.082200244 -0.38128987 0.060331289
-0.082371406 -0.38139275 0.060284358
-0.082555786 -0.38149691 0.060276568
-0.082724117 -0.38159299 0.060263097
-0.082900643 -0.38170439 0.060180373
-0.083078742 -0.38180253 0.060188763
-0.083257139 -0.38189852 0.060212143
-0.083438084 -0.3820006 0.060205534
-0.083593033 -0.38211301 0.060038723
-0.083802894 -0.38222712 0.060058489
-0.083960533 -0.38230181 0.060144261
-0.084148817 -0.38241926 0.060064949
-0.084319048 -0.38251999 0.060028389
-0.084494025 -0.38261443 0.060049485
-0.084663324 -0.38270247 0.060091361
-0.084834665 -0.38279754 0.060095169
-0.085013472 -0.38290647 0.060036667
-0.085148223 -0.38300329 0.059897624
-0.085342154 -0.3830938 0.060012054
-0.085514501 -0.38318443 0.060048155
-0.085677244 -0.38328367 0.059994332
-0.085870333 -0.38340452 0.059910383
-0.086032234 -0.38349289 0.059923466
-0.086193442 -0.38358358 0.059919246
-0.08637701 -0.38368586 0.059920691
-0.086553052 -0.38378823 0.059894487
-0.086735696 -0.38389301 0.05987633
-0.08690884 -0.38399231 0.059859373
-0.087078393 -0.3840909 0.059834357
-0.087246202 -0.38418365 0.059840485
-0.087413274 -0.38426828 0.059896216
-0.087560795 -0.38434413 0.0599382
-0.087712988 -0.38446647 0.059697583
-0.087925583 -0.38457263 0.059778471
-0.088083588 -0.3846606 0.059780046
-0.088232674 -0.38476902 0.059617873
-0.088425316 -0.38487601 0.059621572
-0.088598423 -0.38495651 0.059725717
-0.088762209 -0.38505739 0.059664972
-0.088924818 -0.38513541 0.059747253
-0.089134187 -0.38526592 0.059659772
-0.089305416 -0.38535932 0.059673958
-0.089467622 -0.38545448 0.059644364
-0.089637384 -0.38555065 0.05963549
-0.089793518 -0.38563401 0.059660129
-0.089963987 -0.38573632 0.059614353
-0.090138249 -0.38584626 0.059532803
-0.090317905 -0.38594654 0.059533112
-0.090476066 -0.38603354 0.059541591
-0.090631887 -0.3861244 0.059516639
-0.090826444 -0.38623479 0.059505351
-0.090993866 -0.38634077 0.059424981
-0.091168471 -0.38642871 0.059486441
-0.091347091 -0.38652393 0.059515588
-0.091508262 -0.38661298 0.059521757
-0.091665961 -0.38670704 0.059482947
-0.091841899 -0.38681868 0.059396781
-0.092023551 -0.38693419 0.059305966
-0.092194781 -0.38701525 0.059399731
-0.092360571 -0.38711584 0.059348203
-0.092509605 -0.38719699 0.059361346
-0.092676453 -0.38730174 0.059286751
-0.092849046 -0.38739896 0.059281327
-0.093008511 -0.38748419 0.059305951
-0.093176551 -0.38757581 0.059320152
-0.093345471 -0.38768297 0.059237465
-0.093532279 -0.38779062 0.059215836
-0.093695179 -0.38787204 0.059277348
-0.093872614 -0.38797966 0.059222311
-0.094020873 -0.38806704 0.05919278
-0.094206952 -0.388165 0.059231117
-0.094371542 -0.38827062 0.059142694
-0.094539516 -0.38837242 0.059091154
-0.094700158 -0.38845667 0.059126154
-0.094886482 -0.38856444 0.059102215
-0.09505932 -0.38864657 0.059194822
-0.095222458 -0.38875765 0.059066031
-0.095377706 -0.38884732 0.05904685
-0.09555041 -0.38893941 0.059074871
-0.095733963 -0.38904023 0.05908554
-0.095903046 -0.38914499 0.059019011
-0.096058719 -0.38923416 0.059004441
-0.096236452 -0.38932657 0.059048582
-0.096403077 -0.38942868 0.058990136
-0.096559122 -0.38952631 0.058922507
-0.096735209 -0.38962457 0.058922835
-0.096908286 -0.38971239 0.058979686
-0.097069085 -0.38981876 0.058872823
-0.097249463 -0.38992211 0.058855832
-0.097419411 -0.39001679 0.05885734
-0.097587205 -0.39011312 0.058840398
-0.097759917 -0.39020985 0.058838442
-0.097936794 -0.39030355 0.058871053
-0.098082125 -0.39040002 0.05877234
-0.098252468 -0.39049044 0.058802679
-0.098449506 -0.39060184 0.058793679
-0.098602816 -0.39069241 0.05876182
-0.098768733 -0.39078212 0.058780655
-0.098947823 -0.39087474 0.05882825
-0.099126548 -0.39099059 0.058724761
-0.099280909 -0.39107653 0.058726341
-0.099444434 -0.39116421 0.058749795
-0.099618837 -0.3912712 0.058687851
-0.099795617 -0.39136559 0.05871585
-0.099954858 -0.39144871 0.058753163
-0.10012132 -0.39155665 0.058656648
-0.10029104 -0.39165887 0.058608565
-0.10045932 -0.39175117 0.058619317
-0.10063855 -0.39185855 0.058572337
-0.10078245 -0.39194688 0.058520913
-0.10095205 -0.39203846 0.058540881
-0.10113649 -0.39213943 0.058553845
-0.10128428 -0.39223588 0.058464348
-0.10144337 -0.39232966 0.058432464
-0.10161884 -0.39242849 0.058427025
-0.10180846 -0.3925336 0.058431901
-0.10197847 -0.39262524 0.058453012
-0.1021079 -0.39271694 0.058327846
-0.10231693 -0.3928161 0.058441043
-0.10248805 -0.39291716 0.058405638
-0.10265793 -0.39301232 0.058403686
-0.10282925 -0.39310685 0.058410957
-0.102997 -0.39320618 0.05837442
-0.10314653 -0.39330089 0.058302201
-0.10331646 -0.39338979 0.058340624
-0.10349225 -0.39349186 0.058315579
-0.1036486 -0.39358661 0.058267556
-0.10383023 -0.39367706 0.058338206
-0.10398579 -0.39377818 0.058246367
-0.10415991 -0.39387482 0.058250159
-0.10431664 -0.39397228 0.058185991
-0.10450006 -0.39407432 0.058188584
-0.10466415 -0.39416301 0.058207422
-0.10484543 -0.39426008 0.058234252
-0.10500911 -0.39436072 0.058174659
-0.10517445 -0.39446068 0.058125444
-0.10534859 -0.39455464 0.058146536
-0.10551152 -0.39465255 0.058101945
-0.10566708 -0.39474723 0.058051627
-0.10583317 -0.39484116 0.058043923
-0.10601743 -0.39494595 0.058031525
-0.10618959 -0.39504078 0.058039941
-0.10635493 -0.39512679 0.058080692
-0.10652822 -0.3952269 0.058059115
-0.10669357 -0.39532667 0.058011051
-0.10686177 -0.39542288 0.057996418
-0.10703336 -0.39551809 0.058000229
-0.10720013 -0.39561474 0.057977531
-0.10736798 -0.39571109 0.057960592
-0.10753257 -0.39581099 0.057909071
-0.10769853 -0.39591309 0.057848316
-0.10787568 -0.39600694 0.057880934
-0.1080524 -0.39609841 0.057927392
-0.10822025 -0.39619744 0.057893153
-0.10838661 -0.3962917 0.057884298
-0.10854869 -0.3963947 0.057803966
-0.10872339 -0.396492 0.057805449
-0.10889699 -0.3965846 0.057833463
-0.10907366 -0.39667907 0.057860315
-0.10923605 -0.39678186 0.057782277
-0.10939014 -0.39688146 0.057695054
-0.10958413 -0.39697719 0.057776026
-0.10975213 -0.3970713 0.057774089
