# .PCD v0.7 - Point Cloud Data file format
VERSION 0.7
FIELDS x y z
SIZE 4 4 4
TYPE F F F
COUNT 1 1 1
WIDTH 1292
HEIGHT 1
VIEWPOINT 0 0 0 1 0 0 0
POINTS 1292
DATA ascii
-0.18668994 -0.36173645 0.055257238
-0.18686347 -0.3618027 0.055253074
-0.18704787 -0.36186743 0.055299804
-0.18726355 -0.36196476 0.055160053
-0.18743517 -0.36202595 0.05519525
-0.18763924 -0.36210006 0.055224538
-0.18786372 -0.36219379 0.05514726
-0.18801902 -0.36224371 0.055227667
-0.1882311 -0.36233777 0.055105291
-0.18842241 -0.36240539 0.055149674
-0.18861583 -0.36248216 0.055118803
-0.18880001 -0.36255029 0.055134282
-0.18900213 -0.3626256 0.055146221
-0.18919462 -0.36270487 0.055089887
-0.18936741 -0.36276466 0.055141296
-0.18959922 -0.36287355 0.05495286
-0.18979624 -0.36294591 0.054974072
-0.18997559 -0.36300793 0.055027768
-0.19016141 -0.36307886 0.055023558
-0.19035295 -0.3631579 0.054966077
-0.19055638 -0.36323953 0.054925915
-0.19074246 -0.36330757 0.054948337
-0.19095147 -0.36339015 0.054918565
-0.19113022 -0.36345893 0.054909751
-0.19132908 -0.36353827 0.054874241
-0.19153051 -0.36361784 0.054845668
-0.19170082 -0.363686 0.054813731
-0.19187701 -0.3637436 0.054896377
-0.19207694 -0.36382517 0.054844651
-0.19227698 -0.36391118 0.054753579
-0.19246639 -0.36397702 0.054807231
-0.19266088 -0.36405486 0.054770578
-0.19284584 -0.36413449 0.054685339
-0.19303606 -0.36419755 0.054766774
-0.19323108 -0.364281 0.054681506
-0.19340827 -0.36435744 0.054598615
-0.19361384 -0.36442825 0.054662619
-0.1938103 -0.36449715 0.054712769
-0.19400424 -0.3645753 0.054671492
-0.19418406 -0.36463881 0.054713607
-0.19437122 -0.36471489 0.054667726
-0.19456266 -0.36479867 0.054567426
-0.19474989 -0.36486587 0.054601401
-0.19495055 -0.36494732 0.054553151
-0.19513556 -0.36501059 0.054614924
-0.19532076 -0.36508414 0.054585252
-0.19552389 -0.36517081 0.054498792
-0.19570553 -0.36524853 0.054419357
-0.19589356 -0.36531773 0.054438289
-0.19608441 -0.36538708 0.054465316
-0.19627886 -0.36546347 0.0544414
-0.19647333 -0.36554015 0.054415159
-0.19664052 -0.36559576 0.054485101
-0.19683009 -0.36567405 0.054427639
-0.19702776 -0.36575785 0.054348145
-0.19721812 -0.36582664 0.054378636
-0.19739278 -0.36589205 0.054386057
-0.19760293 -0.36598551 0.054262519
-0.197799 -0.36606097 0.05425249
-0.19799024 -0.36613214 0.054264456
-0.19819437 -0.36620668 0.054290272
-0.19838712 -0.36628824 0.054214273
-0.19855934 -0.36634871 0.054257572
-0.19873124 -0.36640832 0.054307818
-0.19892786 -0.36649314 0.054215603
-0.19912651 -0.36656895 0.054211348
-0.19930637 -0.36664161 0.054171272
-0.19948044 -0.36670706 0.054176368
-0.19967374 -0.36677682 0.05420801
-0.19986504 -0.36684918 0.054209568
-0.20007062 -0.36693704 0.054120783
-0.20025723 -0.36700493 0.054146674
-0.20045972 -0.36709353 0.054040529
-0.20061556 -0.36715901 0.0539832
-0.20082261 -0.36722577 0.054088876
-0.20101488 -0.36730248 0.054054536
-0.20119123 -0.36737692 0.053986706
-0.20135842 -0.36742052 0.05416429
-0.20156632 -0.36751005 0.054068565
-0.20173889 -0.36758292 0.054001898
-0.20191622 -0.36765125 0.053991936
-0.20211169 -0.36773077 0.053943701
-0.20229568 -0.36780176 0.053932559
-0.20248912 -0.36787379 0.053944521
-0.20268002 -0.36794832 0.053925246
-0.20285413 -0.36801764 0.053895619
-0.20304039 -0.36808577 0.053918034
-0.20324823 -0.36816752 0.053891748
-0.20342466 -0.36823374 0.053897984
-0.20360194 -0.36830479 0.053863719
-0.20378543 -0.3683756 0.053852569
-0.20397261 -0.3684499 0.05382289
-0.20416757 -0.36853409 0.053730674
-0.20435566 -0.36859414 0.053831793
-0.20454037 -0.36867601 0.053725727
-0.20471253 -0.36873648 0.05376903
-0.20489551 -0.36880618 0.05376599
-0.20508642 -0.36889014 0.053662211
-0.20527981 -0.36896873 0.053615145
-0.2054688 -0.3690348 0.053665332
-0.20565087 -0.36909476 0.05374679
-0.20582721 -0.36916739 0.053695165
-0.20600341 -0.36923969 0.053645853
-0.2061964 -0.36931902 0.053590681
-0.20637591 -0.36940071 0.053468432
-0.20656495 -0.36946952 0.053494312
-0.20674725 -0.3695302 0.05356998
-0.20693649 -0.36958632 0.053710438
-0.2071121 -0.36966446 0.053606726
-0.20729746 -0.36975044 0.05346594
-0.20749003 -0.36981776 0.05351726
-0.20767571 -0.3698872 0.053525791
-0.20785379 -0.36996773 0.053409331
-0.2080427 -0.37003839 0.053417847
-0.20822582 -0.37009528 0.053530544
-0.20841442 -0.37017035 0.053498551
-0.20860253 -0.370249 0.053432986
-0.2087848 -0.37031615 0.053450778
-0.20896199 -0.370395 0.053345907
-0.20914978 -0.37047237 0.053290762
-0.20933878 -0.37054104 0.053317785
-0.20951793 -0.37060478 0.053355277
-0.2097 -0.37067261 0.053366128
-0.20988768 -0.37074879 0.053321406
-0.21006739 -0.37081042 0.053379722
-0.21024483 -0.37088281 0.053333871
-0.21042471 -0.37097549 0.053114399
-0.21062161 -0.3710416 0.05319117
-0.21080418 -0.37109271 0.053353652
-0.21097919 -0.3711727 0.053231418
-0.21117243 -0.37125301 0.053168148
-0.21135733 -0.37131083 0.053278536
-0.21152924 -0.37139857 0.053076457
-0.21172598 -0.37146679 0.053133555
-0.21191135 -0.37153536 0.053149022
-0.21209671 -0.37161463 0.053068422
-0.21227153 -0.37168047 0.053072356
-0.21246229 -0.37175485 0.053054228
-0.21265095 -0.37181512 0.053155348
-0.21282443 -0.37188447 0.053123407
-0.21300234 -0.37196141 0.053038202
-0.21319248 -0.37203681 0.053008519
-0.21337698 -0.37210712 0.053005468
-0.21355945 -0.37217343 0.05303137
-0.21373582 -0.37224412 0.052997097
-0.21391635 -0.37231433 0.052981336
-0.21410002 -0.37238613 0.052962087
-0.21428768 -0.37246537 0.052889578
-0.21446937 -0.37252584 0.05296525
-0.214654 -0.37260291 0.052902021
-0.21484141 -0.372668 0.05295568
-0.21502872 -0.37274709 0.052883174
-0.21520254 -0.37281424 0.052872062
-0.21539171 -0.37288994 0.05283659
-0.21556379 -0.37294689 0.052911147
-0.21573533 -0.37301743 0.052861843
-0.21591967 -0.37309372 0.052804403
-0.21609852 -0.37315956 0.05282221
-0.21628515 -0.3732383 0.052750863
-0.21647641 -0.37331632 0.052701488
-0.21665737 -0.37337932 0.052751705
-0.21683386 -0.37344828 0.052733641
-0.21701168 -0.37352094 0.052686643
-0.21720083 -0.37359571 0.052659262
-0.2173809 -0.37365493 0.05274073
-0.21755993 -0.37372598 0.052712247
-0.2177365 -0.37379467 0.0526965
-0.21791509 -0.37386611 0.052663378
-0.21810013 -0.37394023 0.052627917
-0.21828283 -0.3740119 0.052606367
-0.21846795 -0.37408102 0.052616049
-0.21865202 -0.37415594 0.052570175
-0.21883185 -0.37422112 0.05259724
-0.21901734 -0.37429449 0.052569885
-0.21919164 -0.37435615 0.052609704
-0.21936782 -0.37443826 0.052472427
-0.21954253 -0.37451258 0.052399967
-0.2197388 -0.37457162 0.052538089
-0.21990705 -0.37464735 0.052430935
-0.22009204 -0.37472081 0.052401267
-0.220268 -0.37478542 0.052420236
-0.2204604 -0.37485266 0.052471559
-0.22063212 -0.37492496 0.05240722
-0.22080891 -0.37499696 0.052362531
-0.22099431 -0.37506995 0.052338652
-0.22117321 -0.37513632 0.052351832
-0.22136678 -0.37520307 0.052411258
-0.22154981 -0.37527785 0.052363072
-0.22171929 -0.37535498 0.052247807
-0.22188698 -0.37543309 0.052117512
-0.22208136 -0.3754994 0.052183867
-0.22226408 -0.3755632 0.052232921
-0.2224434 -0.37562948 0.052248407
-0.22262979 -0.37570864 0.052172437
-0.22282776 -0.37578005 0.052205224
-0.22300474 -0.37584454 0.052228827
-0.22318026 -0.37591001 0.052238539
-0.22335571 -0.37597892 0.052217018
-0.22353621 -0.37605467 0.052151486
-0.22372456 -0.37611911 0.052214395
-0.22389145 -0.37619948 0.052060939
-0.22407839 -0.37627122 0.052053258
-0.22426087 -0.37633598 0.052093051
-0.22444651 -0.37640852 0.052073795
-0.22462837 -0.37648311 0.052023299
-0.22480965 -0.37655181 0.052023735
-0.22499076 -0.37662366 0.051995248
-0.22517575 -0.37669647 0.051971357
-0.22534761 -0.37676403 0.051949836
-0.22553307 -0.37682775 0.052009299
-0.22571915 -0.37690008 0.051993512
-0.22591475 -0.37697071 0.052025143
-0.22608528 -0.37704474 0.05194113
-0.22624785 -0.37711096 0.051899977
-0.22643071 -0.37717912 0.051910821
-0.22660667 -0.3772504 0.051869612
-0.22679281 -0.37731993 0.051879287
-0.22698013 -0.37738898 0.051897071
-0.22715861 -0.37745646 0.051898684
-0.2273245 -0.37753469 0.051761441
-0.22750545 -0.37760377 0.051757243
-0.22766298 -0.37767711 0.051635083
-0.22787447 -0.37773651 0.051821753
-0.22803226 -0.37781486 0.05165562
-0.22821593 -0.3778829 0.051669933
-0.2284124 -0.37794614 0.051771015
-0.22861613 -0.37801704 0.051828083
-0.22878927 -0.37809178 0.051746365
-0.2289598 -0.37816736 0.051648464
-0.22918044 -0.37823242 0.051815432
-0.22935906 -0.37830514 0.051770736
-0.2295191 -0.37838176 0.051627729
-0.22969526 -0.37845033 0.051611982
-0.22987331 -0.37851587 0.051629793
-0.23003246 -0.37858763 0.051527306
-0.23024145 -0.37865743 0.051612131
-0.23041143 -0.378728 0.051557057
-0.23060207 -0.37879911 0.051567871
-0.23077649 -0.37886828 0.051540565
-0.23095348 -0.37893897 0.051508609
-0.23112793 -0.37900585 0.051502131
-0.23131323 -0.37907863 0.051479407
-0.23150356 -0.37915 0.051486745
-0.23167311 -0.37922055 0.051430523
-0.23185459 -0.37928778 0.051444847
-0.23202941 -0.37935904 0.05140017
-0.23222214 -0.37943208 0.051400568
-0.23238593 -0.37950188 0.051331624
-0.232576 -0.37957132 0.051355172
-0.23276095 -0.37963998 0.051368326
-0.23294632 -0.37971076 0.051364124
-0.23312131 -0.37978196 0.051320605
-0.23330192 -0.37985387 0.051289793
-0.23349853 -0.37992415 0.051328365
-0.2336733 -0.37999538 0.051283695
-0.23384997 -0.38006413 0.051267937
-0.23403044 -0.38013613 0.051235981
-0.23421572 -0.38020507 0.051247969
-0.23440897 -0.38027635 0.051265724
-0.23459576 -0.38034907 0.051248781
-0.23475978 -0.38041857 0.051183317
-0.23495212 -0.38049015 0.051195286
-0.23513108 -0.38056055 0.051172588
-0.23530668 -0.38062966 0.05114989
-0.23548792 -0.38070157 0.051121399
-0.23568285 -0.38077286 0.051144928
-0.23584433 -0.38084462 0.051050529
-0.23602478 -0.38091287 0.051052131
-0.23620725 -0.3809846 0.051029418
-0.23640412 -0.38105574 0.051061045
-0.23660092 -0.38112697 0.051091518
-0.23675336 -0.38120005 0.050954331
-0.23695377 -0.38126892 0.051018354
-0.23714718 -0.38133717 0.051063884
-0.23732227 -0.38141024 0.051004164
-0.2374813 -0.38148749 0.050851896
-0.2376703 -0.38155475 0.050891664
-0.23788711 -0.38162339 0.051013492
-0.23806044 -0.38169667 0.050945673
-0.23823655 -0.38177305 0.050859328
-0.2384275 -0.38184208 0.05088982
-0.23862004 -0.38191271 0.050911047
-0.23879173 -0.38198617 0.050836291
-0.23898354 -0.38205525 0.050869092
-0.23914337 -0.38212496 0.050787434
-0.23932493 -0.38219711 0.050757781
-0.23951814 -0.38226786 0.050780162
-0.23969895 -0.38233843 0.050762087
-0.23989867 -0.38240692 0.050827276
-0.24008022 -0.38248256 0.050766364
-0.24026072 -0.38255158 0.050761014
-0.24043012 -0.38262182 0.050707098
-0.24060494 -0.38269645 0.050632328
-0.24080746 -0.38276663 0.050691716
-0.24099976 -0.38283628 0.050721046
-0.24117933 -0.38290885 0.050680984
-0.24136367 -0.38297936 0.050675619
-0.2415323 -0.38305292 0.050589293
-0.24173287 -0.38312364 0.050637122
-0.24189657 -0.38319597 0.050545029
-0.24208605 -0.38326457 0.05057437
-0.24224094 -0.38333756 0.050446436
-0.24241339 -0.38340908 0.050391342
-0.24263124 -0.38347721 0.050521284
-0.242805 -0.38355029 0.050456923
-0.24300052 -0.38362178 0.050480459
-0.24318238 -0.38369277 0.05046238
-0.24338658 -0.38376385 0.050519444
-0.24352926 -0.38383889 0.050331365
-0.2437384 -0.38390824 0.050420817
-0.24391873 -0.38397941 0.050395794
-0.24411185 -0.38404989 0.050420493
-0.24430144 -0.38412213 0.050417434
-0.24447991 -0.38419348 0.050384309
-0.24465795 -0.38426638 0.050336145
-0.24485336 -0.38433695 0.05036778
-0.24503756 -0.38440958 0.05034275
-0.24523583 -0.38448164 0.050370898
-0.24539536 -0.38455537 0.050252203
-0.24560268 -0.38462567 0.050326616
-0.24578065 -0.38469866 0.050277296
-0.24596323 -0.38477004 0.050258052
-0.24614184 -0.38484299 0.05021105
-0.24633455 -0.3849141 0.050228797
-0.24653408 -0.38498792 0.050245374
-0.24670842 -0.38505965 0.050194908
-0.24688561 -0.3851313 0.050154854
-0.24707687 -0.38520405 0.050152943
-0.24727279 -0.38527533 0.050179936
-0.24746495 -0.38534814 0.050180338
-0.24762675 -0.38542157 0.050072052
-0.24779858 -0.3854934 0.050012335
-0.24800566 -0.38556606 0.050064757
-0.24819554 -0.38563907 0.050055899
-0.24839428 -0.38571063 0.050089836
-0.24861501 -0.38578346 0.050187346
-0.24875167 -0.38585702 0.049992353
-0.24894629 -0.38593015 0.049998522
-0.24912637 -0.38600469 0.049942251
-0.24932277 -0.38607654 0.049965784
-0.2495282 -0.38615248 0.049983487
-0.24970312 -0.38622442 0.04993302
-0.24990225 -0.38629913 0.049940333
-0.25007999 -0.38637114 0.049899116
-0.25027266 -0.38644323 0.049907614
-0.25045884 -0.38651404 0.049905725
-0.25065544 -0.38659281 0.049867895
-0.25083697 -0.38666624 0.04982667
-0.25101778 -0.38673708 0.049806271
-0.25120434 -0.38680804 0.049804378
-0.25138 -0.38688013 0.049755059
-0.25156814 -0.38695246 0.049746215
-0.25175637 -0.38702613 0.049725793
-0.25191242 -0.38709658 0.049624473
-0.25214675 -0.38716877 0.049774021
-0.2523073 -0.38724315 0.049653009
-0.25250989 -0.38731477 0.04969966
-0.25272462 -0.38738933 0.049761314
-0.25289601 -0.38746524 0.049663402
-0.25309426 -0.38754189 0.049649879
-0.25328419 -0.38761467 0.049643345
-0.25346175 -0.38768581 0.049609073
-0.25366649 -0.38776159 0.049625628
-0.25384364 -0.38783646 0.049556628
-0.25404677 -0.3879123 0.049567398
-0.25422683 -0.38798001 0.049572475
-0.25441962 -0.3880519 0.049583279
-0.25462192 -0.38813269 0.049546603
-0.25479278 -0.38820377 0.049490362
-0.25500569 -0.38827789 0.049549706
-0.25517651 -0.38835138 0.049471483
-0.25534734 -0.3884201 0.049436081
-0.25553882 -0.38849577 0.049408689
-0.25575769 -0.38857165 0.049472645
-0.25594479 -0.38864717 0.049431399
-0.25613073 -0.38872266 0.049386673
-0.25630987 -0.38879314 0.049363971
-0.25652575 -0.3888703 0.049405944
-0.25672033 -0.3889429 0.049416739
-0.25689465 -0.38901669 0.049347762
-0.25708026 -0.38908997 0.049321562
-0.2572583 -0.38916171 0.04928381
-0.25744197 -0.38923609 0.049241416
-0.25764602 -0.38931176 0.049256817
-0.25784215 -0.38938698 0.049249094
-0.25804588 -0.38946161 0.049272597
-0.25821576 -0.38953295 0.049210571
-0.25841612 -0.38960746 0.049223669
-0.25862381 -0.38968593 0.049226314
-0.25879332 -0.38975841 0.049152717
-0.25899807 -0.38983563 0.049156539
-0.25918597 -0.38990721 0.049153477
-0.25937507 -0.38998339 0.049113374
-0.25954869 -0.39005512 0.049060605
-0.25974974 -0.39013001 0.049072538
-0.25995359 -0.39020741 0.049071725
-0.26013154 -0.39028284 0.049000412
-0.26035517 -0.39036515 0.049022678
-0.26054209 -0.39044023 0.0489849
-0.26072636 -0.39051187 0.04896912
-0.26093793 -0.39059013 0.0489868
-0.26111779 -0.3906593 0.048977982
-0.26128563 -0.39073399 0.048878938
-0.26150501 -0.39081201 0.048925523
-0.26170242 -0.39088604 0.048932847
-0.26189911 -0.39096007 0.048937853
-0.262068 -0.3910349 0.048841104
-0.16171345 -0.35241413 0.053922288
-0.16193561 -0.35250404 0.053871602
-0.16217721 -0.35260725 0.053767577
-0.16240484 -0.35270154 0.053696029
-0.16263413 -0.35279724 0.053617515
-0.16285893 -0.35288969 0.053552929
-0.16310829 -0.35299802 0.05342919
-0.16334465 -0.35310107 0.053308979
-0.16355619 -0.35318241 0.053298853
-0.16376638 -0.35326427 0.053279471
-0.16398567 -0.3533532 0.053227633
-0.16420297 -0.35344073 0.0531816
-0.16442306 -0.35352907 0.053137861
-0.16464171 -0.35361788 0.053084873
-0.1648664 -0.35371003 0.053022593
-0.16508794 -0.35380137 0.052956861
-0.16531709 -0.35389727 0.05287604
-0.16553113 -0.35398304 0.052834637
-0.16574906 -0.35407197 0.052778181
-0.16597077 -0.354164 0.052706651
-0.16619208 -0.35425436 0.052649025
-0.16641371 -0.35434663 0.052575182
-0.16663399 -0.35443646 0.05251871
-0.1668524 -0.35452646 0.052454144
-0.16706859 -0.35461488 0.052396528
-0.16728909 -0.35470685 0.052321535
-0.16751418 -0.35480106 0.052241888
-0.16773085 -0.35489032 0.052178487
-0.1679579 -0.35498643 0.052088417
-0.16816145 -0.35506541 0.052072536
-0.16838174 -0.35515639 0.052005641
-0.1685923 -0.35524124 0.051960792
-0.16881032 -0.35533226 0.05188581
-0.16902116 -0.35541761 0.051837478
-0.16923331 -0.35550255 0.051797248
-0.16945091 -0.35559365 0.051719949
-0.16966332 -0.35567906 0.051676247
-0.16987239 -0.35576349 0.05163024
-0.17008626 -0.35585037 0.051578432
-0.17029589 -0.35593548 0.051527791
-0.17051259 -0.35602498 0.051462073
-0.17071708 -0.3561061 0.051429983
-0.17092551 -0.35618898 0.051395558
-0.17113456 -0.35627416 0.051342599
-0.17134359 -0.35635778 0.051303547
-0.17155261 -0.3564432 0.051248278
-0.17176193 -0.3565273 0.051205743
-0.171969 -0.35661134 0.051156271
-0.17217667 -0.35669431 0.051118378
-0.17238048 -0.35677582 0.051080503
-0.17258926 -0.35685998 0.05103565
-0.1727955 -0.35694385 0.050985031
-0.17304949 -0.35706207 0.050788336
-0.1732378 -0.35712028 0.050906811
-0.17337574 -0.35715574 0.051057912
-0.17358464 -0.35724407 0.050976016
-0.17387259 -0.35739818 0.050573107
-0.17405833 -0.35746676 0.050589722
-0.17424098 -0.35752371 0.050700113
-0.17442513 -0.35759455 0.050691258
-0.17463207 -0.35767838 0.050642945
-0.17483063 -0.35775673 0.050615504
-0.17503378 -0.3578375 0.050582267
-0.17523339 -0.35791701 0.050547868
-0.17544562 -0.3580043 0.050486807
-0.17563526 -0.35807693 0.050480239
-0.17583799 -0.35815778 0.050444681
-0.17604476 -0.35824054 0.050405629
-0.17623532 -0.35831431 0.050392121
-0.17643385 -0.35839355 0.050356574
-0.17663616 -0.35847449 0.050318703
-0.176837 -0.35855228 0.050303988
-0.17702731 -0.35862622 0.050288163
-0.17722827 -0.35870624 0.050253768
-0.17742902 -0.3587862 0.050219376
-0.17761761 -0.35885882 0.050209336
-0.17781012 -0.35893127 0.050214343
-0.17799829 -0.3590017 0.05022284
-0.17818852 -0.35907209 0.05023827
-0.17836273 -0.35912934 0.050317444
-0.17854249 -0.35918778 0.05040469
-0.17869194 -0.35922116 0.050613642
-0.17831604 -0.35826436 0.057919316
-0.17840382 -0.35822168 0.058600865
-0.1786171 -0.35830885 0.058544412
-0.17910825 -0.3584246 0.059176859
-0.18087298 -0.35947394 0.055765912
-0.18108657 -0.35956278 0.055695575
-0.1812951 -0.35963228 0.055781554
-0.18152729 -0.35973126 0.055683356
-0.18173011 -0.35980931 0.055673268
-0.18191306 -0.35987371 0.055717666
-0.1821202 -0.3599565 0.055679776
-0.18232277 -0.36003947 0.055624533
-0.18250526 -0.36011598 0.055558965
-0.18271202 -0.36018878 0.055609051
-0.1829167 -0.36027449 0.055536442
-0.18309964 -0.36034435 0.055532217
-0.18331784 -0.36042473 0.055553332
-0.18350951 -0.36049402 0.055583805
-0.18367656 -0.36055163 0.055635218
-0.18389443 -0.3606475 0.055516243
-0.18407089 -0.36072895 0.05538585
-0.18425919 -0.36078948 0.05548349
-0.18449901 -0.36088142 0.055474408
-0.18468529 -0.36095306 0.055465542
-0.18489456 -0.36104023 0.055395223
-0.18509156 -0.36111349 0.055408318
-0.18525884 -0.36117727 0.055405311
-0.18544422 -0.36124545 0.055424243
-0.18567607 -0.36134005 0.055364244
-0.18586653 -0.36141443 0.055344947
-0.18607211 -0.36149827 0.05529201
-0.18627101 -0.3615801 0.055234469
-0.18644623 -0.36164239 0.055271957
-0.18664488 -0.36171833 0.055266522
-0.18683065 -0.36179051 0.055250704
-0.18701315 -0.3618558 0.055285856
-0.18720138 -0.36193424 0.055222571
-0.18739593 -0.36201158 0.055190511
-0.18758599 -0.3620773 0.055247623
-0.18782285 -0.36217713 0.055157512
-0.18798801 -0.36223328 0.05521588
-0.18817878 -0.36231574 0.055124797
-0.18838403 -0.36239162 0.055142485
-0.18857291 -0.36246565 0.055120878
-0.18876688 -0.36253995 0.055114299
-0.18895401 -0.3626053 0.055164479
-0.18915543 -0.36268964 0.055093028
-0.18933252 -0.36275172 0.055138618
-0.18953304 -0.36284205 0.055010449
-0.1897462 -0.36292928 0.054952845
-0.18993327 -0.36299491 0.055000708
-0.19011414 -0.36305892 0.055041645
-0.19030762 -0.36314049 0.054967921
-0.19050646 -0.36322269 0.054906905
-0.19069786 -0.363291 0.054945491
-0.19090015 -0.36337113 0.054914564
-0.19108875 -0.36344287 0.054912634
-0.19128206 -0.36352155 0.054864377
-0.19147897 -0.36359811 0.054847367
-0.1916675 -0.36367396 0.054808389
-0.19182681 -0.36372566 0.054886464
-0.19202533 -0.36380103 0.054885656
-0.19222815 -0.36389107 0.054767899
-0.19242023 -0.36396089 0.054794893
-0.19261859 -0.36403647 0.054791778
-0.19280511 -0.36411837 0.054691453
-0.19297977 -0.36417758 0.05475441
-0.193189 -0.36426243 0.054704931
-0.19335999 -0.36433288 0.054654449
-0.19356278 -0.36440769 0.054673307
-0.19376987 -0.36448967 0.054642349
-0.19395472 -0.3645525 0.054707594
-0.19413719 -0.36462486 0.054679058
-0.19431306 -0.3646861 0.054728121
-0.19451188 -0.36477771 0.054582592
-0.19470157 -0.36484909 0.05458761
-0.19489798 -0.36492765 0.054550916
-0.1950866 -0.36499241 0.054611512
-0.19527555 -0.36506763 0.054579485
-0.19546787 -0.36514425 0.054546282
-0.19565877 -0.36522874 0.054437831
-0.19583951 -0.3652944 0.054463714
-0.19603033 -0.36536348 0.05449304
-0.19622535 -0.36544615 0.054414675
-0.19641662 -0.36551633 0.054435894
-0.19659778 -0.36558306 0.054453678
-0.19677106 -0.36564508 0.05448655
-0.19697176 -0.36573485 0.05436416
-0.19716777 -0.36580938 0.054362208
-0.19734272 -0.36586922 0.054420538
-0.19753927 -0.36595738 0.054298177
-0.19773927 -0.36603501 0.0542823
-0.19792971 -0.36611053 0.054252587
-0.19813031 -0.36618334 0.054281868
-0.19832616 -0.36626518 0.054213911
-0.19851139 -0.36633587 0.054209687
-0.19867732 -0.3663879 0.054307424
-0.19886661 -0.36646867 0.054226764
-0.19905944 -0.36654422 0.054205135
-0.19925965 -0.36662397 0.054170743
-0.19941655 -0.3666825 0.054179363
-0.1996063 -0.36675042 0.05421564
-0.1997923 -0.36682412 0.054187097
-0.20000279 -0.36690882 0.054143399
-0.20018749 -0.36697945 0.054138012
-0.20039065 -0.36706084 0.054098979
-0.20055203 -0.36713359 0.053995274
-0.20074698 -0.36719972 0.054065112
-0.2009407 -0.36727121 0.054082848
-0.20112157 -0.36735007 0.05399064
-0.20130403 -0.36741456 0.054032736
-0.20147634 -0.36746463 0.054169804
-0.20167032 -0.36755893 0.053983763
-0.20184223 -0.36761826 0.054036319
-0.20202574 -0.36769825 0.053942949
-0.20221584 -0.36776862 0.053958379
-0.20240037 -0.36784163 0.053931002
-0.20259112 -0.36791509 0.053920962
-0.20277157 -0.3679845 0.053912126
-0.20295531 -0.3680549 0.053905588
-0.20314834 -0.36812496 0.05393374
-0.2033466 -0.36820567 0.053884305
-0.20351306 -0.36826885 0.053883623
-0.20369379 -0.36834133 0.053848162
-0.20387718 -0.36841136 0.053843934
-0.20406516 -0.36849046 0.053773705
-0.20426221 -0.36856735 0.053754378
-0.20444502 -0.36863467 0.053772151
-0.20461851 -0.3687048 0.053733237
-0.20479701 -0.36876327 0.053815864
-0.20498505 -0.36884859 0.053690068
-0.20517193 -0.36892536 0.053637199
-0.20536476 -0.36899716 0.05364915
-0.20555039 -0.36906028 0.053714387
-0.20572312 -0.36912662 0.053706735
-0.20590256 -0.36919487 0.053704843
-0.20608921 -0.36927646 0.053607985
-0.2062653 -0.36934963 0.053550541
-0.20645474 -0.3694267 0.053503461
-0.20663719 -0.36949572 0.05350503
-0.20682299 -0.36954999 0.053650148
-0.20699888 -0.36961007 0.053709626
-0.20718098 -0.36970565 0.053471558
-0.20736679 -0.3697727 0.053502053
-0.2075526 -0.36984119 0.053519815
-0.2077349 -0.36991131 0.053510964
-0.20791569 -0.37000304 0.053302996
-0.20810635 -0.37005079 0.053523339
-0.2082852 -0.37011945 0.053515665
-0.20848024 -0.37020072 0.053450041
-0.20866233 -0.37027052 0.053443506
-0.20884068 -0.37034157 0.053412676
-0.20901828 -0.37041739 0.053336699
-0.20921624 -0.37049848 0.053282633
-0.20939206 -0.37056097 0.053320125
-0.20957153 -0.37062344 0.05337033
-0.2097529 -0.37069565 0.053339489
-0.20993768 -0.37076852 0.053314418
-0.21011458 -0.37082663 0.053394742
-0.21029267 -0.37091282 0.053227298
-0.21048118 -0.37099949 0.053091072
-0.21067116 -0.37104967 0.053287119
-0.21084718 -0.37111253 0.053322285
-0.21102682 -0.37120265 0.053124741
-0.21122195 -0.37126356 0.053242035
-0.21140225 -0.37133706 0.05319614
-0.21157578 -0.37141958 0.053046085
-0.21177271 -0.37147614 0.053208519
-0.21195711 -0.37155893 0.05309315
-0.21213578 -0.3716251 0.053107478
-0.21231817 -0.37170181 0.053039581
-0.2125078 -0.37176943 0.053078171
-0.21268885 -0.37182978 0.05315268
-0.21286345 -0.37190586 0.053063981
-0.21304324 -0.37197852 0.05302389
-0.21323033 -0.37205213 0.052999973
-0.21341269 -0.37211877 0.053022377
-0.21359333 -0.37218916 0.053005435
-0.21377353 -0.3722603 0.052980386
-0.21395826 -0.37233031 0.052980788
-0.21413742 -0.3724032 0.052936062
-0.21432498 -0.37247533 0.052927196
-0.21450269 -0.37254319 0.052923001
-0.21469426 -0.3726154 0.052926846
-0.21487938 -0.37268466 0.052935347
-0.21505402 -0.37275752 0.052875597
-0.21523963 -0.37283251 0.052834317
-0.21542092 -0.37289464 0.052893773
-0.21559042 -0.37295577 0.052922025
-0.21576837 -0.3730419 0.052754588
-0.21595392 -0.37310421 0.05282677
-0.2161402 -0.37317777 0.052800536
-0.21631713 -0.37325811 0.052681729
-0.21651413 -0.37332851 0.052720279
-0.216683 -0.37339056 0.052738119
-0.21686222 -0.37346169 0.052709598
-0.2170535 -0.37353948 0.052662514
-0.21723777 -0.37360427 0.052708071
-0.21741036 -0.37366736 0.052729364
-0.2175862 -0.3737371 0.05270201
-0.21777478 -0.37380752 0.052711669
-0.21795474 -0.37388256 0.052650727
-0.21813369 -0.37395358 0.052622214
-0.21831568 -0.37402615 0.05259021
-0.21850221 -0.37409866 0.0525744
-0.21868731 -0.37416789 0.052582908
-0.21886313 -0.37423724 0.052559026
-0.21904865 -0.37430611 0.052572168
-0.21922569 -0.37437424 0.052563343
-0.21939616 -0.37445727 0.052398246
-0.21958926 -0.37451911 0.052500501
-0.21976338 -0.37458548 0.052497465
-0.21994144 -0.37466106 0.05242496
-0.22012807 -0.37473321 0.052412622
-0.22030739 -0.37479922 0.052430417
-0.22050083 -0.37486982 0.052455097
-0.22067358 -0.37494135 0.052401133
-0.22084737 -0.37501585 0.052324012
-0.22103447 -0.37508366 0.052352197
-0.22121973 -0.37515295 0.052360699
-0.22141069 -0.37522185 0.052392341
-0.22159217 -0.37529784 0.052327916
-0.22174983 -0.37537614 0.05216172
-0.22193852 -0.37545022 0.052138958
-0.22213104 -0.37551081 0.052250464
-0.22230752 -0.37557912 0.05223817
-0.22249903 -0.37565142 0.052240863
-0.22269131 -0.37573022 0.052187983
-0.22288089 -0.37579691 0.052234672
-0.22305274 -0.37586138 0.052240919
-0.22323585 -0.3759256 0.052287634
-0.22340696 -0.37600735 0.052136432
-0.22360669 -0.37607479 0.052210875
-0.22376925 -0.37614489 0.052134953
-0.22394922 -0.37622729 0.052008022
-0.22413631 -0.37628943 0.052087143
-0.22431977 -0.37636009 0.052077137
-0.22450458 -0.37643942 0.051994175
-0.22469078 -0.37650546 0.052035101
-0.22487199 -0.37657738 0.052006572
-0.22505724 -0.37665015 0.051983826
-0.2252349 -0.37672082 0.051954154
-0.22541338 -0.37678808 0.051958054
-0.22560793 -0.37685329 0.052034825
-0.22579192 -0.37692675 0.052001659
-0.22597553 -0.37700614 0.051914077
-0.22614545 -0.37706897 0.051928442
-0.22632307 -0.37713963 0.05189877
-0.22650126 -0.37720999 0.051873729
-0.2266856 -0.37728035 0.051869504
-0.22687869 -0.37734967 0.0519046
-0.22706252 -0.37742037 0.051895745
-0.22722891 -0.37749308 0.051809404
-0.22740205 -0.37756553 0.051748488
-0.22757454 -0.37764081 0.0516598
-0.22776645 -0.37770283 0.05175627
-0.22794265 -0.37777656 0.051694185
-0.22812559 -0.37784499 0.051702704
-0.22831719 -0.3779127 0.051747069
-0.22851859 -0.37798193 0.051811084
-0.22870308 -0.3780551 0.051782541
-0.22887206 -0.37813136 0.051673029
-0.22906905 -0.37820241 0.051705789
-0.22927253 -0.37826881 0.051802218
-0.22944391 -0.37835145 0.051644061
-0.22962174 -0.37842193 0.05161671
-0.22978932 -0.37848619 0.051610231
-0.22996433 -0.37855521 0.051586363
-0.23015113 -0.37862277 0.051615708
-0.23033264 -0.37869918 0.051547822
-0.23052447 -0.37876761 0.051586393
-0.23070365 -0.37884003 0.051546305
-0.23088208 -0.37891036 0.051522419
-0.23106191 -0.37897798 0.05152747
-0.23123932 -0.37905088 0.051476963
-0.23143233 -0.37912378 0.051479649
-0.23160611 -0.37919542 0.051428001
-0.23178546 -0.37926108 0.051449269
-0.23196831 -0.37933242 0.051431157
-0.23215018 -0.37940624 0.051387571
-0.23232746 -0.3794769 0.051356751
-0.23250999 -0.3795462 0.05135601
-0.23269922 -0.37961599 0.05137375
-0.23288313 -0.37968501 0.051379949
-0.2330583 -0.37975836 0.051317878
-0.2332415 -0.37982973 0.051300921
-0.23343337 -0.37990114 0.051312871
-0.23361583 -0.37997276 0.051291291
-0.23379108 -0.38004187 0.051267423
-0.23397486 -0.38011318 0.051252779
-0.23416275 -0.38018361 0.05126011
-0.23434921 -0.38025442 0.051259354
-0.23454036 -0.38032827 0.051246993
-0.2347163 -0.38039932 0.051208071
-0.23488861 -0.38046911 0.051168002
-0.23508377 -0.38054025 0.051193837
-0.23525658 -0.38061193 0.051138714
-0.23543634 -0.38068223 0.051119458
-0.23562495 -0.3807528 0.051127952
-0.23581018 -0.3808279 0.051084355
-0.23598684 -0.38089693 0.051066268
-0.23616232 -0.38096803 0.051025029
-0.23635831 -0.38103935 0.051052015
-0.23656456 -0.38110903 0.051128749
-0.2367122 -0.381183 0.050967216
-0.23690793 -0.38125268 0.05100809
-0.23710552 -0.38132215 0.051057074
-0.2372821 -0.38139319 0.051020458
-0.2374391 -0.38147086 0.050857734
-0.23762816 -0.38153991 0.050881278
-0.23784675 -0.38160834 0.051011205
-0.23802435 -0.38168105 0.050963014
-0.23819543 -0.38175645 0.050868545
-0.23839006 -0.38182855 0.050883956
-0.23858352 -0.38189733 0.050924841
-0.23876241 -0.38197339 0.050851177
-0.23894964 -0.38204136 0.050878201
-0.23911428 -0.38211226 0.050802268
-0.23928763 -0.38218376 0.050750624
-0.23948587 -0.38225567 0.050779916
-0.23966652 -0.3823263 0.050760653
-0.23987077 -0.38239598 0.050830446
-0.2400527 -0.38247162 0.050770659
-0.24023592 -0.3825421 0.050761808
-0.24040437 -0.38261083 0.050718278
-0.24058011 -0.38268542 0.050646946
-0.24077579 -0.38275468 0.050691292
-0.24097261 -0.38282719 0.050710168
-0.24115236 -0.38289815 0.050685126
-0.24133942 -0.38297006 0.050676256
-0.24151115 -0.38304341 0.050602622
-0.24170876 -0.38311765 0.050608762
-0.24187677 -0.38318646 0.050562918
-0.24206783 -0.38325655 0.050584137
-0.24222319 -0.38333115 0.050443418
-0.24239342 -0.38340133 0.050392948
-0.24261734 -0.38347059 0.050533272
-0.24278723 -0.383544 0.050452691
-0.2429857 -0.38361534 0.050487775
-0.24316277 -0.38368517 0.050463896
-0.2433705 -0.38375756 0.050520934
-0.24351533 -0.38383257 0.050340895
-0.24372628 -0.38390335 0.050423395
-0.24390325 -0.38397327 0.050398357
-0.24409813 -0.38404518 0.050416086
-0.24428871 -0.38411739 0.050416462
-0.24447313 -0.38418999 0.050392553
-0.24464722 -0.38426164 0.050342061
-0.24484286 -0.38433373 0.050360948
-0.24502897 -0.38440633 0.050342824
-0.24522887 -0.38447833 0.050376736
-0.24538413 -0.38455084 0.050254539
-0.24559316 -0.38462257 0.050321996
-0.24576998 -0.38469565 0.05026802
-0.24595954 -0.38476825 0.050261449
-0.24613416 -0.38483998 0.050212115
-0.2463336 -0.38491234 0.050241403
-0.24652471 -0.38498503 0.050239462
-0.24669912 -0.38505679 0.050188966
-0.24688086 -0.38512978 0.050152339
-0.24707574 -0.38520247 0.050163124
-0.24727301 -0.38527519 0.050181996
-0.2474627 -0.38534811 0.050173119
-0.2476275 -0.38542151 0.050075192
-0.24780466 -0.38549328 0.050033957
-0.24799907 -0.3855662 0.050041258
-0.2481986 -0.3856391 0.050065912
-0.24840061 -0.38571206 0.050098661
-0.24861914 -0.38578495 0.050188076
-0.24875291 -0.38585857 0.049982615
-0.24895532 -0.3859317 0.050015364
-0.24912846 -0.38600633 0.049934771
-0.24933207 -0.38607821 0.049982566
-0.24952313 -0.38615552 0.049938943
-0.24971929 -0.38622755 0.049960148
-0.24991202 -0.38630226 0.049945466
-0.25008577 -0.38637429 0.049890339
-0.25028268 -0.38644648 0.049912695
-0.25046763 -0.38651863 0.049894575
-0.25066853 -0.38659745 0.049870595
-0.25084206 -0.38666955 0.049814314
-0.25102368 -0.38674045 0.049796209
-0.25120997 -0.38681144 0.049793132
-0.25138929 -0.38688362 0.04975535
-0.25158107 -0.38695735 0.049746472
-0.25176361 -0.38703218 0.049695939
-0.25192273 -0.38710022 0.049626987
-0.25216147 -0.38717383 0.049778827
-0.25231922 -0.38724816 0.04964852
-0.2525368 -0.38732147 0.049730994
-0.25273582 -0.3873969 0.049731337
-0.25291833 -0.38747317 0.04966807
-0.25311351 -0.38754857 0.049655698
-0.25330356 -0.38762137 0.049649134
-0.25347751 -0.38769245 0.049603269
-0.25368631 -0.38776964 0.049620938
-0.25386545 -0.38784462 0.049557686
-0.25406873 -0.3879205 0.049568437
-0.25424814 -0.38798824 0.049571183
-0.25444105 -0.38806018 0.049581975
-0.25463814 -0.3881408 0.049529064
-0.25481305 -0.38820967 0.049506363
-0.2550247 -0.38828498 0.049550638
-0.25518692 -0.38835573 0.049467787
-0.25538108 -0.38843036 0.049458887
-0.25556913 -0.38850471 0.049431492
-0.2557745 -0.38857996 0.049454968
-0.25597864 -0.3886576 0.049452968
-0.25615281 -0.38873017 0.049394377
-0.2563349 -0.38880202 0.049369317
-0.25655171 -0.3888793 0.049413584
-0.25674164 -0.38895282 0.049400076
-0.25692648 -0.38902727 0.049361117
-0.25709212 -0.38909829 0.049287498
-0.25728351 -0.38917199 0.049277458
-0.2574653 -0.38924628 0.049229249
-0.25767112 -0.3893221 0.04924925
-0.25788406 -0.38939959 0.049278483
-0.25807047 -0.38947088 0.049273089
-0.25824243 -0.38954353 0.049206398
-0.25845522 -0.38962004 0.049243737
-0.25865158 -0.38969666 0.049224406
-0.25882494 -0.38976946 0.049161181
-0.2590169 -0.38984582 0.049129143
-0.25921777 -0.38991949 0.049151473
-0.25940445 -0.38999552 0.049104407
-0.25958174 -0.39006644 0.049071267
-0.25979149 -0.39014429 0.049086615
-0.25998482 -0.3902187 0.049076568
-0.26018691 -0.39030045 0.049030591
-0.26039508 -0.39038053 0.049020477
-0.26057634 -0.39045194 0.048996583
-0.26076266 -0.39052486 0.048976138
-0.26095492 -0.3905994 0.048961461
-0.26115647 -0.39067477 0.048971053
-0.26133859 -0.39075178 0.048899695
-0.26154706 -0.39082459 0.048955567
-0.26173756 -0.3909013 0.048915427
-0.26192659 -0.39097255 0.048919283
-0.26211658 -0.39105037 0.048867568
-0.16162375 -0.35237864 0.05393564
-0.16184889 -0.3524707 0.053875618
-0.1620754 -0.35256395 0.05380981
-0.16230291 -0.35265806 0.053739361
-0.16253729 -0.35275608 0.053657297
-0.1627647 -0.35285044 0.053584531
-0.16300681 -0.3529532 0.053486228
-0.16325267 -0.35306188 0.053347398
-0.16346352 -0.35314557 0.053314075
-0.16367286 -0.35322672 0.053298119
-0.1638971 -0.35331792 0.053242736
-0.16411754 -0.35340783 0.053186219
-0.16433039 -0.35349199 0.053155199
-0.16454461 -0.35357732 0.053118378
-0.16476884 -0.35366905 0.053058363
-0.16499582 -0.3537645 0.05297403
-0.16521913 -0.35385731 0.052901275
-0.16543916 -0.35394767 0.052838966
-0.16565265 -0.35403156 0.052812576
-0.16587587 -0.35412472 0.052736361
-0.16610307 -0.35421962 0.052657809
-0.16631886 -0.35430723 0.052605934
-0.16653591 -0.35439599 0.052548263
-0.16675389 -0.35448557 0.052485965
-0.16697308 -0.35457474 0.052431758
-0.1672003 -0.35467196 0.052332364
-0.16741969 -0.3547616 0.052274689
-0.16763441 -0.35484919 0.052219346
-0.16785891 -0.35494474 0.052125752
-0.16807447 -0.35503331 0.05206462
-0.16828373 -0.35511532 0.052040566
-0.16849628 -0.35520172 0.051988702
-0.16871509 -0.3552933 0.051911339
-0.16892521 -0.35537797 0.051866446
-0.16914228 -0.35546684 0.05180762
-0.16935563 -0.35555443 0.05174765
-0.16956764 -0.35563946 0.051706217
-0.16977865 -0.35572538 0.051653206
-0.16998731 -0.35580951 0.051608309
-0.17020029 -0.35589734 0.051544875
-0.17041343 -0.35598382 0.051494166
-0.17062406 -0.35606998 0.051437687
-0.17082727 -0.35614842 0.05142523
-0.1710382 -0.35623509 0.051365279
-0.17124656 -0.35631976 0.0513146
-0.1714538 -0.35640359 0.051267385
-0.17165941 -0.3564845 0.051241033
-0.17186806 -0.35656977 0.051185716
-0.17208193 -0.35665795 0.051122278
-0.17228451 -0.35673836 0.051090147
-0.17248657 -0.35681844 0.051059172
-0.17269112 -0.35690075 0.051016606
-0.17292376 -0.3570039 0.050882455
-0.17314975 -0.35709462 0.050837491
-0.17331052 -0.35713938 0.050982684
-0.17348501 -0.35720307 0.051005095
-0.17374378 -0.35732442 0.050796732
-0.17396061 -0.35742894 0.050596651
-0.17416054 -0.35750818 0.050565682
-0.17431675 -0.35754544 0.050763004
-0.17452599 -0.35763481 0.050672948
-0.17472927 -0.35771731 0.050624609
-0.17493233 -0.35779786 0.050592475
-0.17513159 -0.35787702 0.050560355
-0.1753355 -0.35795677 0.050538633
-0.17553425 -0.3580375 0.050490312
-0.17573136 -0.35811505 0.050465148
-0.17593169 -0.35819563 0.050423764
-0.17614023 -0.35827819 0.050392762
-0.17632769 -0.35835102 0.050376907
-0.17652752 -0.35842961 0.050351731
-0.1767409 -0.35851693 0.050294079
-0.17692354 -0.35858759 0.050281715
-0.17711544 -0.35866109 0.050275106
-0.17731518 -0.35874 0.050246459
-0.17751187 -0.35881817 0.05021435
-0.17770489 -0.35889301 0.050199628
-0.17789268 -0.35896301 0.050210401
-0.17808765 -0.35903588 0.050219983
-0.17826653 -0.35909954 0.050257429
-0.17843877 -0.35915488 0.050346997
-0.1786086 -0.35920581 0.050467849
-0.17876171 -0.35923851 0.050695285
-0.17786825 -0.35800689 0.058705747
-0.17834905 -0.35824275 0.05822549
-0.1784831 -0.35825196 0.058598906
-0.17869203 -0.35833707 0.058545899
-0.17903574 -0.35843146 0.058868632
-0.17915222 -0.35842159 0.059353277
-0.18095309 -0.35950851 0.055728376
-0.18115816 -0.35958856 0.055707812
-0.18137868 -0.35966817 0.055743907
-0.18160942 -0.35976571 0.055653773
-0.18178773 -0.35983005 0.055683106
-0.18197963 -0.35990149 0.05569502
-0.18218918 -0.3599844 0.055664014
-0.18238677 -0.36006704 0.055594858
-0.18255165 -0.36012965 0.055594143
-0.18278606 -0.36022225 0.055560723
-0.18296848 -0.36029398 0.055537939
-0.1831577 -0.36036557 0.055539437
-0.18336751 -0.36044186 0.055568639
-0.18355763 -0.3605094 0.055609509
-0.18372786 -0.36057314 0.055616885
-0.18393564 -0.36066827 0.055470102
-0.1841194 -0.36074477 0.055409104
-0.1843299 -0.36081693 0.055477668
-0.18453953 -0.36089614 0.055480242
-0.18471649 -0.36096528 0.055462118
-0.184939 -0.36105672 0.055398636
-0.18512857 -0.3611269 0.055414028
-0.18529785 -0.36119297 0.05539709
-0.18548374 -0.36126173 0.055412509
-0.18570897 -0.36135423 0.055349015
-0.18590927 -0.36143169 0.055335417
-0.18610534 -0.36151284 0.055274364
-0.18629581 -0.36158749 0.055252708
-0.18647201 -0.36165091 0.055283211
-0.1866698 -0.3617287 0.055258051
-0.18684652 -0.36179581 0.055257283
-0.18702832 -0.36186019 0.055298187
-0.18723544 -0.3619529 0.055171095
-0.18740779 -0.36201483 0.055201612
-0.18761173 -0.36208865 0.055233162
-0.18783464 -0.36218336 0.055141896
-0.18798666 -0.36223218 0.055221129
-0.1881941 -0.36232331 0.055109087
-0.18838656 -0.36239228 0.055145308
-0.18857998 -0.36246893 0.055115532
-0.18876879 -0.36253971 0.055122823
-0.18896195 -0.36260968 0.0551521
-0.18915516 -0.36268976 0.055091057
-0.18932809 -0.36274961 0.055142425
-0.18954358 -0.36284989 0.054975927
-0.18974499 -0.36292803 0.054960012
-0.18992445 -0.36299011 0.055013657
-0.1901077 -0.36305737 0.055033714
-0.1902936 -0.36313543 0.054965761
-0.19049571 -0.36321861 0.05490699
-0.19068356 -0.36328542 0.054946713
-0.19088612 -0.36336595 0.054913428
-0.19106755 -0.3634347 0.054913804
-0.19126129 -0.36351395 0.054862022
-0.19145834 -0.36359069 0.054843813
-0.19163984 -0.36366373 0.054805979
-0.19180232 -0.36371624 0.054887496
-0.19200169 -0.36379287 0.054878533
-0.19219673 -0.36387891 0.054770015
-0.19238918 -0.36394927 0.054793503
-0.19258435 -0.36402389 0.054788031
-0.19277084 -0.36410567 0.054688811
-0.19294541 -0.36416471 0.054752901
-0.19315512 -0.36425027 0.054698735
-0.19331944 -0.36431846 0.054645926
-0.19351809 -0.36439079 0.05467286
-0.19372505 -0.36447248 0.05464419
-0.19391014 -0.36453566 0.054707073
-0.19409296 -0.36460856 0.054675028
-0.19426541 -0.36466849 0.054724075
-0.19446076 -0.36475864 0.054579668
-0.19464715 -0.36482888 0.054583494
-0.19484314 -0.36490667 0.054552544
-0.195032 -0.36497179 0.054610785
-0.19521393 -0.36504409 0.054581061
-0.1954059 -0.36511993 0.054553606
-0.19559398 -0.36520413 0.054438166
-0.19577174 -0.3652693 0.054458246
-0.19596598 -0.36533958 0.054488678
-0.19615762 -0.36542097 0.054410275
-0.19634853 -0.36549038 0.054437242
-0.19652665 -0.36555645 0.054450378
-0.19669926 -0.36561707 0.054493628
-0.19689375 -0.36570537 0.054363117
-0.1970896 -0.36577946 0.054364584
-0.19726151 -0.3658388 0.054417111
-0.19745652 -0.36592343 0.054321334
-0.19765784 -0.36600375 0.054285727
-0.19785236 -0.36608186 0.054246686
-0.1980495 -0.36615321 0.0542771
-0.19824114 -0.3662318 0.054224171
-0.19842374 -0.36630294 0.054207183
-0.19858967 -0.36635494 0.054304887
-0.19877502 -0.36643293 0.054235771
-0.19896826 -0.36650929 0.054208316
-0.19916837 -0.36658862 0.054177348
-0.19932568 -0.36664808 0.05417899
-0.19951206 -0.36671472 0.054215249
-0.19969814 -0.36678845 0.054186661
-0.1999045 -0.36686966 0.054160301
-0.20009029 -0.36694315 0.054132864
-0.20028606 -0.36702007 0.054108873
-0.20045805 -0.3670975 0.053999294
-0.20064081 -0.36716288 0.054034404
-0.20083652 -0.36723113 0.054087982
-0.20102416 -0.36731204 0.054000333
-0.20120138 -0.36737907 0.05400189
-0.20136826 -0.36742115 0.054192223
-0.20157297 -0.36752042 0.053997975
-0.20173872 -0.36757934 0.054033168
-0.20192181 -0.36765739 0.053955954
-0.20211247 -0.36772978 0.053955138
-0.20229377 -0.36780185 0.05392541
-0.20248412 -0.36787334 0.053931542
-0.20267157 -0.36794594 0.053917997
-0.20284894 -0.36801547 0.053897552
-0.2030382 -0.36808228 0.053941894
-0.20324348 -0.36816618 0.053887755
-0.20341 -0.36822939 0.053887043
-0.20358403 -0.36829934 0.053851552
-0.20377077 -0.36837 0.053853069
-0.2039552 -0.3684462 0.053796701
-0.20414983 -0.36852744 0.053729866
-0.20433484 -0.36858764 0.053819388
-0.20451279 -0.36866605 0.053721361
-0.2046845 -0.36872208 0.053802833
-0.20487556 -0.36880428 0.053715169
-0.20505932 -0.36888102 0.053651862
-0.20525934 -0.36895916 0.053631321
-0.20544162 -0.3690218 0.053689577
-0.20561734 -0.36908323 0.053736296
-0.20579025 -0.36915144 0.053712398
-0.20597698 -0.36923176 0.053627074
-0.20615652 -0.36930534 0.05357768
-0.20633949 -0.36938605 0.053476155
-0.20652871 -0.36945581 0.053493872
-0.20671448 -0.36951435 0.053600747
-0.20689033 -0.369569 0.053708833
-0.20706938 -0.36965582 0.053539015
-0.20725851 -0.36973149 0.053503469
-0.20744769 -0.36980242 0.053510766
-0.20763019 -0.36986953 0.053529661
-0.20780811 -0.3699559 0.053359848
-0.20799781 -0.37001634 0.05346325
-0.20817727 -0.37007737 0.053526156
-0.20836931 -0.3701548 0.053484805
-0.20855774 -0.37023175 0.053435363
-0.20873319 -0.37029824 0.053435773
-0.20891394 -0.37037811 0.053334266
-0.20909852 -0.3704541 0.053280205
-0.20928439 -0.3705208 0.053314146
-0.20946383 -0.37058353 0.053362001
-0.20964915 -0.37065426 0.053357735
-0.20983024 -0.37072793 0.053312965
-0.21001045 -0.37078759 0.05339092
-0.21019061 -0.37086514 0.053307939
-0.21037079 -0.37095731 0.053094115
-0.21056533 -0.37101853 0.053206749
-0.21074404 -0.37107062 0.053347241
-0.21092539 -0.37115535 0.053204052
-0.21111663 -0.37123016 0.053183548
-0.21129751 -0.37128928 0.053268455
-0.21146989 -0.37137628 0.053074338
-0.21166776 -0.37144148 0.053162646
-0.21185161 -0.37151501 0.053128287
-0.21203132 -0.37158918 0.053074244
-0.21221212 -0.37166002 0.053053781
-0.21239713 -0.37172976 0.05305763
-0.21258943 -0.37179089 0.053163327
-0.21275918 -0.37186024 0.053118601
-0.21293773 -0.37193617 0.053044889
-0.21312408 -0.37201169 0.053001247
-0.21331234 -0.3720828 0.053003915
-0.2134911 -0.37214884 0.053019352
-0.21367133 -0.37222013 0.052993104
-0.21385236 -0.37228963 0.052985378
-0.21403608 -0.37236172 0.052963749
-0.2142204 -0.37244007 0.052887693
-0.21440189 -0.37250111 0.052957546
-0.21458355 -0.37257653 0.052898876
-0.21477517 -0.37264168 0.052966364
-0.21496141 -0.37272298 0.052870616
-0.2151394 -0.37279031 0.052872173
-0.21532229 -0.37286308 0.052841276
-0.21549809 -0.37292093 0.052920416
-0.21567135 -0.3729955 0.052840937
-0.21585409 -0.37306821 0.052810051
-0.21603657 -0.37313518 0.052830111
-0.21621865 -0.37321463 0.0527367
-0.21641093 -0.37329152 0.052701138
-0.2165923 -0.3733542 0.05275593
-0.21676247 -0.37342033 0.052741315
-0.21694995 -0.37349761 0.052686088
-0.21713254 -0.37356988 0.052658666
-0.21731639 -0.37363002 0.052744724
-0.21749222 -0.37369987 0.052716177
-0.2176695 -0.37376794 0.052708462
-0.21785085 -0.37384158 0.052664854
-0.21803588 -0.37391597 0.052627005
-0.21821536 -0.37398642 0.052605387
-0.21840404 -0.37405679 0.052616157
-0.21858491 -0.37413049 0.05257022
-0.21877158 -0.37419826 0.052597217
-0.21894696 -0.37426808 0.052567516
-0.21913238 -0.37433267 0.05261882
-0.21930049 -0.37441379 0.052462943
-0.2194799 -0.37448835 0.052404277
-0.21967219 -0.37454677 0.05253429
-0.21984071 -0.37462249 0.052428201
-0.22002615 -0.37469575 0.05240193
-0.22020558 -0.37476167 0.052420851
-0.22039789 -0.37482914 0.052469805
-0.22056986 -0.37490141 0.052406549
-0.22075015 -0.37497479 0.052361779
-0.22093591 -0.37504762 0.052340131
-0.22111897 -0.3751148 0.052360188
-0.22131221 -0.37518197 0.052414939
-0.22149192 -0.37525564 0.052365534
-0.22166064 -0.37533349 0.052240923
-0.22182967 -0.37541085 0.05212209
-0.22202419 -0.37547719 0.052188415
-0.22220618 -0.37554166 0.052229315
-0.22239305 -0.37561002 0.052251667
-0.22257575 -0.37568831 0.052170992
-0.22278057 -0.37576231 0.052203692
-0.2229543 -0.37582558 0.052227259
-0.22313407 -0.37589189 0.052243859
-0.22330578 -0.37595993 0.052217647
-0.22348993 -0.37603694 0.05215317
-0.22367787 -0.37610173 0.052211419
-0.22384506 -0.37618211 0.052059017
-0.22403266 -0.3762536 0.052055895
-0.22421795 -0.37632006 0.052089833
-0.22440332 -0.3763929 0.052067045
-0.22458616 -0.37646711 0.052023418
-0.2247642 -0.37653455 0.052023809
-0.22494823 -0.37660804 0.051990602
-0.22513366 -0.37668079 0.051968958
-0.22530943 -0.37674946 0.051950835
-0.22549252 -0.37681147 0.052017208
-0.22568065 -0.37688589 0.051989775
-0.22587562 -0.37695694 0.052015562
-0.22605085 -0.37703171 0.051940709
-0.22621371 -0.37709796 0.051900636
-0.22639976 -0.37716755 0.051909104
-0.22657311 -0.37723738 0.051872469
-0.22676259 -0.37730828 0.051880918
-0.22694606 -0.37737641 0.05189402
-0.22713315 -0.37744847 0.051883958
-0.22729006 -0.3775225 0.051753595
-0.22748153 -0.37759531 0.051751621
-0.22763765 -0.37766671 0.051642116
-0.22784491 -0.37772527 0.05182185
-0.2280069 -0.37780473 0.051660214
-0.22819304 -0.37787193 0.051690672
-0.22839285 -0.37793654 0.051790547
-0.22859454 -0.37800837 0.051832519
-0.22876713 -0.37808344 0.0517461
-0.22893748 -0.3781592 0.051645793
-0.22915788 -0.37822443 0.051810421
-0.22933631 -0.3782998 0.051741339
-0.22950003 -0.37837523 0.051621381
-0.22967967 -0.37844512 0.051605552
-0.22985592 -0.37850896 0.051632583
-0.23001958 -0.37858412 0.051514935
-0.23022589 -0.37865251 0.051603206
-0.23040214 -0.37872356 0.051565405
-0.23058714 -0.37879419 0.051561132
-0.23076656 -0.37886426 0.051542994
-0.2309441 -0.37893489 0.051513284
-0.23111811 -0.37900198 0.051503278
-0.23130634 -0.3790763 0.051476996
-0.23149586 -0.37914798 0.051478494
-0.23166451 -0.37921667 0.051436089
