# .PCD v0.7 - Point Cloud Data file format
VERSION 0.7
FIELDS x y z
SIZE 4 4 4
TYPE F F F
COUNT 1 1 1
WIDTH 815
HEIGHT 1
VIEWPOINT 0 0 0 1 0 0 0
POINTS 815
DATA ascii
-0.34307715 -0.27474001 0.062681489
-0.34330076 -0.27471244 0.062681541
-0.34353745 -0.27469578 0.06259045
-0.34378105 -0.27466416 0.062601939
-0.34397534 -0.27462962 0.062679373
-0.34418663 -0.27459931 0.06271062
-0.34437114 -0.27456233 0.062814616
-0.34462482 -0.27454117 0.062740751
-0.34492603 -0.27453381 0.062523685
-0.34516233 -0.27450866 0.062494848
-0.34538424 -0.27448145 0.062493764
-0.34560224 -0.27445489 0.062491536
-0.34581131 -0.27442294 0.062536612
-0.34604725 -0.27441064 0.062414415
-0.34629649 -0.27437836 0.062425867
-0.34653646 -0.27435952 0.062347449
-0.34674358 -0.27432576 0.062407531
-0.34697977 -0.27430141 0.062372934
-0.34719506 -0.27427313 0.062385716
-0.34743753 -0.27425227 0.062319957
-0.3476384 -0.2742202 0.06237315
-0.34785923 -0.27419204 0.062380143
-0.34810358 -0.27417204 0.062306315
-0.34834608 -0.27415007 0.062248632
-0.34855703 -0.27412108 0.062270649
-0.34879839 -0.27410066 0.062202595
-0.34895712 -0.27407014 0.06228251
-0.34916696 -0.27404428 0.062282637
-0.34945154 -0.27401838 0.062215522
-0.34971535 -0.2740033 0.062088568
-0.34989834 -0.27396664 0.062191419
-0.35012817 -0.27394193 0.062164932
-0.35036057 -0.27391979 0.062117681
-0.35059178 -0.27389571 0.062085412
-0.35080284 -0.27386749 0.06210167
-0.35101905 -0.27384081 0.062101759
-0.35123473 -0.27381408 0.062103003
-0.35147464 -0.27379304 0.062040724
-0.35171947 -0.27377537 0.061949596
-0.35195678 -0.27375388 0.061893098
-0.35214764 -0.27371991 0.061969396
-0.35238665 -0.27369913 0.061905965
-0.3525832 -0.27366698 0.061963797
-0.35280508 -0.27364108 0.061953478
-0.35305154 -0.27362302 0.061863504
-0.35326645 -0.27359512 0.061873965
-0.35347509 -0.27356702 0.061891396
-0.35370889 -0.27354532 0.061839521
-0.35392886 -0.27352104 0.061818838
-0.35414588 -0.27349412 0.061820075
-0.35433337 -0.27347541 0.061788026
-0.35457131 -0.27343947 0.061836433
-0.35476798 -0.27340779 0.061890796
-0.35501 -0.27338949 0.061806604
-0.35524267 -0.27336824 0.061752427
-0.3554675 -0.27334449 0.061723653
-0.35568443 -0.27331996 0.061707601
-0.35591388 -0.273298 0.061661519
-0.35614419 -0.2732783 0.06159813
-0.35636398 -0.27325326 0.061583214
-0.35657132 -0.27322581 0.06159718
-0.35679972 -0.27320397 0.061551098
-0.35700884 -0.27318102 0.061530471
-0.35723436 -0.27315465 0.061520137
-0.3574594 -0.27313387 0.061469458
-0.35765189 -0.27309954 0.061546914
-0.35779995 -0.27306795 0.061644174
-0.35809511 -0.27305406 0.061480172
-0.35829484 -0.27302438 0.061517231
-0.35851368 -0.27300182 0.06148503
-0.35875213 -0.27298287 0.061408918
-0.35895726 -0.27295348 0.061439037
-0.35916892 -0.27293828 0.061359607
-0.35939804 -0.27291036 0.061357327
-0.35959074 -0.27288815 0.061346002
-0.35983843 -0.27286366 0.061302125
-0.36003718 -0.27283409 0.061339192
-0.36025202 -0.27280885 0.061330065
-0.36046523 -0.2727851 0.061311733
-0.36068702 -0.27276281 0.061274901
-0.36090851 -0.27274057 0.06123808
-0.3611142 -0.27271205 0.061261266
-0.361341 -0.2726942 0.061187536
-0.3615461 -0.27266559 0.061211884
-0.36175174 -0.27263927 0.06121894
-0.36197811 -0.27261961 0.06115903
-0.36217144 -0.27258831 0.061213419
-0.36238778 -0.27256465 0.061191604
-0.36261058 -0.27254382 0.061143246
-0.3628262 -0.2725201 0.061122581
-0.36301783 -0.27248824 0.061182737
-0.36324939 -0.27247155 0.061096296
-0.36345303 -0.27244499 0.061106823
-0.36369094 -0.27243575 0.06096039
-0.36389038 -0.27240327 0.061018206
-0.36410072 -0.27237779 0.061014868
-0.36431673 -0.27235496 0.060987286
-0.36453611 -0.27233377 0.060944706
-0.36474517 -0.2723102 0.060928695
-0.36495 -0.27228257 0.060946129
-0.36515987 -0.27225733 0.060941637
-0.36536855 -0.27223158 0.060941767
-0.36558819 -0.27221337 0.060877278
-0.36579657 -0.27218768 0.060877413
-0.36600477 -0.27216199 0.060877539
-0.36621967 -0.27213961 0.060847659
-0.36642095 -0.27211305 0.060860507
-0.36663708 -0.27209145 0.060823709
-0.36683115 -0.27205914 0.060885005
-0.3670592 -0.27204368 0.060792811
-0.36726004 -0.27201715 0.060805652
-0.36747918 -0.27199757 0.060751542
-0.36769131 -0.27197695 0.060711309
-0.36790919 -0.27195704 0.06066066
-0.36811301 -0.27193001 0.060674645
-0.3683261 -0.27190784 0.060644783
-0.36852935 -0.2718831 0.06064263
-0.36872995 -0.27185458 0.060670458
-0.36894748 -0.27183753 0.060599066
-0.3691431 -0.27180645 0.060649991
-0.36936656 -0.27179044 0.060565885
-0.36957031 -0.27176389 0.060576413
-0.36978009 -0.27174324 0.060538489
-0.36999345 -0.27172217 0.060500547
-0.37020332 -0.27169928 0.060478762
-0.37040523 -0.27167201 0.060496219
-0.37061134 -0.27164975 0.060473301
-0.37081397 -0.27162302 0.060486138
-0.3710252 -0.27160394 0.060435526
-0.37121961 -0.27157253 0.0604899
-0.37144199 -0.2715576 0.060398892
-0.37164354 -0.27153051 0.060415193
-0.37185293 -0.27151087 0.060370356
-0.37205628 -0.271485 0.060376279
-0.37225753 -0.27146065 0.060372975
-0.37246731 -0.2714389 0.060343124
-0.37267461 -0.27141571 0.060325973
-0.37287858 -0.27139056 0.060326114
-0.37309006 -0.271373 0.060263976
-0.37329876 -0.27135107 0.060236439
-0.37351307 -0.27133569 0.060155831
-0.3737058 -0.27130371 0.060215987
-0.3738991 -0.27128065 0.060210429
-0.37408617 -0.27126515 0.060155325
-0.37431476 -0.27123082 0.060200311
-0.37453353 -0.27121633 0.06010931
-0.37473136 -0.27119082 0.060117573
-0.37493122 -0.27116379 0.060135029
-0.37513763 -0.27114135 0.060113262
-0.37534142 -0.27111715 0.06010649
-0.37554866 -0.27109855 0.060055908
-0.37574688 -0.27107063 0.060081441
-0.3759523 -0.27105099 0.060040094
-0.3761203 -0.27103245 0.060024269
-0.3763561 -0.27100703 0.059997752
-0.37655535 -0.27097693 0.060038269
-0.37676549 -0.27095813 0.059986513
-0.3769716 -0.27093649 0.059958979
-0.37717801 -0.27091846 0.059904944
-0.37736586 -0.27088961 0.059946667
-0.37755954 -0.27086854 0.059926122
-0.37775242 -0.27084365 0.059934393
-0.377974 -0.27081808 0.059921779
-0.37817901 -0.27079627 0.059896559
-0.37838256 -0.27077338 0.059880573
-0.37858236 -0.27075443 0.059839241
-0.37876865 -0.27072796 0.059864841
-0.37895226 -0.27070624 0.059858177
-0.37916362 -0.27068681 0.059809871
-0.37938476 -0.27066526 0.059768435
-0.3795841 -0.27064666 0.059724797
-0.37979773 -0.27061892 0.059735276
-0.37999386 -0.27059045 0.059766583
-0.38018927 -0.27057615 0.059695303
-0.38038653 -0.27055624 0.059663206
-0.38057595 -0.27052557 0.059716456
-0.38078696 -0.27050716 0.059661236
-0.38097918 -0.27048296 0.059664905
-0.38119513 -0.27045792 0.059653461
-0.38139626 -0.27043453 0.059643254
-0.38155985 -0.2704066 0.05970009
-0.38180992 -0.27039522 0.059558213
-0.38198426 -0.27036992 0.059586182
-0.38218808 -0.27034557 0.059580568
-0.38239267 -0.27032205 0.059568033
-0.38261074 -0.2703042 0.059502408
-0.38280481 -0.27027851 0.059515279
-0.38300785 -0.27025804 0.059482004
-0.38319284 -0.27023569 0.05947879
-0.38339946 -0.27020627 0.059507743
-0.38360593 -0.27018997 0.059441023
-0.38377944 -0.27017298 0.059409041
-0.38398555 -0.27014771 0.059408024
-0.38420096 -0.27012858 0.059353933
-0.38439909 -0.27009892 0.059392162
-0.38457218 -0.270082 0.059360184
-0.38477054 -0.27006209 0.059326932
-0.38497114 -0.27003548 0.059340931
-0.38517895 -0.27001774 0.05928342
-0.38536778 -0.26999143 0.059305541
-0.38557401 -0.26996711 0.059297614
-0.38579324 -0.26994434 0.059266564
-0.38597459 -0.26992893 0.059216097
-0.38616928 -0.26990539 0.059212834
-0.38636306 -0.26988068 0.059218802
-0.38654882 -0.26985049 0.059272073
-0.38675198 -0.26983333 0.059214581
-0.38695055 -0.26982102 0.05912599
-0.38715157 -0.26979589 0.059128456
-0.38736963 -0.26976728 0.059141222
-0.38755956 -0.2697489 0.059104547
-0.38775182 -0.26972833 0.059081696
-0.3879351 -0.2697002 0.059122305
-0.38811797 -0.2696833 0.059081055
-0.38832074 -0.26966146 0.05905816
-0.38852122 -0.26963609 0.059062935
-0.38871291 -0.26961529 0.059042387
-0.38891664 -0.26958907 0.059050605
-0.3891252 -0.2695711 0.058994249
-0.38930765 -0.26954809 0.058997966
-0.38950217 -0.26952615 0.058983169
-0.3897045 -0.26950467 0.058957964
-0.38988531 -0.26947889 0.058983594
-0.3900888 -0.26945978 0.058939934
-0.39030495 -0.26943615 0.058918133
-0.39049327 -0.26941764 0.058883771
-0.39069304 -0.26939207 0.058890857
-0.39088064 -0.2693648 0.058921061
-0.39107352 -0.26934844 0.058867082
-0.39126965 -0.26932329 0.058874182
-0.3914493 -0.26930332 0.058858313
-0.39166039 -0.26929483 0.058730461
-0.39186406 -0.26926166 0.05878941
-0.39205015 -0.26923981 0.058781579
-0.39225537 -0.26921892 0.058749445
-0.39245424 -0.26920119 0.058700044
-0.39263916 -0.26917696 0.058710665
-0.39283624 -0.26915517 0.058692411
-0.3930254 -0.26913229 0.058689162
-0.39322028 -0.26910478 0.058714725
-0.39342111 -0.2690835 0.058689527
-0.3936184 -0.26906294 0.058662038
-0.39381781 -0.26903787 0.05866567
-0.39401093 -0.26901641 0.058648586
-0.39420858 -0.26899773 0.058607265
-0.39439806 -0.26897687 0.058589034
-0.39458707 -0.26895466 0.058581196
-0.39479485 -0.26893377 0.058546741
-0.39498755 -0.26891205 0.058531955
-0.39518461 -0.26889312 0.058492944
-0.39537343 -0.2688711 0.058483943
-0.3955659 -0.26884907 0.058471471
-0.3957662 -0.26882958 0.058433592
-0.3959541 -0.26880404 0.058451112
-0.39614657 -0.26878268 0.058434032
-0.39634517 -0.26875579 0.0584515
-0.39654487 -0.26873463 0.058426306
-0.3967306 -0.26871693 0.058388501
-0.39692301 -0.26869652 0.058364503
-0.39711839 -0.26867241 0.058364697
-0.39730713 -0.26865244 0.058340706
-0.39750263 -0.26862958 0.058331676
-0.39769846 -0.26860937 0.058303043
-0.3979044 -0.26858413 0.058302037
-0.39808583 -0.26856539 0.058275778
-0.39829227 -0.26854545 0.058235571
-0.39848015 -0.26852039 0.05824963
-0.39867878 -0.26849461 0.058259033
-0.3988674 -0.26847845 0.05820737
-0.39905214 -0.26846039 0.058173038
-0.39924026 -0.26843956 0.058155969
-0.3994284 -0.26842061 0.058125075
-0.39962655 -0.2683832 0.058219779
-0.39981818 -0.2683613 0.058207318
-0.40001336 -0.26834086 0.058180988
-0.40020853 -0.2683318 0.058071669
-0.40039992 -0.2683115 0.058047667
-0.40059489 -0.26828411 0.058072068
-0.40078288 -0.26825538 0.058112644
-0.40098113 -0.2682409 0.058040198
-0.40117586 -0.26822194 0.058003496
-0.40136346 -0.2682021 0.057979524
-0.40155867 -0.2681728 0.058017764
-0.40174979 -0.26815271 0.057992615
-0.40194815 -0.26812902 0.057987027
-0.40214604 -0.26811078 0.057942245
-0.40233392 -0.26808679 0.057948232
-0.40253571 -0.26806319 0.057939168
-0.40273404 -0.26803949 0.057933584
-0.40291825 -0.26801708 0.057931531
-0.40309915 -0.26799333 0.057942171
-0.40329257 -0.26797959 0.057868589
-0.40349054 -0.26795769 0.05785032
-0.40369144 -0.26793891 0.057806686
-0.40387982 -0.26791173 0.057835724
-0.40406951 -0.26789686 0.057773694
-0.40425727 -0.26787338 0.057776231
-0.40445194 -0.26784998 0.057771813
-0.40463492 -0.26783293 0.057731722
-0.4048332 -0.26780865 0.057730742
-0.40503061 -0.26778808 0.057703253
-0.40520924 -0.26777408 0.057644732
-0.40539709 -0.26775011 0.05765073
-0.40559253 -0.26772332 0.057670519
-0.40577453 -0.26770875 0.057613134
-0.4059768 -0.26768222 0.057624817
-0.40617326 -0.26765215 0.057667661
-0.40637097 -0.26763013 0.057650551
-0.40656361 -0.26761347 0.057598881
-0.40674844 -0.26759967 0.057533417
-0.40693277 -0.26758704 0.057459876
-0.40712589 -0.26755738 0.057502739
-0.40732092 -0.26753253 0.057508688
-0.40752137 -0.26750195 0.057551511
-0.40770927 -0.26748809 0.057483725
-0.40790763 -0.26746362 0.057483904
-0.40808928 -0.26743868 0.057502612
-0.40827808 -0.26742184 0.057455566
-0.40846974 -0.2673974 0.057461545
-0.40869093 -0.2673496 0.05761148
-0.40891728 -0.26732346 0.057598829
-0.40911713 -0.26728806 0.057677396
-0.40931442 -0.2672514 0.057767507
-0.40951702 -0.26721078 0.057881795
-0.40970686 -0.26717693 0.0579581
-0.40990815 -0.26714057 0.058042422
-0.41008884 -0.26710561 0.058134913
-0.41030592 -0.26706526 0.05823414
-0.4105058 -0.26702639 0.058338068
-0.4107042 -0.26699117 0.058416639
-0.41091713 -0.26695418 0.058495142
-0.411093 -0.26691791 0.058601484
-0.41129515 -0.26688337 0.058671974
-0.41151875 -0.26684016 0.05878615
-0.41172525 -0.26679826 0.058906186
-0.41192645 -0.26676065 0.058999732
-0.41212976 -0.26672578 0.059071355
-0.41233325 -0.26668489 0.059186801
-0.41253921 -0.26664621 0.059283774
-0.41273385 -0.26661018 0.059371591
-0.41295025 -0.26656598 0.05949964
-0.34302536 -0.27474084 0.06272193
-0.34326196 -0.27471644 0.062687322
-0.3434791 -0.27469346 0.062659718
-0.34374008 -0.27466765 0.06261345
-0.34394583 -0.27463597 0.062659703
-0.34416258 -0.27460703 0.062675923
-0.34433088 -0.27456602 0.062823839
-0.34457824 -0.27454329 0.062767267
-0.34488875 -0.27453828 0.062524721
-0.34513015 -0.27451596 0.062470481
-0.34532195 -0.27448106 0.062552556
-0.3456288 -0.27447429 0.062326171
-0.34575778 -0.27442324 0.062582672
-0.34601668 -0.27440748 0.062464915
-0.34620902 -0.27437758 0.062510088
-0.34649408 -0.27436113 0.062373765
-0.34669629 -0.27432609 0.062447712
-0.34692562 -0.27430147 0.062421195
-0.34716678 -0.27428013 0.062360041
-0.34739956 -0.27425507 0.062333517
-0.34762481 -0.27422968 0.062316254
-0.34781605 -0.27419344 0.062408704
-0.34806478 -0.27417466 0.06232214
-0.34830174 -0.27415115 0.062280603
-0.34853038 -0.2741271 0.062250644
-0.34875721 -0.2741026 0.062225297
-0.34893581 -0.27407771 0.062246323
-0.3491632 -0.27405524 0.062205985
-0.34940442 -0.27402362 0.062219776
-0.34967917 -0.27400669 0.062096186
-0.34987822 -0.27397472 0.062150538
-0.35008392 -0.27394304 0.062196791
-0.35033876 -0.27392745 0.062081378
-0.35056305 -0.27390137 0.062069885
-0.35078463 -0.27387628 0.062053792
-0.35099271 -0.27384558 0.06209081
-0.35121018 -0.27381939 0.062086269
-0.3514494 -0.2737999 0.062013589
-0.35167453 -0.27377623 0.061983649
-0.35192147 -0.27375767 0.061897084
-0.35212511 -0.27372766 0.061932974
-0.35235089 -0.27370283 0.061911091
-0.35255867 -0.27367422 0.061933123
-0.35275802 -0.27364126 0.0619944
-0.35301355 -0.27362779 0.061862841
-0.35323629 -0.2736024 0.061847888
-0.35343769 -0.27357203 0.061888397
-0.35367289 -0.27355081 0.06183188
-0.35388857 -0.27352515 0.061825052
-0.35410196 -0.27349883 0.061825134
-0.35428894 -0.27347642 0.061820753
-0.35454163 -0.27344891 0.061794125
-0.35473505 -0.27341622 0.061858885
-0.35495627 -0.27339101 0.061843954
-0.35519916 -0.27337497 0.061742425
-0.35542533 -0.2733517 0.061709017
-0.35563505 -0.27332473 0.061717197
-0.35586518 -0.273303 0.06166878
-0.35607758 -0.27327713 0.061666571
-0.35633472 -0.27326506 0.06152346
-0.35652924 -0.27323318 0.061581302
-0.35675097 -0.27320901 0.061558291
-0.35697913 -0.2731891 0.061498351
-0.35718027 -0.27315781 0.061545782
-0.35740337 -0.27313632 0.061502017
-0.35761708 -0.27311155 0.061490573
-0.3577731 -0.27308106 0.06157282
-0.35802427 -0.27305296 0.061551966
-0.35825872 -0.27303609 0.061464321
-0.35848457 -0.27301425 0.06142053
-0.35869542 -0.27298889 0.06141603
-0.35890591 -0.27296153 0.061426517
-0.35912561 -0.27293965 0.061388522
-0.35932505 -0.27291995 0.061352938
-0.35955647 -0.27289301 0.061341412
-0.35980475 -0.27288061 0.061208732
-0.35998008 -0.27283999 0.061347377
-0.36019456 -0.27281466 0.061339393
-0.3604078 -0.27279091 0.061321039
-0.3606326 -0.27276984 0.06127264
-0.36086172 -0.27275267 0.061191946
-0.36105168 -0.27271783 0.061275177
-0.36127791 -0.27269977 0.061203711
-0.36149132 -0.27267456 0.061195731
-0.36169776 -0.27264863 0.061199322
-0.36191997 -0.27262723 0.06115555
-0.36211941 -0.27259853 0.061185695
-0.36232805 -0.27257377 0.061178885
-0.36253312 -0.27254751 0.061185941
-0.36275655 -0.2725271 0.0611341
-0.36296415 -0.27250212 0.061129604
-0.36317405 -0.27247608 0.061130866
-0.36339808 -0.27245843 0.061058268
-0.36357412 -0.27243274 0.061087366
-0.36383861 -0.2724182 0.060955752
-0.36403608 -0.27238706 0.061005514
-0.364243 -0.27236232 0.060999863
-0.36445582 -0.27234036 0.060968831
-0.36467037 -0.27231929 0.060929716
-0.36487842 -0.27229315 0.060933299
-0.36508286 -0.27226761 0.060935736
-0.3652904 -0.27224138 0.060940463
-0.36550397 -0.27222028 0.060902514
-0.36571938 -0.2722002 0.060855314
-0.36592376 -0.27217501 0.060855456
-0.36613157 -0.27214924 0.06085673
-0.36633649 -0.27212444 0.060853399
-0.36655208 -0.27210259 0.060818896
-0.36675391 -0.27207643 0.060828269
-0.36695921 -0.27205208 0.060821481
-0.36716211 -0.27202657 0.060825087
-0.36738002 -0.27200633 0.060776725
-0.36759871 -0.27198902 0.060706452
-0.36781311 -0.27196971 0.060654655
-0.3680166 -0.27194494 0.060652487
-0.36822227 -0.27191895 0.060657226
-0.36842895 -0.27189597 0.060638908
-0.36863014 -0.27187023 0.060645979
-0.36884502 -0.27185178 0.060587253
-0.36905041 -0.271826 0.060590848
-0.36924767 -0.27179834 0.060615234
-0.36945555 -0.2717765 0.060587686
-0.36966115 -0.27175352 0.060570519
-0.36988506 -0.27173823 0.060480617
-0.37008792 -0.27171403 0.060474999
-0.37028816 -0.27168837 0.060482077
-0.37049034 -0.2716639 0.060478769
-0.37068844 -0.27163458 0.060514674
-0.37090924 -0.27162096 0.060415566
-0.37111148 -0.27159679 0.060409948
-0.37130672 -0.27156863 0.060440116
-0.37151894 -0.27154782 0.060401011
-0.37172657 -0.27152711 0.060365386
-0.37192661 -0.27150196 0.060369007
-0.37212676 -0.27147698 0.060371466
-0.3723264 -0.27145171 0.060376242
-0.37253666 -0.27143306 0.060323305
-0.37274253 -0.27140909 0.060313053
-0.37294331 -0.27138481 0.060309753
-0.37315613 -0.27136821 0.060239516
-0.37336037 -0.27134633 0.060215428
-0.37357578 -0.27132896 0.060148634
-0.37376288 -0.27129623 0.060219198
-0.3739343 -0.27127618 0.060211424
-0.37412369 -0.27125359 0.060205869
-0.37438536 -0.27123845 0.060081195
-0.37458125 -0.27120873 0.06012173
-0.37478215 -0.2711854 0.060111504
-0.37497568 -0.27115709 0.060143989
-0.37516806 -0.271137 0.060117662
-0.37538162 -0.27111366 0.06009585
-0.37558535 -0.27109265 0.060066
-0.37578973 -0.27106917 0.06005346
-0.3759833 -0.27104419 0.060061716
-0.37616801 -0.27102536 0.060033131
-0.37638825 -0.27099806 0.060034342
-0.37658983 -0.27097288 0.060036805
-0.37680003 -0.27095738 0.059960801
-0.37700289 -0.27093664 0.059929818
-0.37720242 -0.27091345 0.059919596
-0.37739003 -0.27088445 0.059962481
-0.37759188 -0.27086321 0.059936114
-0.37780052 -0.27084079 0.059912015
-0.37799606 -0.27081478 0.05992604
-0.37820435 -0.27079904 0.059853502
-0.37839901 -0.27077252 0.059872139
-0.37859324 -0.27075249 0.059843507
-0.37878397 -0.27072629 0.05986331
-0.3789725 -0.27070522 0.059847388
-0.37919399 -0.2706874 0.059778258
-0.37939191 -0.27066395 0.059771501
-0.37959087 -0.27064511 0.05973015
-0.37979838 -0.27061936 0.059731439
-0.38000223 -0.27059042 0.059759244
-0.3801865 -0.27057731 0.059689142
-0.3803792 -0.27055338 0.05969049
-0.38059321 -0.27052638 0.059695199
-0.38078123 -0.27050588 0.059675809
-0.38097841 -0.27048248 0.05966907
-0.38118142 -0.27046472 0.059616167
-0.38139376 -0.27043253 0.059660081
-0.38156763 -0.27040666 0.059692662
-0.38178045 -0.27039891 0.05955784
-0.38197371 -0.27037221 0.059578791
-0.38217875 -0.27034914 0.05956278
-0.38239285 -0.27032718 0.059530579
-0.38259286 -0.27030757 0.059493843
-0.38279253 -0.27028358 0.059489399
-0.38298625 -0.27026188 0.05947344
-0.38318563 -0.27023777 0.059470147
-0.38338095 -0.27021366 0.059470322
-0.38358539 -0.27019525 0.05942088
-0.3837474 -0.27017003 0.059459284
-0.38396695 -0.27015087 0.059401695
-0.38416299 -0.27013254 0.0593592
-0.38436627 -0.27010432 0.059382413
-0.38453168 -0.2700831 0.0593885
-0.38472787 -0.27006537 0.059341408
-0.38494968 -0.27004039 0.05932416
-0.38513741 -0.27002245 0.059286326
-0.38533247 -0.26999903 0.059281904
-0.38554141 -0.26997328 0.059282012
-0.38574016 -0.26995474 0.059238367
-0.38592598 -0.26993498 0.059215531
-0.38612586 -0.26991317 0.059194937
-0.38631335 -0.26988545 0.059228599
-0.38651288 -0.269858 0.059249517
-0.38669536 -0.26983944 0.059220932
-0.38689646 -0.26982522 0.059143826
-0.38709253 -0.26980421 0.059120953
-0.38732401 -0.26977819 0.059102498
-0.38751295 -0.26975852 0.059076197
-0.38769346 -0.26973799 0.059063762
-0.38787693 -0.2697103 0.059100904
-0.38806003 -0.26968786 0.059099995
-0.38826638 -0.26966557 0.059077062
-0.38847363 -0.26964492 0.05904144
-0.38865849 -0.26961941 0.059061281
-0.3888714 -0.26959568 0.059042923
-0.3890585 -0.26958051 0.05898549
-0.38924667 -0.26955429 0.059007615
-0.38944975 -0.26953399 0.058973171
-0.38964498 -0.26951355 0.058946833
-0.38983202 -0.26948541 0.058983956
-0.39003611 -0.2694675 0.058931049
-0.39024648 -0.26944742 0.058888495
-0.39043012 -0.26942745 0.058869131
-0.39062315 -0.26940364 0.058869325
-0.39082187 -0.2693761 0.058891397
-0.3910104 -0.26935869 0.058848947
-0.39120308 -0.26933447 0.058852606
-0.3913838 -0.26930884 0.058877073
-0.39159217 -0.26930258 0.058735363
-0.39179271 -0.26927105 0.0587851
-0.39198253 -0.2692492 0.058773786
-0.39218864 -0.2692306 0.058724329
-0.39238313 -0.2692115 0.058688767
-0.39257064 -0.26918456 0.058716662
-0.39276904 -0.26916626 0.058671862
-0.39295742 -0.26914158 0.058682453
-0.3931483 -0.26911363 0.058714949
-0.39334956 -0.26909354 0.058680505
-0.39354339 -0.2690739 0.058649562
-0.39374673 -0.26904976 0.058642793
-0.39393595 -0.26902786 0.058632623
-0.39413723 -0.26900917 0.058587804
-0.39432162 -0.26898405 0.058605343
-0.39451435 -0.26896203 0.058592848
-0.39471954 -0.2689451 0.058531865
-0.39491552 -0.26892218 0.058522828
-0.39510593 -0.26890612 0.058468834
-0.395298 -0.26888275 0.058466729
-0.39548698 -0.2688618 0.058449641
-0.39569098 -0.26884264 0.058405973
-0.39587831 -0.2688151 0.058438476
-0.39607084 -0.26879436 0.058416765
-0.39626589 -0.2687684 0.058430783
-0.39646575 -0.26874849 0.058396354
-0.39665121 -0.26872972 0.058366604
-0.3968471 -0.26870888 0.058342569
-0.39703876 -0.26868474 0.058346234
-0.39723042 -0.26866063 0.058349892
-0.39742613 -0.2686395 0.058328155
-0.39761841 -0.26862037 0.058294915
-0.3978245 -0.26859683 0.058281217
-0.39800945 -0.26857767 0.058254927
-0.39821592 -0.26855898 0.058205467
-0.39840722 -0.26853302 0.058222968
-0.39860219 -0.26850754 0.058233529
-0.39879441 -0.26849315 0.058165699
-0.39897901 -0.26847368 0.05814172
-0.39917049 -0.26845104 0.058134995
-0.3993549 -0.26842985 0.0581237
-0.39956009 -0.26839378 0.058202248
-0.39974815 -0.26837453 0.058173638
-0.39994675 -0.26835194 0.058159973
-0.40013129 -0.26834813 0.058021832
-0.4003261 -0.26832426 0.058020871
-0.40052095 -0.26829755 0.058040656
-0.40071595 -0.26826748 0.058084656
-0.40090713 -0.26825023 0.058038738
-0.4011052 -0.26823449 0.057975486
-0.40128931 -0.26821256 0.057969958
-0.40148792 -0.26818347 0.058003567
-0.40167895 -0.26816386 0.057974938
-0.40187734 -0.26813892 0.057978563
-0.40207496 -0.26812291 0.057917625
-0.40226635 -0.2680974 0.057931662
-0.40246806 -0.26807427 0.05791913
-0.40266603 -0.2680527 0.057898544
-0.402854 -0.26802713 0.057916053
-0.40303826 -0.26800376 0.05792091
-0.40322518 -0.26798639 0.057879619
-0.40342626 -0.26796648 0.057844024
-0.40362361 -0.26794782 0.057802685
-0.40381816 -0.26792479 0.057795957
-0.40400466 -0.26790792 0.057751212
-0.40419608 -0.26788273 0.057762947
-0.40439019 -0.26786178 0.057741221
-0.4045741 -0.26783988 0.057735704
-0.40476492 -0.26781791 0.057724379
-0.40497258 -0.26779753 0.057686444
-0.40514502 -0.26778036 0.057656758
-0.4053278 -0.26776287 0.057620104
-0.40553138 -0.26773047 0.057673287
-0.40571776 -0.26771224 0.057638925
-0.40591484 -0.26769203 0.057609119
-0.40612191 -0.26766032 0.057654209
-0.40631896 -0.26764029 0.057623252
-0.40650505 -0.26762238 0.057586584
-0.40669003 -0.26760793 0.057525706
-0.40687418 -0.2675958 0.057448681
-0.40707031 -0.26756701 0.057482302
-0.40727264 -0.26754034 0.057495132
-0.40746719 -0.26751679 0.057491861
-0.40765828 -0.26749355 0.05748976
-0.40784776 -0.26747474 0.057456531
-0.4080416 -0.26744404 0.057506304
-0.40823337 -0.26742813 0.05745
-0.40842375 -0.26740685 0.057434067
-0.40863979 -0.26736316 0.057558674
-0.40886852 -0.26733071 0.057589825
-0.40906984 -0.26729971 0.057634953
-0.40927199 -0.26725912 0.057749256
-0.4094699 -0.26722127 0.057847437
-0.409668 -0.26718372 0.057943307
-0.40986076 -0.26715112 0.058008075
-0.41005945 -0.26711333 0.058105104
-0.41025817 -0.26707602 0.058198664
-0.41047305 -0.26703355 0.058315214
-0.4106611 -0.26699865 0.058400761
-0.41086155 -0.26696634 0.058456264
-0.41106066 -0.26692361 0.05858903
-0.41125563 -0.26688978 0.058660701
-0.41146681 -0.26685095 0.058754213
-0.41168731 -0.26680765 0.05887188
-0.41188872 -0.26676935 0.058970049
-0.41209209 -0.26673415 0.059043985
-0.41229805 -0.26669469 0.059146732
-0.41250348 -0.26665673 0.059239116
-0.41270524 -0.26661384 0.059370719
-0.41291499 -0.26657516 0.059464224
-0.34324485 -0.27472225 0.062660389
-0.34346905 -0.27469492 0.062658109
-0.34370449 -0.27466893 0.062636182
-0.34393078 -0.27464229 0.062626973
-0.34415078 -0.27461267 0.062645473
-0.34436268 -0.27458256 0.062674388
-0.34454435 -0.2745434 0.062796861
-0.34485456 -0.27453828 0.062555462
-0.34511352 -0.27451885 0.062464233
-0.345319 -0.27448595 0.062519699
-0.34562337 -0.27448007 0.062288713
-0.34575844 -0.27442908 0.062539414
-0.34600616 -0.27440885 0.062464371
-0.34617144 -0.27437815 0.062539652
-0.34647292 -0.2743597 0.062403228
-0.34668246 -0.27432975 0.062433314
-0.34688908 -0.27429909 0.062471479
-0.34716016 -0.27428576 0.062324829
-0.34736472 -0.27425468 0.062367622
-0.34762448 -0.27423868 0.062251013
-0.34780285 -0.27419895 0.062380418
-0.34804878 -0.2741794 0.062301926
-0.34826979 -0.27415311 0.062295061
-0.34850162 -0.27412993 0.062255848
-0.34873173 -0.27410471 0.062232785
-0.34892023 -0.27408099 0.062236451
-0.34913528 -0.27405828 0.062208854
-0.34934029 -0.27402622 0.06225856
-0.3496384 -0.27400768 0.062125623
-0.34985894 -0.27398193 0.062115289
-0.35006613 -0.2739507 0.062156912
-0.35031182 -0.27393243 0.0620692
-0.35053664 -0.2739082 0.062043857
-0.35075819 -0.2738831 0.062027764
-0.35094759 -0.27384853 0.062109835
-0.35117933 -0.2738266 0.062061399
-0.35140774 -0.27380383 0.062022209
-0.35162625 -0.27377817 0.062013038
-0.35188255 -0.27376413 0.061884917
-0.35208324 -0.27373323 0.061930031
-0.35229409 -0.27370548 0.061942808
-0.35252595 -0.27368435 0.061888605
-0.35271725 -0.27365065 0.061962605
-0.35294756 -0.27362922 0.061911874
-0.35317183 -0.273606 0.061879613
-0.35338905 -0.27357891 0.061881978
-0.35361177 -0.2735554 0.061853193
-0.35382789 -0.27352989 0.061845191
-0.35404554 -0.27350494 0.061831415
-0.3542431 -0.27347884 0.06184426
-0.35444555 -0.27345797 0.06181442
-0.35470781 -0.27343374 0.061755449
-0.35489625 -0.27339944 0.061836377
-0.35511959 -0.27337679 0.06180067
-0.35537073 -0.27336374 0.061670266
-0.35556406 -0.2733312 0.061733872
-0.35578626 -0.27330855 0.061699316
-0.3559984 -0.27328256 0.06169825
-0.35624719 -0.27327117 0.061557487
-0.3564564 -0.27324253 0.061578341
-0.35664725 -0.27320936 0.061648883
-0.3568995 -0.27319789 0.061505787
-0.35709575 -0.27316672 0.061556697
-0.35731107 -0.2731424 0.061540622
-0.3575086 -0.2731193 0.061531559
-0.35772419 -0.27308956 0.0615547
-0.3579309 -0.27306044 0.061581332
-0.35820413 -0.27305779 0.061355114
-0.35839364 -0.27302444 0.061427962
-0.35860953 -0.27300477 0.061377306
-0.35882261 -0.27297646 0.061392374
-0.35902596 -0.27294838 0.061414428
-0.35919008 -0.27291909 0.06148047
-0.35947087 -0.27290508 0.061330318
-0.35965288 -0.27288279 0.061329409
-0.35990161 -0.27285877 0.061280891
-0.36009008 -0.27282524 0.061356045
-0.36029482 -0.27279812 0.061370015
-0.36052778 -0.27278221 0.0612766
-0.36074126 -0.27275872 0.061255928
-0.36095515 -0.27273554 0.061232947
-0.36115867 -0.27270821 0.061249219
-0.36138952 -0.27269208 0.061159283
-0.36158469 -0.27266154 0.061206728
-0.36178815 -0.27263439 0.061221853
-0.36201876 -0.27261862 0.0611296
-0.36221081 -0.27258688 0.061188608
-0.36242318 -0.2725637 0.061166793
-0.36263362 -0.27253979 0.061151892
-0.36285278 -0.27251974 0.061101221
-0.36305743 -0.27249357 0.061108261
-0.36327019 -0.27247095 0.061081827
-0.36346978 -0.2724427 0.061108503
-0.36366546 -0.27242997 0.061025649
-0.36390537 -0.27240247 0.061010614
-0.36410847 -0.272376 0.061021119
-0.36432475 -0.2723555 0.06097623
-0.36452979 -0.27233005 0.060977504
-0.36473417 -0.27230439 0.060981095
-0.36494684 -0.27228257 0.060948893
-0.36515716 -0.2722598 0.060925938
-0.36535817 -0.2722328 0.060942225
-0.36557645 -0.27221397 0.06088347
-0.3657825 -0.2721895 0.060876675
-0.36599502 -0.27216819 0.060841016
-0.36620185 -0.27214429 0.060829602
-0.36640045 -0.27211645 0.060853977
-0.36661968 -0.27209878 0.060786009
-0.36681524 -0.2720696 0.060823075
-0.36702305 -0.27204651 0.06080474
-0.36722741 -0.27202177 0.060801413
-0.3674407 -0.27200162 0.060756527
-0.36766407 -0.27198675 0.060664311
-0.36786738 -0.27196184 0.060663294
-0.36806861 -0.27193591 0.060671516
-0.36827391 -0.27191219 0.060660109
-0.36848348 -0.27189076 0.060627922
-0.36868706 -0.27186629 0.060623437
-0.36890161 -0.27184775 0.060565863
-0.36909863 -0.27181998 0.0605914
-0.36930394 -0.2717967 0.060576536
-0.36950204 -0.27176958 0.060596295
-0.3697198 -0.27175334 0.060519107
-0.36993074 -0.27173349 0.060474232
-0.37012357 -0.27170622 0.06049978
-0.37033352 -0.27168351 0.060476821
-0.37053132 -0.27165657 0.060495429
-0.37072974 -0.27163005 0.060510579
-0.37095073 -0.27161655 0.06041031
-0.37115711 -0.27159223 0.060402364
-0.37136033 -0.27156875 0.060390964
-0.37155786 -0.27154201 0.060408421
