# .PCD v0.7 - Point Cloud Data file format
VERSION 0.7
FIELDS x y z
SIZE 4 4 4
TYPE F F F
COUNT 1 1 1
WIDTH 1279
HEIGHT 1
VIEWPOINT 0 0 0 1 0 0 0
POINTS 1279
DATA ascii
-0.31964877 -0.20472665 0.048815817
-0.31985641 -0.20470682 0.04884284
-0.3200632 -0.20468751 0.048865244
-0.32026625 -0.20466863 0.048886523
-0.32045528 -0.20465717 0.048844248
-0.32068175 -0.20462939 0.048935942
-0.32085717 -0.2046251 0.048832417
-0.32104051 -0.20461662 0.048764713
-0.32124704 -0.20459779 0.04878249
-0.32145536 -0.20457652 0.048823409
-0.32165688 -0.2045604 0.048818067
-0.32185879 -0.20454411 0.048813883
-0.32204524 -0.20453413 0.04875889
-0.32224619 -0.20451838 0.04875008
-0.3224414 -0.20450401 0.048732068
-0.32264805 -0.20448551 0.048746359
-0.32284844 -0.20446867 0.048749138
-0.32302839 -0.20446344 0.048651364
-0.32325077 -0.20443738 0.048729204
-0.32343489 -0.2044286 0.048663821
-0.32363114 -0.20441541 0.04863305
-0.32382002 -0.20440578 0.048572253
-0.32403696 -0.2043812 0.048639715
-0.32423949 -0.20436509 0.048633207
-0.3244251 -0.20435563 0.048573591
-0.3246173 -0.20434448 0.048525494
-0.32482824 -0.20432448 0.048551332
-0.32503819 -0.20430504 0.048572551
-0.32522509 -0.20429501 0.048517555
-0.32541388 -0.2042855 0.048455592
-0.32560989 -0.20426983 0.04845031
-0.32580665 -0.20425808 0.048404485
-0.32600957 -0.20424068 0.048410714
-0.32623774 -0.2042146 0.048483863
-0.32644567 -0.20419508 0.048507422
-0.32660958 -0.20419836 0.048336837
-0.32681733 -0.20417897 0.04835923
-0.3270247 -0.20416395 0.048337631
-0.3272481 -0.2041377 0.048416615
-0.32742214 -0.20413762 0.048271429
-0.32763845 -0.20411332 0.048336584
-0.32783964 -0.20409983 0.04830461
-0.32803866 -0.20408733 0.048264563
-0.3282378 -0.20406945 0.048278924
-0.32842967 -0.20405878 0.0482262
-0.32864848 -0.20403907 0.048242699
-0.3288478 -0.20402654 0.048202645
-0.32903737 -0.20401035 0.048207842
-0.32923305 -0.20399812 0.048167821
-0.32942238 -0.20398732 0.048118591
-0.32962367 -0.20397143 0.048110932
-0.32981282 -0.20396203 0.048047815
-0.32998323 -0.2039554 0.047972132
-0.3302401 -0.20391874 0.048128389
-0.33040613 -0.20391911 0.047985584
-0.3306402 -0.20388842 0.048100363
-0.33084339 -0.20387581 0.048057966
-0.33104593 -0.20386222 0.048025981
-0.33125061 -0.20384777 0.048000924
-0.33144647 -0.20383324 0.04798406
-0.3316479 -0.20381893 0.047960196
-0.33185953 -0.20380174 0.047957078
-0.33205628 -0.20378943 0.047917046
-0.3322612 -0.20377381 0.047903571
-0.33244658 -0.20376003 0.047887959
-0.33265126 -0.20374215 0.047897641
-0.33286247 -0.20372899 0.047854003
-0.33305195 -0.20371486 0.047838353
-0.33327305 -0.20369542 0.047850203
-0.33342302 -0.20369583 0.047720283
-0.33365527 -0.20367204 0.047766764
-0.33386895 -0.20365091 0.047801841
-0.33405977 -0.20363998 0.0477526
-0.33428469 -0.20361932 0.047773682
-0.33447802 -0.20360865 0.047719777
-0.33466589 -0.20359659 0.047684468
-0.33490476 -0.20356952 0.047758669
-0.33509487 -0.20355786 0.047717549
-0.33529532 -0.20354456 0.047684427
-0.33547333 -0.20353639 0.047617931
-0.33567849 -0.20352134 0.047598671
-0.33587724 -0.20350873 0.047559775
-0.33609149 -0.2034903 0.047567051
-0.33630866 -0.20346969 0.047593988
-0.33650166 -0.20345597 0.047571365
-0.33669078 -0.20344599 0.047514029
-0.33691201 -0.20342515 0.047539771
-0.33712238 -0.20340955 0.047521621
-0.33731091 -0.20339985 0.047461972
-0.33751735 -0.20338354 0.047454275
-0.33773154 -0.20336442 0.047468498
-0.33792537 -0.20335394 0.04741228
-0.33810925 -0.20334382 0.047360796
-0.33833987 -0.20331994 0.047409609
-0.33854368 -0.2033059 0.047381088
-0.33877861 -0.20328714 0.047374278
-0.33898351 -0.20327497 0.047326062
-0.33916843 -0.20326349 0.047287308
-0.33937895 -0.20324501 0.047298089
-0.33958468 -0.20322831 0.047295026
-0.33978578 -0.20321438 0.047267694
-0.33998656 -0.2032038 0.047206778
-0.34019822 -0.20318191 0.047251139
-0.34041077 -0.2031651 0.047243387
-0.34060925 -0.20315012 0.047228806
-0.23357044 -0.2114507 0.052803002
-0.23380721 -0.21143579 0.052755628
-0.23404989 -0.21142212 0.052690826
-0.23430049 -0.21141008 0.05260279
-0.23455547 -0.21139678 0.052523978
-0.23479904 -0.21138474 0.052441798
-0.23505276 -0.21137257 0.052352577
-0.23531879 -0.21136522 0.052204169
-0.23554668 -0.21134934 0.052174252
-0.23576699 -0.21133201 0.052165255
-0.23600362 -0.21131688 0.052120194
-0.23623872 -0.21130268 0.052067056
-0.23647305 -0.21128844 0.052015074
-0.23670708 -0.21127422 0.051963095
-0.23694712 -0.2112602 0.051904105
-0.23718637 -0.21124727 0.051834702
-0.23742563 -0.21123444 0.051764145
-0.23766606 -0.21122198 0.051688939
-0.2378964 -0.21120635 0.051654369
-0.23813453 -0.21119362 0.051583823
-0.23836839 -0.21118011 0.051524892
-0.23860189 -0.21116661 0.05146597
-0.23884439 -0.21115398 0.051390745
-0.23907794 -0.21114071 0.051329505
-0.23931113 -0.21112747 0.051268272
-0.23954889 -0.21111535 0.051191933
-0.23979171 -0.21110326 0.051110916
-0.24002303 -0.21108995 0.051052019
-0.24026485 -0.21107909 0.050959431
-0.24049358 -0.21106541 0.050906338
-0.24071702 -0.21104944 0.050881099
-0.24094623 -0.21103606 0.050824527
-0.24117917 -0.21102364 0.050755184
-0.24140696 -0.21101016 0.050700955
-0.24163835 -0.21099639 0.050646678
-0.24186587 -0.21098304 0.05059129
-0.24209522 -0.21097024 0.050528921
-0.24231812 -0.21095601 0.050486311
-0.24254927 -0.2109426 0.050428569
-0.24277194 -0.2109285 0.050384805
-0.2430028 -0.21091522 0.050325908
-0.24323155 -0.21090281 0.050260078
-0.24344839 -0.21088758 0.050232582
-0.24367091 -0.21087386 0.050185334
-0.24389562 -0.21085948 0.050142705
-0.24412379 -0.21084733 0.05007457
-0.24434094 -0.21083255 0.050042432
-0.24456058 -0.21081848 0.050001018
-0.2447855 -0.21080455 0.049953748
-0.24500154 -0.21078974 0.049922787
-0.24522442 -0.21077678 0.049867436
-0.24544229 -0.21076262 0.049828343
-0.24568659 -0.21075282 0.049722999
-0.24589121 -0.21072751 0.049807951
-0.24628168 -0.21069707 0.049789269
-0.24652261 -0.21068148 0.049745329
-0.24704458 -0.21068029 0.049320061
-0.24717425 -0.2106443 0.049575962
-0.24740404 -0.21063557 0.049471907
-0.24761994 -0.21062182 0.049430516
-0.24783556 -0.21060669 0.04940303
-0.24804907 -0.21059243 0.049368616
-0.24826422 -0.21057735 0.049341135
-0.24848098 -0.21056558 0.049278885
-0.24869347 -0.21054992 0.049259536
-0.24890539 -0.21053557 0.049227446
-0.24913117 -0.2105211 0.04918481
-0.2493258 -0.2105061 0.049173739
-0.24954081 -0.21049149 0.049141619
-0.24976785 -0.2104791 0.049076967
-0.24996458 -0.21046209 0.049084406
-0.25017065 -0.21044651 0.049069747
-0.25038135 -0.21043237 0.04903651
-0.25059268 -0.21041851 0.048999798
-0.25080135 -0.21040247 0.048987433
-0.25099817 -0.21038432 0.049006447
-0.25120133 -0.21036817 0.04899992
-0.25139451 -0.21035044 0.049017813
-0.25157803 -0.21032675 0.049104121
-0.25175393 -0.21030059 0.049221776
-0.25190717 -0.21026565 0.04944735
-0.25058958 -0.20957296 0.0575702
-0.25113276 -0.20958205 0.057023119
-0.25126183 -0.209534 0.057401791
-0.25149316 -0.2095264 0.057284981
-0.25195658 -0.20941079 0.05806822
-0.25225955 -0.20933035 0.058629423
-0.25399622 -0.20959319 0.054511055
-0.25423211 -0.20958167 0.054430112
-0.2544286 -0.20955257 0.054560304
-0.25469363 -0.20954165 0.05444897
-0.25489414 -0.20952605 0.054438997
-0.25508666 -0.20950757 0.054465003
-0.25531334 -0.20949143 0.054438569
-0.25552678 -0.20947741 0.054401837
-0.25571632 -0.20946671 0.054351434
-0.25591904 -0.20944875 0.054363444
-0.25616193 -0.20943747 0.054274313
-0.25636217 -0.2094187 0.054296777
-0.25657615 -0.20939994 0.05430752
-0.25677365 -0.20938013 0.054342747
-0.25694191 -0.2093633 0.054372452
-0.25718644 -0.20935324 0.054269411
-0.25740463 -0.20935118 0.054107554
-0.25758094 -0.20932853 0.054189302
-0.25782272 -0.20930476 0.054227583
-0.25800622 -0.20929067 0.054216616
-0.25824329 -0.20927826 0.054143757
-0.25844818 -0.20926002 0.054156907
-0.25864047 -0.20924795 0.05411806
-0.25882205 -0.20923139 0.054133743
-0.25907215 -0.2092154 0.054086238
-0.25924802 -0.20920034 0.05409155
-0.2594842 -0.20918433 0.054055765
-0.25970206 -0.20917417 0.053976141
-0.25988698 -0.2091554 0.054011483
-0.26008338 -0.20913979 0.054005023
-0.26030251 -0.20912451 0.053976338
-0.2604802 -0.20910655 0.05400943
-0.26066443 -0.20909366 0.053985715
-0.26089498 -0.209086 0.053870071
-0.26108354 -0.20906293 0.053945914
-0.26132771 -0.20904537 0.053919315
-0.26150575 -0.20902772 0.053948931
-0.26170579 -0.20902073 0.053852096
-0.26192015 -0.20900172 0.05386515
-0.26212305 -0.2089857 0.053857476
-0.26232469 -0.20897128 0.053834744
-0.26251364 -0.20895274 0.053864263
-0.26273409 -0.208937 0.053839047
-0.26292068 -0.20892175 0.053837307
-0.26312345 -0.20891042 0.053782143
-0.26337942 -0.2089 0.053673215
-0.26356211 -0.20888072 0.053715516
-0.26374209 -0.20886223 0.053752057
-0.26395491 -0.20885216 0.053675964
-0.26415843 -0.20883723 0.05365669
-0.26436001 -0.20882131 0.053649027
-0.26456684 -0.20880599 0.053630888
-0.26477522 -0.2087869 0.053649791
-0.2649762 -0.20877561 0.0535958
-0.26518315 -0.20876063 0.053574182
-0.26540419 -0.20874655 0.053531602
-0.26556632 -0.20873272 0.053535879
-0.26576185 -0.20870885 0.053613972
-0.26598117 -0.20870395 0.053479902
-0.26618424 -0.20868963 0.053454846
-0.2663784 -0.20866747 0.053516734
-0.26659292 -0.2086577 0.053435989
-0.26678813 -0.20864654 0.053385522
-0.26699007 -0.20862408 0.053443864
-0.2671873 -0.20861962 0.053323895
-0.26738968 -0.20860547 0.053297698
-0.26760188 -0.20858435 0.053333931
-0.267786 -0.20855844 0.053442247
-0.26799488 -0.20854867 0.053366181
-0.26817352 -0.20852447 0.053461798
-0.26839286 -0.20851922 0.053331211
-0.26859245 -0.20851204 0.053236693
-0.26879025 -0.20848969 0.053297397
-0.26899797 -0.20847419 0.053280398
-0.26919192 -0.20845777 0.053284392
-0.26938874 -0.20844339 0.053265177
-0.26961678 -0.208434 0.05316925
-0.26980364 -0.20842454 0.053108443
-0.27000111 -0.20840806 0.053110082
-0.27020314 -0.20839199 0.05310357
-0.27040905 -0.20837276 0.05312597
-0.27060634 -0.20835628 0.053127613
-0.27078012 -0.20833728 0.053174634
-0.27098334 -0.20832865 0.053091668
-0.27119777 -0.20831639 0.053036399
-0.27138826 -0.20829795 0.053063579
-0.2715773 -0.20828488 0.053037502
-0.27180281 -0.20827559 0.052942753
-0.27201131 -0.208259 0.052936167
-0.27221462 -0.20824146 0.052943546
-0.27240822 -0.20822243 0.052974172
-0.27263567 -0.20821218 0.052887514
-0.27280319 -0.20819482 0.052923005
-0.27298436 -0.20817544 0.052967645
-0.27319723 -0.20816684 0.052876487
-0.27340144 -0.20815048 0.052871116
-0.27360076 -0.20813704 0.0528403
-0.27377778 -0.20812508 0.05281318
-0.27397597 -0.20810315 0.052869238
-0.27417386 -0.20808858 0.052851178
-0.27439702 -0.20807582 0.052793507
-0.27459112 -0.20805766 0.052814864
-0.27481723 -0.20804831 0.052720107
-0.27498922 -0.20804408 0.052618902
-0.27518991 -0.20801659 0.052729383
-0.27539432 -0.20800136 0.052712418
-0.27558801 -0.20799157 0.052649245
-0.27575737 -0.20796344 0.052792434
-0.27595621 -0.20794638 0.052798688
-0.27616748 -0.20794386 0.052647315
-0.27634794 -0.2079283 0.052653749
-0.27655923 -0.2079173 0.052588075
-0.27675033 -0.20790076 0.052595571
-0.27695432 -0.20788591 0.052575134
-0.27715299 -0.20786932 0.052576751
-0.27734485 -0.20785889 0.052521691
-0.27753624 -0.20784302 0.052522235
-0.27775148 -0.20782313 0.052543394
-0.27794597 -0.20780632 0.052550845
-0.27812868 -0.20779446 0.052517869
-0.27832165 -0.20778108 0.052491754
-0.27852148 -0.20776668 0.052470207
-0.27872422 -0.20775685 0.052399985
-0.27892783 -0.207737 0.052430522
-0.27912772 -0.20772317 0.052403178
-0.27931023 -0.20771202 0.052363258
-0.2794911 -0.20769221 0.05241254
-0.27970269 -0.20768575 0.052300543
-0.27990943 -0.20767148 0.052271985
-0.2801137 -0.20765306 0.052287452
-0.28029743 -0.20763141 0.052352913
-0.28048643 -0.20761938 0.052316405
-0.28067458 -0.20760594 0.052294962
-0.28087941 -0.20759606 0.052223571
-0.28107148 -0.2075911 0.052112915
-0.28127098 -0.20757101 0.052149277
-0.28146574 -0.20755668 0.052131251
-0.28165618 -0.20752454 0.052297413
-0.28184631 -0.20750785 0.052307226
-0.28204802 -0.20751879 0.052027389
-0.2822454 -0.2074935 0.052118197
-0.28244591 -0.20747562 0.052131385
-0.28263783 -0.20746438 0.052084431
-0.28283751 -0.20746475 0.051913481
-0.283023 -0.2074257 0.052153811
-0.28322506 -0.20741238 0.052119505
-0.2834239 -0.2074008 0.052070171
-0.28362459 -0.20738371 0.052075252
-0.28381252 -0.20737325 0.052023701
-0.28400531 -0.20736766 0.051918827
-0.28421703 -0.20735161 0.05190412
-0.28440621 -0.20733351 0.05192899
-0.28459504 -0.20731361 0.0519724
-0.28479299 -0.20730142 0.051930029
-0.28498656 -0.20728628 0.051921275
-0.28517556 -0.20726672 0.051961206
-0.28537223 -0.20726858 0.051777549
-0.28557742 -0.20725957 0.051696882
-0.28576761 -0.20722528 0.051885046
-0.28595027 -0.20721091 0.051877558
-0.28615257 -0.20720911 0.051726267
-0.2863549 -0.20717955 0.051856413
-0.28654528 -0.20717105 0.051782839
-0.28674343 -0.20717166 0.051610745
-0.28693852 -0.20713685 0.051800027
-0.28714293 -0.20712927 0.051705468
-0.2873325 -0.20711651 0.051675916
-0.28752917 -0.20710444 0.051633544
-0.28772917 -0.20708534 0.051659472
-0.28791851 -0.20706244 0.051732991
-0.2881079 -0.20705347 0.051665213
-0.2883043 -0.20704392 0.051597372
-0.2885043 -0.20702699 0.051601298
-0.28869721 -0.20700973 0.05161456
-0.28889006 -0.20699419 0.051610455
-0.28908259 -0.20698301 0.051562332
-0.28927529 -0.20696852 0.051547796
-0.28947127 -0.20695627 0.051507749
-0.2896674 -0.2069416 0.051492028
-0.28986418 -0.20692162 0.051529579
-0.29005983 -0.20691054 0.051477954
-0.29025668 -0.20689079 0.05151318
-0.29045546 -0.20688105 0.051445313
-0.29064411 -0.20686826 0.051416919
-0.2908408 -0.20684965 0.051440571
-0.29102263 -0.20683548 0.051431928
-0.29120991 -0.2068285 0.051345639
-0.29141036 -0.20680891 0.051376201
-0.29160252 -0.20679502 0.051355883
-0.29180387 -0.20678611 0.051277567
-0.29201075 -0.20676874 0.051280275
-0.29219329 -0.2067513 0.051304057
-0.29238111 -0.20673993 0.051261768
-0.29258037 -0.2067249 0.051247172
-0.29277959 -0.20670988 0.051232584
-0.29296294 -0.20669031 0.051277198
-0.29315442 -0.20667785 0.051242985
-0.29335019 -0.20666276 0.051231906
-0.29353696 -0.20665331 0.051171098
-0.29373679 -0.2066364 0.051175024
-0.29392824 -0.20662338 0.051146604
-0.29412779 -0.20660718 0.05114359
-0.29432288 -0.20659351 0.051118612
-0.29451588 -0.20657659 0.051128395
-0.2947118 -0.20656091 0.05112309
-0.29489449 -0.20654415 0.051139925
-0.29508698 -0.20654325 0.050987571
-0.29528713 -0.20652564 0.050998449
-0.29547599 -0.20650323 0.051067341
-0.29566249 -0.20649952 0.050948627
-0.29586178 -0.20648368 0.050942142
-0.29605183 -0.20646596 0.050962381
-0.2962507 -0.20644468 0.051011488
-0.29644239 -0.20643666 0.050932102
-0.29663548 -0.20642591 0.050879348
-0.29683492 -0.20640983 0.050875168
-0.29702276 -0.20639618 0.05085605
-0.29722854 -0.20636952 0.050953735
-0.29742077 -0.20635998 0.050889406
-0.29760927 -0.20635611 0.050770681
-0.29779419 -0.20635219 0.050655458
-0.29800063 -0.20632513 0.050756611
-0.29818612 -0.20630974 0.0507572
-0.29838279 -0.20629285 0.05076348
-0.29858214 -0.20628193 0.050707184
-0.29879236 -0.20626006 0.050752714
-0.29898158 -0.20624435 0.050753266
-0.29916742 -0.2062287 0.050756168
-0.29935387 -0.20621689 0.050719697
-0.29955837 -0.20620325 0.05068652
-0.29974592 -0.2061854 0.050710253
-0.29993501 -0.20618308 0.050575305
-0.30013794 -0.20616694 0.050568786
-0.30032662 -0.20614775 0.050605249
-0.30052149 -0.20613341 0.050587218
-0.3007248 -0.20612101 0.05054247
-0.30091107 -0.20610498 0.05054884
-0.30111298 -0.20609018 0.050529592
-0.30131006 -0.20607716 0.050496481
-0.30149704 -0.20606427 0.050470423
-0.30167738 -0.20604758 0.050488435
-0.30187833 -0.20603012 0.050496988
-0.30208057 -0.2060113 0.050518267
-0.30227676 -0.20600292 0.050438844
-0.30245349 -0.20599395 0.050381601
-0.30264914 -0.2059752 0.050407581
-0.30283707 -0.20596476 0.05035603
-0.30303538 -0.20594683 0.050371554
-0.3032304 -0.20592894 0.050389428
-0.30342409 -0.20591253 0.05039341
-0.30360642 -0.20590767 0.050289802
-0.30380094 -0.20589371 0.050268304
-0.30398068 -0.20589113 0.05014386
-0.30418175 -0.20586097 0.05028097
-0.30436462 -0.20585836 0.050154187
-0.30455339 -0.20584671 0.050114211
-0.30476043 -0.20582075 0.050203774
-0.3049759 -0.20579331 0.050301373
-0.30517066 -0.20578229 0.050249755
-0.30535525 -0.2057776 0.050142646
-0.30556637 -0.20574559 0.050290089
-0.30578098 -0.20572552 0.050313562
-0.30594876 -0.20572987 0.050129015
-0.30614051 -0.20571555 0.050113332
-0.30632961 -0.20570078 0.050104618
-0.30651245 -0.20569143 0.050046168
-0.30672067 -0.20566858 0.050103299
-0.3069126 -0.20565975 0.050032023
-0.30711049 -0.20564036 0.050062608
-0.30729902 -0.20563157 0.049993675
-0.30748838 -0.20561667 0.049986124
-0.30767173 -0.20560144 0.049986731
-0.30787256 -0.20558776 0.049957074
-0.30807036 -0.20557137 0.049957544
-0.30825999 -0.20555894 0.049924508
-0.30844468 -0.20554532 0.049907733
-0.30864114 -0.20553006 0.049897797
-0.30883533 -0.2055191 0.049846187
-0.30902508 -0.20550656 0.049814302
-0.30921471 -0.20549162 0.049806751
-0.30941877 -0.20547311 0.049823388
-0.30961126 -0.20545611 0.049834326
-0.30980128 -0.20544583 0.049779281
-0.30999434 -0.20543325 0.049745057
-0.31020203 -0.20541227 0.049783662
-0.31039673 -0.20539851 0.049759842
-0.31058627 -0.20538622 0.049725652
-0.31077757 -0.20537034 0.049726181
-0.3109684 -0.20535713 0.049700089
-0.31116828 -0.20533976 0.049708653
-0.31137523 -0.20531976 0.04973799
-0.31155783 -0.20531237 0.049659856
-0.31174821 -0.20530172 0.049608283
-0.31195858 -0.20527732 0.049679287
-0.31213266 -0.20527348 0.049572282
-0.31233007 -0.20525803 0.04956349
-0.3125253 -0.20524195 0.049562834
-0.3127284 -0.20522489 0.049565576
-0.31291056 -0.20521548 0.049508285
-0.31309944 -0.20520575 0.049448613
-0.31330326 -0.20518623 0.04947567
-0.31352317 -0.20515636 0.049594074
-0.31369448 -0.20516007 0.049412966
-0.31388485 -0.2051453 0.049403086
-0.31409356 -0.20512092 0.049475268
-0.31429097 -0.20510581 0.049463008
-0.31447092 -0.20510367 0.049333926
-0.31465411 -0.20509349 0.049283579
-0.31487209 -0.20506366 0.049403157
-0.31507272 -0.20504864 0.049387392
-0.31526929 -0.2050361 0.049349662
-0.31547195 -0.20501988 0.049344297
-0.31566182 -0.20500572 0.049328633
-0.31586483 -0.20498934 0.049324431
-0.31605491 -0.20497701 0.049290232
-0.3162342 -0.2049692 0.049219076
-0.31642246 -0.20495975 0.04915709
-0.31662947 -0.20493746 0.049209602
-0.3168205 -0.2049264 0.049161494
-0.31703568 -0.20489955 0.049253304
-0.31723574 -0.20488696 0.049213223
-0.31742704 -0.20487224 0.04920217
-0.31759506 -0.20486902 0.049094059
-0.31779757 -0.20485325 0.049084067
-0.31798324 -0.20484173 0.049045272
-0.31819996 -0.20481807 0.04910348
-0.31840611 -0.2047987 0.049127042
-0.31859636 -0.20478645 0.049091689
-0.31878078 -0.20477915 0.049011219
-0.3189835 -0.20476349 0.049000062
-0.31918719 -0.20474225 0.04904449
-0.31936389 -0.20473741 0.048945561
-0.31955597 -0.20472422 0.048918292
-0.31972766 -0.20472196 0.048797406
-0.31994402 -0.20469581 0.048881091
-0.32013276 -0.20468609 0.048821431
-0.32034576 -0.20466192 0.048887782
-0.32053065 -0.20465264 0.048826993
-0.32076201 -0.20462069 0.048956864
-0.32092091 -0.20462656 0.048764296
-0.32112229 -0.20460711 0.04879253
-0.32131693 -0.2045944 0.048758291
-0.32153109 -0.20457014 0.048824623
-0.3217302 -0.20455524 0.048808873
-0.32192758 -0.20453967 0.048801247
-0.32211629 -0.20453008 0.04874042
-0.32231981 -0.20451148 0.048758216
-0.32251236 -0.20449997 0.048713569
-0.32271832 -0.20448028 0.048740607
-0.32291543 -0.20446655 0.048714455
-0.32310471 -0.2044552 0.048671
-0.32332045 -0.20443389 0.048706047
-0.32350475 -0.20442352 0.048656847
-0.32370037 -0.2044106 0.048623752
-0.3238858 -0.20440115 0.048564121
-0.32410702 -0.20437598 0.04863387
-0.32430238 -0.20436183 0.048613518
-0.32449391 -0.20435096 0.048563097
-0.32468411 -0.20433931 0.048521943
-0.3249017 -0.20431763 0.048559301
-0.32510468 -0.2043 0.048567828
-0.32528692 -0.20429355 0.048480429
-0.32547551 -0.20428272 0.048432343
-0.32568929 -0.2042602 0.048481315
-0.32586834 -0.20425379 0.048396267
-0.32607067 -0.20423667 0.048400171
-0.32630181 -0.20420782 0.048498776
-0.32649106 -0.20419681 0.048451848
-0.32666993 -0.20419465 0.04832394
-0.32687238 -0.20417626 0.048340593
-0.32707283 -0.20416296 0.048307452
-0.32730436 -0.20413168 0.048430376
-0.327472 -0.20413581 0.048248149
-0.32768646 -0.20411095 0.048320267
-0.32788789 -0.20409735 0.048289441
-0.32808536 -0.20408417 0.048257492
-0.32828823 -0.20406598 0.048271809
-0.32847339 -0.2040569 0.04820871
-0.32869557 -0.20403701 0.048224013
-0.3288798 -0.20402572 0.048184078
-0.32908192 -0.20400806 0.048193775
-0.3292751 -0.20399557 0.048158396
-0.32946503 -0.2039845 0.048111454
-0.32966384 -0.20396836 0.048108444
-0.32984701 -0.20396274 0.048011772
-0.33002597 -0.20395121 0.047978833
-0.33027688 -0.20391834 0.048101578
-0.33043858 -0.20391667 0.047983103
-0.33067816 -0.20388496 0.048103638
-0.33086759 -0.20387679 0.048027746
-0.33108309 -0.20386031 0.048014164
-0.33127639 -0.20384678 0.047989201
-0.33148149 -0.20383093 0.047978021
-0.33167428 -0.20381768 0.047950748
-0.33188754 -0.20380105 0.047940657
-0.33208394 -0.20378761 0.047912195
-0.33228466 -0.20377246 0.047897585
-0.33247107 -0.20375824 0.047885425
-0.33267689 -0.20374233 0.047874246
-0.3328822 -0.20372909 0.047836427
-0.33308047 -0.20371264 0.047836896
-0.33328956 -0.20369555 0.047834955
-0.33344615 -0.20369452 0.047714211
-0.33367091 -0.20367248 0.047749173
-0.33389187 -0.20364848 0.047807343
-0.33407873 -0.20364028 0.047733795
-0.3343043 -0.20361932 0.047757179
-0.33449787 -0.20360738 0.047715992
-0.33469209 -0.20359401 0.047688704
-0.33491874 -0.20356816 0.047760721
-0.33511114 -0.20355792 0.047703333
-0.33531722 -0.20354244 0.047687519
-0.3354857 -0.20353793 0.047592141
-0.33569723 -0.20351925 0.047604069
-0.33589864 -0.20350678 0.047561657
-0.33610398 -0.20349057 0.04755396
-0.33632109 -0.20346996 0.047580883
-0.33651173 -0.20345712 0.047551319
-0.33670819 -0.20344436 0.047515899
-0.33692586 -0.20342371 0.047542829
-0.33713809 -0.20340852 0.047518849
-0.33732739 -0.20339853 0.047461499
-0.33752304 -0.20338619 0.047422614
-0.3377459 -0.20336385 0.047462232
-0.33794153 -0.20335379 0.047400191
-0.3381255 -0.20334253 0.047360256
-0.3383573 -0.20331821 0.047412533
-0.33854479 -0.2033079 0.047359832
-0.33879289 -0.20328544 0.047379524
-0.33899242 -0.20327519 0.047316279
-0.3391785 -0.20326328 0.047280964
-0.33938688 -0.20324557 0.047285967
-0.33959383 -0.20322841 0.047286354
-0.33978999 -0.20321408 0.047267158
-0.33999765 -0.20320316 0.04720385
-0.34020889 -0.20318143 0.047247048
-0.3404142 -0.20316716 0.047219656
-0.34061205 -0.20315133 0.047214337
-0.2336342 -0.21144678 0.052789148
-0.2338696 -0.21143165 0.052745257
-0.23411874 -0.21141814 0.052673437
-0.23437047 -0.21140635 0.052581906
-0.23462322 -0.21139266 0.052508894
-0.23486263 -0.21138097 0.052426741
-0.2351256 -0.21136953 0.052322358
-0.23537961 -0.21135984 0.052207649
-0.23561634 -0.21134461 0.052163735
-0.23583654 -0.21132728 0.052154738
-0.23607427 -0.21131243 0.052106187
-0.23630884 -0.21129815 0.052054197
-0.23654631 -0.21128343 0.052004486
-0.23677978 -0.21126914 0.051953666
-0.2370141 -0.21125627 0.051887773
-0.23725644 -0.21124285 0.051820651
-0.23749714 -0.21123037 0.051745441
-0.23773351 -0.21121711 0.051681846
-0.23796251 -0.21120238 0.051639169
-0.23820129 -0.21118984 0.051566288
-0.23843464 -0.21117623 0.051508516
-0.23867239 -0.21116251 0.051448382
-0.23891041 -0.21115014 0.051374353
-0.23914307 -0.21113671 0.051315431
-0.23937617 -0.21112348 0.051254183
-0.23961738 -0.21111096 0.051178962
-0.23985802 -0.21109962 0.051092174
-0.24008772 -0.21108599 0.051037904
-0.24033166 -0.21107565 0.050938334
-0.24055469 -0.21106073 0.050902672
-0.24077967 -0.21104634 0.050860029
-0.24101049 -0.21103215 0.050810389
-0.24124476 -0.21102008 0.050736386
-0.2414699 -0.21100602 0.050690271
-0.24169801 -0.21099274 0.05063371
-0.24192651 -0.21097966 0.050574824
-0.24215433 -0.21096651 0.050517105
-0.24237858 -0.21095264 0.050469831
-0.24260679 -0.21093979 0.050408643
-0.24283147 -0.21092497 0.050370634
-0.24305481 -0.21091117 0.050323382
-0.24328524 -0.21089919 0.05025173
-0.24350339 -0.21088432 0.050219584
-0.24372619 -0.21087068 0.05017117
-0.24394661 -0.21085654 0.050129738
-0.24417399 -0.21084423 0.050063908
-0.24439107 -0.21082947 0.05003177
-0.24461165 -0.21081565 0.04998685
-0.24483263 -0.21080205 0.049939621
-0.24505244 -0.21078692 0.049908612
-0.24527355 -0.21077354 0.049859062
-0.24549234 -0.21075964 0.049816478
-0.24575856 -0.21075296 0.049661115
-0.24592982 -0.21072422 0.049808916
-0.24633455 -0.21069627 0.049753014
-0.24661626 -0.21069163 0.049563918
-0.24708253 -0.21067694 0.049322136
-0.24721552 -0.21064322 0.049552523
-0.24744581 -0.21063329 0.049460027
-0.24766131 -0.21061945 0.049419794
-0.24787498 -0.21060517 0.049385369
-0.24808715 -0.21059057 0.049355596
-0.2483092 -0.2105747 0.049330357
-0.24851613 -0.21056293 0.0492763
-0.24872883 -0.21054874 0.049241886
-0.24894446 -0.21053408 0.049209759
-0.2491577 -0.21051882 0.04918576
-0.2493635 -0.21050428 0.04916067
-0.24957408 -0.21048979 0.049130902
-0.24980359 -0.21047674 0.049070854
-0.24999459 -0.2104609 0.049071379
-0.25020197 -0.21044429 0.049065974
-0.25041559 -0.21043105 0.049021117
-0.25062016 -0.21041662 0.048996042
-0.25082877 -0.21040058 0.048983667
-0.25102359 -0.21038328 0.048995752
-0.25122577 -0.21036538 0.049007758
-0.25141573 -0.21034665 0.049038406
-0.25159785 -0.21032399 0.049115464
-0.25177002 -0.21029517 0.049263246
-0.25191617 -0.21025944 0.049502779
-0.25063077 -0.20957829 0.057481728
-0.25112018 -0.2095665 0.057191089
-0.2512913 -0.20953399 0.057377107
-0.25183597 -0.20945278 0.057743784
-0.25233188 -0.20934364 0.058434039
-0.25403416 -0.2095933 0.054478087
-0.25425372 -0.20957763 0.05445287
-0.25446534 -0.20955405 0.054514594
-0.254715 -0.20954095 0.054438129
-0.25491086 -0.20952539 0.054431677
-0.25511912 -0.20950757 0.054437835
-0.25533617 -0.20948958 0.054438118
-0.25554782 -0.20948017 0.054356232
-0.25572294 -0.20946401 0.054373126
-0.25598067 -0.20944946 0.054304697
-0.2561765 -0.20943607 0.054276228
-0.25638101 -0.20941718 0.054296322
-0.25659519 -0.20939671 0.054324433
-0.25679338 -0.20937718 0.054356158
-0.256969 -0.20936145 0.054368421
-0.25722691 -0.20935865 0.054180697
-0.25741202 -0.20934877 0.054125696
-0.25762457 -0.20932236 0.0542152
-0.25784254 -0.20930375 0.054221272
-0.25802314 -0.20929034 0.054205693
-0.25826877 -0.20927587 0.05414664
-0.25847191 -0.20925879 0.054149371
-0.25865638 -0.20924726 0.054111741
-0.25884748 -0.20922901 0.054136597
-0.25909555 -0.20921409 0.054079846
-0.25927293 -0.20919776 0.054096714
-0.25951231 -0.20918515 0.054023832
-0.25971657 -0.20917097 0.053996447
-0.25990033 -0.20915367 0.054017887
-0.2601198 -0.20913847 0.053988039
-0.26031268 -0.20912337 0.053979289
-0.26049599 -0.20910393 0.054022737
-0.26072907 -0.20909733 0.053894319
-0.26090887 -0.20908251 0.053893805
-0.26112282 -0.20905897 0.053953182
-0.26136023 -0.20904447 0.053901162
-0.26152354 -0.20902608 0.053950597
-0.26175582 -0.2090199 0.053818703
-0.26194558 -0.20899957 0.053865574
-0.26215598 -0.20898512 0.053835817
-0.26235282 -0.20896834 0.053840928
-0.26255235 -0.2089486 0.053873807
-0.26276934 -0.20893772 0.053802282
-0.26294607 -0.20891744 0.053859703
-0.26317862 -0.2089126 0.05371391
-0.26341355 -0.20889579 0.053687394
-0.26359141 -0.20887621 0.05373669
-0.26377901 -0.2088595 0.053748831
-0.26399621 -0.20884952 0.053668052
-0.26420733 -0.20883408 0.053647541
-0.26440442 -0.20881808 0.053644545
-0.26462269 -0.20880206 0.053623974
-0.26481745 -0.20878488 0.053634893
-0.26502559 -0.2087729 0.05358199
-0.26523355 -0.20875852 0.053553399
-0.26544324 -0.20874526 0.053512059
-0.26560885 -0.20872612 0.053567268
-0.26581091 -0.20870605 0.05360128
-0.26603433 -0.20870116 0.053463686
-0.26623434 -0.20868252 0.053484976
-0.26643631 -0.20866509 0.053492356
-0.26664802 -0.20865624 0.053404678
-0.26683387 -0.20863932 0.053420305
-0.26705724 -0.20862244 0.053404324
-0.26723748 -0.20861787 0.053299561
-0.26744795 -0.20859563 0.053348549
-0.26766741 -0.20857918 0.05333145
-0.26784173 -0.20855498 0.053430568
-0.26805219 -0.2085436 0.053369544
-0.26822823 -0.2085204 0.053457074
-0.2684584 -0.20851976 0.053270772
-0.26865271 -0.20850627 0.053244635
-0.26886347 -0.20848721 0.053261191
-0.26906085 -0.20846741 0.05329641
-0.26926455 -0.20845498 0.053251658
-0.26945618 -0.20843989 0.053244069
-0.26968214 -0.20843205 0.053134255
-0.26986346 -0.20841859 0.053118661
-0.27006572 -0.20839965 0.05314108
-0.27027503 -0.20838906 0.053073119
-0.27047828 -0.20836787 0.053117536
-0.27066976 -0.20835003 0.053137757
-0.27085203 -0.20833136 0.053174265
-0.27106315 -0.20832588 0.053053007
-0.27127087 -0.20830832 0.053056851
-0.2714586 -0.2082909 0.053075947
-0.27166286 -0.20828049 0.053010341
-0.27187988 -0.20826755 0.052959666
-0.27209169 -0.20825377 0.052921779
-0.2723009 -0.2082345 0.052941836
-0.27250546 -0.20821811 0.052936442
-0.27271503 -0.20820624 0.052881218
-0.27287546 -0.20818615 0.05295036
-0.27307546 -0.20817299 0.052916065
-0.27327892 -0.20815957 0.052881733
-0.273498 -0.20814234 0.052872732
-0.27367765 -0.20813279 0.052818939
-0.27386379 -0.20811448 0.052848469
-0.274068 -0.20809835 0.052840762
-0.27427286 -0.2080791 0.052864328
-0.27448738 -0.20806955 0.05278125
-0.27468839 -0.20805049 0.052806016
-0.27489978 -0.20804635 0.052670851
-0.275076 -0.20803434 0.052644879
-0.27528286 -0.2080092 0.052726328
-0.27549309 -0.20799613 0.052682668
-0.275673 -0.20798415 0.052653193
-0.27583933 -0.2079525 0.05283463
-0.27607095 -0.20794636 0.052702747
-0.27625096 -0.20793472 0.052669801
-0.27645171 -0.20792495 0.052600741
-0.27665025 -0.20790802 0.052605838
-0.27684826 -0.20789526 0.05256924
-0.27704599 -0.2078775 0.052583605
-0.27724969 -0.20786244 0.052565493
-0.27743801 -0.20785253 0.052508134
-0.27763772 -0.20783243 0.052544486
-0.27785492 -0.20781524 0.052536666
-0.27803892 -0.20779985 0.052538421
-0.27822572 -0.20778847 0.052497298
-0.2784245 -0.20777255 0.052491963
-0.27862176 -0.20776008 0.05245306
-0.27882829 -0.20775039 0.05237817
-0.27901804 -0.20772676 0.052458614
-0.2792255 -0.20771895 0.052364029
-0.27940202 -0.2077044 0.052363537
-0.27959898 -0.20768613 0.052383699
-0.27980271 -0.20767942 0.05228103
-0.28002015 -0.20766427 0.05225236
-0.28020829 -0.20764397 0.052300401
-0.28039861 -0.20762052 0.052378539
-0.28058559 -0.20761186 0.052309617
-0.28077537 -0.20760171 0.05225341
-0.28097883 -0.20758931 0.052208651
-0.28117555 -0.20758648 0.052072465
-0.28137469 -0.20756574 0.052115776
-0.28156918 -0.20754287 0.0521846
-0.28175747 -0.20751387 0.052320659
-0.28194743 -0.20750554 0.052245922
-0.28215364 -0.20751005 0.052027419
-0.28235024 -0.20748267 0.05214024
-0.28254083 -0.20746788 0.052130349
-0.28273803 -0.20746101 0.052034695
-0.28294009 -0.20744792 0.051998071
-0.28312531 -0.20741814 0.05214458
-0.2833271 -0.20740417 0.052117206
-0.28353366 -0.2073939 0.052048109
-0.28372312 -0.20737635 0.052067179
-0.28391907 -0.20736855 0.051981963
-0.2841146 -0.20736 0.051904857
-0.28432211 -0.20734212 0.051912174
-0.28450394 -0.20732372 0.051946379
-0.28470036 -0.20730491 0.051972345
-0.28489831 -0.20729296 0.051927634
-0.28508386 -0.20727435 0.05196064
-0.28527787 -0.2072618 0.051925242
-0.28547487 -0.20726661 0.051711462
-0.28568155 -0.20724526 0.051754698
-0.28587207 -0.20721196 0.051932424
-0.28605974 -0.20720759 0.051819496
-0.28626463 -0.20719907 0.051734187
-0.28645626 -0.20716991 0.051869065
-0.2866475 -0.20717108 0.051697023
-0.28685147 -0.2071576 0.051662691
-0.28704724 -0.20712994 0.051778991
-0.28724805 -0.20712461 0.05166477
-0.28743738 -0.20710832 0.051671103
-0.28763404 -0.20709716 0.05161947
-0.28783754 -0.20707285 0.051695164
-0.28801978 -0.20705682 0.051705036
-0.28821623 -0.20704864 0.051623292
-0.2884126 -0.20703475 0.051599447
-0.2886126 -0.2070176 0.05160569
-0.288802 -0.20700006 0.05162476
-0.28899464 -0.20698786 0.051587056
-0.28918722 -0.20697519 0.051553991
-0.28938335 -0.20696144 0.05152899
-0.28957927 -0.20694897 0.051491257
-0.2897689 -0.20692946 0.051530018
-0.28996471 -0.20691733 0.051488817
-0.29016456 -0.20690088 0.051488101
-0.29036099 -0.20688391 0.051495522
-0.29055625 -0.20687377 0.05143464
-0.29074842 -0.20686069 0.051406205
-0.2909385 -0.20684001 0.051456548
-0.29111937 -0.20683047 0.051401578
-0.29131725 -0.20682251 0.051316336
-0.29151106 -0.2068013 0.051368959
-0.29170626 -0.20678923 0.051327758
-0.29190725 -0.20678125 0.051240169
-0.2921156 -0.20675839 0.051297288
-0.29229361 -0.20674475 0.051286362
-0.29248154 -0.20673269 0.05125102
-0.29269204 -0.20671503 0.051253684
-0.29288056 -0.20670088 0.051239185
-0.29306272 -0.20668495 0.051247902
-0.29324743 -0.20667179 0.051226486
-0.29344743 -0.20665452 0.05123388
-0.29363373 -0.20664626 0.051161498
-0.29383346 -0.20662959 0.051163096
-0.29402795 -0.20661746 0.051123064
-0.29422787 -0.20660031 0.0511293
-0.29442352 -0.20658523 0.05111821
-0.29461208 -0.20657061 0.051108338
-0.29480818 -0.20655446 0.05110766
-0.29499432 -0.20653765 0.051122136
-0.29518518 -0.20653999 0.050938517
-0.29538682 -0.20651206 0.051052451
-0.29557183 -0.20649762 0.051043767
-0.29576278 -0.20649172 0.050943542
-0.29596305 -0.20647398 0.050955568
-0.29615173 -0.2064589 0.050950333
-0.29634777 -0.20643657 0.051012192
-0.29653868 -0.20642988 0.050920069
-0.29672807 -0.20641954 0.050866183
-0.29692742 -0.20640358 0.050860852
-0.29711601 -0.20638862 0.050854452
-0.29732138 -0.2063628 0.050944023
-0.29751724 -0.20635273 0.050881967
-0.29769516 -0.20635487 0.050711215
-0.29789588 -0.20634189 0.050674591
-0.29809129 -0.20631631 0.050770052
-0.29827821 -0.20630388 0.050739348
-0.2984769 -0.20628399 0.050774556
-0.29867947 -0.20627324 0.050713591
-0.29888254 -0.20625207 0.050758023
-0.29906377 -0.20623817 0.050747067
-0.29925582 -0.20621859 0.05078464
-0.29944271 -0.20621531 0.050661284
-0.29964608 -0.2061941 0.050705712
-0.29983279 -0.20618181 0.050673854
-0.30002385 -0.20617682 0.050564364
-0.30022094 -0.20615956 0.050574102
-0.30041504 -0.20614198 0.050589651
-0.30061218 -0.20612894 0.050556544
-0.30080774 -0.20611374 0.050546609
-0.30100015 -0.20609836 0.050541341
-0.30120489 -0.20608413 0.050513946
-0.30139482 -0.20607169 0.050480891
-0.30158272 -0.2060577 0.050465245
-0.30176964 -0.20603727 0.050515607
-0.30196258 -0.20602515 0.050476745
-0.30217153 -0.20600624 0.050493326
-0.3023555 -0.20599669 0.050436009
-0.30254015 -0.20598628 0.050386801
-0.3027311 -0.20596907 0.050401233
-0.30291995 -0.20595762 0.050358925
-0.30311516 -0.20593949 0.050379105
-0.30331165 -0.20592354 0.05037611
-0.30350199 -0.20590717 0.050382443
-0.30368218 -0.20590444 0.050259151
-0.30388308 -0.20588733 0.050264221
-0.30405983 -0.20588443 0.050145589
-0.30426762 -0.20585097 0.050310418
-0.30444211 -0.20585328 0.050140865
-0.30463451 -0.20583811 0.050133266
-0.30483779 -0.20581269 0.050220545
-0.30505839 -0.20578358 0.050330825
-0.30524698 -0.20577833 0.050225984
-0.3054294 -0.20577255 0.05013163
-0.30564946 -0.20573547 0.05032298
-0.30585802 -0.20572379 0.050266597
-0.30602702 -0.20572403 0.05012257
-0.30621678 -0.20571148 0.050090685
-0.3064059 -0.20569386 0.050110921
-0.30658674 -0.20568901 0.050008472
-0.30679762 -0.20566387 0.050086405
-0.30698907 -0.20565268 0.050039448
-0.30718634 -0.20563656 0.050037608
-0.30737412 -0.20562565 0.049990684
-0.30756634 -0.20561108 0.049977306
-0.30774903 -0.20559637 0.049973279
-0.30795097 -0.20558181 0.049951699
-0.30814677 -0.20556442 0.049963765
-0.30832976 -0.20555472 0.049908787
-0.30851999 -0.20553929 0.049905844
-0.30871677 -0.20552628 0.04987273
-0.30891275 -0.20551141 0.049859315
-0.30909771 -0.20550257 0.049793888
-0.30929053 -0.20548519 0.049808308
-0.30949375 -0.20546733 0.049819142
-0.30968475 -0.20545147 0.049819678
-0.30987182 -0.20544098 0.049769286
-0.31006607 -0.2054275 0.049743142
-0.31027448 -0.205406 0.049786367
-0.31046331 -0.20539422 0.049747534
-0.31065065 -0.20538118 0.049722627
-0.31084666 -0.20536654 0.049706895
-0.31103873 -0.20535243 0.049688883
-0.31124121 -0.20533325 0.049713623
-0.31144446 -0.20531583 0.049719837
-0.31161851 -0.20530994 0.049633659
-0.31182241 -0.20529212 0.049643334
-0.31201962 -0.20527463 0.049655393
-0.31219918 -0.20526704 0.049581908
-0.31239069 -0.20525344 0.049559269
-0.31259722 -0.20523404 0.04958282
-0.31278396 -0.20522368 0.049531266
-0.31296918 -0.20521219 0.049492478
-0.31316063 -0.20520076 0.049447838
-0.31336287 -0.20518023 0.049486484
-0.31357822 -0.20515336 0.049578279
-0.31373778 -0.20515849 0.049392641
-0.31394112 -0.20513947 0.049415056
-0.3141486 -0.20511587 0.049480297
-0.31433889 -0.20510328 0.049448404
-0.31452054 -0.20510204 0.049308889
-0.3147068 -0.20508794 0.049295563
-0.31492636 -0.20505719 0.049423218
-0.31512037 -0.20504625 0.049371608
-0.31531477 -0.20503503 0.049322303
-0.31551382 -0.20501716 0.049336657
-0.31571162 -0.20500202 0.049324382
-0.31590781 -0.20498975 0.049284324
-0.31610152 -0.20497334 0.04928831
-0.31627381 -0.20496783 0.049199842
-0.31646702 -0.20495546 0.049163286
-0.31667063 -0.20493515 0.049198449
-0.31686142 -0.20492241 0.049167708
-0.31707802 -0.20489475 0.049266435
-0.31727758 -0.20488426 0.049205512
-0.31746572 -0.20486957 0.049196798
-0.31763393 -0.20486622 0.049089838
-0.31782958 -0.20485434 0.049046315
-0.31803069 -0.20483412 0.049082652
-0.31824389 -0.20481245 0.049123503
-0.31843892 -0.20479754 0.049111266
-0.31863016 -0.20478477 0.049080521
-0.31881478 -0.20477732 0.049001195
-0.31902683 -0.20475656 0.049033955
-0.31921303 -0.20474488 0.048996314
-0.31939778 -0.20473228 0.048969112
-0.31958026 -0.20472594 0.04888054
-0.31975555 -0.20472006 0.048793197
-0.31998333 -0.20468783 0.048928894
-0.3201642 -0.20468231 0.048833389
-0.32037672 -0.20465842 0.048897415
-0.32056266 -0.20464858 0.048841245
-0.32079071 -0.20461839 0.048956081
-0.32093778 -0.20462877 0.048727717
-0.32115519 -0.20460105 0.048826441
-0.32134271 -0.204592 0.048760988
-0.32155609 -0.20456816 0.048823856
-0.32175466 -0.20455351 0.048805781
-0.32194853 -0.20453973 0.048783123
-0.3221364 -0.20453054 0.048718821
-0.32234454 -0.20450963 0.048756257
-0.32253283 -0.20449869 0.048709329
-0.3227438 -0.20447654 0.048757151
-0.32292479 -0.20447075 0.048663963
-0.32313272 -0.20445022 0.04869793
-0.32333246 -0.20443526 0.048682161
-0.32352492 -0.20442238 0.048651405
-0.32371232 -0.20441197 0.048599858
-0.32390597 -0.20439854 0.048573717
-0.32412434 -0.20437475 0.048631899
-0.32431477 -0.20436294 0.048591908
-0.32450804 -0.20435125 0.048548408
-0.32470375 -0.20433697 0.048529204
-0.32491732 -0.20431574 0.048565425
-0.32511622 -0.20430005 0.04855777
-0.32528731 -0.20429736 0.048441514
-0.32547733 -0.20428583 0.04839921
-0.32570437 -0.20425858 0.048485104
-0.32588926 -0.20425089 0.048408095
-0.32609764 -0.20423099 0.048435099
-0.32632604 -0.20420204 0.048537195
-0.32648718 -0.2042052 0.048370071
-0.32668898 -0.20418985 0.048356604
-0.32688531 -0.20417836 0.048308447
-0.32708821 -0.20416258 0.048298445
-0.32732004 -0.20413391 0.048394714
-0.32748997 -0.20413156 0.048276156
-0.32770833 -0.20411038 0.048307694
-0.32789785 -0.20409936 0.048260756
-0.3281011 -0.20408228 0.048263486
-0.32830706 -0.20406406 0.04827546
-0.3284989 -0.2040534 0.048222706
-0.3287138 -0.20403801 0.0481987
-0.32890013 -0.20402448 0.048179582
-0.32909125 -0.20401023 0.048163895
-0.32928178 -0.20399888 0.048119262
-0.32948667 -0.2039827 0.048111551
-0.32968903 -0.20396765 0.048094608
-0.32985386 -0.20396593 0.047973774
-0.33008254 -0.20393467 0.048099034
-0.33027148 -0.20392665 0.048021987
-0.33047143 -0.20391019 0.048021272
-0.33070564 -0.20388201 0.048110578
-0.33089235 -0.20387748 0.047999971
-0.33110303 -0.20386048 0.047995679
-0.33130354 -0.20384523 0.047982223
-0.33150277 -0.20383054 0.047964152
-0.3317073 -0.20381497 0.047950651
-0.33190107 -0.20380381 0.047901362
-0.33211803 -0.20378447 0.047915541
-0.33231369 -0.20376892 0.047909088
-0.33251089 -0.2037528 0.047907237
-0.33271813 -0.20373997 0.047863606
-0.33291477 -0.20372778 0.047822393
-0.33313525 -0.2037037 0.047881708
-0.33331871 -0.20369682 0.047797766
-0.33349052 -0.20368974 0.047725514
-0.33370873 -0.20367029 0.047739688
-0.33393866 -0.20364395 0.047813974
-0.33412972 -0.20363529 0.047741544
-0.3343409 -0.20361997 0.047719881
-0.33452901 -0.2036078 0.04768569
-0.33476058 -0.20358463 0.047726374
-0.33497456 -0.20356371 0.047759123
-0.33515868 -0.20355666 0.047676336
-0.33535939 -0.20354207 0.047655925
-0.33554077 -0.20353375 0.047588218
-0.33574396 -0.20351943 0.047563154
-0.33596185 -0.2035007 0.047570378
-0.33617568 -0.20348355 0.047564901
-0.33637744 -0.20346649 0.047568813
-0.336568 -0.20345594 0.04751607
-0.33678976 -0.20343482 0.047544107
-0.33700085 -0.20341781 0.047539819
-0.3371982 -0.20340703 0.047483541
-0.33740586 -0.20339246 0.047457274
-0.3375994 -0.20337869 0.047434617
-0.3378177 -0.20336027 0.047438376
-0.33800319 -0.20335174 0.047369458
-0.33820775 -0.20333512 0.047366396
-0.33843181 -0.20331475 0.047385145
-0.33862075 -0.20330718 0.047303468
-0.33886805 -0.20328285 0.047342844
-0.33906594 -0.20327102 0.04729699
-0.33925921 -0.20325761 0.047270857
-0.33948427 -0.20323715 0.047289595
-0.33967876 -0.20322125 0.047287781
-0.33985752 -0.20321634 0.047187667
-0.3400954 -0.20319255 0.047229458
-0.3402994 -0.20317553 0.047231019
-0.34050933 -0.2031586 0.047226742
-0.34069833 -0.20315011 0.04715433
-0.23371939 -0.21144119 0.052774541
-0.23395456 -0.21142606 0.052730661
-0.23420443 -0.21141386 0.052644968
-0.23445839 -0.21140258 0.052546501
-0.23470725 -0.21138932 0.052472401
-0.23495039 -0.21137618 0.052401818
-0.235223 -0.21136783 0.052258018
-0.23546159 -0.21135518 0.052186333
-0.23568921 -0.21133931 0.052156419
-0.23591369 -0.21132289 0.052134641
-0.23615485 -0.21130878 0.052075662
-0.2363856 -0.21129379 0.05203414
-0.23661883 -0.21127941 0.051984496
-0.23685372 -0.21126546 0.051929049
-0.23709503 -0.21125178 0.051865436
-0.23733315 -0.21123871 0.051798373
-0.23757717 -0.21122698 0.051712736
-0.23780707 -0.21121241 0.051667754
-0.23804289 -0.21119919 0.051604196
-0.23827678 -0.21118566 0.051545281
-0.23850994 -0.21117209 0.051487528
-0.23874468 -0.21115895 0.051423967
-0.23898453 -0.21114585 0.051355734
-0.23921852 -0.21113276 0.051292192
-0.23945367 -0.21112005 0.051224001
-0.23969072 -0.21110786 0.05114885
-0.23992512 -0.21109521 0.051080666
-0.24016252 -0.21108335 0.051002033
-0.24040642 -0.21107186 0.05091409
-0.24062109 -0.21105511 0.050903976
-0.24085553 -0.21104291 0.050831165
-0.24108149 -0.21102889 0.05078391
-0.2413141 -0.21101649 0.05071459
-0.24154159 -0.21100304 0.050660361
-0.24176733 -0.21098927 0.050610788
-0.24199563 -0.2109762 0.050551925
-0.24222606 -0.21096249 0.050497673
-0.24245156 -0.21094897 0.05044578
-0.24267605 -0.21093529 0.050396219
-0.24289913 -0.21092141 0.050350145
-0.24312584 -0.21090846 0.050291296
-0.24334939 -0.21089487 0.050241742
-0.24357054 -0.21088079 0.050199147
-0.24379385 -0.21086733 0.050148442
-0.24401829 -0.21085298 0.050105829
-0.24423857 -0.21083896 0.050063252
-0.2444634 -0.21082617 0.050004423
-0.24468312 -0.21081221 0.04996185
-0.24490222 -0.21079817 0.04992044
-0.24511936 -0.21078373 0.049884837
-0.2453386 -0.21076992 0.049841113
-0.24556124 -0.21075709 0.049784616
-0.24581453 -0.2107445 0.049700044
-0.2459833 -0.21071641 0.049843203
-0.24616519 -0.21069834 0.049873926
-0.24639955 -0.21069026 0.04975944
-0.24672571 -0.21070427 0.049344212
-0.2470919 -0.21065468 0.049539942
-0.24728909 -0.21064244 0.049498733
-0.24751332 -0.21062958 0.049441073
-0.24772613 -0.21061504 0.049410142
-0.2479406 -0.21060105 0.049372245
-0.24815355 -0.21058673 0.049339
-0.24838263 -0.21057427 0.049273185
-0.24858096 -0.21055874 0.049264386
-0.24879257 -0.2105443 0.049233474
-0.24901523 -0.21053033 0.049188558
-0.24921432 -0.21051382 0.049189016
-0.24942957 -0.21050067 0.04914185
-0.24964271 -0.21048701 0.049101658
-0.24985619 -0.21047069 0.049088091
-0.25005475 -0.21045572 0.049073502
-0.25026366 -0.21044104 0.049047239
-0.25047743 -0.2104279 0.04900125
-0.25067976 -0.21041285 0.048984319
-0.25088668 -0.21039489 0.048992805
-0.25108257 -0.21037796 0.049000241
-0.25128004 -0.21036009 0.049015768
-0.25146613 -0.21033871 0.049076553
-0.25165367 -0.21031481 0.04916165
-0.25180519 -0.21028243 0.049362857
-0.25078243 -0.20960709 0.057062745
-0.25102377 -0.20959948 0.056937777
-0.25113744 -0.20954654 0.057379007
-0.25135815 -0.20953374 0.057323687
-0.25185961 -0.20943297 0.057924569
-0.25245827 -0.20936449 0.058116965
-0.25263888 -0.20932926 0.058322545
-0.25411183 -0.20959139 0.054432377
-0.25430283 -0.20956378 0.05455216
-0.25456664 -0.20955066 0.05446402
-0.25478572 -0.20953503 0.054438822
-0.25496727 -0.20951767 0.0544626
-0.25519446 -0.20950173 0.054433852
-0.25541258 -0.20948423 0.054428346
-0.25562242 -0.20947771 0.054318711
-0.25579542 -0.20945726 0.054380786
-0.25606057 -0.20944564 0.054276422
-0.25625682 -0.20942892 0.05428154
-0.25647193 -0.20941064 0.05428648
-0.2566686 -0.20938873 0.054343697
-0.25684392 -0.20937108 0.054375645
-0.25706312 -0.20935819 0.05432266
-0.25730813 -0.20935951 0.054103859
-0.25747859 -0.2093401 0.054157846
-0.25772318 -0.20931381 0.05421925
-0.25791812 -0.20929696 0.054226689
-0.25813094 -0.20928574 0.054162182
-0.25835145 -0.20926839 0.054153182
-0.25854295 -0.2092541 0.054137498
-0.25873014 -0.20923993 0.054124177
-0.25897643 -0.20922232 0.054096408
-0.25916398 -0.20920846 0.054079611
-0.25939217 -0.20919093 0.054065906
-0.25961557 -0.20918125 0.05397699
-0.25980267 -0.20916149 0.05402039
-0.2599929 -0.20914514 0.054026727
-0.2602196 -0.20913129 0.053977147
-0.26040065 -0.20911488 0.053991668
-0.26057723 -0.2090985 0.054009698
-0.26081991 -0.20909236 0.053868502
-0.26099819 -0.20907071 0.053938627
-0.2612386 -0.20905139 0.053932916
-0.26143789 -0.20903556 0.053926416
-0.26161423 -0.20902136 0.053922459
