# .PCD v0.7 - Point Cloud Data file format
VERSION 0.7
FIELDS x y z
SIZE 4 4 4
TYPE F F F
COUNT 1 1 1
WIDTH 920
HEIGHT 1
VIEWPOINT 0 0 0 1 0 0 0
POINTS 920
DATA ascii
-0.35078934 -0.27364647 0.062111206
-0.35103232 -0.27362585 0.062042005
-0.35124528 -0.27359644 0.062064022
-0.35146981 -0.27357224 0.062037572
-0.3516877 -0.27354443 0.062043436
-0.35191619 -0.27352163 0.062003125
-0.35214105 -0.27349615 0.061985895
-0.35235944 -0.27346876 0.06198829
-0.35258314 -0.27344307 0.061973371
-0.35278484 -0.27341238 0.062015049
-0.35302263 -0.27339128 0.061953947
-0.35322985 -0.2733624 0.061977148
-0.35345635 -0.27333796 0.061950691
-0.35368258 -0.27331355 0.061924223
-0.35390219 -0.27328712 0.061918546
-0.35412541 -0.27326372 0.061887495
-0.35433933 -0.27323562 0.061899133
-0.35453078 -0.27321091 0.061906274
-0.3548086 -0.27319863 0.061744675
-0.35501313 -0.27316409 0.0618117
-0.3552146 -0.27313215 0.061862607
-0.35548615 -0.2731238 0.061677985
-0.3556886 -0.27309236 0.061724268
-0.35589802 -0.27306512 0.061733618
-0.35611391 -0.27303836 0.061733726
-0.35633081 -0.27301937 0.061676182
-0.35655174 -0.27298898 0.061698169
-0.35675275 -0.27295724 0.06174792
-0.35701555 -0.27294728 0.061582938
-0.35719118 -0.2729198 0.061624743
-0.35743833 -0.27289343 0.06159357
-0.35763562 -0.27286059 0.061654858
-0.35786188 -0.27283823 0.061613411
-0.35809985 -0.27282217 0.061515421
-0.35831758 -0.27281034 0.061404843
-0.35854188 -0.27277622 0.061451022
-0.35873264 -0.27275854 0.061407436
-0.35895601 -0.27271837 0.061498582
-0.35917163 -0.27269274 0.06149061
-0.35933921 -0.27265677 0.061601624
-0.35960779 -0.27265731 0.061354764
-0.35980636 -0.27263331 0.061350349
-0.36004657 -0.27260181 0.061363012
-0.36025465 -0.27257174 0.061394285
-0.36047256 -0.27254754 0.061373629
-0.36069313 -0.27252653 0.061327595
-0.36090547 -0.27250037 0.06132656
-0.3611156 -0.27247539 0.061318628
-0.36133486 -0.27245218 0.061289892
-0.36155298 -0.2724286 0.06126463
-0.36176646 -0.27240324 0.061256669
-0.36196679 -0.2723746 0.061284516
-0.36220902 -0.27236134 0.061162286
-0.36240822 -0.27233028 0.061208591
-0.36261204 -0.27230123 0.061236426
-0.36283675 -0.27228317 0.061165005
-0.36305124 -0.27225879 0.061148975
-0.36327294 -0.27223763 0.061102942
-0.36347452 -0.27220786 0.061137699
-0.36367932 -0.27218169 0.061143622
-0.3638846 -0.27217296 0.061021574
-0.3641147 -0.27213874 0.061063118
-0.36432508 -0.27211314 0.061059795
-0.3645469 -0.27209276 0.061007991
-0.36474156 -0.27206022 0.061069295
-0.36495647 -0.27203688 0.0610452
-0.36518037 -0.27201784 0.060981855
-0.36539155 -0.27199528 0.060955472
-0.36560288 -0.27197063 0.060944065
-0.36581433 -0.27194616 0.060931511
-0.36602667 -0.2719222 0.060914338
-0.36624792 -0.27190489 0.060840629
-0.36645281 -0.27187759 0.060854629
-0.36667085 -0.2718567 0.060809754
-0.36687261 -0.27182803 0.060836453
-0.36708105 -0.27180266 0.060833126
-0.36728472 -0.27177504 0.060850583
-0.36749956 -0.27175534 0.060799979
-0.36771813 -0.27173534 0.06074819
-0.36792043 -0.27171201 0.06073568
-0.36813217 -0.27168399 0.06074848
-0.36834365 -0.27166316 0.060709409
-0.3685523 -0.27163854 0.060700327
-0.36877006 -0.27161881 0.060647387
-0.36898202 -0.27159616 0.060620997
-0.36919054 -0.27157426 0.060592316
-0.36938944 -0.27154484 0.060627095
-0.36958444 -0.27152079 0.060626142
-0.36980778 -0.27149975 0.060577795
-0.37002835 -0.27148488 0.060486801
-0.37023318 -0.27145648 0.06050887
-0.37043026 -0.27142885 0.060532123
-0.37063769 -0.27140456 0.060521886
-0.37083042 -0.27137196 0.060585506
-0.37105697 -0.27135873 0.060477197
-0.37127218 -0.27134183 0.060405828
-0.3714734 -0.27131435 0.060424443
-0.37167171 -0.27128518 0.060458064
-0.37188068 -0.27127299 0.060357906
-0.37208292 -0.27123827 0.060428403
-0.37229192 -0.27121568 0.06040433
-0.37249431 -0.27118912 0.060414877
-0.37270883 -0.27117011 0.060359649
-0.37291896 -0.27115133 0.060306758
-0.37312582 -0.27112788 0.060290769
-0.3733238 -0.27110174 0.060302481
-0.37352321 -0.27107939 0.060285382
-0.3736873 -0.27105993 0.060278811
-0.37393877 -0.27102864 0.060279895
-0.37412256 -0.27099633 0.060349323
-0.37432927 -0.27097037 0.060351782
-0.37453735 -0.27096289 0.060218196
-0.37474602 -0.2709356 0.060228713
-0.37496048 -0.27092117 0.060140051
-0.37516594 -0.27088889 0.060189776
-0.37536407 -0.27086353 0.060195737
-0.37557405 -0.27084351 0.060152054
-0.37575355 -0.27082041 0.060158107
-0.37598929 -0.27080053 0.060090095
-0.3761881 -0.27077603 0.060089126
-0.37637401 -0.27074537 0.060144715
-0.37658602 -0.2707243 0.060106803
-0.37679377 -0.27070343 0.0600712
-0.37700367 -0.27068749 0.059997551
-0.3772088 -0.27066821 0.059952743
-0.3774046 -0.27064851 0.059919521
-0.37760898 -0.27061588 0.059972711
-0.37779796 -0.27059433 0.059959114
-0.37800723 -0.27056885 0.059955791
-0.37821567 -0.27054617 0.059932873
-0.37842512 -0.27052778 0.059877671
-0.37861499 -0.27050057 0.059904419
-0.37881091 -0.27047834 0.059889629
-0.37900525 -0.27045137 0.059910595
-0.37919569 -0.27042821 0.059907358
-0.37941259 -0.27041334 0.059819844
-0.37962422 -0.27038708 0.059819974
-0.3798123 -0.2703658 0.059805222
-0.38002566 -0.27033761 0.059818022
-0.38023725 -0.27032259 0.059736297
-0.3804023 -0.27029592 0.059781611
-0.38060501 -0.27026951 0.059790999
-0.38081938 -0.27025002 0.059739232
-0.38102204 -0.27022758 0.059719801
-0.38121474 -0.27020368 0.059720024
-0.38140807 -0.27018428 0.059686799
-0.38163888 -0.27015772 0.059671849
-0.38182497 -0.27013555 0.059665177
-0.38202807 -0.27011415 0.059637681
-0.38222975 -0.27008742 0.05965054
-0.38243949 -0.27006471 0.05962646
-0.38262954 -0.27004698 0.059584036
-0.38283107 -0.27002451 0.059565764
-0.38304392 -0.27000555 0.059511699
-0.38323528 -0.26998118 0.05951653
-0.38342237 -0.26996094 0.059494868
-0.38364431 -0.26993927 0.059452292
-0.38384008 -0.2699112 0.059480157
-0.38402298 -0.26988217 0.059526544
-0.38423905 -0.26986787 0.059435569
-0.38440934 -0.26984277 0.059464715
-0.38463113 -0.26982173 0.059417523
-0.38479796 -0.26979265 0.059478968
-0.38499838 -0.26977491 0.059427269
-0.38521001 -0.26975656 0.05936975
-0.38540396 -0.26973137 0.059378043
-0.3855882 -0.26971388 0.059339091
-0.38580582 -0.26968881 0.05932536
-0.38600251 -0.26966742 0.059303649
-0.38619211 -0.26964718 0.05927968
-0.38638568 -0.26962712 0.05925107
-0.38660204 -0.26960093 0.059246559
-0.38679409 -0.26957914 0.059231788
-0.38698995 -0.26954648 0.059293095
-0.38717949 -0.26952675 0.059265655
-0.38736656 -0.26950923 0.059224397
-0.38759434 -0.26949441 0.059126455
-0.38777608 -0.26946965 0.059142865
-0.38796622 -0.26944575 0.059145406
-0.38816783 -0.26942167 0.059138656
-0.38835615 -0.26939514 0.05916195
-0.38856566 -0.26937753 0.059100986
-0.38874987 -0.26935688 0.059085101
-0.38895249 -0.26932859 0.059108332
-0.3891584 -0.2693122 0.059041616
-0.38934073 -0.26928881 0.059047651
-0.389539 -0.2692664 0.059031703
-0.3897453 -0.26924476 0.059003033
-0.38993505 -0.26922122 0.059003264
-0.39012432 -0.26919678 0.059010416
-0.39033154 -0.26917741 0.05896445
-0.39052618 -0.2691561 0.058943901
-0.39071155 -0.26913184 0.058953382
-0.39091164 -0.26911411 0.058901686
-0.39110988 -0.26909301 0.058876511
-0.3912985 -0.26906785 0.058889423
-0.39149591 -0.26904526 0.058875784
-0.3916705 -0.26900604 0.059004053
-0.39188135 -0.26900485 0.058822036
-0.39209297 -0.26897231 0.058868274
-0.39227352 -0.26895478 0.058832813
-0.39247519 -0.26894319 0.058734998
-0.39266333 -0.26891747 0.058752529
-0.3928597 -0.2688936 0.058749273
-0.39305326 -0.26887211 0.058731034
-0.3932496 -0.26884839 0.05872662
-0.39344525 -0.26882285 0.058736049
-0.39364594 -0.26880094 0.058714323
-0.39384302 -0.26877967 0.058691464
-0.3940444 -0.26876035 0.058650136
-0.39423016 -0.26873904 0.058637701
-0.39442948 -0.26871383 0.058641348
-0.39462489 -0.26868802 0.058653079
-0.39482507 -0.26866588 0.058633659
-0.39501277 -0.2686519 0.058565885
-0.39520481 -0.26862761 0.058569565
-0.39539492 -0.26861 0.058525994
-0.39557952 -0.26858553 0.058537774
-0.39577532 -0.26856187 0.05853337
-0.39597195 -0.2685419 0.058501277
-0.3961677 -0.26851839 0.058495723
-0.39636391 -0.26849738 0.058471709
-0.39657068 -0.26847473 0.058449954
-0.39675161 -0.26845038 0.058464058
-0.39694077 -0.26843131 0.058432017
-0.3971369 -0.26841125 0.058401085
-0.39732793 -0.26838234 0.058439359
-0.39752027 -0.26836163 0.058416523
-0.39771244 -0.26834014 0.058399446
-0.3979086 -0.26832181 0.058355846
-0.39811164 -0.26830199 0.058316816
-0.39829633 -0.26828003 0.058310147
-0.39849576 -0.26826161 0.058264222
-0.39868748 -0.26823908 0.058255218
-0.39888263 -0.2682147 0.058256574
-0.39906365 -0.26819271 0.058253393
-0.39925534 -0.26817051 0.058242083
-0.39945021 -0.2681416 0.058276881
-0.39964187 -0.26811796 0.058275945
-0.39983729 -0.26810098 0.058223121
-0.40002897 -0.26808149 0.058192212
-0.40021703 -0.26806429 0.05814749
-0.40040851 -0.26804227 0.058135033
-0.40059644 -0.26801863 0.058137581
-0.40079847 -0.26799864 0.058100857
-0.40099353 -0.26797095 0.058126431
-0.40118149 -0.26794589 0.058139354
-0.40137252 -0.26793292 0.058061186
-0.40156409 -0.26790583 0.058085617
-0.40176246 -0.26788375 0.058067359
-0.40196434 -0.26786092 0.058051392
-0.4021554 -0.26784164 0.05801934
-0.40234649 -0.26782078 0.057998817
-0.4025481 -0.26779956 0.057971321
-0.40273157 -0.26778391 0.057919703
-0.40293017 -0.26775736 0.057933725
-0.40311804 -0.2677331 0.057940882
-0.40331393 -0.26770136 0.057995263
-0.40350816 -0.26768216 0.057959735
-0.40369144 -0.26766574 0.057913888
-0.40387833 -0.26764807 0.057873789
-0.40407225 -0.26762906 0.057837103
-0.40425646 -0.26760605 0.057838514
-0.40445051 -0.26758608 0.057808749
-0.40464491 -0.26756385 0.05779513
-0.40483469 -0.26753068 0.057865679
-0.40502474 -0.26751292 0.057823256
-0.40521088 -0.26749694 0.057771631
-0.4053978 -0.26747707 0.057747662
-0.40559039 -0.26744795 0.057785928
-0.40578604 -0.26742068 0.057808034
-0.40597403 -0.26739687 0.057811726
-0.4061681 -0.26738858 0.057696655
-0.40636712 -0.26736167 0.057712987
-0.40657058 -0.26734325 0.057663571
-0.40674213 -0.26732859 0.05761547
-0.40692604 -0.26730654 0.057609968
-0.40711021 -0.26729459 0.057530683
-0.40731004 -0.2672652 0.0575643
-0.4075056 -0.26723874 0.057580642
-0.40769404 -0.26722342 0.057522088
-0.40789551 -0.26718989 0.057584517
-0.40808871 -0.26717049 0.057551291
-0.40827757 -0.26714438 0.057571128
-0.40846482 -0.26712272 0.05755984
-0.40866807 -0.26708582 0.057645313
-0.40891278 -0.26704711 0.057706386
-0.40910509 -0.26702183 0.057716981
-0.40929762 -0.26698798 0.057789825
-0.40950042 -0.26694623 0.057911038
-0.40969741 -0.26691088 0.057990789
-0.40989637 -0.26687166 0.058097035
-0.4100689 -0.2668395 0.058175743
-0.41027415 -0.26680234 0.058261208
-0.41049105 -0.2667625 0.058355846
-0.41069552 -0.26672101 0.058473594
-0.41088834 -0.26668352 0.058572955
-0.41107866 -0.26665169 0.058633126
-0.41127366 -0.26661074 0.058755539
-0.41147193 -0.2665773 0.058820281
-0.41168737 -0.26653698 0.058919542
-0.41189986 -0.26649642 0.05902341
-0.41209996 -0.26646084 0.059101988
-0.41230121 -0.26642355 0.059192091
-0.41250971 -0.26637968 0.059323654
-0.4127095 -0.26634607 0.059388395
-0.41291642 -0.26630017 0.059536107
-0.34317982 -0.27450642 0.062717505
-0.34340045 -0.27447796 0.062725641
-0.34361103 -0.27445927 0.062671572
-0.34387705 -0.27442837 0.062656417
-0.34409472 -0.27439791 0.062681869
-0.34430811 -0.27436799 0.06270735
-0.34446609 -0.27432275 0.062894531
-0.344742 -0.2743085 0.062749036
-0.34504664 -0.27430019 0.062534221
-0.34526628 -0.27427217 0.062540054
-0.34549943 -0.27424613 0.062519312
-0.34572858 -0.27421913 0.062508956
-0.34594133 -0.27418801 0.06254366
-0.34614468 -0.2741639 0.062535748
-0.34640393 -0.27413717 0.062496424
-0.34664649 -0.27411723 0.062422588
-0.34685323 -0.2740832 0.06248384
-0.34710333 -0.27406234 0.062409967
-0.34731382 -0.27403101 0.062448137
-0.3475785 -0.27401593 0.062318847
-0.34777296 -0.27398044 0.062402062
-0.34798813 -0.27395219 0.062413696
-0.34822944 -0.27392954 0.062360622
-0.34847793 -0.27390903 0.06228561
-0.34869882 -0.27388102 0.062290289
-0.34892321 -0.2738573 0.06226036
-0.349105 -0.27382827 0.062307894
-0.3493042 -0.27380085 0.062327679
-0.34959811 -0.27377743 0.062232837
-0.34985235 -0.27375937 0.062134728
-0.35003105 -0.2737214 0.062250316
-0.35028693 -0.27370408 0.06214527
-0.35050747 -0.2736783 0.062133811
-0.35073751 -0.27365375 0.062105015
-0.35094392 -0.2736223 0.062147811
-0.35116261 -0.27359456 0.062152505
-0.35138839 -0.27357069 0.062122568
-0.35162571 -0.27354869 0.062068366
-0.35187796 -0.27353311 0.061954126
-0.35209867 -0.27350637 0.061949581
-0.35229972 -0.27347368 0.062006257
-0.35253876 -0.27345276 0.061942808
-0.352732 -0.27341947 0.062011041
-0.35295933 -0.27339509 0.061983414
-0.35319683 -0.27337402 0.061922282
-0.35341531 -0.27334708 0.061921205
-0.35363147 -0.27332124 0.061914384
-0.353856 -0.27329642 0.061892524
-0.35407528 -0.27327174 0.061874151
-0.35427693 -0.27324501 0.061887003
-0.35449275 -0.27322471 0.061839819
-0.35472837 -0.27319142 0.061869793
-0.35493225 -0.27316201 0.061899927
-0.355167 -0.27314115 0.061839968
-0.35540262 -0.27312255 0.061762705
-0.35561854 -0.27309561 0.06176395
-0.35584417 -0.27307206 0.061731711
-0.35606715 -0.27304775 0.061707556
-0.35631099 -0.27303255 0.061597966
-0.35652366 -0.27300492 0.061607301
-0.35672694 -0.27297589 0.061635133
-0.35696435 -0.27295706 0.061557863
-0.35716826 -0.27292657 0.061596062
-0.35738894 -0.27290204 0.061575379
-0.35761207 -0.27288228 0.061517786
-0.35779187 -0.2728489 0.061598778
-0.35796005 -0.27281126 0.061721332
-0.35826495 -0.2728045 0.061494976
-0.35847041 -0.27277681 0.061511271
-0.35868508 -0.27275068 0.061507903
-0.35890365 -0.272728 0.061475698
-0.3591243 -0.27270427 0.061449245
-0.3593142 -0.27268657 0.061406806
-0.35956773 -0.27265799 0.061385952
-0.35977986 -0.27264118 0.061316889
-0.35998806 -0.27260524 0.061390817
-0.36020058 -0.2725789 0.061390921
-0.3604151 -0.27255338 0.061382949
-0.36063537 -0.27253225 0.061338052
-0.36086741 -0.27251393 0.061261967
-0.36106411 -0.27248162 0.061319809
-0.36128333 -0.2724584 0.061291058
-0.36150175 -0.27243701 0.061249629
-0.36171222 -0.27241042 0.061253205
-0.36192784 -0.27238813 0.061221015
-0.36213595 -0.27236074 0.061232671
-0.36233717 -0.27233261 0.061255906
-0.36255234 -0.27230832 0.061238706
-0.36277419 -0.27228901 0.061178811
-0.36298952 -0.27226502 0.061159305
-0.36318982 -0.27223465 0.061199829
-0.36342162 -0.27221793 0.06111221
-0.36360073 -0.27219126 0.061144769
-0.36386541 -0.27217856 0.060998186
-0.36405882 -0.2721476 0.061049119
-0.36426803 -0.27212149 0.0610504
-0.36447772 -0.27209786 0.061033227
-0.36470231 -0.27207887 0.060968708
-0.36490616 -0.27205279 0.06097462
-0.36511368 -0.27202627 0.060980525
-0.36532325 -0.27200076 0.060977183
-0.36553487 -0.27197626 0.060964618
-0.3657521 -0.27195674 0.060910508
-0.36595961 -0.27193055 0.060914107
-0.36616114 -0.27190381 0.060926951
-0.36637226 -0.27188173 0.06089709
-0.36658123 -0.27185646 0.060892604
-0.36678708 -0.27183202 0.060884673
-0.36699426 -0.27180603 0.060887121
-0.36720598 -0.27178466 0.060851492
-0.36741596 -0.27176258 0.060822781
-0.36763406 -0.27174234 0.060773276
-0.36784843 -0.2717227 0.060722642
-0.36805981 -0.27169934 0.060702004
-0.36826205 -0.27167377 0.060705625
-0.36847243 -0.27165008 0.060688443
-0.36867079 -0.27162263 0.060709387
-0.36888596 -0.27160162 0.060667969
-0.36909139 -0.27157804 0.060654275
-0.36928627 -0.27154642 0.060708672
-0.36950156 -0.27153081 0.060628049
-0.36971265 -0.27150559 0.060621239
-0.36992809 -0.27148786 0.060555611
-0.37013954 -0.2714656 0.060526907
-0.37033868 -0.27143916 0.060539767
-0.37054613 -0.27141485 0.060529523
-0.37074718 -0.2713896 0.060531996
-0.37096143 -0.27136937 0.060485967
-0.37116158 -0.27134374 0.060491908
-0.37136266 -0.27131611 0.060511675
-0.37157556 -0.27129808 0.060450673
-0.37178135 -0.27127606 0.060425442
-0.37198323 -0.2712518 0.060419843
-0.37218636 -0.27122566 0.060426913
-0.37238652 -0.27120051 0.060429394
-0.37260044 -0.27118111 0.060377602
-0.37280548 -0.27115914 0.060352385
-0.37300646 -0.27113199 0.060368698
-0.37322199 -0.27111682 0.060284615
-0.37343109 -0.27109498 0.060254764
-0.37363175 -0.27107072 0.060250316
-0.37383333 -0.27104431 0.060260855
-0.37401691 -0.27102911 0.060205761
-0.37422183 -0.27099925 0.06023819
-0.37445137 -0.27098283 0.060150586
-0.37464854 -0.27095377 0.060184211
-0.37484974 -0.27093041 0.060172848
-0.37505218 -0.27090499 0.060175315
-0.37525412 -0.27088231 0.060158178
-0.37546197 -0.27086079 0.060127176
-0.3756606 -0.270836 0.060128514
-0.37586758 -0.27081412 0.060100973
-0.37605816 -0.27079299 0.060082741
-0.37626156 -0.27077189 0.060052916
-0.3764649 -0.27074459 0.060068063
-0.37667114 -0.2707195 0.06006474
-0.37687743 -0.27070087 0.06001414
-0.37708518 -0.27068031 0.059976228
-0.37727788 -0.27065501 0.059986811
-0.37747356 -0.27063197 0.059977785
-0.37765586 -0.27060857 0.059983809
-0.37788281 -0.2705836 0.059960786
-0.37808189 -0.27055684 0.059975944
-0.37828985 -0.27053723 0.059931107
-0.37849432 -0.27051833 0.059883986
-0.37867483 -0.27049387 0.059899233
-0.37885767 -0.27046788 0.059923708
-0.37905642 -0.27045158 0.05986277
-0.37929532 -0.27042705 0.05982586
-0.37948859 -0.27040654 0.059800692
-0.37969759 -0.27038172 0.059792746
-0.37989756 -0.27035645 0.059796378
-0.38008878 -0.27033445 0.059783909
-0.38029119 -0.27031884 0.059714884
-0.38047323 -0.27029261 0.059741668
-0.38068643 -0.27026838 0.059725627
-0.38087785 -0.27024698 0.059708543
-0.38108465 -0.27022088 0.059712142
-0.38128114 -0.27020061 0.059682347
-0.38145694 -0.27017641 0.059699938
-0.38168159 -0.27015585 0.059646942
-0.38188946 -0.2701351 0.059610173
-0.382085 -0.27010643 0.059642658
-0.38227645 -0.27008584 0.059619807
-0.38249177 -0.27006483 0.059578389
-0.38269383 -0.27004293 0.059555501
-0.38289011 -0.27001935 0.059549913
-0.38308111 -0.26999882 0.059527069
-0.38327011 -0.26997206 0.059551515
-0.38347909 -0.26994503 0.05955971
-0.38367134 -0.26993492 0.059459601
-0.38384074 -0.26991326 0.059464529
-0.38408023 -0.26988927 0.059423
-0.38428152 -0.26986304 0.059432387
-0.38445982 -0.26984265 0.059419982
-0.38465258 -0.26982519 0.059372921
-0.38484955 -0.26979887 0.059386939
-0.38506097 -0.26977551 0.059366301
-0.38524351 -0.26975584 0.059344642
-0.38544071 -0.26972997 0.059355214
-0.38566601 -0.26970455 0.059336804
-0.38585734 -0.26968634 0.059296664
-0.38603544 -0.26966661 0.059279643
-0.38624153 -0.26964232 0.059270564
-0.38642091 -0.26961926 0.059276603
-0.38661706 -0.2695924 0.059295245
-0.38681468 -0.26958352 0.059181266
-0.38701522 -0.26955754 0.059189513
-0.3872301 -0.26952979 0.059197679
-0.38741407 -0.26950806 0.059189856
-0.387622 -0.26948735 0.059153095
-0.38779956 -0.26946214 0.05917643
-0.38798714 -0.26944613 0.059123624
-0.38818669 -0.269425 0.059097275
-0.38838264 -0.26939848 0.059113607
-0.38858253 -0.26937813 0.059081495
-0.38877353 -0.26935616 0.059069026
-0.38898817 -0.26932874 0.059074894
-0.38917795 -0.26931137 0.059030145
-0.3893714 -0.26928738 0.059030354
-0.38957962 -0.26926249 0.059023559
-0.38975838 -0.26923981 0.059027292
-0.389945 -0.26922441 0.058971033
-0.39016175 -0.26919454 0.058993027
-0.39036125 -0.26917517 0.058953993
-0.39055195 -0.26915386 0.058936913
-0.39074376 -0.26912737 0.058956735
-0.39093938 -0.26910847 0.05891772
-0.39113656 -0.26908529 0.058908682
-0.39131814 -0.26906133 0.058919318
-0.39152938 -0.26906025 0.058736101
-0.39173403 -0.2690213 0.05883541
-0.39192027 -0.26899961 0.058825266
-0.39212084 -0.2689763 0.058813903
-0.39231539 -0.26895675 0.058780663
-0.39251378 -0.26893768 0.058740489
-0.392703 -0.26891467 0.058737256
-0.392896 -0.26889199 0.058728226
-0.39308098 -0.26886791 0.058736548
-0.39327839 -0.26884723 0.058709063
-0.39347759 -0.26882139 0.058717303
-0.39367747 -0.26879755 0.058710564
-0.39387128 -0.26877779 0.058679625
-0.39407191 -0.26875651 0.05865328
-0.39426097 -0.26873416 0.058645431
-0.3944625 -0.26871628 0.058593709
-0.39465779 -0.26869047 0.058605425
-0.39485356 -0.26866636 0.058604471
-0.39504296 -0.26864567 0.058583938
-0.39524001 -0.26862645 0.05854607
-0.39542887 -0.26860446 0.058535926
-0.39562789 -0.26857927 0.058539547
-0.39581788 -0.2685622 0.0584925
-0.39601368 -0.26853916 0.058483467
-0.39620918 -0.26851505 0.058482505
-0.39640784 -0.26848853 0.058496524
-0.39659461 -0.26847547 0.058422957
-0.39679056 -0.26845416 0.058401242
-0.39698222 -0.26842973 0.058406062
-0.39717546 -0.26841447 0.058342848
-0.39736623 -0.26838478 0.058386892
-0.39756933 -0.26836449 0.058351301
-0.39776444 -0.26833934 0.058358412
-0.39795664 -0.26831943 0.058329791
-0.39815241 -0.26829973 0.058296546
-0.39834747 -0.26827475 0.058302507
-0.39853883 -0.26824832 0.058322322
-0.3987416 -0.26822886 0.058280967
-0.39892286 -0.26821029 0.058252409
-0.39911816 -0.26818907 0.058230687
-0.39930698 -0.26818019 0.05812484
-0.39949784 -0.26814592 0.058202311
-0.39968571 -0.26812133 0.058211766
-0.39988056 -0.2680918 0.058251161
-0.40007937 -0.26807454 0.058197141
-0.400278 -0.26805496 0.058160424
-0.40046945 -0.26803863 0.058106441
-0.40066081 -0.26801285 0.058121648
-0.40084854 -0.26799729 0.058065373
-0.40105394 -0.2679753 0.058040157
-0.40124163 -0.26795343 0.058030006
-0.40143296 -0.26792872 0.058037147
-0.4016313 -0.26790509 0.0580304
-0.40182945 -0.26788381 0.058006369
-0.4020243 -0.26785964 0.058006566
-0.40221539 -0.26783815 0.057990633
-0.40241376 -0.26781338 0.057991963
-0.40260825 -0.26779258 0.057967946
-0.40279222 -0.26777163 0.057954367
-0.40298265 -0.26775464 0.057906155
-0.40317288 -0.26773861 0.057851031
-0.4033823 -0.26770854 0.057881128
-0.40356994 -0.26768556 0.057879053
-0.4037649 -0.26765996 0.057889633
-0.40395558 -0.26763961 0.057865627
-0.40414226 -0.26762214 0.057824358
-0.40433353 -0.26759794 0.057828031
-0.40453067 -0.26757917 0.057786707
-0.40471667 -0.267564 0.057729289
-0.40491569 -0.26753551 0.057757143
-0.40509978 -0.26751265 0.057757393
-0.40528896 -0.26749772 0.057695348
-0.40547833 -0.26748133 0.057643682
-0.40567163 -0.26746255 0.05760584
-0.40586361 -0.26743525 0.057631418
-0.40605891 -0.26740867 0.057648905
-0.40625736 -0.26738325 0.05765485
-0.40645143 -0.2673614 0.057638913
-0.40663919 -0.26733777 0.057641443
-0.4068234 -0.26732597 0.05756098
-0.40702924 -0.2672987 0.05757381
-0.40721938 -0.26727828 0.057550963
-0.4074055 -0.26724917 0.057595015
-0.40759802 -0.26723176 0.057547946
-0.4077976 -0.26721331 0.057501998
-0.40797776 -0.26719207 0.057494201
-0.40817145 -0.26717088 0.057473648
-0.4083657 -0.26714805 0.057464615
-0.4085592 -0.26711833 0.057506334
-0.40876845 -0.26708323 0.057573341
-0.40900648 -0.2670441 0.057643659
-0.40920627 -0.26700839 0.057723396
-0.40940264 -0.26697347 0.057800841
-0.40960324 -0.26693705 0.057885189
-0.40980023 -0.2669017 0.057964928
-0.40997353 -0.26686722 0.058059793
-0.41018471 -0.2668238 0.058185585
-0.4104012 -0.26678431 0.058277924
-0.4105964 -0.26674777 0.058368068
-0.41080162 -0.26671189 0.058444306
-0.41099843 -0.26667309 0.058549434
-0.41117716 -0.26664427 0.058598138
-0.41140696 -0.26660094 0.058706556
-0.41160592 -0.26655948 0.058828957
-0.41181451 -0.26651958 0.058931708
-0.41201562 -0.26648167 0.059026428
-0.41221863 -0.26644066 0.059141897
-0.41242218 -0.26640546 0.059214689
-0.41262001 -0.26636893 0.059302509
-0.4128308 -0.26632762 0.059413325
-0.34351587 -0.27447343 0.062654242
-0.34369782 -0.2744357 0.062765181
-0.34387714 -0.27439573 0.062894598
-0.34414345 -0.27437872 0.062777974
-0.34436768 -0.27436373 0.062684618
-0.34460518 -0.27433065 0.062711112
-0.34484494 -0.27430284 0.062697239
-0.34508926 -0.27428094 0.062636077
-0.34531188 -0.27425367 0.062633827
-0.34555846 -0.27424192 0.062496535
-0.34579301 -0.274207 0.062539198
-0.34607196 -0.2741946 0.062377535
-0.34623447 -0.27415213 0.062540472
-0.34646294 -0.2741268 0.062518582
-0.34670866 -0.27410617 0.062447026
-0.34691539 -0.27407372 0.062496744
-0.3471435 -0.27404863 0.062473707
-0.34737575 -0.27402472 0.062437959
-0.34758323 -0.27399427 0.062472686
-0.34782624 -0.27397346 0.062404603
-0.34806129 -0.27395067 0.062358461
-0.34825316 -0.27391613 0.06243708
-0.34845811 -0.27388516 0.062477574
-0.34876883 -0.2738837 0.062207375
-0.3489114 -0.27385348 0.062298909
-0.34912398 -0.27382982 0.062279414
-0.34940577 -0.27379793 0.062257256
-0.34963033 -0.27377293 0.06223654
-0.34983769 -0.27374312 0.062266655
-0.35004112 -0.27371219 0.062308315
-0.35030752 -0.27369958 0.062159397
-0.35051513 -0.27367005 0.062187195
-0.35075104 -0.27364889 0.062128372
-0.35098621 -0.27362764 0.062070712
-0.35119027 -0.27359727 0.062107753
-0.35142976 -0.27357754 0.06203508
-0.3516354 -0.27354777 0.062066346
-0.35186058 -0.27352399 0.06203641
-0.3520759 -0.27349728 0.062036496
-0.35229144 -0.27347073 0.062035423
-0.35252067 -0.27344847 0.061990473
-0.35274783 -0.2734257 0.061951302
-0.35296088 -0.27339864 0.061956003
-0.35317707 -0.27337262 0.061950326
-0.35339272 -0.27334651 0.061945807
-0.35361964 -0.27332234 0.061917007
-0.3538363 -0.27329674 0.061907865
-0.35406765 -0.27327597 0.061850213
-0.35429478 -0.27325398 0.061805271
-0.35449532 -0.27323055 0.06179506
-0.35467353 -0.27320161 0.061844908
-0.35495433 -0.27318156 0.061737437
-0.35514235 -0.27314699 0.061819527
-0.35534802 -0.27311835 0.061842728
-0.35558239 -0.27309939 0.061768923
-0.35579252 -0.27307239 0.061775953
-0.35599878 -0.27304414 0.061795682
-0.3562147 -0.27301925 0.061781935
-0.3564705 -0.27300829 0.061630771
-0.35667112 -0.27297834 0.06166783
-0.35685644 -0.27294302 0.061757997
-0.3570829 -0.27292222 0.061705001
-0.35733646 -0.27291119 0.061556142
-0.35757139 -0.27289379 0.06147081
-0.35772708 -0.27286872 0.061512701
-0.35797152 -0.27283418 0.061543781
-0.35818818 -0.27281049 0.0615208
-0.35840753 -0.27278787 0.061487429
-0.35857654 -0.27275249 0.061592676
-0.35879007 -0.27272207 0.061621599
-0.35902515 -0.27270558 0.061529338
-0.35926172 -0.27268988 0.061430156
-0.35951233 -0.27267969 0.061277866
-0.35969004 -0.27263993 0.061407275
-0.35990977 -0.2726182 0.06136699
-0.36011904 -0.27259257 0.0613648
-0.36032018 -0.27256384 0.061392631
-0.36054513 -0.2725445 0.0613304
-0.36076182 -0.27252203 0.061298206
-0.36097771 -0.27249938 0.061268307
-0.36117592 -0.27246976 0.061305378
-0.36138758 -0.27244556 0.061290495
-0.36159936 -0.27242151 0.061274454
-0.36181152 -0.27239567 0.061271098
-0.36202562 -0.27237275 0.061244667
-0.36221829 -0.27234933 0.061241411
-0.36246252 -0.27233094 0.061154872
-0.36266434 -0.27230322 0.061174635
-0.36287272 -0.27227831 0.061167832
-0.36308929 -0.272257 0.061127558
-0.36326143 -0.27223152 0.061157838
-0.36351404 -0.27221113 0.061078187
-0.36371103 -0.27218163 0.061115261
-0.3639124 -0.27215192 0.061150007
-0.36412635 -0.27212998 0.061116666
-0.36434177 -0.27210879 0.061076388
-0.36453626 -0.27207834 0.061122701
-0.36473706 -0.27205074 0.061142467
-0.36495116 -0.27202925 0.061105661
-0.36515367 -0.27200258 0.06111734
-0.36536226 -0.27197877 0.061102469
-0.36556908 -0.27195421 0.061094537
-0.36578137 -0.2719323 0.061062351
-0.36596593 -0.271911 0.061051052
-0.3661786 -0.27188495 0.06104885
-0.36640421 -0.2718606 0.061022364
-0.3665998 -0.27184486 0.060960285
-0.3668367 -0.27182168 0.060915299
-0.36705953 -0.27180338 0.060847312
-0.36727089 -0.27178192 0.060812831
-0.36748204 -0.27176049 0.060778342
-0.36768138 -0.27173322 0.060796965
-0.36788693 -0.27170914 0.06078672
-0.36809582 -0.27168688 0.060760319
-0.36830628 -0.27166554 0.060725838
-0.36851385 -0.2716428 0.06070406
-0.36871645 -0.27161515 0.060722657
-0.36889255 -0.27159312 0.060724087
-0.36906642 -0.27156994 0.060735911
-0.36933658 -0.27154645 0.060663089
-0.36954123 -0.27152264 0.060651697
-0.3697384 -0.27149487 0.06067609
-0.36993885 -0.27146891 0.060684327
-0.37016094 -0.27145496 0.060585212
-0.37037152 -0.27143234 0.060559951
-0.37057406 -0.27140784 0.060555495
-0.37077674 -0.27138349 0.060549878
-0.37099314 -0.2713671 0.060473856
-0.37119448 -0.2713396 0.060492463
-0.37139964 -0.27131698 0.060471844
-0.37158844 -0.27128488 0.060535483
-0.37180603 -0.27126974 0.060449075
-0.37200856 -0.27124321 0.060459599
-0.37221646 -0.27122265 0.060421675
-0.37242225 -0.27120093 0.060394138
-0.37263256 -0.27118209 0.060341202
-0.37282655 -0.27115062 0.060395591
-0.37302914 -0.27112722 0.060383059
-0.37324351 -0.27110854 0.060325503
-0.37345245 -0.27108943 0.060276043
-0.37364754 -0.2710616 0.060302742
-0.37385246 -0.27104011 0.060274057
-0.37406215 -0.27101901 0.060238428
-0.3742564 -0.27099082 0.0602686
-0.374461 -0.27096656 0.060260668
-0.37466654 -0.27094597 0.060225062
-0.37487531 -0.27092767 0.060169831
-0.37503037 -0.27089968 0.060233641
-0.37526503 -0.2708725 0.060219795
-0.37547487 -0.27085233 0.060177237
-0.37568563 -0.27083299 0.060127769
-0.37589252 -0.27081412 0.060078319
-0.37609005 -0.27078569 0.060107313
-0.37628895 -0.27076131 0.060105175
-0.37649277 -0.27074063 0.060071882
-0.37668961 -0.27071494 0.060081296
-0.37689102 -0.27068949 0.060084909
-0.37709966 -0.27067277 0.060018152
-0.37730342 -0.27065256 0.059981398
-0.37750489 -0.27063075 0.059958488
-0.37769967 -0.2706039 0.059978284
-0.37788382 -0.27058199 0.059971601
-0.37810084 -0.27055603 0.059964765
-0.3782998 -0.27053261 0.059955709
-0.37847671 -0.27051872 0.059897177
-0.37868762 -0.27049839 0.059854627
-0.37891692 -0.27046919 0.059860405
-0.37911406 -0.27044475 0.059860587
-0.37931263 -0.27042153 0.05985038
-0.37951881 -0.27040133 0.059811302
-0.37971905 -0.27037618 0.059813775
-0.37991157 -0.27035165 0.059818592
-0.38011482 -0.2703293 0.05979798
-0.38032573 -0.27031752 0.059693158
-0.38051981 -0.27028728 0.059738323
-0.3807081 -0.27026677 0.059717782
-0.38091952 -0.27024862 0.059659086
-0.38110411 -0.27022111 0.059692763
-0.38129374 -0.27020216 0.059659541
-0.38148731 -0.27017152 0.059708163
-0.38169089 -0.27015433 0.059649505
-0.38191354 -0.27013606 0.059581522
-0.38210168 -0.27011225 0.059585199
-0.38228583 -0.27008447 0.059621185
-0.38251609 -0.27006212 0.059576228
-0.38271073 -0.27004096 0.059554514
-0.38290262 -0.27001289 0.059585858
-0.38311312 -0.26999581 0.059520237
-0.38330144 -0.26996833 0.059550442
-0.38347062 -0.26994193 0.05958996
-0.38369209 -0.26992413 0.059519682
-0.38388696 -0.2699039 0.059491038
-0.38410816 -0.26988184 0.059451893
-0.38430253 -0.26986596 0.059392128
-0.38448015 -0.26984027 0.059418924
-0.38466686 -0.26981583 0.059428379
-0.38487017 -0.2697922 0.059416991
-0.38507509 -0.26977056 0.059389457
-0.38528609 -0.2697517 0.059336521
-0.385465 -0.26972774 0.059349477
-0.3856661 -0.26970184 0.059356548
-0.38586497 -0.26968318 0.059312906
-0.38605425 -0.2696676 0.059255466
-0.38625422 -0.26964056 0.059271768
-0.38644734 -0.26962009 0.0592466
-0.38664216 -0.26959151 0.05927908
-0.38683715 -0.26957378 0.059231989
-0.3870281 -0.26955074 0.059227586
-0.38723892 -0.2695227 0.059241526
-0.3874315 -0.26950765 0.059177157
-0.38763094 -0.26949161 0.059113912
-0.38782987 -0.2694636 0.059138283
-0.3880294 -0.26944235 0.059113085
-0.38822359 -0.26941904 0.059107512
-0.38841927 -0.26939806 0.059083484
-0.38860312 -0.26937082 0.059116013
-0.38880062 -0.2693468 0.059112731
-0.3889918 -0.26932514 0.059097946
-0.38918239 -0.26930907 0.059042808
-0.38938618 -0.26928964 0.059000287
-0.38958719 -0.26926568 0.05899353
-0.38977426 -0.26924419 0.058981072
-0.38997915 -0.26922053 0.058968529
-0.39017025 -0.26919967 0.05894798
-0.3903594 -0.26917538 0.058953963
-0.3905558 -0.26915041 0.058958761
-0.39075947 -0.26913226 0.058907017
-0.39095196 -0.26911485 0.058859937
-0.39115778 -0.26908633 0.058881976
-0.39133418 -0.26905951 0.058918003
-0.39154002 -0.26903889 0.0588824
-0.39173603 -0.26902184 0.058829535
-0.391929 -0.26899838 0.058826275
-0.39212245 -0.26897612 0.058813788
-0.3923223 -0.26895133 0.058813952
-0.39251617 -0.26893029 0.058792233
-0.39271066 -0.26891103 0.058756679
-0.39290154 -0.26889241 0.058719989
-0.39309627 -0.26886463 0.058746703
-0.39329132 -0.26884755 0.058695
-0.39348686 -0.26882201 0.058704406
-0.39368671 -0.26879817 0.058697656
-0.39388677 -0.26877511 0.058685139
-0.3940821 -0.2687602 0.058617294
-0.39427242 -0.2687304 0.058662467
-0.39446715 -0.26871449 0.058602706
-0.39466259 -0.26868913 0.058610953
-0.39485216 -0.26866907 0.0585858
-0.39505145 -0.26864451 0.05858482
-0.39524406 -0.26862252 0.05857119
-0.39544067 -0.26860192 0.058543682
-0.39564005 -0.26857814 0.058536936
-0.39584365 -0.26855698 0.058507096
-0.39601871 -0.26853904 0.058479719
-0.3962138 -0.26851311 0.058492586
-0.39640608 -0.268491 0.058480106
-0.39660612 -0.26847154 0.058441065
-0.39679551 -0.26845405 0.058397464
-0.39699405 -0.26842752 0.058411468
-0.39718646 -0.26840746 0.058383994
-0.39738205 -0.26838508 0.058370344
-0.39757684 -0.2683576 0.058394749
-0.39777583 -0.26833418 0.058385693
-0.39796478 -0.26831689 0.058340937
-0.39816362 -0.26829287 0.0583365
-0.39834806 -0.26826888 0.058344804
-0.39855048 -0.26824519 0.058334582
-0.39873183 -0.26822647 0.058307163
-0.39893126 -0.26821107 0.0582393
-0.39913321 -0.26818299 0.058261357
-0.3993251 -0.26816535 0.05821659
-0.39950591 -0.26814228 0.058221463
-0.39970478 -0.2681244 0.058172051
