# .PCD v0.7 - Point Cloud Data file format
VERSION 0.7
FIELDS x y z
SIZE 4 4 4
TYPE F F F
COUNT 1 1 1
WIDTH 1308
HEIGHT 1
VIEWPOINT 0 0 0 1 0 0 0
POINTS 1308
DATA ascii
-0.085398711 -0.31947652 0.056503855
-0.085545003 -0.31957686 0.056454998
-0.085708186 -0.3196809 0.056449935
-0.085879304 -0.319783 0.0564887
-0.086046919 -0.31988877 0.056490544
-0.086207137 -0.31998837 0.056501649
-0.08636187 -0.32009459 0.056449309
-0.086525321 -0.32020137 0.056428097
-0.086700916 -0.32031327 0.056423005
-0.086858101 -0.32041627 0.056400653
-0.087024644 -0.32053018 0.056347124
-0.087172672 -0.32062736 0.056324802
-0.087348379 -0.3207368 0.056335863
-0.087507784 -0.32083935 0.056325044
-0.087677479 -0.32094753 0.056319963
-0.087833136 -0.32105836 0.056242242
-0.087985806 -0.32115722 0.056227982
-0.08815375 -0.32125586 0.056275982
-0.088325739 -0.32135391 0.056343578
-0.088499598 -0.32147628 0.056265805
-0.088640995 -0.32157958 0.056178898
-0.088810667 -0.32168791 0.056172669
-0.088961668 -0.32178956 0.056134187
-0.08912082 -0.32188997 0.056136057
-0.089283794 -0.3219946 0.056126386
-0.089441903 -0.32209289 0.056137487
-0.089633897 -0.32220069 0.056223497
-0.089821883 -0.32231861 0.056229901
-0.089955881 -0.32242489 0.056094557
-0.090115249 -0.3225348 0.056037582
-0.090280011 -0.32263708 0.056049827
-0.090434805 -0.32273602 0.05604364
-0.090595618 -0.32284573 0.055993591
-0.090747595 -0.32294726 0.055959716
-0.090916373 -0.32305154 0.055975407
-0.091083497 -0.32315609 0.055983033
-0.09125077 -0.3232629 0.055976812
-0.091398835 -0.32336709 0.055910639
-0.091581412 -0.323477 0.055945911
-0.091750368 -0.32358378 0.055946603
-0.091891438 -0.32369071 0.055835467
-0.09203501 -0.32378858 0.055791236
-0.092212372 -0.32389042 0.055856507
-0.092400312 -0.32399383 0.055954054
-0.092576757 -0.32410684 0.055945508
-0.092738889 -0.32421866 0.055887375
-0.092900358 -0.32432619 0.055853482
-0.093043759 -0.32443479 0.05574118
-0.093205124 -0.32453805 0.055733815
-0.093389496 -0.3246423 0.055811763
-0.093563184 -0.32474935 0.055829752
-0.093715839 -0.32485735 0.055757809
-0.093875133 -0.32496297 0.055727381
-0.09402252 -0.32506493 0.05567275
-0.094189838 -0.32517231 0.055663068
-0.094358265 -0.32527769 0.055670682
-0.094523259 -0.32538727 0.05563793
-0.094652742 -0.32548961 0.055509519
-0.094851568 -0.32560045 0.055603575
-0.095025085 -0.32570794 0.0556181
-0.095197566 -0.3258175 0.055615325
-0.095348649 -0.32591939 0.055575684
-0.0955154 -0.32602313 0.05558677
-0.095691092 -0.32612887 0.055620898
-0.095847324 -0.32623476 0.055576634
-0.096019313 -0.32634455 0.055570394
-0.096193194 -0.32645833 0.055546846
-0.096343145 -0.32656226 0.055489909
-0.096496731 -0.32666811 0.055435263
-0.096651606 -0.32676819 0.055422157
-0.096837632 -0.32687643 0.055481631
-0.097000346 -0.32698441 0.055450045
-0.097173072 -0.3270945 0.055444956
-0.097328544 -0.32720044 0.055397235
-0.097506002 -0.32731262 0.055397902
-0.097675234 -0.32742086 0.055390522
-0.097842336 -0.3275272 0.055386603
-0.09799289 -0.3276293 0.055343501
-0.098164365 -0.32773402 0.055367261
-0.09832526 -0.32784212 0.055327602
-0.098482102 -0.32794821 0.055284485
-0.098652646 -0.32805857 0.055269025
-0.098820172 -0.32816154 0.055288181
-0.099006601 -0.32827279 0.055330358
-0.09916947 -0.32838836 0.055251464
-0.099332765 -0.32849669 0.055219866
-0.09948644 -0.32859731 0.055198684
-0.099660292 -0.32869911 0.055250127
-0.099831 -0.32881874 0.055176973
-0.09999188 -0.32892704 0.055136159
-0.10014402 -0.32902408 0.055131134
-0.10032609 -0.32913387 0.055165242
-0.10050209 -0.32924861 0.055143997
-0.10065886 -0.32935315 0.055110108
-0.10081731 -0.32946137 0.055060066
-0.100988 -0.32956707 0.055074602
-0.10115729 -0.32967791 0.055051066
-0.10131963 -0.32978821 0.055003323
-0.10148546 -0.32989192 0.055010952
-0.1016431 -0.32999155 0.055011667
-0.10181805 -0.33010304 0.055006582
-0.10198893 -0.33021253 0.05499804
-0.10216068 -0.33032382 0.054981418
-0.10230614 -0.33042419 0.054929111
-0.10249315 -0.33053872 0.054952819
-0.10265607 -0.33064592 0.054926999
-0.10284109 -0.33076546 0.054911498
-0.10294668 -0.33085835 0.05474738
-0.10315478 -0.33096367 0.05491294
-0.10333203 -0.33107921 0.054891691
-0.10351498 -0.33119375 0.054899275
-0.10366669 -0.33130321 0.054814644
-0.10383463 -0.33141282 0.05479341
-0.10401085 -0.33152017 0.054819472
-0.10416368 -0.33162647 0.054759063
-0.1043544 -0.33173898 0.054810457
-0.10449477 -0.33184215 0.054720081
-0.10468134 -0.33195752 0.054736882
-0.10484352 -0.33206826 0.054685682
-0.10502389 -0.33217496 0.054732483
-0.10518464 -0.33228719 0.054666288
-0.10535716 -0.33239457 0.054677356
-0.10551721 -0.33250195 0.054638848
-0.10570125 -0.3326174 0.054645266
-0.10584836 -0.33271989 0.054586031
-0.10603815 -0.33283308 0.054629348
-0.10619866 -0.33294222 0.054581609
-0.10637891 -0.33305889 0.054564968
-0.10654816 -0.33316624 0.054563351
-0.10671937 -0.33328015 0.054528281
-0.10687804 -0.33338445 0.054503612
-0.10705194 -0.33349419 0.054505453
-0.10724561 -0.33361626 0.054508381
-0.10739146 -0.3337141 0.054473374
-0.10755415 -0.33381766 0.054469466
-0.10772417 -0.33393008 0.054439008
-0.1078935 -0.33403784 0.054435089
-0.10808967 -0.33415911 0.054453012
-0.10825382 -0.33426616 0.054432951
-0.10842577 -0.33437905 0.054407105
-0.10856751 -0.33447942 0.054339804
-0.10874054 -0.33458805 0.054345094
-0.10893212 -0.3347044 0.054375727
-0.10909848 -0.33481652 0.05433258
-0.10926203 -0.33492666 0.0542906
-0.10942354 -0.33503205 0.054270547
-0.10960042 -0.33514166 0.054285064
-0.10977878 -0.33525896 0.054256894
-0.10993573 -0.33536515 0.054213777
-0.11013331 -0.33548599 0.054239772
-0.11030144 -0.33559284 0.054237008
-0.11047006 -0.33570415 0.054207705
-0.11064575 -0.3358154 0.054207228
-0.11082923 -0.33593541 0.0541825
-0.1109838 -0.3360399 0.054140545
-0.11116586 -0.33615828 0.054120433
-0.11133908 -0.33627069 0.054102656
-0.11152083 -0.33638337 0.054117158
-0.11167042 -0.33648413 0.054078683
-0.11184818 -0.33659762 0.054072428
-0.11203273 -0.33671391 0.054075383
-0.11222548 -0.33683759 0.054064479
-0.11238322 -0.33694297 0.054029439
-0.11254986 -0.33705157 0.054009371
-0.11272 -0.33716094 0.053998519
-0.11288483 -0.33727211 0.053955387
-0.11307371 -0.33738545 0.053994097
-0.11325538 -0.33750579 0.053960148
-0.11342405 -0.33762065 0.053908926
-0.11359619 -0.33773348 0.053884223
-0.11376312 -0.33784249 0.053863004
-0.11391148 -0.33794063 0.053836066
-0.11413889 -0.33807653 0.053886205
-0.11429124 -0.3381798 0.0538431
-0.11445978 -0.33828798 0.053833414
-0.11463953 -0.33839864 0.053852532
-0.0233422 -0.27929193 0.062300451
-0.023537282 -0.27941543 0.062299881
-0.023744609 -0.27955753 0.062231191
-0.023932759 -0.27967227 0.062258326
-0.024131726 -0.27980375 0.062223122
-0.024339292 -0.27994433 0.06216481
-0.024523657 -0.28005686 0.062190808
-0.024724338 -0.28018868 0.062160209
-0.02492293 -0.2803179 0.062137701
-0.025109556 -0.28043133 0.062167149
-0.025308885 -0.28056431 0.062123865
-0.025509387 -0.28069657 0.062089808
-0.025687411 -0.28080124 0.062140051
-0.025893092 -0.28094083 0.062080596
-0.026090395 -0.28107178 0.062041938
-0.026277069 -0.28118595 0.062066771
-0.026485171 -0.28132945 0.061992306
-0.026673984 -0.28144681 0.062005591
-0.026867345 -0.28157309 0.061980795
-0.027064208 -0.28170177 0.061954819
-0.027255643 -0.28182572 0.061936948
-0.027445238 -0.28194469 0.061943311
-0.027605318 -0.28202531 0.062073223
-0.027861074 -0.28226575 0.061578631
-0.02803687 -0.28233689 0.061830796
-0.028224975 -0.28245434 0.061840624
-0.028409015 -0.28256887 0.061852768
-0.028607875 -0.28270173 0.061808333
-0.028796241 -0.28282267 0.061797388
-0.028991133 -0.28295028 0.061770279
-0.029184628 -0.28307611 0.061748933
-0.029365089 -0.2831834 0.061792247
-0.029568456 -0.28332645 0.06170164
-0.029754527 -0.28344208 0.061714943
-0.029945131 -0.28356716 0.061686687
-0.030132685 -0.28368518 0.061690748
-0.030326217 -0.28381488 0.061645173
-0.030510332 -0.28392816 0.061665397
-0.030709464 -0.28406358 0.06160596
-0.030889358 -0.2841709 0.061646964
-0.031035293 -0.28423083 0.061850764
-0.031265549 -0.28441292 0.061621621
-0.031459674 -0.28454465 0.061565667
-0.031658825 -0.2846812 0.061499313
-0.031849429 -0.28480813 0.061459515
-0.032033775 -0.28492284 0.061471663
-0.032219235 -0.28503934 0.061476879
-0.03240972 -0.28516361 0.061453238
-0.032590885 -0.28527686 0.061461926
-0.032787114 -0.28541028 0.061403655
-0.032961082 -0.28551272 0.06145161
-0.033162884 -0.28565517 0.061358698
-0.033343203 -0.28576458 0.061388172
-0.033531558 -0.28588659 0.061370302
-0.033718709 -0.28601003 0.061338596
-0.033908639 -0.28613487 0.061309189
-0.03409427 -0.28625315 0.061304025
-0.034273796 -0.28636187 0.06133464
-0.034491904 -0.28653538 0.061111309
-0.034657538 -0.28662226 0.061223887
-0.034833319 -0.28672862 0.061254527
-0.035021164 -0.28685123 0.061230898
-0.035218816 -0.28698993 0.061144926
-0.035399027 -0.28710055 0.061166316
-0.035568699 -0.28719735 0.061232738
-0.035758615 -0.28733081 0.061149098
-0.035948139 -0.28745374 0.061130077
-0.036155552 -0.28761002 0.060972542
-0.036324758 -0.28770304 0.061060883
-0.036497202 -0.28780138 0.061128449
-0.03668518 -0.28792942 0.061071355
-0.036871891 -0.28805202 0.061043106
-0.037059095 -0.2881757 0.061010249
-0.037242007 -0.28829223 0.061005093
-0.037420969 -0.28840575 0.061003409
-0.037607294 -0.28852847 0.060972854
-0.037789933 -0.28864503 0.060966544
-0.037975561 -0.28876698 0.060938306
-0.038151003 -0.28887495 0.060957406
-0.038333401 -0.28899154 0.06094994
-0.03851774 -0.28911173 0.060927473
-0.038702227 -0.2892324 0.060902692
-0.038881972 -0.2893486 0.060887165
-0.039065331 -0.28946763 0.060868159
-0.039255954 -0.28960007 0.060793743
-0.039432161 -0.2897065 0.060825534
-0.039615702 -0.28983042 0.060776532
-0.039804243 -0.28995988 0.060712513
-0.039987456 -0.29008377 0.060662348
-0.040167339 -0.29019767 0.060661815
-0.040341683 -0.29030126 0.060704
-0.040507875 -0.2903977 0.060758885
-0.040654443 -0.29047748 0.060840376
-0.040846974 -0.29062012 0.060709424
-0.041053727 -0.29074845 0.060724966
-0.041240014 -0.29087555 0.060666725
-0.04141821 -0.29099151 0.060646579
-0.041601293 -0.29111293 0.060611427
-0.041760199 -0.29121301 0.060614407
-0.041966617 -0.29135489 0.060543418
-0.04214282 -0.29146773 0.06053482
-0.042320825 -0.2915799 0.060537759
-0.042497963 -0.29169041 0.06054762
-0.042677332 -0.29180562 0.060536701
-0.042860612 -0.29193377 0.060460001
-0.04303699 -0.29204327 0.06047333
-0.043210439 -0.29215142 0.060483199
-0.043391623 -0.29227129 0.060450356
-0.043567076 -0.29238403 0.060439453
-0.043748893 -0.29250574 0.060397372
-0.043926455 -0.29262349 0.060363382
-0.044104937 -0.29273853 0.060350172
-0.044276327 -0.29284319 0.060373895
-0.04444816 -0.29295403 0.060360689
-0.044625245 -0.29307678 0.060293246
-0.044807971 -0.2931866 0.060329624
-0.044982865 -0.29329973 0.060314111
-0.045162387 -0.29341835 0.060282428
-0.045340262 -0.29353887 0.060232278
-0.045517698 -0.29365322 0.060219068
-0.045694802 -0.29376701 0.060208157
-0.045875661 -0.29388997 0.060154542
-0.046046898 -0.29399583 0.060170189
-0.046223834 -0.29410985 0.060156979
-0.04639598 -0.29422399 0.060124155
-0.046575844 -0.2943399 0.060110934
-0.046750974 -0.29445609 0.060076956
-0.046922639 -0.29455784 0.060120296
-0.047097724 -0.29467437 0.060084004
-0.047243722 -0.2947782 0.060012028
-0.04742869 -0.29488981 0.060046103
-0.047618814 -0.29500228 0.060095146
-0.047795326 -0.29513019 0.059993088
-0.047973149 -0.29524261 0.059993729
-0.04814392 -0.29534927 0.060002442
-0.048321687 -0.2954686 0.059959225
-0.048492793 -0.29557657 0.059961032
-0.048670404 -0.2956962 0.059915502
-0.04884024 -0.29580098 0.059932314
-0.049011484 -0.29590994 0.059928335
-0.049185496 -0.29601994 0.059928976
-0.049361616 -0.29613641 0.059897304
-0.049534105 -0.29624984 0.059870258
-0.049687497 -0.29634351 0.059891723
-0.049880225 -0.29647341 0.05984154
-0.050055929 -0.29658997 0.059807558
-0.050226614 -0.29669896 0.059801288
-0.05039582 -0.29681161 0.059766173
-0.050571494 -0.29692081 0.059778344
-0.050726775 -0.29702172 0.059761725
-0.050908923 -0.29714456 0.059713878
-0.051086921 -0.29725358 0.059736431
-0.05124718 -0.2973547 0.059738267
-0.051434949 -0.29748037 0.05969502
-0.051587135 -0.29758096 0.059668019
-0.05174154 -0.29767084 0.059717182
-0.05192396 -0.29780707 0.059586257
-0.052109506 -0.29791629 0.05963764
-0.05229228 -0.29803514 0.059617475
-0.052451923 -0.29813567 0.059620462
-0.052636303 -0.29826176 0.059561078
-0.052803576 -0.29837263 0.059529427
-0.05296234 -0.29847041 0.059546269
-0.053133328 -0.29858655 0.059496142
-0.053295109 -0.29868624 0.059512973
-0.053494155 -0.29882106 0.059456997
-0.053662453 -0.29892653 0.059463426
-0.053835012 -0.29903963 0.059438683
-0.054001823 -0.29913828 0.059482038
-0.054175172 -0.29925612 0.059430752
-0.054335851 -0.29936573 0.059380662
-0.054504536 -0.29947492 0.059365168
-0.054679029 -0.29958615 0.059360035
-0.054855544 -0.29969352 0.0593872
-0.055024017 -0.29980257 0.059371699
-0.055194099 -0.29990494 0.059404664
-0.055344559 -0.30000699 0.059361525
-0.055536505 -0.30014265 0.05927211
-0.055703405 -0.30024356 0.059301615
-0.055875059 -0.30035812 0.059264183
-0.056043435 -0.30047041 0.059227921
-0.05621627 -0.30059618 0.059124712
-0.056370582 -0.30068946 0.059151947
-0.056545764 -0.30078939 0.059220664
-0.05671899 -0.30089688 0.059233993
-0.056884233 -0.3010112 0.059172351
-0.057058379 -0.30112937 0.059122227
-0.057221323 -0.30122226 0.059186358
-0.05739522 -0.30133972 0.059139684
-0.057565473 -0.30145007 0.059123024
-0.057732739 -0.30156094 0.059091382
-0.057902455 -0.30166584 0.059107032
-0.058069643 -0.30177847 0.059063844
-0.058233254 -0.30188227 0.059062202
-0.058399927 -0.30198869 0.059055943
-0.058554512 -0.30209485 0.059003562
-0.058742844 -0.30222234 0.05895108
-0.058912285 -0.30232906 0.058954045
-0.059078548 -0.30243048 0.058977779
-0.059226234 -0.30251062 0.059061576
-0.059389692 -0.30264381 0.058874175
-0.059574295 -0.3027508 0.058935925
-0.059743587 -0.30285159 0.058975812
-0.059878979 -0.3029373 0.05897541
-0.060035136 -0.3030701 0.058761492
-0.06024427 -0.30319297 0.058820873
-0.060404688 -0.30327603 0.058936931
-0.06055798 -0.30338171 0.058882251
-0.060754143 -0.3035138 0.058832053
-0.06091018 -0.30362141 0.058776207
-0.061084989 -0.3037332 0.058768764
-0.061256673 -0.30384281 0.058762491
-0.061407033 -0.30393672 0.058770124
-0.061572 -0.30404797 0.058726944
-0.061746813 -0.3041572 0.058735657
-0.061902277 -0.3042635 0.058685586
-0.062080152 -0.30437374 0.058700051
-0.062257044 -0.30449182 0.058661453
-0.062416062 -0.30459359 0.058654062
-0.062590256 -0.30470553 0.058643155
-0.062746726 -0.30480132 0.058663458
-0.062904768 -0.30490854 0.058617998
-0.063089639 -0.3050364 0.058549374
-0.06325984 -0.3051306 0.058634251
-0.063408323 -0.3052325 0.058584198
-0.063587517 -0.30535221 0.058544435
-0.063752189 -0.30545774 0.058535874
-0.063904785 -0.30555475 0.058533113
-0.064081348 -0.3056691 0.058516443
-0.064253546 -0.30578694 0.058460545
-0.064388052 -0.30587062 0.058469374
-0.064564139 -0.30598599 0.058444627
-0.064736798 -0.30608669 0.058498345
-0.064901315 -0.30620497 0.058409009
-0.065072797 -0.30631006 0.058430426
-0.065237455 -0.30641395 0.058432251
-0.065394953 -0.30651751 0.058407553
-0.065560393 -0.3066186 0.058430135
-0.065711766 -0.30672967 0.058333918
-0.065893069 -0.30684942 0.058302231
-0.066075295 -0.3069661 0.058293611
-0.066244885 -0.30706558 0.058342729
-0.066409521 -0.30717918 0.058283392
-0.066563658 -0.30728006 0.058262169
-0.066711321 -0.30737796 0.058234036
-0.066885233 -0.30747634 0.058307368
-0.06705413 -0.30759722 0.05821918
-0.067216203 -0.30770609 0.058179475
-0.067381121 -0.30780795 0.058195136
-0.067531742 -0.30789816 0.058226999
-0.067700014 -0.30802765 0.058082268
-0.067868061 -0.30813092 0.058101393
-0.068064764 -0.30825713 0.058090426
-0.068223536 -0.30835509 0.058106109
-0.068399653 -0.3084664 0.058106735
-0.068554372 -0.30856457 0.058105119
-0.06872049 -0.30867177 0.058091942
-0.068871766 -0.30876866 0.05808457
-0.069038413 -0.30888224 0.058033314
-0.069210678 -0.30899277 0.058023568
-0.069379106 -0.30910271 0.058002304
-0.069541968 -0.30920786 0.057989124
-0.069693238 -0.30931133 0.057940215
-0.069857769 -0.30941349 0.057952426
-0.070014864 -0.30951408 0.057945035
-0.070174105 -0.30959782 0.058051862
-0.070340134 -0.30969802 0.058082532
-0.07053294 -0.30984229 0.057942349
-0.070680611 -0.30994385 0.057891138
-0.070862256 -0.31005904 0.057889447
-0.071015894 -0.31016421 0.057839379
-0.071191125 -0.31026983 0.057872318
-0.071364373 -0.3103843 0.057841811
-0.071536623 -0.31048217 0.057911687
-0.071680985 -0.31056973 0.057935487
-0.071814783 -0.3106651 0.057868168
-0.07197094 -0.31078359 0.057744242
-0.072124444 -0.3109048 0.057592645
-0.072315484 -0.31102467 0.057599001
-0.072479412 -0.3111327 0.057571974
-0.072657511 -0.31121886 0.057738751
-0.072826341 -0.31132686 0.057731327
-0.072976083 -0.3114191 0.057747044
-0.073151015 -0.3115361 0.057707291
-0.073298194 -0.31163627 0.057663012
-0.073480882 -0.31174991 0.05767516
-0.073649257 -0.31185323 0.057695433
-0.073803023 -0.31195647 0.057658054
-0.073951915 -0.31205457 0.057633389
-0.074125864 -0.31216711 0.057617866
-0.074282698 -0.31227192 0.057582788
-0.074462622 -0.31238821 0.057567261
-0.074609615 -0.31248313 0.057555288
-0.07477852 -0.31258145 0.057609014
-0.074960038 -0.31271014 0.057521939
-0.075092293 -0.31280413 0.057456937
-0.075245157 -0.31290737 0.0574161
-0.075410172 -0.31302246 0.057348691
-0.075569645 -0.31312877 0.057314754
-0.075743459 -0.31323645 0.057329241
-0.07590723 -0.31334785 0.057280295
-0.076058179 -0.31345204 0.057225615
-0.076230153 -0.31356111 0.057223946
-0.076402672 -0.3136698 0.0572269
-0.076580718 -0.31378269 0.057225227
-0.076738797 -0.31387728 0.057259366
-0.076897271 -0.31397581 0.057270437
-0.077088892 -0.31409547 0.057280254
-0.077232361 -0.31419641 0.057216365
-0.077394523 -0.31429249 0.057257425
-0.077554256 -0.31439033 0.057277724
-0.077715665 -0.31449491 0.057262246
-0.077879943 -0.31460533 0.057221375
-0.078046672 -0.3147065 0.057248574
-0.078201771 -0.31481498 0.057183504
-0.078373268 -0.31492832 0.05715299
-0.078540452 -0.3150219 0.057229802
-0.078702666 -0.31514809 0.05708164
-0.078868799 -0.31524247 0.057149224
-0.079034291 -0.315341 0.05718796
-0.079197235 -0.31545189 0.057139017
-0.079369098 -0.31556493 0.057111971
-0.079544738 -0.31567943 0.057090677
-0.079710171 -0.31578529 0.057083271
-0.079878777 -0.31589991 0.057033151
-0.080015182 -0.3159894 0.057013139
-0.080174819 -0.31608444 0.057050735
-0.080336519 -0.31618536 0.057059485
-0.080495588 -0.31629431 0.057007093
-0.080659389 -0.31640097 0.056988154
-0.080830745 -0.31651074 0.056979567
-0.080992371 -0.31660849 0.057007931
-0.081162706 -0.31670901 0.057053585
-0.081328154 -0.31683451 0.056922711
-0.081487432 -0.31694305 0.056873776
-0.081635468 -0.3170467 0.056811035
-0.081799388 -0.31714681 0.056833617
-0.081938051 -0.31724471 0.056769755
-0.082128406 -0.31735936 0.056806114
-0.082307518 -0.31746304 0.056866731
-0.08247222 -0.31756935 0.056853555
-0.082639769 -0.31767762 0.056839213
-0.08280579 -0.31778952 0.056796029
-0.082970195 -0.31789896 0.056762077
-0.083108269 -0.3179937 0.056715515
-0.083269373 -0.31810123 0.056680433
-0.08345367 -0.3182126 0.05671335
-0.083613828 -0.31831455 0.056709409
-0.083774231 -0.31841356 0.056725085
-0.083940178 -0.3185311 0.056646131
-0.084096253 -0.31863725 0.056599516
-0.084256716 -0.31873628 0.056615204
-0.084418811 -0.31884056 0.056604333
-0.084597811 -0.31895116 0.056621119
-0.084751979 -0.31905499 0.056581426
-0.084908262 -0.31915542 0.056571737
-0.0850797 -0.31925443 0.056631226
-0.085248247 -0.31937638 0.056534961
-0.085404359 -0.31947961 0.056506801
-0.085540414 -0.31958264 0.056400251
-0.085708126 -0.31968555 0.056420524
-0.085881673 -0.31978974 0.056455769
-0.086051583 -0.31989494 0.056470267
-0.086223789 -0.32000232 0.056480139
-0.086364105 -0.320104 0.056398965
-0.086538762 -0.3202135 0.056405369
-0.086702198 -0.32031772 0.056400269
-0.086878531 -0.3204321 0.05638244
-0.087038569 -0.32053709 0.056358892
-0.08720798 -0.32064527 0.056352615
-0.087374888 -0.32074639 0.056380969
-0.087541647 -0.32085013 0.056392018
-0.087682828 -0.32096136 0.056254294
-0.087832212 -0.32106584 0.056191541
-0.088015273 -0.32116413 0.056301773
-0.088190243 -0.32126907 0.056338172
-0.08835981 -0.32138485 0.056284599
-0.088524893 -0.3214916 0.056270264
-0.088676177 -0.32160059 0.056186736
-0.088844284 -0.32170922 0.056172393
-0.089005813 -0.32180929 0.056185767
-0.089165092 -0.32191217 0.056172594
-0.089332357 -0.32202578 0.056123637
-0.08949998 -0.32212514 0.05616584
-0.089663625 -0.32222983 0.056158431
-0.089808919 -0.32233468 0.056077227
-0.089980997 -0.3224383 0.056110181
-0.090146832 -0.32254514 0.056098152
-0.090335257 -0.32265162 0.056178361
-0.090531178 -0.32276431 0.056249317
-0.090642571 -0.32287058 0.056024
-0.090804718 -0.32297564 0.05600851
-0.090962835 -0.32307887 0.055988427
-0.09112905 -0.32318357 0.055991396
-0.091296934 -0.32329261 0.055973597
-0.091457017 -0.3234024 0.05592005
-0.091626391 -0.32350251 0.055964544
-0.091793634 -0.32361391 0.055929437
-0.091956787 -0.32372344 0.055889722
-0.092125915 -0.32382813 0.055904221
-0.09229666 -0.32393497 0.055911787
-0.092461914 -0.32404658 0.055867456
-0.092609659 -0.32414857 0.055813946
-0.09276396 -0.3242501 0.055789255
-0.092965603 -0.32436165 0.055890199
-0.093070008 -0.32446608 0.055648733
-0.093249805 -0.32456416 0.055747434
-0.093457773 -0.32467365 0.055886433
-0.093601018 -0.32478634 0.055747554
-0.093747824 -0.32489875 0.055624813
-0.093928523 -0.32500142 0.055698119
-0.094099157 -0.32510871 0.055702228
-0.094267912 -0.32521412 0.05571096
-0.094431184 -0.32531768 0.055709321
-0.094579779 -0.32542166 0.05564658
-0.094749898 -0.32553321 0.05562184
-0.094941117 -0.32564238 0.055696271
-0.095100179 -0.32574621 0.055676185
-0.095260315 -0.32585603 0.055622637
-0.095431209 -0.32596773 0.055600207
-0.095595494 -0.32607156 0.055600874
-0.095758796 -0.32618138 0.055560008
-0.095904037 -0.32628727 0.055471886
-0.096076369 -0.32638925 0.055516373
-0.096241444 -0.32649907 0.055482432
-0.096374445 -0.32659706 0.055395495
-0.096584976 -0.32670927 0.055527564
-0.096755549 -0.3268193 0.055514365
-0.096916243 -0.32692727 0.055474654
-0.097089715 -0.3270393 0.055460297
-0.097246327 -0.32714343 0.055428687
-0.097420216 -0.32724985 0.055451244
-0.097564295 -0.32735556 0.055359669
-0.097740471 -0.32746217 0.055390298
-0.097904056 -0.32757032 0.055360965
-0.098072529 -0.3276768 0.055361621
-0.098237112 -0.32778507 0.055335749
-0.09843038 -0.32790744 0.055335179
-0.098577648 -0.32800949 0.055279359
-0.098733634 -0.32811007 0.055267364
-0.098904036 -0.32821688 0.055273779
-0.099061981 -0.32832313 0.055234078
-0.099247426 -0.32843083 0.055294689
-0.099409841 -0.32854098 0.055248052
-0.099565923 -0.32864898 0.0551899
-0.099726297 -0.32875365 0.05516981
-0.09993045 -0.32886824 0.055261511
-0.10009208 -0.32898378 0.055177953
-0.10025429 -0.32908869 0.055163626
-0.10042028 -0.32919216 0.055173516
-0.10056852 -0.32930142 0.05507616
-0.10074222 -0.329409 0.055090647
-0.10092103 -0.32952407 0.055078581
-0.10107911 -0.3296271 0.055059649
-0.10125549 -0.3297351 0.055082206
-0.10141882 -0.32984382 0.055048257
-0.10158956 -0.32995322 0.055039674
-0.10175533 -0.33006221 0.055013802
-0.10189581 -0.33016384 0.054933771
-0.10205794 -0.3302674 0.054927528
-0.1022684 -0.3303858 0.055020362
-0.10242345 -0.33049223 0.054967977
-0.10259992 -0.33060414 0.054966301
-0.10276571 -0.33071169 0.054949652
-0.10294703 -0.33082923 0.054931812
-0.10309406 -0.33092821 0.054894451
-0.10323632 -0.33103496 0.054789029
-0.10336857 -0.33113062 0.054713648
-0.10359858 -0.3312504 0.054875657
-0.10374363 -0.33135581 0.054789837
-0.10394594 -0.33147767 0.054828469
-0.10411163 -0.33158553 0.054809526
-0.10426653 -0.33169699 0.054724835
-0.10443784 -0.3318007 0.054754328
-0.1046224 -0.33191261 0.054784931
-0.10479197 -0.33203077 0.054716349
-0.10495682 -0.33213389 0.054723945
-0.1051005 -0.33223107 0.054684281
-0.1052738 -0.3323434 0.054667626
-0.10542577 -0.3324497 0.054603714
-0.10560277 -0.33255938 0.05461818
-0.10578363 -0.33266968 0.054644186
-0.10594849 -0.33277625 0.054629851
-0.10613454 -0.33289847 0.05460161
-0.10630879 -0.33301118 0.054586098
-0.10648729 -0.33312458 0.054583263
-0.10663065 -0.33322507 0.054521687
-0.1068203 -0.3333402 0.054552276
-0.10700969 -0.33346158 0.054542482
-0.10713245 -0.33354664 0.054495972
-0.10731836 -0.33366141 0.054513883
-0.10751195 -0.33378363 0.054515615
-0.10766839 -0.33388782 0.054482847
-0.10780001 -0.33398199 0.054414373
-0.10799606 -0.33409712 0.05447033
-0.10816579 -0.33420661 0.054457143
-0.10833942 -0.33432132 0.054426625
-0.10848774 -0.33442733 0.054350033
-0.10868478 -0.33454752 0.054378293
-0.10885766 -0.3346577 0.054373167
-0.10902749 -0.33476743 0.054358818
-0.10919493 -0.33487383 0.054356016
-0.10935027 -0.33498409 0.054280557
-0.10954605 -0.3351 0.054330744
-0.10972199 -0.3352125 0.054323308
-0.10987051 -0.33531275 0.054283634
-0.11005436 -0.33542824 0.054288864
-0.11020745 -0.33553821 0.054206479
-0.1103728 -0.33564454 0.054195613
-0.11058271 -0.33577234 0.054227293
-0.11075193 -0.33588535 0.054189868
-0.11088783 -0.33597615 0.05415947
-0.11106735 -0.33609551 0.054123167
-0.11123665 -0.33620143 0.054130748
-0.11142775 -0.33632022 0.054144025
-0.11159714 -0.33643058 0.054123908
-0.11176133 -0.33654428 0.05406227
-0.11194154 -0.33666113 0.054044433
-0.11210886 -0.33676836 0.054035857
-0.11229548 -0.33688375 0.05405261
-0.11246735 -0.33699203 0.054055564
-0.11266181 -0.33711627 0.054048061
-0.11281999 -0.33722466 0.053995673
-0.11296435 -0.33732322 0.05395025
-0.11313564 -0.33743718 0.053915128
-0.11334426 -0.33756599 0.053935274
-0.11350705 -0.33766851 0.053938255
-0.11368872 -0.33778483 0.053929642
-0.11386748 -0.33790058 0.05391296
-0.11402965 -0.33800727 0.053887092
-0.11419699 -0.33812204 0.053831216
-0.11439176 -0.33824006 0.053864103
-0.11453879 -0.33833534 0.05384982
-0.11471993 -0.33845463 0.053820439
-0.023313217 -0.2792742 0.062296592
-0.023509514 -0.27939922 0.062291376
-0.023708027 -0.27952969 0.062260777
-0.023893915 -0.27964133 0.062298276
-0.02409656 -0.27977753 0.062248047
-0.02430509 -0.2799193 0.062186252
-0.02451453 -0.28006494 0.062103696
-0.024702042 -0.28017926 0.062130816
-0.024877802 -0.28028047 0.062193729
-0.02508131 -0.28041628 0.062149256
-0.02527298 -0.28053895 0.062140595
-0.025470287 -0.2806668 0.062121529
-0.025681295 -0.28081581 0.062023968
-0.025871933 -0.28093505 0.062032618
-0.026036691 -0.2810269 0.062110566
-0.026262596 -0.2811892 0.061988726
-0.026449457 -0.28130624 0.061996236
-0.026633922 -0.28141755 0.062030282
-0.026840832 -0.2815623 0.061943114
-0.027032085 -0.2816858 0.061927523
-0.027219947 -0.28180474 0.06192695
-0.027426954 -0.28194773 0.061851323
-0.027591135 -0.2820341 0.061961576
-0.027793571 -0.28217107 0.061905578
-0.027993664 -0.28230768 0.061842658
-0.028183818 -0.28242791 0.061843231
-0.028375082 -0.28255248 0.061820719
-0.028563477 -0.2826705 0.061828215
-0.028745007 -0.28278157 0.061851889
-0.028947283 -0.28291956 0.061788972
-0.029140275 -0.28304726 0.061753757
-0.02932889 -0.28316614 0.061756648
-0.029515505 -0.28328505 0.061751455
-0.029662505 -0.28336638 0.061824847
-0.029886957 -0.28351784 0.061765313
-0.030089725 -0.28365779 0.061692007
-0.030282959 -0.28378692 0.061648734
-0.030478027 -0.28391615 0.061612368
-0.030667018 -0.28403947 0.061588712
-0.030855294 -0.28415906 0.061585832
-0.031037405 -0.28427252 0.061596803
-0.031243235 -0.28441846 0.061498113
-0.031433091 -0.28454378 0.061465226
-0.031613585 -0.28465241 0.061500434
-0.031795047 -0.28476545 0.061511409
-0.031983148 -0.28488567 0.061503917
-0.032169558 -0.28500646 0.061486032
-0.032355655 -0.28512391 0.061487775
-0.032549102 -0.28525576 0.061428331
-0.032738712 -0.28537893 0.061408136
-0.032906119 -0.28547117 0.061494157
-0.033104323 -0.28560787 0.061423171
-0.033303831 -0.28574997 0.061323345
-0.033484712 -0.28586027 0.061349321
-0.033669457 -0.28597671 0.061352208
-0.033859879 -0.28610536 0.061300866
-0.034056906 -0.28624147 0.061228734
-0.034231756 -0.28634596 0.061267413
-0.034420252 -0.28646898 0.061243765
-0.034608997 -0.28659582 0.061197035
-0.034783691 -0.28669709 0.061255343
-0.034975633 -0.28682944 0.061186686
-0.03514795 -0.28692698 0.061258834
-0.035336327 -0.28705397 0.061209805
-0.035525791 -0.28717962 0.061173454
-0.035700247 -0.28728423 0.061209835
-0.035897817 -0.28742364 0.061119244
-0.03608403 -0.28754795 0.061078295
-0.036267657 -0.28766477 0.061074264
-0.036442887 -0.28777114 0.061102573
-0.036642179 -0.28791457 0.060993511
-0.036817648 -0.28802165 0.061018351
-0.036999989 -0.28813693 0.061018948
-0.037193205 -0.28827447 0.0609226
-0.037358768 -0.28836134 0.061035149
-0.037548341 -0.2884931 0.060960732
-0.037732445 -0.28861207 0.060945172
-0.037911918 -0.28872681 0.060937695
-0.038098164 -0.28884986 0.060904823
-0.038289834 -0.28898644 0.06080848
-0.038451571 -0.2890929 0.060782596
-0.038617846 -0.28918111 0.060889382
-0.038809266 -0.2892952 0.060933787
-0.038989216 -0.28941169 0.060917079
-0.039178997 -0.28954232 0.060850739
-0.039352883 -0.28964821 0.060876735
-0.039512679 -0.28975984 0.060810491
-0.039725572 -0.28990215 0.060762532
-0.039911091 -0.29002604 0.060721584
-0.040091615 -0.29014492 0.060692184
-0.040270533 -0.29025692 0.060699716
-0.040435724 -0.29034722 0.06078919
-0.040591635 -0.29043218 0.060875244
-0.040803909 -0.29059559 0.06069231
-0.040985666 -0.29071781 0.06064675
-0.041164406 -0.29083449 0.060624287
-0.04134848 -0.29095745 0.060583338
-0.041521367 -0.29106307 0.060607038
-0.041699231 -0.29117423 0.060615711
-0.041884836 -0.2913053 0.060529776
-0.042061746 -0.29141495 0.060544226
-0.042233758 -0.29151928 0.06057255
-0.042413846 -0.2916401 0.060529303
-0.042591143 -0.29175547 0.060509145
-0.042774096 -0.2918781 0.060465902
-0.042948522 -0.29198802 0.060468815
-0.043119319 -0.29208571 0.060534056
-0.043304078 -0.29221755 0.060440041
-0.04348376 -0.29233426 0.060421027
-0.043660671 -0.2924501 0.060396262
-0.043836471 -0.2925638 0.060380723
-0.044012494 -0.29267821 0.060361721
-0.044193126 -0.29279789 0.060327709
-0.044368498 -0.29291132 0.060312174
-0.04454352 -0.29301903 0.060331251
-0.044717763 -0.29313028 0.060324948
-0.044880576 -0.29323152 0.060335979
-0.045018498 -0.29330784 0.060404785
-0.04524745 -0.29347575 0.060259864
-0.045422405 -0.29358947 0.060240865
-0.045597438 -0.2936981 0.060254168
-0.045776911 -0.29382291 0.060183246
-0.045949459 -0.29393163 0.060186177
-0.046122346 -0.29404128 0.060184494
-0.046298027 -0.29415214 0.060186267
-0.04647534 -0.29427305 0.06013149
-0.046652161 -0.29438719 0.060117111
-0.046829578 -0.29450908 0.060056563
-0.047003709 -0.29461694 0.060071029
-0.047175266 -0.29472446 0.060077421
-0.047345813 -0.29482955 0.060095362
-0.047510542 -0.29493842 0.060066011
-0.047696318 -0.29506487 0.060010068
-0.047874358 -0.29518402 0.059969142
-0.048048325 -0.2952925 0.059978988
-0.048217237 -0.29539397 0.060013078
-0.048400521 -0.29553533 0.059853304
-0.048569255 -0.29562989 0.059930094
-0.04872505 -0.29572248 0.059967678
-0.048902679 -0.29584229 0.059920989
-0.049084805 -0.29596841 0.059852362
-0.049256898 -0.29607281 0.059880674
-0.049433142 -0.29618222 0.059893973
-0.049603216 -0.29629576 0.059856534
-0.049784027 -0.29641959 0.059797138
-0.049953964 -0.29652575 0.059805848
-0.050125986 -0.29663062 0.059830699
-0.050278656 -0.29673848 0.059759855
-0.05047128 -0.29686117 0.059754655
-0.050642215 -0.29697144 0.05974143
-0.050814986 -0.29707953 0.059748985
-0.050983965 -0.2971836 0.059766922
-0.051160384 -0.29730466 0.059707537
-0.051329788 -0.29741064 0.0597151
-0.051499754 -0.29751882 0.059711114
-0.051672854 -0.29763868 0.059645981
-0.05183845 -0.29774097 0.059661619
-0.052003022 -0.29784939 0.059634574
-0.052179851 -0.29796502 0.059610959
-0.052342329 -0.29807636 0.059557386
-0.052491758 -0.29816768 0.059577703
-0.052671243 -0.29827362 0.0596256
-0.052868433 -0.2984091 0.059558079
-0.053026225 -0.29851377 0.059527598
-0.053186685 -0.29860714 0.059579019
-0.053372469 -0.29874164 0.059472315
-0.053516623 -0.29883456 0.059461489
-0.053710662 -0.29895908 0.059450511
-0.053885095 -0.29906788 0.059460357
-0.054046955 -0.29916853 0.059471399
-0.054201819 -0.2992754 0.059415549
-0.054360308 -0.29937336 0.059430059
-0.054530956 -0.29950726 0.059266865
-0.054725528 -0.29962295 0.059313565
-0.054899652 -0.2997323 0.059318796
-0.055052694 -0.29983231 0.059298716
-0.055220243 -0.29993621 0.059312042
-0.055410262 -0.30005854 0.059298776
-0.055598002 -0.30018511 0.059249736
-0.055759713 -0.3002888 0.059241161
-0.055913668 -0.30037785 0.059293762
-0.056080218 -0.30049706 0.059206724
-0.056266066 -0.30061272 0.059218846
-0.056439064 -0.30071712 0.059250612
-0.056598164 -0.30082557 0.059201669
-0.056761771 -0.30092365 0.059235781
-0.056949206 -0.30105627 0.059147522
-0.057117082 -0.30116937 0.05910432
-0.057287455 -0.30127925 0.059091114
-0.05745393 -0.30137843 0.059129819
-0.057624336 -0.30148998 0.059106231
-0.05778823 -0.30159432 0.059102256
-0.05794603 -0.30169699 0.059084471
-0.058129318 -0.30183029 0.058975454
-0.05830178 -0.30193233 0.059019923
-0.058468256 -0.30203351 0.059045948
-0.058634907 -0.30213904 0.059045438
-0.058779635 -0.30222189 0.059100367
-0.058971189 -0.3023538 0.059032861
-0.059137933 -0.30247405 0.05894006
-0.059310447 -0.30258292 0.05894183
-0.059467521 -0.3026813 0.058948267
-0.05964607 -0.3028037 0.05888889
-0.059812225 -0.30291036 0.058879152
-0.059975266 -0.30301416 0.058875181
-0.060138568 -0.30310601 0.058947362
-0.060277499 -0.30317876 0.059042692
-0.060441591 -0.30333674 0.058701854
-0.060629576 -0.30344039 0.058798183
-0.06079248 -0.30354133 0.05881153
-0.060970113 -0.3036615 0.058762532
-0.061139047 -0.30376664 0.058773547
-0.06131421 -0.30387425 0.058793776
-0.061479345 -0.3039856 0.058750585
-0.061651144 -0.30409384 0.058753509
-0.061812576 -0.30420724 0.058682643
-0.061993461 -0.30432084 0.058687858
-0.062158786 -0.30442664 0.058680423
-0.062318195 -0.30452645 0.058686864
-0.062489353 -0.30463758 0.058669031
-0.062652126 -0.30475992 0.058547392
-0.06281364 -0.3048664 0.058520362
-0.062986538 -0.30496451 0.058591351
-0.063135728 -0.30506337 0.058563206
-0.063328393 -0.30518499 0.058564924
-0.063493028 -0.3052918 0.058548268
-0.063659467 -0.30540654 0.058488913
-0.063789979 -0.30551064 0.058353532
-0.06399937 -0.305617 0.058517873
-0.064163126 -0.30572656 0.058480449
-0.064328447 -0.30582887 0.058494933
-0.064489268 -0.30593526 0.058465604
-0.064640529 -0.3060371 0.058427073
-0.064828567 -0.30616093 0.058396492
-0.064977981 -0.30625555 0.058396034
-0.065149762 -0.30635992 0.058423191
-0.065325022 -0.30647731 0.058382273
-0.065492414 -0.30658421 0.058375992
-0.065631442 -0.30667663 0.058347881
-0.065785475 -0.3067562 0.058460467
-0.065966263 -0.30688956 0.058341078
-0.066145942 -0.30700332 0.058340527
-0.066311032 -0.30711612 0.058288109
-0.066480726 -0.30722612 0.05827143
-0.066657491 -0.30733714 0.058276661
-0.066807151 -0.30743006 0.058287736
-0.066970818 -0.30753571 0.058274545
-0.067132607 -0.30764586 0.058225594
-0.067299746 -0.30776122 0.058165088
-0.06747777 -0.30786881 0.058196843
-0.067640968 -0.3079749 0.058179032
-0.067788206 -0.30807289 0.058148582
-0.067962654 -0.30818832 0.058116902
-0.068144433 -0.3083047 0.05810827
-0.068291567 -0.30841053 0.058028214
-0.068473011 -0.30851915 0.058066875
-0.068624161 -0.30861652 0.05805603
-0.06877666 -0.30871126 0.058067098
-0.068955012 -0.308826 0.058055013
-0.069127485 -0.30893651 0.058046408
-0.069302946 -0.30905622 0.057991646
-0.069469161 -0.30916294 0.057981908
-0.069620699 -0.30925211 0.058024127
-0.069797121 -0.30937666 0.057942826
-0.069967553 -0.30947632 0.05799422
-0.070126913 -0.30957356 0.058016799
-0.070273727 -0.30967715 0.057949431
-0.070456967 -0.30979684 0.057925798
-0.070601001 -0.30988476 0.057946131
-0.07075306 -0.30997369 0.057991806
-0.070915684 -0.31009153 0.057897858
-0.071064211 -0.31019786 0.057820108
-0.071249276 -0.31032658 0.05774685
-0.071418576 -0.31042829 0.057780948
-0.071587265 -0.31051913 0.057880789
-0.07175713 -0.3106322 0.057845667
-0.071945667 -0.31075597 0.057817392
-0.072105885 -0.31086367 0.057777677
-0.072262712 -0.31096974 0.057734508
-0.072415799 -0.31106907 0.057719037
-0.072582759 -0.31116304 0.057792369
-0.072751194 -0.31128252 0.057711091
-0.07291548 -0.31139573 0.057652906
-0.073072776 -0.31149018 0.057684716
-0.0732456 -0.31159392 0.057719953
-0.073398709 -0.31169307 0.057705633
-0.073559634 -0.31181443 0.057582855
-0.073741667 -0.3119238 0.057619214
-0.073887132 -0.31202051 0.057589918
-0.074057281 -0.3121222 0.057627473
-0.074224159 -0.31223685 0.057570428
-0.074389741 -0.31234297 0.057561841
-0.074546479 -0.31244314 0.05755559
-0.074702859 -0.3125436 0.057545878
-0.074879892 -0.31265333 0.05756034
-0.075039648 -0.31276456 0.057496391
-0.0752014 -0.31286937 0.057480898
-0.075342618 -0.31296465 0.057443544
-0.07553152 -0.31308666 0.057427973
-0.075693823 -0.31319088 0.057418246
-0.075860925 -0.3132956 0.05742465
-0.076026902 -0.31340122 0.057420675
-0.076190323 -0.31349608 0.057474397
-0.07634598 -0.31360126 0.057432391
-0.0764983 -0.31370047 0.057414614
-0.07665357 -0.31381398 0.057318386
-0.076826826 -0.31393066 0.057274014
-0.077004954 -0.3140519 0.057220392
-0.077166587 -0.31414431 0.057282202
-0.077319987 -0.31424257 0.0572748
-0.077480644 -0.31434777 0.057252388
-0.077659227 -0.31446066 0.057252992
-0.077822708 -0.31456015 0.057277869
-0.077969946 -0.31465852 0.057245117
-0.078127876 -0.31476915 0.057177719
-0.078306839 -0.31487805 0.057204857
-0.078466162 -0.31498024 0.057196289
-0.078625947 -0.3150858 0.057168111
-0.078794785 -0.31518978 0.057186052
-0.078954451 -0.31528813 0.057202861
-0.079121724 -0.31539312 0.057208117
-0.079274669 -0.31549528 0.057174191
-0.079448767 -0.31560019 0.057207115
-0.079606451 -0.31570333 0.057185866
-0.07977432 -0.31580818 0.057194579
-0.079937115 -0.31591216 0.05718831
-0.080102593 -0.31602171 0.057157803
-0.080264322 -0.31612283 0.057165388
-0.080433205 -0.31623748 0.057116415
-0.080601372 -0.31633222 0.057189733
-0.080749691 -0.3164531 0.057019681
-0.080912277 -0.31655714 0.057012267
-0.081076019 -0.31666723 0.056971379
-0.081235908 -0.31676921 0.056966275
-0.081394605 -0.3168717 0.056953099
-0.081558853 -0.31698468 0.056896061
-0.081711181 -0.31708664 0.056860987
-0.081869029 -0.31719577 0.056802817
-0.082031369 -0.31729984 0.056794241
-0.082192302 -0.31740451 0.056776438
-0.082358032 -0.31751347 0.056750551
-0.082499623 -0.31762239 0.056628976
-0.082667038 -0.31773058 0.056614615
-0.082832702 -0.31783035 0.056646414
-0.082992934 -0.31793216 0.056643613
-0.083164155 -0.31803912 0.056652315
-0.083327532 -0.31814587 0.056631047
-0.083495423 -0.31824815 0.05665591
-0.08367157 -0.3183507 0.056711897
-0.083834685 -0.31845763 0.056688331
-0.084005311 -0.31856218 0.056709725
-0.084171176 -0.31866831 0.056702286
-0.084332854 -0.31877288 0.056687951
-0.084493965 -0.31887764 0.056670152
-0.0846636 -0.31898835 0.056648862
-0.084824905 -0.31909308 0.056632221
-0.084993079 -0.31919864 0.056637462
-0.085158877 -0.31930214 0.056646183
-0.085332856 -0.31940901 0.056666419
-0.0854901 -0.31952581 0.056557488
-0.085646406 -0.31962645 0.056546628
-0.085812747 -0.31972992 0.056557655
-0.085980967 -0.31983572 0.056561753
-0.086147979 -0.31994182 0.056558929
-0.086325116 -0.3200562 0.056544542
-0.086464867 -0.3201555 0.056476045
-0.086615629 -0.3202627 0.056401748
-0.086772881 -0.32036319 0.056395493
-0.086959876 -0.32046765 0.056482594
-0.087135166 -0.32057992 0.056473982
-0.08729431 -0.32069042 0.05641235
-0.087432168 -0.32079238 0.056319632
-0.087599143 -0.32089865 0.05631566
-0.08776097 -0.32100093 0.056316312
-0.087927148 -0.32110745 0.056307726
-0.088095061 -0.32121119 0.056323357
-0.088262126 -0.32132009 0.05630324
-0.088410318 -0.32142732 0.056218561
-0.088577673 -0.32153127 0.056230735
-0.088740431 -0.32163358 0.056234859
-0.088897802 -0.32174405 0.056166299
-0.089052662 -0.32184523 0.056146216
-0.089220688 -0.32194448 0.056190696
-0.089409843 -0.32204792 0.056292791
-0.089620933 -0.32214618 0.056514807
-0.089721695 -0.32226682 0.056156855
-0.089882664 -0.32237902 0.056091748
-0.090057559 -0.32248244 0.056137357
-0.090224512 -0.32258925 0.056129925
-0.090389565 -0.32269633 0.056113262
-0.090561271 -0.32280266 0.056127734
-0.090721339 -0.32291263 0.056073021
-0.090878114 -0.32301611 0.056046002
-0.091056779 -0.32313091 0.056035075
-0.09120743 -0.32323951 0.055951539
-0.09136489 -0.32334065 0.055941828
-0.09152595 -0.32344154 0.055948261
-0.091683045 -0.32354945 0.055894703
-0.091880292 -0.3236562 0.056008313
-0.092026949 -0.3237628 0.055921338
-0.092182294 -0.32386649 0.055887405
-0.092352897 -0.32397342 0.055893801
-0.092513248 -0.32407677 0.055881768
-0.092670947 -0.32418251 0.05584437
-0.092816934 -0.32428464 0.055782776
-0.093012407 -0.32439026 0.055896387
-0.093226366 -0.32449511 0.056088403
-0.093439266 -0.32460463 0.056246951
-0.093506835 -0.32472131 0.055781804
-0.093671933 -0.32482678 0.055775531
-0.093851507 -0.32494414 0.055751905
-0.093995973 -0.32504421 0.055697244
-0.094165727 -0.32514548 0.055735938
-0.094317526 -0.32525152 0.055673178
-0.094501562 -0.32536271 0.055706076
-0.094645239 -0.3254669 0.05562257
-0.094835028 -0.32557201 0.055716582
-0.095023982 -0.32568946 0.055729844
-0.095171563 -0.32579759 0.055637099
-0.095334291 -0.32590944 0.055581227
-0.095485032 -0.32600746 0.055564601
-0.095649973 -0.32611135 0.055567555
-0.095832594 -0.32622311 0.055591226
-0.095995925 -0.32632911 0.055574577
-0.096165217 -0.32643905 0.055556752
-0.096341975 -0.32654712 0.05558043
-0.096502304 -0.32665706 0.055526871
-0.09665595 -0.32676113 0.055483714
-0.096827209 -0.32686737 0.055497028
-0.096990213 -0.32697737 0.055453844
-0.097148076 -0.32708156 0.055426821
-0.097330727 -0.32719392 0.055447031
-0.097509488 -0.32731003 0.055428017
-0.097653612 -0.32740825 0.055383734
-0.097815298 -0.32751265 0.055370551
-0.097985402 -0.3276211 0.05536541
-0.09813834 -0.32772711 0.055307254
-0.098313399 -0.32783026 0.055355176
-0.098480374 -0.32794055 0.055325817
-0.098660141 -0.32805145 0.055343725
-0.098808169 -0.32815728 0.055267129
-0.098972782 -0.32826206 0.055263162
-0.099176183 -0.32837436 0.055366367
-0.099322245 -0.32848555 0.055248246
-0.099506326 -0.3285988 0.055268444
-0.099665754 -0.32870707 0.055221811
-0.099826217 -0.32881364 0.055190168
-0.10000168 -0.32892475 0.055189624
-0.10016797 -0.32903883 0.055133738
-0.10031513 -0.32913569 0.055110209
-0.10049976 -0.32924581 0.055152331
-0.10067664 -0.32936072 0.055133332
-0.10083511 -0.3294673 0.05509362
-0.10100597 -0.32957312 0.055108096
-0.10117427 -0.3296892 0.055047575
-0.10133156 -0.3297888 0.055047091
-0.10150704 -0.32989863 0.055054635
-0.10167469 -0.33000955 0.055024125
-0.10186119 -0.33012563 0.055036247
-0.10200227 -0.33022395 0.054979276
-0.10216604 -0.33032948 0.054967232
-0.10233922 -0.33043766 0.054975934
-0.10251974 -0.33055508 0.054955766
-0.10270514 -0.33066294 0.055015195
-0.10285764 -0.33078095 0.05487974
-0.10301335 -0.33088085 0.05487119
-0.10318838 -0.33098617 0.054905262
-0.103349 -0.33109999 0.054828625
-0.10349722 -0.33120245 0.054773945
-0.10365003 -0.33130378 0.054744627
-0.10388279 -0.33142421 0.05491351
-0.10401733 -0.33153012 0.054782722
-0.10418874 -0.33164197 0.054761432
-0.10436182 -0.33174917 0.054775901
-0.1045507 -0.33186325 0.054809932
-0.10472793 -0.33197439 0.054816313
-0.10488595 -0.33208635 0.054740831
-0.10505218 -0.33219454 0.054721866
-0.10522021 -0.3323046 0.054698274
-0.10539739 -0.33241752 0.05469311
-0.10557 -0.33252829 0.054683357
-0.10574446 -0.33264095 0.054668974
-0.10589635 -0.33274263 0.054633901
-0.10611033 -0.33287352 0.054662079
-0.10626909 -0.33297625 0.054647751
-0.10640131 -0.3330752 0.05455159
-0.10658728 -0.33318818 0.054581013
-0.10675965 -0.33330083 0.054558568
-0.10692362 -0.33340758 0.054539599
-0.10709485 -0.33351856 0.054522924
-0.10727996 -0.33363944 0.054499283
-0.10746486 -0.33375725 0.054494098
-0.10763615 -0.33386993 0.054467037
-0.10777287 -0.33396494 0.05441355
-0.10797878 -0.33408779 0.054460213
-0.10813355 -0.33419186 0.054421671
-0.10830577 -0.3343018 0.054415371
-0.10847526 -0.33440986 0.054410234
-0.10865299 -0.33452386 0.054400463
-0.10882406 -0.33463532 0.05438032
-0.10899927 -0.33474898 0.054362476
-0.10917422 -0.33486417 0.054334257
-0.10932547 -0.33496782 0.054284174
-0.10951608 -0.33508137 0.054328591
-0.10969174 -0.33519682 0.054301515
-0.10980718 -0.33528677 0.054195017
-0.10999543 -0.33540156 0.054222129
-0.11021154 -0.33553034 0.054272231
-0.110388 -0.33564904 0.054227844
-0.11055489 -0.33575141 0.054248102
-0.11071388 -0.33586547 0.054163393
-0.11089817 -0.33597702 0.054195128
-0.11105547 -0.33608067 0.054169267
-0.11124135 -0.33620423 0.054131776
-0.11140783 -0.33631259 0.054112807
-0.11159636 -0.33642957 0.05412722
-0.11174548 -0.33653462 0.054059848
-0.11192945 -0.33664083 0.05412389
-0.11212657 -0.33677116 0.054088674
-0.11229958 -0.33688676 0.054050069
-0.11247482 -0.33699718 0.054052994
-0.11263892 -0.33709833 0.054069798
-0.11280193 -0.33720779 0.054030076
-0.1129564 -0.3373155 0.053967293
-0.11314429 -0.33743995 0.053932108
-0.11333143 -0.33755314 0.053964995
-0.11351265 -0.33766934 0.053955201
-0.11370835 -0.33779564 0.053939611
-0.11386572 -0.33790135 0.053901047
-0.11403984 -0.33801344 0.053888977
-0.11419602 -0.33811617 0.05386427
-0.11438495 -0.33823159 0.053890221
-0.11454906 -0.33834851 0.053807806
-0.11473568 -0.33846357 0.053826846
-0.024246708 -0.27987984 0.062202036
-0.02445025 -0.28002504 0.062098749
-0.024640244 -0.28013545 0.062160444
-0.024837233 -0.28026256 0.062144846
-0.025031019 -0.28038803 0.062126942
-0.02522108 -0.28050616 0.062140189
-0.025408667 -0.28062108 0.062163826
-0.025616437 -0.28076327 0.062096294
-0.025809616 -0.28088853 0.062077239
-0.02600456 -0.28101382 0.06206511
-0.026187975 -0.28112608 0.062088758
-0.026389331 -0.28126037 0.062045459
-0.026583932 -0.28138816 0.062016021
-0.02676414 -0.28149384 0.062068518
-0.026980344 -0.28164908 0.061952502
-0.027174983 -0.28177491 0.061935753
-0.027351543 -0.28187844 0.061987109
-0.027556036 -0.28201818 0.061921887
-0.027744193 -0.28213805 0.061916694
-0.02794499 -0.28227308 0.061866481
-0.028131545 -0.28239104 0.061867051
-0.028324489 -0.28251541 0.061852619
-0.028516985 -0.28263929 0.061839335
-0.028718878 -0.28277668 0.061778728
-0.028900269 -0.28288788 0.061801244
-0.029087778 -0.28300512 0.061809883
-0.029289387 -0.28314543 0.061729677
-0.029480159 -0.28326771 0.061719857
-0.029667776 -0.28338832 0.061707739
-0.029859532 -0.28351232 0.061691009
-0.030047882 -0.28363433 0.061673127
-0.030243248 -0.28376389 0.061635606
-0.030428089 -0.28388113 0.061633885
-0.03062059 -0.28400686 0.06160906
-0.030813966 -0.28413409 0.061578475
-0.031004511 -0.28425729 0.061561741
-0.031188007 -0.2843731 0.061563477
-0.031368986 -0.28448239 0.061596364
-0.031567324 -0.28462064 0.061516169
-0.031752888 -0.28473702 0.061522514
-0.031933445 -0.28484896 0.061536953
-0.032131881 -0.28498507 0.061470598
-0.03231689 -0.28510404 0.061458483
-0.032502022 -0.28522035 0.061463676
-0.032686502 -0.28533882 0.061452728
-0.032868516 -0.28545058 0.061474077
-0.033063576 -0.28558564 0.061400816
-0.033256687 -0.28571489 0.061356381
-0.033433672 -0.28582236 0.06138467
-0.033624601 -0.28594857 0.061350632
-0.033814486 -0.28607652 0.0613016
-0.034000095 -0.28619477 0.061296418
-0.034182768 -0.28631172 0.061287779
-0.034357522 -0.28641301 0.061346062
-0.034557778 -0.28655505 0.061249703
-0.034744628 -0.28667593 0.061232984
-0.034918401 -0.28677917 0.061275117
-0.035112977 -0.28691283 0.061208773
-0.035301697 -0.28704056 0.061156284
-0.035486713 -0.2871592 0.061146483
-0.035662245 -0.28726575 0.061174773
-0.035854399 -0.2873964 0.061117664
-0.036027912 -0.28749985 0.061157502
-0.036215562 -0.28762344 0.061126921
