# .PCD v0.7 - Point Cloud Data file format
VERSION 0.7
FIELDS x y z
SIZE 4 4 4
TYPE F F F
COUNT 1 1 1
WIDTH 1289
HEIGHT 1
VIEWPOINT 0 0 0 1 0 0 0
POINTS 1289
DATA ascii
-0.13425192 -0.46990466 0.055621073
-0.13441141 -0.47002062 0.055590287
-0.13455723 -0.47013348 0.055519186
-0.13470463 -0.47024122 0.055487301
-0.13486199 -0.47035494 0.055461153
-0.13503328 -0.47046468 0.055521481
-0.13519211 -0.4705855 0.055457234
-0.13535249 -0.47069418 0.055476073
-0.13549076 -0.47080526 0.055383079
-0.1356436 -0.47091478 0.055363864
-0.13580975 -0.47103006 0.055366516
-0.1359681 -0.47114375 0.055344973
-0.13612449 -0.47124839 0.055371907
-0.13628796 -0.47135943 0.055389572
-0.1364454 -0.47147563 0.055348411
-0.13660687 -0.47158694 0.055355713
-0.13676523 -0.47169623 0.055361856
-0.13691859 -0.4718127 0.055301104
-0.13705453 -0.47192344 0.055200044
-0.13722487 -0.47203431 0.055248834
-0.13739152 -0.47214776 0.055265334
-0.13754477 -0.47226414 0.055204574
-0.13772017 -0.47237948 0.055247575
-0.13785757 -0.47248554 0.055182278
-0.13802817 -0.47260338 0.055188373
-0.1381795 -0.47271109 0.055173788
-0.13835029 -0.47282687 0.05519373
-0.13850163 -0.47294539 0.055111054
-0.13866745 -0.47305498 0.055148326
-0.13882391 -0.4731712 0.055102561
-0.13897116 -0.4732812 0.055055678
-0.13912693 -0.47339109 0.055046845
-0.13928945 -0.47350514 0.055041432
-0.13946015 -0.47361919 0.05507176
-0.13962109 -0.47373545 0.05504559
-0.1397761 -0.47384757 0.055019442
-0.13992476 -0.47395965 0.054965638
-0.14008729 -0.47407389 0.054959074
-0.14023665 -0.47418186 0.05493411
-0.14039274 -0.47428995 0.054937966
-0.14055949 -0.47440842 0.054923303
-0.14071518 -0.47452065 0.054899462
-0.14086437 -0.47463071 0.054860655
-0.14102608 -0.47474512 0.054849483
-0.14118184 -0.47485739 0.054825641
-0.14135638 -0.47497231 0.054867484
-0.14151978 -0.47508493 0.054874767
-0.14167026 -0.47520104 0.054803643
-0.14182542 -0.47531143 0.05478904
-0.14198336 -0.47542393 0.05477326
-0.14212985 -0.47553393 0.054722928
-0.14228214 -0.47564617 0.054684106
-0.14243929 -0.47576252 0.054640636
-0.14261198 -0.4758721 0.054707885
-0.14279027 -0.47598982 0.054748561
-0.14293215 -0.4761034 0.054655548
-0.14308971 -0.47621417 0.054649007
-0.14325991 -0.47632587 0.054692034
-0.14342457 -0.47644106 0.054688923
-0.14357391 -0.47655323 0.054637417
-0.14370902 -0.4766643 0.054530587
-0.14388651 -0.47677872 0.054588579
-0.1440406 -0.47689128 0.054555506
-0.14417972 -0.47700256 0.054464821
-0.144357 -0.47711718 0.05452051
-0.14450999 -0.4772279 0.05449437
-0.1446669 -0.47734261 0.054460138
-0.14480586 -0.4774538 0.054369446
-0.14501458 -0.47757182 0.054541532
-0.14517695 -0.47768724 0.054526895
-0.14529255 -0.47779423 0.054360155
-0.1454832 -0.47791085 0.054461926
-0.14564094 -0.47802761 0.054418463
-0.14580829 -0.4781419 0.054432645
-0.14594844 -0.47825319 0.054346569
-0.14610563 -0.47836462 0.054334264
-0.14627418 -0.47847921 0.054351903
-0.1464279 -0.47859207 0.054315377
-0.14658484 -0.47870535 0.054290377
-0.14674503 -0.47881904 0.05427691
-0.14690575 -0.47893459 0.054254197
-0.14707641 -0.47904971 0.054277599
-0.14721766 -0.47916105 0.054196127
-0.14739311 -0.47927693 0.054235667
-0.14755464 -0.47939104 0.054225642
-0.14770178 -0.47950315 0.054164924
-0.14786673 -0.4796178 0.054166421
-0.14803642 -0.47973317 0.054184057
-0.14819494 -0.47984701 0.05416251
-0.14836687 -0.47996283 0.054187067
-0.1485212 -0.48007613 0.054150537
-0.14868599 -0.48019102 0.054149736
-0.14883502 -0.48030683 0.054073997
-0.14899382 -0.48042086 0.054052453
-0.14920858 -0.48054382 0.054219894
-0.14932935 -0.4806568 0.054038122
-0.14949627 -0.48077229 0.054043084
-0.14966536 -0.4808898 0.05404456
-0.14983247 -0.48100707 0.054039136
-0.14998469 -0.48112345 0.053973764
-0.15012565 -0.48123145 0.053911917
-0.15028095 -0.48134834 0.053856917
-0.15045059 -0.48146296 0.053879175
-0.15064362 -0.48158818 0.053937089
-0.15080112 -0.48170242 0.053908616
-0.15094778 -0.4818131 0.053854823
-0.15109754 -0.4819212 0.053831011
-0.15126404 -0.48203397 0.053850971
-0.15140812 -0.48214579 0.053778719
-0.15162393 -0.48227113 0.05393577
-0.15171115 -0.48237374 0.053672224
-0.15194325 -0.48250094 0.053889211
-0.1521371 -0.48262563 0.053954042
-0.15226309 -0.48274025 0.053784944
-0.15243924 -0.48286158 0.053793311
-0.15256625 -0.48296702 0.053686522
-0.15276611 -0.48309168 0.053777874
-0.15291093 -0.48320532 0.053697541
-0.15307857 -0.48332512 0.053678256
-0.15323502 -0.48343658 0.053662494
-0.15339623 -0.48355213 0.053642087
-0.15357836 -0.48367965 0.053637743
-0.15372577 -0.48379233 0.053574707
-0.15388069 -0.48390511 0.053543948
-0.15404664 -0.4840188 0.053555824
-0.15425888 -0.48414862 0.053669039
-0.15440555 -0.48426574 0.053574849
-0.15455586 -0.48437914 0.053519879
-0.15469444 -0.48448256 0.053476509
-0.15486154 -0.48460713 0.053424917
-0.15502079 -0.48471376 0.053451836
-0.15522476 -0.48484534 0.053517774
-0.15536475 -0.48495653 0.053431693
-0.15555149 -0.48507994 0.053473476
-0.15571365 -0.48519629 0.053451918
-0.15586479 -0.48530865 0.053407334
-0.15602835 -0.48542249 0.053407691
-0.15618715 -0.48553815 0.053375758
-0.15635635 -0.48565778 0.053364538
-0.15653771 -0.485789 0.053333659
-0.15669723 -0.4859035 0.053312112
-0.15687469 -0.48602816 0.053305473
-0.15701163 -0.48613152 0.053255178
-0.15718442 -0.48624942 0.053270496
-0.15736577 -0.48638228 0.05322922
-0.15753989 -0.48650771 0.053202979
-0.15769389 -0.48661548 0.053199928
-0.15786289 -0.48673126 0.053211793
-0.15803735 -0.48685694 0.05318556
-0.15819183 -0.48696777 0.053165186
-0.15834939 -0.48708221 0.053135559
-0.158518 -0.48719537 0.053162437
-0.15870078 -0.48731786 0.053192705
-0.15883604 -0.48743215 0.053066265
-0.15904002 -0.4875617 0.053144898
-0.15918604 -0.48767745 0.053056475
-0.15935776 -0.48779866 0.053046405
-0.15955472 -0.48793489 0.05305237
-0.15970264 -0.48804298 0.053020492
-0.15986677 -0.48815411 0.053040467
-0.16002655 -0.48827228 0.052996982
-0.1602132 -0.48839784 0.053024933
-0.16036546 -0.48851132 0.052978024
-0.16052479 -0.48863086 0.052924167
-0.16069272 -0.48875141 0.052901417
-0.16090894 -0.48889357 0.052954607
-0.074134976 -0.42823935 0.054343414
-0.07429783 -0.42834097 0.054417636
-0.074460253 -0.42844433 0.054479171
-0.07462211 -0.42854452 0.054558016
-0.074785531 -0.42864928 0.054614928
-0.07495293 -0.42875499 0.054683361
-0.075146474 -0.42890295 0.054600462
-0.075348094 -0.42906278 0.05447828
-0.075514942 -0.42917526 0.054501705
-0.075367838 -0.42855188 0.05778037
-0.075560868 -0.42869747 0.057710171
-0.075760722 -0.42885074 0.057621475
-0.075943559 -0.4289819 0.057597496
-0.076143436 -0.42913574 0.057505339
-0.076337285 -0.42928356 0.05742475
-0.076533139 -0.42943203 0.057348762
-0.076744467 -0.42960119 0.057210375
-0.076928422 -0.42973512 0.057173699
-0.077107757 -0.42986238 0.057158969
-0.077295423 -0.42999965 0.057117652
-0.077486388 -0.4301447 0.05704169
-0.077666961 -0.43027171 0.057033885
-0.077854313 -0.43040913 0.056990262
-0.078044966 -0.43055177 0.056928158
-0.078232512 -0.43069261 0.056863748
-0.078419916 -0.43083081 0.056815509
-0.078613833 -0.43097922 0.056731455
-0.078802183 -0.43111932 0.056675136
-0.078986801 -0.43125668 0.056619979
-0.079178229 -0.43140206 0.056544024
-0.079369545 -0.43154755 0.056466907
-0.079559028 -0.43169048 0.056397878
-0.079743743 -0.43182901 0.056335803
-0.079929277 -0.43196625 0.056285262
-0.080115996 -0.4321056 0.056226641
-0.080301806 -0.43224376 0.056171484
-0.080486745 -0.4323808 0.056119785
-0.080676287 -0.4325254 0.056040376
-0.080863319 -0.43266919 0.055955201
-0.081047386 -0.4328056 0.055903513
-0.081230782 -0.43294117 0.055854142
-0.081414714 -0.43307784 0.055800147
-0.081602313 -0.43322074 0.055723049
-0.081783339 -0.43335322 0.055682916
-0.081965297 -0.43348742 0.055635866
-0.082150087 -0.4336265 0.055570319
-0.082333818 -0.43376416 0.0555094
-0.082515188 -0.43389812 0.055461191
-0.082697436 -0.43403381 0.055406053
-0.082877181 -0.43416557 0.055364773
-0.083055399 -0.43429807 0.055311967
-0.083236694 -0.43443289 0.055257984
-0.083417006 -0.43456632 0.055208616
-0.083597064 -0.43469957 0.055159263
-0.083776698 -0.43483233 0.055111062
-0.083956271 -0.43496525 0.055061702
-0.084135242 -0.43509737 0.055014662
-0.084312215 -0.43522626 0.05497916
-0.084490724 -0.43535805 0.054932125
-0.084668823 -0.43548939 0.054886233
-0.084847033 -0.43562114 0.054838039
-0.085023984 -0.43575093 0.054796774
-0.085198626 -0.43588021 0.054748595
-0.085373268 -0.4360064 0.05472004
-0.085548915 -0.43613455 0.054683406
-0.085725166 -0.43626404 0.054640982
-0.085900709 -0.43639249 0.054602038
-0.086075552 -0.43651989 0.054566555
-0.086251959 -0.4366504 0.054518372
-0.086424947 -0.43677485 0.054493286
-0.086600609 -0.43690449 0.054447412
-0.086775109 -0.43703219 0.054408461
-0.086945072 -0.43715531 0.054378778
-0.087119326 -0.43728301 0.054338679
-0.087292761 -0.43740943 0.054303203
-0.087465085 -0.437534 0.05427466
-0.087637082 -0.43765813 0.054247268
-0.087807477 -0.43778318 0.054207195
-0.087982163 -0.43790919 0.054179788
-0.088155083 -0.43803582 0.054140858
-0.088326193 -0.43815914 0.054114629
-0.088494956 -0.43828195 0.054081477
-0.088667646 -0.43840492 0.054064479
-0.088834219 -0.4385238 0.054046348
-0.089004397 -0.43864614 0.054022424
-0.089175239 -0.43877 0.053991586
-0.089344129 -0.43889016 0.053975757
-0.089514405 -0.43900925 0.053972609
-0.089682624 -0.43912834 0.053960241
-0.089846961 -0.43923962 0.053980213
-0.090006113 -0.43934438 0.05401868
-0.09016569 -0.4394415 0.054106776
-0.090314843 -0.43952075 0.05426186
-0.089981601 -0.43802688 0.062203277
-0.09011732 -0.43805787 0.062603116
-0.090288959 -0.43817607 0.06261152
-0.090465799 -0.43831074 0.062539086
-0.090655997 -0.43847066 0.06236618
-0.090789385 -0.43848902 0.062835276
-0.092327319 -0.44008249 0.059547499
-0.092507489 -0.44022334 0.05945082
-0.092689238 -0.44034714 0.059468396
-0.092883237 -0.44047928 0.059487063
-0.093029857 -0.4405826 0.059479423
-0.093182504 -0.44068995 0.059472896
-0.093403161 -0.44085571 0.059396803
-0.093526334 -0.44092306 0.059512768
-0.093714185 -0.44106323 0.059454143
-0.093901344 -0.4412137 0.05932742
-0.094080478 -0.44133219 0.059366941
-0.094257519 -0.44146314 0.05931874
-0.09441153 -0.4415696 0.059323765
-0.094585024 -0.44170395 0.05923865
-0.094761036 -0.44181457 0.059313968
-0.094934717 -0.44194391 0.059261184
-0.095105737 -0.44206628 0.059240721
-0.095259361 -0.44217908 0.059204191
-0.095434286 -0.44229993 0.059210252
-0.095612846 -0.44243139 0.059165522
-0.095769711 -0.44254774 0.059120893
-0.095941231 -0.44267997 0.059040409
-0.09611623 -0.44279522 0.059082262
-0.096301243 -0.44291925 0.059112523
-0.096470699 -0.44303924 0.059100147
-0.096641272 -0.44316292 0.059069306
-0.096804954 -0.44327283 0.059095047
-0.096973449 -0.44339049 0.059093069
-0.097137347 -0.44350898 0.059065714
-0.097307071 -0.44363117 0.059040643
-0.097444437 -0.44372639 0.059043437
-0.097610071 -0.44384354 0.059032239
-0.097801104 -0.44398957 0.058950514
-0.097987071 -0.44412729 0.058898814
-0.098134309 -0.44422391 0.058936182
-0.098300941 -0.44433716 0.058953829
-0.098489545 -0.44447672 0.058902122
-0.098652251 -0.44458503 0.058933642
-0.098803625 -0.44469735 0.058890201
-0.098978885 -0.44483495 0.058792382
-0.099126913 -0.44493541 0.058808967
-0.099281259 -0.44502121 0.058945566
-0.099489897 -0.44518355 0.05883836
-0.099643759 -0.44529796 0.058792599
-0.099794567 -0.4454 0.058811475
-0.099970318 -0.44552198 0.058814079
-0.10014161 -0.4456583 0.058707058
-0.10028741 -0.44576159 0.05869595
-0.1004741 -0.44588789 0.058719277
-0.10065015 -0.44601285 0.058704562
-0.10080068 -0.44611487 0.058722287
-0.10094713 -0.44620964 0.058767743
-0.10111374 -0.4463667 0.058509536
-0.10129587 -0.4464713 0.058649458
-0.10147155 -0.44659656 0.058631282
-0.10162482 -0.446715 0.058557816
-0.10178833 -0.44683248 0.058535088
-0.10194933 -0.44695133 0.05849275
-0.10215227 -0.44708291 0.058554076
-0.10229901 -0.44718063 0.05858222
-0.10244682 -0.44728518 0.058572263
-0.10261133 -0.44741178 0.058496431
-0.10277253 -0.44751665 0.058542963
-0.10294164 -0.44763914 0.058513284
-0.10309447 -0.44774258 0.058532149
-0.10326526 -0.44787964 0.058418203
-0.10342708 -0.44799045 0.058430105
-0.10359839 -0.44811192 0.058416575
-0.10377488 -0.44823074 0.058442261
-0.1039289 -0.44834766 0.058381487
-0.10411154 -0.44847316 0.05839213
-0.10426719 -0.44858024 0.058400601
-0.10442983 -0.44870335 0.058338635
-0.10459471 -0.44882125 0.05831936
-0.10475614 -0.44893196 0.058330111
-0.10490649 -0.44904798 0.058258969
-0.10506804 -0.44916281 0.058244325
-0.10523264 -0.44928217 0.058214657
-0.10539393 -0.44939479 0.058212724
-0.10555521 -0.44950873 0.058202691
-0.10571898 -0.44961151 0.058273457
-0.10587738 -0.44972876 0.058229968
-0.10604779 -0.44986388 0.058126412
-0.10621463 -0.44997507 0.058157917
-0.10637259 -0.45008576 0.058153674
-0.10653349 -0.45020327 0.058119416
-0.10669428 -0.45032033 0.058087461
-0.10686965 -0.4504613 0.057968885
-0.10703959 -0.45055798 0.058105394
-0.10720591 -0.45068476 0.058036484
-0.1073636 -0.45079193 0.058053032
-0.1075269 -0.45091075 0.058021069
-0.1076847 -0.45101437 0.05806068
-0.1078359 -0.45112637 0.058018394
-0.10799897 -0.45124483 0.057987582
-0.10816564 -0.45135498 0.058024861
-0.10832828 -0.45147684 0.057970971
-0.10850297 -0.4516032 0.057941262
-0.10865404 -0.45171058 0.057927817
-0.10880688 -0.45180026 0.058033258
-0.10895634 -0.45192242 0.057919413
-0.10912181 -0.45206934 0.057720084
-0.10928677 -0.45216528 0.057839312
-0.10944971 -0.45225415 0.057994328
-0.10960799 -0.45240062 0.057766177
-0.10977685 -0.45251653 0.057776891
-0.10995413 -0.4526414 0.057767943
-0.11010939 -0.45273975 0.057829514
-0.11026226 -0.45285222 0.057791829
-0.11042088 -0.45296904 0.057751805
-0.1105856 -0.45308828 0.057723299
-0.11074463 -0.45320192 0.057705212
-0.11090429 -0.45331213 0.057711348
-0.11106044 -0.45342284 0.05769904
-0.11123012 -0.45354885 0.057649739
-0.11139034 -0.45365617 0.057676654
-0.11155364 -0.45376524 0.057705857
-0.11171678 -0.45388854 0.057645049
-0.1118803 -0.45399669 0.057681173
-0.11204152 -0.45412594 0.057574198
-0.11219805 -0.45423362 0.057582669
-0.11235058 -0.45434272 0.057564609
-0.11250774 -0.45445982 0.057516515
-0.11267386 -0.45457086 0.057545714
-0.11283473 -0.45468706 0.057519529
-0.11298893 -0.45480117 0.057477221
-0.11314746 -0.45491299 0.05746837
-0.11330584 -0.45502508 0.057457201
-0.11346475 -0.4551456 0.05739525
-0.11363718 -0.45525938 0.057434805
-0.11378747 -0.45537263 0.057380974
-0.11394789 -0.45548832 0.057355948
-0.1141189 -0.45559654 0.057424366
-0.11427376 -0.45570725 0.057406291
-0.1144337 -0.45582372 0.057374347
-0.11458687 -0.45593786 0.057327434
-0.11473763 -0.45604849 0.05729207
-0.11489907 -0.45616105 0.057291273
-0.11505435 -0.45627004 0.057285897
-0.11520766 -0.45638299 0.057247058
-0.11537229 -0.45649683 0.05725202
-0.11553091 -0.45660689 0.057254709
-0.1156946 -0.45671496 0.057291996
-0.11585803 -0.45683113 0.05727734
-0.1160167 -0.45694834 0.057235017
-0.11617106 -0.45705855 0.057218105
-0.11634368 -0.45716569 0.057300363
-0.11650249 -0.45726854 0.057349209
-0.11664944 -0.45737723 0.057309251
-0.1168002 -0.45750654 0.05715616
-0.11695768 -0.4576312 0.057061888
-0.11712431 -0.45772848 0.057179954
-0.11728002 -0.45784897 0.057104174
-0.11743846 -0.45796514 0.057067614
-0.11759733 -0.45807424 0.057077225
-0.11775339 -0.45818123 0.057088003
-0.11791105 -0.45830417 0.057005286
-0.11806705 -0.4584111 0.057016067
-0.11822288 -0.4585183 0.057024531
-0.11837912 -0.45863658 0.056964897
-0.11853305 -0.45874608 0.056950301
-0.11869476 -0.45886287 0.056924108
-0.11886278 -0.45897195 0.056974068
-0.1190187 -0.45909002 0.056914449
-0.1191768 -0.45918906 0.056984078
-0.11931936 -0.4593114 0.056839101
-0.11948144 -0.45941669 0.056886792
-0.11963411 -0.4595325 0.056827173
-0.11979102 -0.45964867 0.056783706
-0.11995563 -0.45975152 0.056857917
-0.12011424 -0.4598709 0.056801744
-0.12027322 -0.4599748 0.056844823
-0.1204313 -0.46008465 0.056846358
-0.12057883 -0.46020475 0.056737136
-0.12074164 -0.46031955 0.056728259
-0.12090288 -0.46043104 0.056733236
-0.12106562 -0.46054122 0.056753218
-0.12120783 -0.46066055 0.05662556
-0.12137831 -0.46076381 0.056722838
-0.12153456 -0.46087512 0.056707062
-0.12168793 -0.46098885 0.05666361
-0.12184309 -0.46110988 0.056582056
-0.12200951 -0.46122152 0.056608945
-0.12217063 -0.46132872 0.056640469
-0.12232022 -0.4614321 0.056645501
-0.12246673 -0.46155074 0.05654091
-0.12263174 -0.46166357 0.056553952
-0.12279041 -0.4617812 0.056509316
-0.12294985 -0.4618898 0.05652469
-0.12310018 -0.46200085 0.056484714
-0.12326004 -0.46210515 0.056528945
-0.12341285 -0.46222252 0.056460101
-0.12357061 -0.46233636 0.05643509
-0.12373894 -0.46244711 0.056475814
-0.12389812 -0.46256396 0.056438096
-0.12405054 -0.46267337 0.056417733
-0.12420765 -0.46278363 0.056412347
-0.12437177 -0.46288961 0.056464639
-0.12453434 -0.46300811 0.056431517
-0.1246905 -0.46312651 0.056370735
-0.12484763 -0.46322563 0.056435756
-0.12499756 -0.46333641 0.056395777
-0.12513866 -0.46344835 0.056309678
-0.12529504 -0.46355537 0.056321606
-0.12545787 -0.46366981 0.056315038
-0.12561199 -0.46378165 0.056286585
-0.12576509 -0.46389759 0.056228124
-0.12592641 -0.46400216 0.05627697
-0.12608325 -0.46411958 0.056225415
-0.12624115 -0.46422949 0.056225788
-0.12640296 -0.46433756 0.056255009
-0.1265551 -0.46445024 0.056212716
-0.12670538 -0.46456033 0.056178503
-0.12686267 -0.46467054 0.056174275
-0.127011 -0.46478808 0.05608467
-0.12716338 -0.46489707 0.05606661
-0.12732552 -0.46500847 0.056076206
-0.12748049 -0.46511963 0.056055821
-0.1276412 -0.46523169 0.056055039
-0.12779576 -0.46533981 0.056051977
-0.12795401 -0.46545291 0.056033887
-0.12810914 -0.46556401 0.056014661
-0.12825879 -0.46567714 0.055958521
-0.12840421 -0.46578863 0.055894326
-0.12857135 -0.46590149 0.055916592
-0.12872824 -0.46600574 0.055948138
-0.128883 -0.46611694 0.055926606
-0.12904616 -0.46622831 0.055940822
-0.12921089 -0.46634224 0.05594578
-0.12936163 -0.46646073 0.05586078
-0.12951685 -0.4665688 0.055861175
-0.12968144 -0.46668279 0.055864986
-0.12983856 -0.46679327 0.055858448
-0.12999848 -0.46690294 0.055869207
-0.13014157 -0.46701464 0.055793487
-0.13029422 -0.46712637 0.055759266
-0.13046607 -0.46723849 0.055806894
-0.13062319 -0.46735188 0.055781886
-0.13077582 -0.46746364 0.055747673
-0.13093302 -0.46757141 0.055758446
-0.13109207 -0.46768707 0.055727653
-0.13125111 -0.46779996 0.055714183
-0.13141017 -0.46791014 0.055718012
-0.13155568 -0.46802074 0.055659592
-0.13172527 -0.4681313 0.055707242
-0.13188446 -0.46824154 0.055711079
-0.13204676 -0.46835655 0.055698745
-0.13218701 -0.46846551 0.055627652
-0.13234207 -0.46857932 0.055591106
-0.1325053 -0.46869147 0.055600695
-0.13266607 -0.46880156 0.055612601
-0.13281094 -0.46891466 0.055535711
-0.13297555 -0.46902668 0.055552222
-0.13312741 -0.46913841 0.055514541
-0.13328475 -0.46924922 0.055506852
-0.13345318 -0.46935821 0.055559121
-0.13359401 -0.46946925 0.05547763
-0.13375299 -0.46958488 0.055446848
-0.13389839 -0.46969506 0.055390731
-0.13407323 -0.46981329 0.055412963
-0.13423912 -0.46992546 0.055434078
-0.13439903 -0.47003365 0.055454072
-0.13454878 -0.47015053 0.055374846
-0.13470177 -0.47025481 0.055389099
-0.13486788 -0.47037926 0.055334039
-0.13502912 -0.47048983 0.05534479
-0.13518181 -0.47060144 0.055311732
-0.13533178 -0.47071096 0.055279832
-0.13549553 -0.47081667 0.055332124
-0.1356543 -0.4709371 0.055270169
-0.13581991 -0.47104982 0.055286672
-0.13595767 -0.47115815 0.055208668
-0.13611774 -0.47127143 0.055197492
-0.13627526 -0.47138032 0.055202499
-0.13644798 -0.47149727 0.05522358
-0.13659436 -0.47160482 0.055188239
-0.13676156 -0.47171775 0.055210497
-0.13691022 -0.47182742 0.055171683
-0.13707714 -0.47194272 0.055177793
-0.137218 -0.47205284 0.055102084
-0.13739085 -0.47216788 0.055135854
-0.13754517 -0.47228169 0.055095859
-0.1377002 -0.47239548 0.055059325
-0.13784903 -0.4725073 0.055007812
-0.13801476 -0.47262067 0.055020843
-0.13817757 -0.47273418 0.055020049
-0.13834134 -0.47284341 0.05505041
-0.13850704 -0.4729591 0.055048443
-0.1386601 -0.47307941 0.054962281
-0.13880409 -0.47318494 0.05492926
-0.13895582 -0.47329459 0.054904278
-0.13913807 -0.47340807 0.054988801
-0.13930145 -0.473524 0.054975297
-0.13944219 -0.47363588 0.054888044
-0.13959752 -0.47374767 0.054865353
-0.13976456 -0.47386158 0.054880701
-0.13991575 -0.47397339 0.054839559
-0.14007437 -0.47408527 0.054830704
-0.14024198 -0.47420341 0.054821804
-0.14040367 -0.47431543 0.05482563
-0.14055708 -0.47442934 0.054781016
-0.14070207 -0.47453704 0.054738749
-0.14087151 -0.47465336 0.054749459
-0.1410291 -0.47476342 0.054747544
-0.1411946 -0.47487971 0.054740954
-0.14134425 -0.47499156 0.054692898
-0.14151233 -0.47510803 0.05469669
-0.14167464 -0.47521845 0.054713212
-0.14182739 -0.47533631 0.054640908
-0.14198633 -0.47544861 0.05463089
-0.14215198 -0.47555932 0.054660089
-0.14231449 -0.47567192 0.054663911
-0.14246953 -0.47578606 0.054625064
-0.14261465 -0.4758977 0.05455856
-0.14276999 -0.47600803 0.054545108
-0.14294434 -0.47612152 0.054595038
-0.14309217 -0.47623521 0.054527368
-0.14326078 -0.47635221 0.054530002
-0.14343382 -0.47646773 0.054561477
-0.14357653 -0.47657734 0.054497294
-0.14370942 -0.47668612 0.054395072
-0.14387941 -0.47680151 0.054413866
-0.14403577 -0.47691402 0.054391172
-0.14419997 -0.47702906 0.054386899
-0.14436729 -0.4771426 0.054405708
-0.14453077 -0.4772577 0.054397978
-0.14467676 -0.47736755 0.054346479
-0.14485559 -0.47748598 0.054384839
-0.14498813 -0.47759455 0.054282628
-0.14517616 -0.47771224 0.054365959
-0.14533973 -0.47782758 0.054357078
-0.14549777 -0.47794235 0.054327451
-0.14565605 -0.47805363 0.054320909
-0.14580144 -0.47816527 0.054255553
-0.14597386 -0.47827998 0.054289334
-0.14612103 -0.47839358 0.054219369
-0.1463062 -0.47851169 0.054287709
-0.14645022 -0.47862494 0.054206207
-0.14661913 -0.47873777 0.054236546
-0.14677995 -0.47885484 0.054204594
-0.14692299 -0.47896448 0.054141574
-0.14708954 -0.47908062 0.054140754
-0.14728147 -0.47919846 0.054240227
-0.1474023 -0.47930858 0.054076895
-0.14757229 -0.47942361 0.054097988
-0.14772603 -0.47953814 0.054051075
-0.14788832 -0.4796522 0.0540445
-0.1480623 -0.47976801 0.054078273
-0.14821914 -0.47988141 0.054052114
-0.14838678 -0.47999808 0.05405245
-0.14854541 -0.48011181 0.054032046
-0.1487065 -0.48022762 0.054009333
-0.14886424 -0.48034126 0.05398548
-0.14902815 -0.48045921 0.05396159
-0.14919248 -0.48057398 0.053959627
-0.14935105 -0.48069113 0.053917304
-0.14953998 -0.48081002 0.05399717
-0.14970005 -0.48092914 0.053949066
-0.14985858 -0.48104316 0.05392636
-0.14999247 -0.48115301 0.053821828
-0.15017051 -0.48127201 0.05385327
-0.15034032 -0.48138967 0.053857058
-0.15049642 -0.48150659 0.053805508
-0.15065463 -0.48161909 0.053790879
-0.15080488 -0.48173338 0.053730123
-0.15095444 -0.48184279 0.053697076
-0.15114562 -0.4819583 0.053808101
-0.15126052 -0.48206612 0.05363325
-0.15148689 -0.48219314 0.053826049
-0.15158178 -0.48229706 0.053587813
-0.15179028 -0.48242098 0.053721834
-0.15197755 -0.48254257 0.053777475
-0.15212809 -0.4826633 0.053677477
-0.15228584 -0.48277768 0.053649001
-0.15244518 -0.48289704 0.053596288
-0.15261853 -0.48300999 0.053645059
-0.1527707 -0.48312491 0.053588919
-0.15294382 -0.48324561 0.053588066
-0.15309772 -0.48335788 0.053556148
-0.15327537 -0.48347661 0.053587601
-0.15345086 -0.48359951 0.053583279
-0.15358348 -0.48370737 0.053485677
-0.15371828 -0.48381567 0.053394988
-0.15391092 -0.48393935 0.053460989
-0.15408482 -0.48406059 0.053460132
-0.15428156 -0.48418987 0.053508803
-0.15442258 -0.48429811 0.053445779
-0.15459028 -0.48441669 0.053434581
-0.15473557 -0.4845244 0.053393468
-0.15487702 -0.48463419 0.053322367
-0.15507418 -0.4847537 0.053434514
-0.15522823 -0.48487523 0.053344883
-0.15539643 -0.48499268 0.053342905
-0.15557295 -0.48511797 0.053328186
-0.1557329 -0.48522636 0.053347029
-0.1558796 -0.48534185 0.05326321
-0.15603012 -0.48545101 0.053235918
-0.15623716 -0.4855794 0.053335331
-0.15639995 -0.48570025 0.053288363
-0.15655369 -0.48581606 0.053233363
-0.15670559 -0.48592857 0.053191066
-0.15688691 -0.48605114 0.05321442
-0.1570352 -0.48616427 0.053152513
-0.15721706 -0.48628426 0.053194333
-0.15735334 -0.48639727 0.053080555
-0.157563 -0.48652437 0.053199563
-0.15773213 -0.48665971 0.053089086
-0.15785968 -0.48675504 0.053048063
-0.15802926 -0.48687091 0.053062234
-0.15817398 -0.48697767 0.05302459
-0.15830937 -0.48708346 0.052952372
-0.15851057 -0.48721182 0.053026404
-0.15867734 -0.48733965 0.052952871
-0.15888321 -0.48746392 0.053073056
-0.15905359 -0.48758456 0.053060681
-0.15918654 -0.48769394 0.052954994
-0.15937677 -0.48782676 0.052952908
-0.15951879 -0.48793989 0.052863345
-0.15970345 -0.48806313 0.052897066
-0.15987965 -0.48818013 0.052933142
-0.16004699 -0.48830158 0.052902307
-0.16021146 -0.48841551 0.052906118
-0.16035146 -0.48852009 0.052861575
-0.16055536 -0.48864904 0.05294368
-0.1607092 -0.48877501 0.052825194
-0.074300207 -0.42842785 0.053881284
-0.074446104 -0.42850828 0.05401447
-0.074599996 -0.42859763 0.054126844
-0.07475277 -0.42868763 0.05422999
-0.074900344 -0.42877015 0.054357395
-0.075072601 -0.42888787 0.054371558
-0.075240508 -0.42899707 0.054420359
-0.075406104 -0.42910537 0.054464556
-0.075575396 -0.42921662 0.054506436
-0.075769529 -0.42936629 0.054415431
-0.075985983 -0.42954618 0.054231953
-0.076159395 -0.42966637 0.054235704
-0.075995155 -0.42901477 0.057616755
-0.076178409 -0.42914933 0.057573128
-0.076371275 -0.42929316 0.057513297
-0.076561719 -0.42943621 0.057447702
-0.076757923 -0.42958549 0.057368223
-0.076954946 -0.42973369 0.057299133
-0.077147067 -0.42988524 0.057187356
-0.077346534 -0.43004027 0.057085928
-0.077525541 -0.43016747 0.057070039
-0.077707529 -0.43029931 0.057037964
-0.077901728 -0.43044719 0.056958493
-0.078079194 -0.43057257 0.056947224
-0.078265697 -0.43070921 0.056904733
-0.078449376 -0.43084443 0.056858804
-0.078638434 -0.43098542 0.056800142
-0.078826994 -0.43112862 0.056725319
-0.079015024 -0.43126854 0.056668974
-0.079199106 -0.43140534 0.056614958
-0.079389974 -0.43155015 0.056540124
-0.079576701 -0.43168879 0.056486096
-0.079764418 -0.43182921 0.056425128
-0.0799549 -0.43197706 0.056329519
-0.08013723 -0.4321095 0.056295134
-0.080322921 -0.43225035 0.056222636
-0.080509044 -0.43238929 0.056163989
-0.080690488 -0.43252388 0.056112297
-0.080878675 -0.43266663 0.056038626
-0.081061371 -0.43280375 0.055976532
-0.081247568 -0.43294382 0.055910971
-0.08143127 -0.43308312 0.055839635
-0.081612542 -0.43321574 0.055799484
-0.081794113 -0.43335205 0.055737391
-0.081975475 -0.4334853 0.055693775
-0.082157291 -0.43362251 0.055627074
-0.082339689 -0.43375793 0.055574216
-0.082522452 -0.43389729 0.055498272
-0.082702219 -0.43402886 0.055458128
-0.082881801 -0.43416345 0.05539836
-0.083062768 -0.4342975 0.055347819
-0.083239429 -0.43442765 0.055303074
-0.083422281 -0.43456542 0.055237517
-0.083598644 -0.43469551 0.055191621
-0.08377789 -0.43482766 0.055145707
-0.083953768 -0.43495744 0.055099815
-0.084133625 -0.43509111 0.055046968
-0.084309742 -0.43522179 0.054996453
-0.084486648 -0.43535081 0.054959793
-0.084661081 -0.43547904 0.054917358
-0.084838942 -0.4356102 0.054871459
-0.085014984 -0.43574175 0.054815169
-0.085191689 -0.43587136 0.054773886
-0.08536642 -0.43600109 0.054723378
-0.085541174 -0.43612769 0.054692492
-0.085713312 -0.43625322 0.054657001
-0.085890949 -0.43638551 0.054603018
-0.086062178 -0.43650985 0.054570995
-0.086238399 -0.43664005 0.054523952
-0.086409703 -0.43676502 0.054488469
-0.08658357 -0.43689138 0.054455273
-0.086759456 -0.4370217 0.05440592
-0.086932302 -0.43714663 0.054377355
-0.087104529 -0.43727422 0.054329168
-0.087276675 -0.43739828 0.054302916
-0.087446354 -0.43752155 0.054270901
-0.087620869 -0.43765056 0.054223858
-0.087790906 -0.43777499 0.054186068
-0.087961435 -0.43789682 0.054166757
-0.088131107 -0.438021 0.054128971
-0.088302612 -0.43814516 0.054099258
-0.088467851 -0.43826497 0.054069579
-0.088642478 -0.43839186 0.05403639
-0.088809699 -0.43851212 0.054012462
-0.088981636 -0.43863803 0.053973515
-0.089149356 -0.43875974 0.053942673
-0.089313731 -0.43887895 0.053912994
-0.089481153 -0.4389964 0.053907547
-0.089651555 -0.43912017 0.053875528
-0.089813851 -0.43923572 0.053859711
-0.089982733 -0.43935677 0.053838097
-0.090148047 -0.43947479 0.053819962
-0.090320773 -0.4396044 0.053761378
-0.090472922 -0.43969488 0.053858753
-0.090627328 -0.43978566 0.053964194
-0.090779483 -0.4398714 0.054091588
-0.090432197 -0.43831682 0.06235341
-0.090596795 -0.43842497 0.062394153
-0.090726055 -0.43845898 0.062746778
-0.090929762 -0.43862998 0.06256336
-0.092605881 -0.44029462 0.059433408
-0.092769921 -0.44042405 0.059337925
-0.092952117 -0.44053861 0.059415523
-0.093137369 -0.44066614 0.059424996
-0.093293935 -0.44078353 0.059372276
-0.093469433 -0.44092077 0.059277888
-0.093645081 -0.44103608 0.059322041
-0.093809381 -0.44116274 0.059245035
-0.093958631 -0.44126257 0.059270844
-0.094136499 -0.44138992 0.059249178
-0.094278708 -0.44147733 0.059322357
-0.0944736 -0.44162604 0.059240583
-0.09465149 -0.44176033 0.059175052
-0.094815388 -0.4418695 0.05920656
-0.095001936 -0.44200304 0.059183702
-0.095172845 -0.44213194 0.059121661
-0.095340483 -0.44224551 0.05914161
-0.095501587 -0.44235379 0.059166208
-0.095674761 -0.44248354 0.059108783
-0.095835224 -0.44259706 0.059097599
-0.095981814 -0.44269064 0.059151135
-0.096125863 -0.44278356 0.059197754
-0.096295655 -0.4429256 0.059047982
-0.096490741 -0.44306639 0.059016995
-0.096679077 -0.44319406 0.059039153
-0.096827671 -0.44330168 0.059013024
-0.09700729 -0.44342473 0.059025988
-0.097166657 -0.44354445 0.058970928
-0.097345382 -0.44366503 0.058995444
-0.097514309 -0.44379327 0.058928803
-0.097664066 -0.44391456 0.058821842
-0.097822666 -0.44402534 0.058819901
-0.098001614 -0.44413927 0.058887132
-0.098180354 -0.4442696 0.05885046
-0.09833172 -0.44436374 0.058921285
-0.098508462 -0.44449633 0.058861531
-0.098667227 -0.44461787 0.058792628
-0.098800831 -0.44471982 0.058736548
-0.098978609 -0.44482964 0.058824562
-0.09913379 -0.44494829 0.058757991
-0.099337623 -0.4450919 0.058747739
-0.099504709 -0.44520912 0.058742285
-0.099648692 -0.44531447 0.058710407
-0.099794075 -0.44541547 0.058711991
-0.09996976 -0.44553778 0.058712278
-0.10014661 -0.44566548 0.05868369
-0.1003175 -0.44578996 0.058649369
-0.10046945 -0.44589865 0.058631301
-0.10064133 -0.44601664 0.058641993
-0.10080151 -0.44614083 0.058562689
-0.10097799 -0.4462567 0.058606841
-0.10114863 -0.44638246 0.058563277
-0.10130553 -0.44649187 0.058562495
-0.1014661 -0.44660711 0.058540918
-0.10160646 -0.44671306 0.058489427
-0.10177496 -0.44679955 0.05868369
-0.10192432 -0.44692734 0.058534026
-0.10212664 -0.4470875 0.058412965
-0.10227125 -0.44717291 0.058509216
-0.10242933 -0.44729248 0.058449551
-0.10258847 -0.44740215 0.058456853
-0.10276762 -0.44753844 0.058384381
-0.10293001 -0.44765311 0.058374345
-0.10308561 -0.44775814 0.058395501
-0.10324883 -0.44788018 0.058342747
-0.1034019 -0.44798765 0.058337368
-0.10357114 -0.4481163 0.058269568
-0.103738 -0.44822493 0.058317233
-0.10389581 -0.44832614 0.058371857
-0.10404338 -0.4484362 0.058326103
-0.10422555 -0.44858891 0.058163576
-0.10438599 -0.44868958 0.058233202
-0.10454201 -0.44880423 0.058195483
-0.10470171 -0.44889376 0.058332071
-0.10486452 -0.4490256 0.058215812
-0.10503192 -0.44914398 0.058204606
-0.10519034 -0.44925663 0.058189958
-0.10534291 -0.44936925 0.058149949
-0.10551841 -0.44947931 0.058226429
-0.10568274 -0.44959921 0.058192134
-0.10583198 -0.44970655 0.058170613
-0.10601417 -0.44984773 0.058080815
-0.10616327 -0.44996122 0.058020048
-0.10632102 -0.45006809 0.058038887
-0.10649066 -0.45017573 0.058104999
-0.10664243 -0.45029733 0.058004968
-0.10680304 -0.45040947 0.058003016
-0.10696948 -0.45052922 0.057979099
-0.10713292 -0.45064464 0.057969049
-0.10729629 -0.45076019 0.05795785
-0.10745641 -0.45087898 0.057912037
-0.10759987 -0.45095754 0.058046393
-0.10775861 -0.45110089 0.057840109
-0.10793065 -0.45122063 0.057840414
-0.10808155 -0.45133081 0.057808492
-0.10825595 -0.45145902 0.057766072
-0.1084106 -0.45155913 0.057813786
-0.1085739 -0.45166895 0.057838373
-0.10873949 -0.45178771 0.057816777
-0.10889961 -0.45189735 0.057828687
-0.10905222 -0.45201659 0.057747118
-0.10921833 -0.45212874 0.057769373
-0.10937531 -0.45223671 0.057777833
-0.10953251 -0.45234302 0.057797827
-0.10969858 -0.4524557 0.057816632
-0.10984886 -0.45256451 0.057790495
-0.11000696 -0.45270556 0.057595756
-0.11017977 -0.45281577 0.057659552
-0.11034787 -0.45291612 0.057764925
-0.11049791 -0.45304218 0.057629108
-0.11066245 -0.45316112 0.057601742
-0.11082595 -0.45326832 0.057643652
-0.11098558 -0.45337799 0.057653241
-0.11113764 -0.45349097 0.057608623
-0.11128868 -0.45362234 0.057443935
-0.11144906 -0.45375597 0.057305768
-0.11162794 -0.45385611 0.057459574
-0.11179268 -0.45395851 0.057537258
-0.11194593 -0.454065 0.0575388
-0.11209665 -0.45418036 0.057473414
-0.11226484 -0.45429599 0.057482958
-0.11242361 -0.45441914 0.057403672
-0.11258408 -0.45452461 0.057443283
-0.11273222 -0.45462388 0.057467949
-0.1128957 -0.45475346 0.057369005
-0.11305706 -0.45486706 0.057361279
-0.11322165 -0.4549818 0.057360467
-0.11337845 -0.45508748 0.057382777
-0.11353867 -0.45519403 0.057414304
-0.11369952 -0.45530877 0.057397343
-0.11384897 -0.45543313 0.05726961
-0.11401404 -0.45553687 0.057340369
-0.11418303 -0.45564973 0.057370696
-0.11434108 -0.4557704 0.05730411
-0.11449467 -0.45588335 0.05726641
-0.11465699 -0.45599377 0.057282921
-0.11481337 -0.45610869 0.057245195
-0.11496419 -0.4562186 0.057214435
-0.11513031 -0.45634526 0.057145499
-0.11528762 -0.45644173 0.057227839
-0.11545211 -0.45656338 0.057183154
-0.11560541 -0.45667559 0.057148911
-0.11575978 -0.45678559 0.057133138
-0.11592464 -0.45689121 0.057191201
-0.11609034 -0.45701003 0.057169594
-0.11624177 -0.45712495 0.057109974
-0.11639784 -0.45724571 0.05703415
-0.11655309 -0.4573468 0.05707841
-0.11671674 -0.45745483 0.057115696
-0.11687811 -0.45756662 0.057119511
-0.11703847 -0.4576931 0.05702636
-0.11719039 -0.45781243 0.05694133
-0.11734695 -0.45791188 0.057001732
-0.11750168 -0.45803297 0.056917854
-0.11767038 -0.45814013 0.056982823
-0.1178308 -0.45824078 0.057052441
-0.11797787 -0.45835379 0.056985907
-0.11812674 -0.45847592 0.056869727
-0.11829812 -0.45858589 0.056928907
-0.11846658 -0.45868829 0.057022732
-0.1186241 -0.45878199 0.057123542
-0.11877713 -0.45893195 0.056850333
-0.11893806 -0.45904931 0.056817211
-0.1190799 -0.4591561 0.05676686
-0.1192332 -0.45926574 0.056748785
-0.11939058 -0.45937601 0.056744546
-0.11955129 -0.45948789 0.056744907
-0.11971946 -0.45959687 0.056796018
-0.11987439 -0.45970473 0.056796402
-0.12002798 -0.45982412 0.056718294
-0.12018051 -0.45993924 0.05666212
-0.12034874 -0.46004352 0.056743257
-0.12050534 -0.46015453 0.056730926
-0.12066522 -0.46027207 0.056692038
-0.12081145 -0.46038797 0.056603573
-0.12096821 -0.46050331 0.0565647
-0.12113409 -0.46061495 0.056589276
-0.12129086 -0.46072552 0.056580421
-0.12145217 -0.46083215 0.056616556
-0.12160904 -0.46094719 0.056579992
-0.12176526 -0.46105373 0.05659423
-0.12191044 -0.46117386 0.056474596
-0.1220768 -0.46128967 0.056474928
-0.1222438 -0.46139199 0.056562997
-0.12240288 -0.46150932 0.056521799
-0.12255616 -0.46161821 0.056508332
-0.1227098 -0.46173102 0.056471787
-0.12286792 -0.46184877 0.056423672
-0.12302478 -0.46195906 0.056417122
-0.12318037 -0.46207434 0.056373633
-0.12334156 -0.4621816 0.056405157
-0.12350797 -0.46229744 0.056405485
-0.12365901 -0.46240366 0.056398969
-0.12381705 -0.46251714 0.056377396
-0.12396994 -0.46262997 0.05633739
-0.12413996 -0.46274742 0.056343473
-0.124305 -0.46286416 0.056332268
-0.12446327 -0.46297359 0.056337252
-0.12461053 -0.46307829 0.056323815
-0.12476262 -0.46318763 0.056302287
-0.12491328 -0.46330515 0.056223035
-0.12508203 -0.46341968 0.056241825
-0.1252393 -0.46352971 0.056238741
-0.12539855 -0.46364588 0.056205615
-0.12553144 -0.46376163 0.056059495
-0.12571225 -0.4638699 0.056170583
-0.1258367 -0.46398255 0.056007192
-0.12597388 -0.46409544 0.055897992
-0.12613009 -0.46420914 0.055867195
-0.12629457 -0.46431535 0.055919483
-0.12646508 -0.46442235 0.055993676
-0.12662336 -0.46453178 0.055998668
-0.12678158 -0.46464467 0.055981722
-0.12693703 -0.46475542 0.055965945
-0.12710544 -0.46486717 0.056000896
-0.12727444 -0.46497875 0.056039307
-0.12744586 -0.46507645 0.056175832
-0.12759742 -0.4651891 0.056131218
-0.12775184 -0.46530372 0.056086581
-0.12791552 -0.4654274 0.05602574
-0.1280745 -0.46553695 0.05603303
-0.12822446 -0.46564996 0.055979181
-0.12837073 -0.46576113 0.055920728
-0.12852879 -0.46587718 0.055883005
-0.12868538 -0.46598452 0.055893771
-0.12884675 -0.46609944 0.055877965
-0.12900288 -0.46621305 0.055847168
-0.12915708 -0.46632129 0.055841785
-0.12932162 -0.46643218 0.055865221
-0.12946305 -0.46654454 0.05577793
-0.12961635 -0.46665895 0.055729836
-0.12978573 -0.46676841 0.055783253
-0.12994073 -0.46687651 0.055782489
-0.13009736 -0.46698993 0.055755153
-0.13024136 -0.46710116 0.055686332
-0.13041233 -0.46721908 0.055693567
-0.13057262 -0.46732295 0.055742413
-0.13073458 -0.46743494 0.055747379
-0.13088949 -0.46754882 0.055709664
-0.13104433 -0.46765989 0.055689268
-0.13118571 -0.46777427 0.055589285
-0.13133518 -0.4678838 0.055555068
-0.13150761 -0.46799612 0.055603854
-0.13166808 -0.46811131 0.055582274
-0.13181882 -0.46822596 0.055521496
-0.13197055 -0.46833763 0.055483807
-0.13213238 -0.46844715 0.055503778
-0.13229792 -0.46856129 0.055511039
-0.13245411 -0.46866944 0.055514883
-0.13260899 -0.46878314 0.055478327
-0.13277403 -0.4688949 0.055498287
-0.1329262 -0.46900651 0.055462897
-0.13308316 -0.46911722 0.055454038
-0.13324371 -0.46923247 0.055432465
-0.13340992 -0.46933916 0.055489358
-0.13355869 -0.46945134 0.055435516
-0.13370454 -0.46955889 0.055397853
-0.13385451 -0.4696708 0.055350926
-0.13402486 -0.46978465 0.055381253
-0.13417643 -0.46989876 0.055327397
-0.13432853 -0.47001031 0.055292007
-0.13450374 -0.47012365 0.055346545
-0.13466324 -0.4702343 0.055349223
-0.13481855 -0.47034794 0.055314977
-0.13496324 -0.470458 0.055256531
-0.13511261 -0.47056746 0.055222314
-0.13527535 -0.47068495 0.055196106
-0.1354228 -0.4707993 0.055122647
-0.13558948 -0.47091168 0.055146061
-0.13575566 -0.47102186 0.055181023
-0.13589442 -0.47112998 0.055108756
-0.13605784 -0.47124282 0.055114873
-0.13622463 -0.47135544 0.055137135
-0.1363856 -0.4714686 0.055130571
-0.13653997 -0.47158229 0.055091705
-0.13669567 -0.47169361 0.055073619
-0.13685372 -0.4718025 0.055080913
-0.13699688 -0.47191241 0.055016711
-0.13716662 -0.47203186 0.05500894
-0.13733287 -0.47213823 0.055068146
-0.13746665 -0.47224858 0.054960113
-0.13763158 -0.47236612 0.054943129
-0.1377968 -0.47248152 0.054941155
-0.13794105 -0.47258908 0.054896578
-0.13811493 -0.47270206 0.054947663
-0.13828541 -0.47281742 0.054968756
-0.1384348 -0.4729313 0.054906823
-0.13859253 -0.47304496 0.054882951
-0.13873908 -0.47315246 0.054848749
-0.1389057 -0.47326386 0.054877937
-0.13906598 -0.47337964 0.054851741
-0.13922039 -0.47348711 0.054852132
-0.13936836 -0.47360092 0.054784443
-0.13952288 -0.47371674 0.054732874
-0.13967448 -0.47382426 0.054720577
-0.13984968 -0.47394222 0.054746259
-0.14002842 -0.47405618 0.054812327
-0.14017467 -0.47416586 0.05476312
-0.14032063 -0.47427553 0.054712761
-0.14048193 -0.47438744 0.054715417
-0.14063492 -0.47449926 0.054682333
-0.14082438 -0.47461593 0.054778367
-0.14094931 -0.47472706 0.054626513
-0.14112318 -0.47484151 0.054668371
-0.14127289 -0.47495526 0.054608747
-0.14141686 -0.47506481 0.054550305
-0.14158554 -0.47517729 0.054581802
-0.1417409 -0.47528929 0.054557934
-0.14191607 -0.47540608 0.054590549
-0.14206888 -0.47551996 0.054543611
-0.1422147 -0.47562769 0.054504789
-0.14240317 -0.4757435 0.054601986
-0.14258379 -0.47585714 0.054678433
-0.14274703 -0.47597373 0.054660305
-0.14285009 -0.47608081 0.05443814
-0.14301862 -0.47619572 0.05445347
-0.14318946 -0.47630715 0.054501105
-0.14331809 -0.47641939 0.054358467
-0.14350148 -0.47653183 0.054454539
-0.14360705 -0.47663847 0.05424621
-0.14379637 -0.47675341 0.054352637
-0.14395675 -0.47686616 0.054346062
-0.14410973 -0.47698015 0.054299131
-0.14425848 -0.47709194 0.054247599
-0.14444469 -0.47720894 0.05432748
-0.14459172 -0.47732061 0.054269031
-0.14474598 -0.47743478 0.054226708
-0.14492634 -0.4775497 0.054293927
-0.14508665 -0.47766277 0.054285042
-0.14523712 -0.47777483 0.054239273
-0.14539869 -0.47788987 0.05422347
-0.14555801 -0.47800115 0.054221526
-0.14569968 -0.47811404 0.054131925
-0.14588171 -0.47822794 0.054212984
-0.14605333 -0.47834429 0.054232921
-0.14619008 -0.47845486 0.054136422
-0.14635406 -0.47856864 0.054139074
-0.14652085 -0.47868457 0.054140553
-0.14666323 -0.47879577 0.05406481
-0.14684387 -0.47891182 0.054126244
-0.14696655 -0.47902045 0.053980175
-0.14714678 -0.47913659 0.054039322
-0.1473107 -0.47925234 0.054029267
-0.14746647 -0.47936535 0.054000784
-0.14763546 -0.47948191 0.054008029
-0.14779398 -0.47959536 0.053988777
-0.14794227 -0.47970736 0.053933784
-0.14811349 -0.47982273 0.053958323
-0.1482866 -0.47994012 0.053978242
-0.1484293 -0.48005134 0.053903654
-0.14860022 -0.48016685 0.053925898
-0.14877503 -0.48028305 0.053960819
-0.14891405 -0.48039374 0.053873539
-0.1490557 -0.48050478 0.053795487
-0.1492438 -0.48062328 0.053874217
-0.14940193 -0.48073867 0.05384111
-0.14954022 -0.48084757 0.053761922
-0.14969042 -0.48096165 0.053702295
-0.14989434 -0.4810864 0.053810958
-0.15005054 -0.4812032 0.053760536
-0.15019701 -0.48131669 0.053688236
-0.15036905 -0.48142985 0.0537301
-0.15052992 -0.48154753 0.053694669
-0.15069567 -0.48165813 0.053725012
-0.15083104 -0.48176336 0.053656232
-0.15101551 -0.48188224 0.053716499
-0.15116194 -0.48199424 0.05365343
-0.15128894 -0.4821026 0.053528123
-0.1514657 -0.48221868 0.053572267
-0.15166438 -0.48234218 0.053665943
-0.15185246 -0.48247004 0.053685792
-0.15196064 -0.48257315 0.053510934
-0.15215075 -0.48269835 0.053556167
-0.15229036 -0.4828091 0.053471196
-0.15247546 -0.48292732 0.053538397
-0.1526152 -0.48303962 0.053444192
-0.15278904 -0.48315421 0.053484891
-0.15298265 -0.4832806 0.053538188
-0.15314132 -0.48339379 0.053521238
-0.15327473 -0.48350477 0.053407446
-0.15343519 -0.48361537 0.053414728
-0.15360907 -0.48373789 0.053405788
-0.15377319 -0.48385838 0.053366866
-0.15391561 -0.48396227 0.053337306
-0.15410009 -0.48408723 0.053359471
-0.15426402 -0.48420629 0.053328648
-0.1544297 -0.48431394 0.053377468
-0.15457648 -0.48442927 0.053294767
-0.15472236 -0.4845385 0.053246722
-0.15491064 -0.48465732 0.05332429
-0.15508007 -0.48478225 0.05328073
-0.15524337 -0.48489848 0.053264908
-0.15541664 -0.48501268 0.053305607
-0.15555958 -0.48512867 0.053202152
-0.15572001 -0.48524293 0.053186353
-0.15588138 -0.48535597 0.053182088
-0.15606937 -0.48547971 0.053227335
-0.15619598 -0.48559037 0.05308586
-0.15637633 -0.48571098 0.05311729
-0.15655003 -0.48583007 0.053129122
-0.15672839 -0.48595607 0.053117849
-0.1568777 -0.48606366 0.053095181
-0.15703166 -0.48617101 0.053094409
-0.15720534 -0.48629743 0.053060077
-0.15738487 -0.48642537 0.053041864
-0.15753971 -0.48653167 0.053051487
-0.15769489 -0.48665217 0.052973367
-0.15786298 -0.48676753 0.052984074
-0.15799114 -0.48687136 0.052892238
-0.15815318 -0.48698527 0.052885666
-0.15835251 -0.48710883 0.052981652
-0.15852715 -0.4872317 0.052973859
-0.15864576 -0.48733586 0.052838191
-0.158822 -0.48745784 0.052843098
-0.15900603 -0.48757917 0.052886046
-0.15918025 -0.48770761 0.052841313
-0.15936117 -0.48783651 0.052823104
-0.15953189 -0.48795593 0.052819941
-0.15967816 -0.48805791 0.052819222
-0.15985458 -0.48818439 0.052796409
-0.15998992 -0.48828757 0.052740328
-0.16018395 -0.48841622 0.052780919
-0.16032088 -0.48852125 0.052720208
-0.16051197 -0.48865062 0.052743509
-0.16067135 -0.48877129 0.052682683
-0.074454896 -0.42861027 0.053411227
-0.074603535 -0.42869502 0.053529389
-0.074743137 -0.42876685 0.053689163
-0.074895859 -0.42885721 0.053789988
-0.075042643 -0.42893898 0.053918548
-0.075197309 -0.42903197 0.054011289
-0.075346574 -0.42911953 0.054114442
-0.075514734 -0.42923182 0.05414477
-0.075681373 -0.42933959 0.054197043
-0.075846948 -0.42944825 0.054238919
-0.076014645 -0.42956004 0.054270413
-0.076204434 -0.42969915 0.054226745
-0.076412767 -0.4298754 0.054030597
-0.076589651 -0.43000114 0.054014698
-0.076407097 -0.42932466 0.057472043
-0.076587155 -0.42945498 0.057441123
-0.076777004 -0.42959744 0.057376679
-0.076967239 -0.42974073 0.057308767
-0.077157155 -0.42988378 0.057240855
-0.077348113 -0.43002865 0.057166014
-0.077551305 -0.43018958 0.057043783
-0.077741355 -0.43033898 0.056936618
-0.077917144 -0.43046173 0.05693458
-0.078099012 -0.43059385 0.0569002
-0.0782886 -0.43073797 0.0568242
-0.078466669 -0.43086469 0.056807145
-0.078646071 -0.43099362 0.056782007
-0.078831151 -0.43113422 0.056708347
-0.079013109 -0.43126753 0.05666703
-0.079196326 -0.43140298 0.056617629
-0.079383537 -0.43154487 0.056545116
-0.079566598 -0.43168333 0.056476086
-0.079749614 -0.4318192 0.056423217
-0.07993488 -0.43195882 0.05635649
-0.08011964 -0.43209791 0.056290913
-0.080299467 -0.43223229 0.056233443
-0.080483235 -0.43237033 0.056170173
-0.08066754 -0.43250948 0.056102298
-0.080848917 -0.43264419 0.056049436
-0.081033044 -0.43278357 0.055979252
-0.081214681 -0.4329192 0.055921774
-0.081393875 -0.43305406 0.055858538
-0.081576154 -0.43319124 0.055794124
-0.081768058 -0.43334743 0.05565232
-0.081938818 -0.43346632 0.055652618
-0.082113683 -0.43359208 0.055627495
-0.082293525 -0.43372628 0.055571187
-0.082473487 -0.43386093 0.055512559
-0.0826528 -0.43399474 0.055456243
-0.08282984 -0.43412811 0.055393018
-0.083007894 -0.43426031 0.055341333
-0.083186075 -0.43439299 0.055287335
-0.083363995 -0.43452549 0.055233337
-0.08354257 -0.43465936 0.055173565
-0.083718538 -0.434789 0.055128813
-0.083890252 -0.4349148 0.055089857
-0.084067032 -0.43504629 0.055037025
-0.084244438 -0.43517917 0.054978408
-0.084421061 -0.43531093 0.05492327
-0.084591702 -0.4354358 0.054885469
-0.084768035 -0.43556753 0.054829177
-0.084941186 -0.43569395 0.054792516
-0.085114658 -0.43582115 0.054752398
-0.085289776 -0.4359515 0.054699566
-0.085463986 -0.43608049 0.054651361
-0.085634194 -0.43620595 0.054607797
-0.08580713 -0.43633312 0.054565374
-0.085978538 -0.43645778 0.054532193
-0.086152032 -0.43658644 0.054482829
-0.086321086 -0.43671075 0.054441571
-0.086495779 -0.4368386 0.054402601
-0.086663321 -0.43696055 0.054369435
-0.086834848 -0.43708658 0.054328181
-0.087005235 -0.43721068 0.054293841
