# .PCD v0.7 - Point Cloud Data file format
VERSION 0.7
FIELDS x y z
SIZE 4 4 4
TYPE F F F
COUNT 1 1 1
WIDTH 1309
HEIGHT 1
VIEWPOINT 0 0 0 1 0 0 0
POINTS 1309
DATA ascii
-0.055010013 -0.29978561 0.059283577
-0.055178583 -0.29989821 0.059246115
-0.055340432 -0.30000433 0.059222527
-0.055516742 -0.30011413 0.05923349
-0.055686377 -0.30021694 0.059261777
-0.055854592 -0.30032966 0.059222005
-0.056025229 -0.30044025 0.059205309
-0.056192543 -0.30054784 0.059194382
-0.056363244 -0.30066028 0.059166148
-0.056528505 -0.30075154 0.059249822
-0.05670112 -0.30088225 0.059114303
-0.056867901 -0.30098784 0.059113756
-0.057029791 -0.30110314 0.059032492
-0.057208002 -0.30120847 0.059079207
-0.057377927 -0.30131879 0.059061356
-0.057544447 -0.30142421 0.059060819
-0.057713751 -0.30152792 0.05908218
-0.057871208 -0.30163127 0.059058599
-0.058050498 -0.3017543 0.058998033
-0.05821646 -0.30185369 0.05903326
-0.058358051 -0.30194241 0.059038565
-0.058540203 -0.30207074 0.058956075
-0.058721684 -0.30218616 0.058952034
-0.058875576 -0.30228928 0.058915772
-0.059044342 -0.30238238 0.059001744
-0.059179753 -0.30247784 0.058940165
-0.059367195 -0.30260143 0.05890841
-0.059536092 -0.302708 0.05891018
-0.059723221 -0.30284294 0.058805753
-0.059888929 -0.30294308 0.058835208
-0.060048521 -0.30303937 0.058864687
-0.060210846 -0.30314982 0.05881571
-0.060373317 -0.30325231 0.058817483
-0.060560204 -0.30337191 0.058808807
-0.060731538 -0.30348498 0.058779418
-0.060885012 -0.30357608 0.058816984
-0.061024942 -0.3036795 0.0587231
-0.061208248 -0.30379957 0.058697131
-0.061395593 -0.30390885 0.058755346
-0.061551139 -0.30401284 0.058720239
-0.061722819 -0.30411693 0.058748513
-0.061880819 -0.30422702 0.058684573
-0.062050682 -0.30434647 0.058609039
-0.062221929 -0.30445287 0.058621168
-0.062392682 -0.30456299 0.058607932
-0.062558003 -0.30466399 0.05863047
-0.062725574 -0.30477247 0.058614925
-0.062889822 -0.30488029 0.058590177
-0.063056946 -0.3049905 0.058561943
-0.063206635 -0.3050836 0.058571838
-0.063369803 -0.30519608 0.058513641
-0.063536957 -0.30530465 0.05849579
-0.06370227 -0.3054049 0.05852294
-0.063883707 -0.30552709 0.058476217
-0.064052127 -0.30562896 0.058505658
-0.064204872 -0.30572328 0.058520157
-0.064379506 -0.30584353 0.058458459
-0.064542644 -0.30595249 0.058422178
-0.064702965 -0.3060582 0.058395125
-0.06487149 -0.30617279 0.058344975
-0.065034732 -0.30626714 0.058400966
-0.065204516 -0.30637667 0.058387734
-0.065345913 -0.30647221 0.058349211
-0.065488011 -0.306577 0.058255319
-0.065682314 -0.3067002 0.058253534
-0.065853313 -0.30679363 0.058346413
-0.066014819 -0.30690503 0.058288217
-0.066170119 -0.3070125 0.058230028
-0.066342518 -0.30712366 0.058216788
-0.066517137 -0.30723879 0.058187388
-0.06666287 -0.30732062 0.05825267
-0.066823408 -0.30742317 0.058246374
-0.067007422 -0.30754298 0.058225013
-0.0671793 -0.30765489 0.058204852
-0.067346655 -0.30775005 0.058272362
-0.067506827 -0.30787104 0.058148421
-0.067669734 -0.30797637 0.058134049
-0.067836404 -0.3080819 0.058133513
-0.067996398 -0.30818483 0.058122613
-0.06816484 -0.30829477 0.0581013
-0.068317771 -0.30837145 0.058227696
-0.068458371 -0.30844948 0.058296442
-0.068645984 -0.30860046 0.058092825
-0.068817705 -0.30871907 0.058029979
-0.068979822 -0.30882499 0.058008686
-0.06911958 -0.30891952 0.05797017
-0.069295578 -0.30902967 0.057977676
-0.069471747 -0.30913955 0.057987493
-0.069636948 -0.3092469 0.057969652
-0.069792792 -0.30934885 0.057948381
-0.069943607 -0.30944523 0.05794213
-0.070094436 -0.30953488 0.057978552
-0.070246175 -0.30963644 0.057943445
-0.070416331 -0.30973592 0.057994809
-0.070566468 -0.30984616 0.057898581
-0.070742972 -0.30996174 0.057873785
-0.070892051 -0.31006655 0.05780755
-0.07107047 -0.31017914 0.057809286
-0.071241841 -0.31029534 0.057760276
-0.071393304 -0.31039032 0.057765558
-0.071545437 -0.31048444 0.057778902
-0.071718261 -0.31059256 0.057786416
-0.071882352 -0.3107003 0.057761662
-0.07204105 -0.31080332 0.057745002
-0.072196037 -0.31091079 0.057685666
-0.07235793 -0.31100979 0.057707064
-0.072520114 -0.31111944 0.057662707
-0.072671399 -0.3112253 0.057598773
-0.072838798 -0.31132337 0.057647835
-0.073006801 -0.31142628 0.057669204
-0.073161766 -0.31153297 0.05761449
-0.073323943 -0.31164208 0.05757359
-0.073494315 -0.31174755 0.057588033
-0.073652901 -0.31185016 0.057573676
-0.073806211 -0.31195307 0.057536263
-0.073972002 -0.31205821 0.057534583
-0.074124947 -0.31217095 0.057433724
-0.074289471 -0.31227237 0.057450496
-0.074450679 -0.31237224 0.057463817
-0.074621812 -0.31246778 0.057544004
-0.074776024 -0.31257877 0.057459302
-0.074948303 -0.31268728 0.057462201
-0.075103976 -0.31279665 0.057393644
-0.075269751 -0.31289721 0.05742079
-0.075433508 -0.31300399 0.057400644
-0.075586393 -0.31311962 0.057281349
-0.075744748 -0.31321752 0.057295829
-0.075907193 -0.31331649 0.057319529
-0.076059483 -0.31342775 0.057225592
-0.076238446 -0.31352678 0.057314996
-0.076429687 -0.3136169 0.057509311
-0.076600417 -0.31371036 0.057601038
-0.076759167 -0.31380865 0.057614367
-0.076906316 -0.31392342 0.057477772
-0.077062622 -0.31405148 0.05729387
-0.077212393 -0.31415564 0.057234552
-0.07736928 -0.31425881 0.05720982
-0.077521712 -0.31437269 0.057099745
-0.077701494 -0.31448013 0.057139535
-0.077875823 -0.31457582 0.057231251
-0.078051805 -0.31468982 0.057214528
-0.078201368 -0.31477481 0.057275183
-0.078345381 -0.31487459 0.057220496
-0.078500077 -0.3149901 0.057109263
-0.078657269 -0.31510389 0.057018783
-0.078825347 -0.31521121 0.057012472
-0.078990877 -0.31531638 0.057009622
-0.079173125 -0.31542662 0.057041336
-0.079322599 -0.31551576 0.057075456
-0.079493493 -0.31562176 0.057088744
-0.079645276 -0.31573084 0.057006352
-0.079807244 -0.31584144 0.056955073
-0.079963006 -0.31594133 0.056946494
-0.080132365 -0.31604472 0.056970168
-0.08030156 -0.31614488 0.057013452
-0.080461897 -0.3162528 0.05697256
-0.080619849 -0.31636176 0.056915525
-0.080759265 -0.31646267 0.05683548
-0.080924422 -0.31656483 0.056849942
-0.081102088 -0.31667128 0.056887437
-0.081267789 -0.31678954 0.05680269
-0.081417114 -0.31688902 0.056771062
-0.081580691 -0.31698564 0.056814365
-0.081748925 -0.31708995 0.056827664
-0.081920795 -0.31719911 0.056824803
-0.08206854 -0.31730548 0.056743581
-0.082176231 -0.3174088 0.056521758
-0.082377464 -0.31751257 0.056669906
-0.082554437 -0.31761676 0.056718934
-0.082706816 -0.3177059 0.05676458
-0.082884058 -0.31781629 0.05677554
-0.083059587 -0.31793034 0.056756519
-0.083204187 -0.3180314 0.056696068
-0.083361745 -0.31814268 0.056622885
-0.083554365 -0.31826261 0.056634948
-0.083701611 -0.31836259 0.056591794
-0.083839238 -0.3184512 0.056582123
-0.084005319 -0.31855378 0.056597732
-0.08416333 -0.31865895 0.056564923
-0.084319249 -0.31876189 0.056537885
-0.08448717 -0.31886122 0.056581173
-0.084672749 -0.31896958 0.056638245
-0.084828824 -0.31908923 0.056506239
-0.084991574 -0.31919026 0.056518406
-0.085140049 -0.31929526 0.056448713
-0.08529862 -0.31939197 0.056471273
-0.085465357 -0.31949478 0.056488026
-0.085647717 -0.31961793 0.056438994
-0.085793518 -0.31971535 0.056406226
-0.085942 -0.31981212 0.056388441
-0.086106516 -0.31991297 0.056408674
-0.086276315 -0.32001004 0.056473874
-0.086424917 -0.32011473 0.056406491
-0.08658728 -0.32022667 0.056348279
-0.086755931 -0.32032943 0.056373119
-0.086927719 -0.32043159 0.056414083
-0.087082453 -0.32053998 0.056347832
-0.087242134 -0.3206473 0.056308102
-0.087398343 -0.32075024 0.056282211
-0.087569922 -0.3208552 0.056304727
-0.087717712 -0.32095975 0.056235038
-0.087881207 -0.32106379 0.056231052
-0.088043302 -0.32116568 0.056235142
-0.088211305 -0.32127151 0.056238052
-0.088384777 -0.321374 0.056283634
-0.08854647 -0.32147858 0.056269266
-0.088695288 -0.32158524 0.056190349
-0.088868335 -0.32168803 0.056232464
-0.089016125 -0.32179713 0.056133941
-0.089179479 -0.32190624 0.056097649
-0.089348063 -0.32200509 0.056146707
-0.089514658 -0.32210672 0.056170389
-0.089674436 -0.32222104 0.05608682
-0.089841001 -0.32232744 0.056080516
-0.089981191 -0.3224279 0.056006238
-0.09016034 -0.32253966 0.056016035
-0.090327963 -0.32264137 0.056043174
-0.09048529 -0.32274666 0.056006912
-0.090636589 -0.32285032 0.055956818
-0.09081129 -0.322956 0.055987395
-0.090974182 -0.32306296 0.055962645
-0.091132328 -0.32317039 0.055915996
-0.091312334 -0.32327574 0.055969626
-0.091477834 -0.32338035 0.055970244
-0.091626361 -0.32348648 0.055893634
-0.091787055 -0.32359368 0.055858508
-0.091958806 -0.32369787 0.055886786
-0.092113659 -0.3238034 0.055838991
-0.092274688 -0.32390845 0.055818863
-0.092441157 -0.32401532 0.055809088
-0.09259747 -0.32412288 0.055754371
-0.092761986 -0.32422775 0.055749223
-0.092918471 -0.32433105 0.055722192
-0.093090147 -0.32443771 0.055734321
-0.093252972 -0.32454282 0.055721108
-0.093417034 -0.32464999 0.05569981
-0.093573466 -0.32475543 0.055658933
-0.093744628 -0.3248623 0.055667602
-0.09389808 -0.32496789 0.055614039
-0.094064929 -0.32507297 0.055616967
-0.094243698 -0.32517773 0.055669449
-0.094391152 -0.32528552 0.055577841
-0.094566584 -0.3253946 0.055589966
-0.094740182 -0.32550576 0.055581328
-0.094892263 -0.32560736 0.055547383
-0.095059559 -0.32571071 0.055562984
-0.095226556 -0.32582211 0.055526689
-0.095377564 -0.32592377 0.055488136
-0.095545888 -0.32602924 0.055494506
-0.09573853 -0.32614058 0.055560783
-0.095898956 -0.32624817 0.055522203
-0.096061014 -0.32635772 0.055477843
-0.096215591 -0.32645559 0.055477347
-0.096381612 -0.32656327 0.055460654
-0.09655799 -0.32667494 0.055460088
-0.096725762 -0.32678461 0.055437632
-0.096874893 -0.3268902 0.055366784
-0.097032793 -0.32699403 0.055342048
-0.097200505 -0.32710186 0.055331122
-0.097376049 -0.32720804 0.055361696
-0.097534336 -0.32731009 0.055349648
-0.097697452 -0.32741791 0.055320285
-0.097852305 -0.32752365 0.055271331
-0.098030493 -0.32763389 0.055286907
-0.098208554 -0.32774606 0.055289786
-0.098368727 -0.32785022 0.055271976
-0.098526776 -0.32795432 0.055246077
-0.098692939 -0.32806244 0.055227086
-0.098880693 -0.32818076 0.05522994
-0.099024475 -0.32828057 0.055174101
-0.09918493 -0.32838306 0.055167817
-0.09935011 -0.32848948 0.055155747
-0.099516183 -0.3285906 0.055180583
-0.099674195 -0.32870382 0.055097021
-0.099844404 -0.32880351 0.055147219
-0.10002294 -0.32891983 0.055125877
-0.10017253 -0.32902187 0.055079259
-0.10035284 -0.32913309 0.055097129
-0.10050941 -0.32923916 0.055052791
-0.1006566 -0.32934278 0.054986559
-0.1008352 -0.32945403 0.054997515
-0.10099629 -0.32955876 0.054979701
-0.10118029 -0.32966885 0.055019476
-0.10133423 -0.32977307 0.054976296
-0.10151097 -0.32988441 0.054979179
-0.10166911 -0.32999077 0.054939449
-0.10184011 -0.3300983 0.054943513
-0.10200055 -0.33020827 0.054889929
-0.10216755 -0.33031383 0.054890543
-0.10233377 -0.33042273 0.054866932
-0.10251515 -0.33053315 0.054894026
-0.10267702 -0.33064002 0.054865818
-0.10285453 -0.33075023 0.054879088
-0.10301336 -0.33085352 0.05486127
-0.1031825 -0.33096957 0.054804198
-0.10334879 -0.33107704 0.054789826
-0.10349902 -0.33117619 0.054763954
-0.10367493 -0.3312881 0.054759931
-0.10383932 -0.33139712 0.054728255
-0.10400245 -0.33150113 0.05472311
-0.1041792 -0.33160681 0.054761752
-0.10433728 -0.33171842 0.054688577
-0.10451256 -0.33183214 0.054670706
-0.10466111 -0.33192965 0.05464831
-0.10484371 -0.33204597 0.054643102
-0.10499348 -0.33214372 0.054624163
-0.10517155 -0.3322596 0.054603972
-0.1053315 -0.3323667 0.05456654
-0.10552642 -0.33248332 0.054608591
-0.10567033 -0.33258361 0.05455045
-0.10583927 -0.3326889 0.054560281
-0.10602184 -0.33280247 0.054572381
-0.10619583 -0.33291647 0.054547593
-0.10637155 -0.33302295 0.054577008
-0.10653578 -0.33313718 0.054511886
-0.10669684 -0.33324319 0.054485992
-0.10680182 -0.33333308 0.054338001
-0.10700539 -0.33344859 0.05442154
-0.10719721 -0.33357167 0.054410547
-0.10738474 -0.33368346 0.054453772
-0.10753957 -0.33379173 0.054388668
-0.10768002 -0.33388704 0.054347839
-0.10787151 -0.33399966 0.054401431
-0.10801654 -0.33410943 0.054287922
-0.10814714 -0.33420017 0.054236744
-0.10838623 -0.33432388 0.054410148
-0.10851619 -0.33442813 0.054271307
-0.10868163 -0.33453381 0.054265007
-0.10887196 -0.33464971 0.054293223
-0.10904786 -0.33476475 0.054269589
-0.10921504 -0.33487681 0.054229826
-0.10940422 -0.33498979 0.054271895
-0.10954259 -0.33508947 0.054195315
-0.10972328 -0.33520553 0.054184347
-0.10990854 -0.33531806 0.05421374
-0.11005913 -0.3354229 0.054153267
-0.11023613 -0.33553553 0.054149229
-0.110412 -0.33565089 0.054123286
-0.11057799 -0.33575287 0.054142363
-0.11074176 -0.33586606 0.05408185
-0.11091083 -0.33597016 0.054099757
-0.11108927 -0.33608478 0.054088794
-0.11126366 -0.33619869 0.054066315
-0.1114133 -0.33630493 0.053993158
-0.11156929 -0.33640388 0.053991497
-0.11177421 -0.33652958 0.05401621
-0.11192534 -0.33663478 0.053955745
-0.11212419 -0.33675519 0.053989705
-0.11227 -0.33685371 0.053950012
-0.11245304 -0.33696687 0.05396672
-0.11263061 -0.33708459 0.053932693
-0.11278732 -0.33718544 0.0539218
-0.11294121 -0.33729276 0.053859018
-0.11313045 -0.33740744 0.053890698
-0.11329734 -0.3375217 0.053835947
-0.11348101 -0.33764091 0.053816896
-0.11365789 -0.33774906 0.053840548
-0.11381714 -0.33785903 0.053782359
-0.11395706 -0.33795658 0.053725384
-0.114177 -0.33809346 0.053739667
-0.11437416 -0.3382104 0.053788621
-0.11454421 -0.33831602 0.053800765
-0.023586433 -0.27944133 0.062221676
-0.023768242 -0.2795504 0.062259149
-0.023967709 -0.27968273 0.062220424
-0.024177883 -0.27982932 0.062134352
-0.024339758 -0.2799342 0.062118813
-0.024567481 -0.2800802 0.062106535
-0.024756122 -0.2801989 0.062110513
-0.02494774 -0.28032169 0.062100664
-0.025141623 -0.28044516 0.062095396
-0.025334924 -0.28057048 0.0620763
-0.025520027 -0.28068492 0.062092997
-0.025713436 -0.28081065 0.062071592
-0.025912672 -0.28094193 0.062038627
-0.026097778 -0.28105673 0.06205301
-0.026289802 -0.28118104 0.062035076
-0.026495866 -0.28132468 0.061951328
-0.026685636 -0.28144374 0.06195762
-0.026867077 -0.28155404 0.061985865
-0.027081162 -0.28170678 0.061876714
-0.027257595 -0.28181043 0.061926894
-0.027452465 -0.28193966 0.061889328
-0.027649254 -0.28207177 0.061841372
-0.027840566 -0.28219378 0.061834976
-0.028032545 -0.28231955 0.061807804
-0.028221689 -0.2824415 0.061793335
-0.028417476 -0.28257295 0.061745379
-0.028601423 -0.28268519 0.061771318
-0.028802115 -0.28282398 0.061696805
-0.02899107 -0.28294361 0.06169619
-0.029172748 -0.28305569 0.061714046
-0.029360261 -0.28317624 0.061701886
-0.02955056 -0.28330094 0.061674729
-0.029742014 -0.28342471 0.061657939
-0.029920861 -0.28353319 0.061687343
-0.030120693 -0.28366941 0.061625537
-0.030304376 -0.28378513 0.061628398
-0.030488804 -0.28390208 0.061626635
-0.030661013 -0.28400123 0.061688356
-0.030835185 -0.28412613 0.061595492
-0.031061199 -0.28427914 0.061532442
-0.031250022 -0.28440031 0.061521437
-0.031443167 -0.28453103 0.061467722
-0.031623736 -0.28464022 0.061499428
-0.031825699 -0.28478456 0.061394937
-0.03199923 -0.28488636 0.061445117
-0.032176483 -0.28499383 0.061474536
-0.032374173 -0.28512943 0.061408114
-0.032558959 -0.28524861 0.061393663
-0.03274082 -0.28536046 0.061413825
-0.032914031 -0.28546515 0.061444409
-0.033105578 -0.28559211 0.061408013
-0.033297118 -0.28572235 0.061350845
-0.033485193 -0.28584436 0.06133176
-0.033675838 -0.28597364 0.061276913
-0.033865653 -0.28609878 0.061245136
-0.034046862 -0.28621367 0.061243381
-0.034234084 -0.28633824 0.061204679
-0.034414396 -0.28645205 0.061206393
-0.034601346 -0.28657332 0.061187323
-0.034783825 -0.28669086 0.061174028
-0.034957886 -0.28679174 0.061232299
-0.035154969 -0.28693318 0.061126649
-0.035343401 -0.28705758 0.061093725
-0.03551805 -0.28716305 0.061125454
-0.035712432 -0.28730094 0.061031356
-0.035887904 -0.28740799 0.061056159
-0.036067706 -0.28751889 0.061074033
-0.036253855 -0.28764391 0.061028417
-0.036436923 -0.28776053 0.061023198
-0.036609385 -0.28786296 0.061065312
-0.036797948 -0.28798911 0.061021999
-0.036934685 -0.28807327 0.06103655
-0.037167158 -0.28823218 0.060961947
-0.037344661 -0.28834364 0.060967125
-0.037523236 -0.28845707 0.060964234
-0.037701674 -0.2885704 0.060961328
-0.037891045 -0.28869927 0.060904175
-0.038070478 -0.28881469 0.060892042
-0.038253546 -0.28893298 0.060876444
-0.03842302 -0.28903112 0.060933568
-0.038617186 -0.28916943 0.060836017
-0.038796809 -0.2892859 0.060818113
-0.038976576 -0.28940281 0.060797907
-0.039153855 -0.28951544 0.060795017
-0.039332293 -0.28962639 0.060807116
-0.03952172 -0.28976151 0.060710728
-0.039699391 -0.28987142 0.0607263
-0.039891914 -0.29001692 0.060576826
-0.040059566 -0.29010457 0.060692806
-0.040236056 -0.29024506 0.06051109
-0.040406838 -0.29034275 0.06057629
-0.040553778 -0.29041162 0.060728088
-0.040770397 -0.2905592 0.060661614
-0.040950343 -0.29067862 0.06062641
-0.041133214 -0.29079971 0.060592346
-0.041314185 -0.2909216 0.060545594
-0.041493483 -0.29103622 0.060538083
-0.041664645 -0.29113925 0.060570978
-0.041846052 -0.29126272 0.060516149
-0.042020805 -0.29137316 0.060516726
-0.042203054 -0.29149443 0.060479205
-0.042377695 -0.291605 0.060478624
-0.042557403 -0.29172149 0.060460728
-0.042735789 -0.29184011 0.060424376
-0.042908154 -0.2919465 0.060441114
-0.043086872 -0.29206622 0.060398981
-0.043252952 -0.29216442 0.060442276
-0.043435235 -0.29228258 0.060424373
-0.043618284 -0.29240742 0.060367234
-0.043795481 -0.29252493 0.060333189
-0.04397358 -0.29264465 0.060288761
-0.044143938 -0.29274774 0.060318194
-0.044313528 -0.29284412 0.060386863
-0.044499986 -0.29298306 0.060254723
-0.044675156 -0.2930921 0.060265675
-0.044849522 -0.29320469 0.060251258
-0.045021422 -0.29331189 0.060261067
-0.045196228 -0.29342586 0.060239725
-0.045374952 -0.29354376 0.060209144
-0.045552466 -0.29366457 0.060155474
-0.045721937 -0.29376674 0.060187232
-0.045895979 -0.29387987 0.060168192
-0.046072684 -0.29399961 0.060117997
-0.046246782 -0.29410762 0.06013127
-0.046423823 -0.29422301 0.060109913
-0.046595953 -0.29433236 0.060107041
-0.046762861 -0.29443473 0.060127251
-0.046949215 -0.29456827 0.060028568
-0.047116987 -0.29466715 0.060074169
-0.047291733 -0.29478401 0.060034361
-0.047467262 -0.29489699 0.060022246
-0.047640506 -0.29501051 0.059997439
-0.047819111 -0.29513219 0.059942633
-0.047991343 -0.29524362 0.059927061
-0.048164606 -0.29535148 0.059938032
-0.048337828 -0.2954661 0.059906308
-0.048504479 -0.29556262 0.059962288
-0.048676662 -0.29567474 0.059942111
-0.04885418 -0.29579538 0.0598896
-0.04902786 -0.29591247 0.059844036
-0.049205385 -0.29603401 0.059785757
-0.049365409 -0.29613349 0.059796765
-0.049544387 -0.29623765 0.059853867
-0.049717207 -0.29635349 0.059812915
-0.04989101 -0.29646498 0.059803106
-0.050061572 -0.29657441 0.05979332
-0.050235469 -0.29668671 0.059778899
-0.050404567 -0.29679194 0.059789877
-0.050577596 -0.29690185 0.059786994
-0.050752185 -0.29702577 0.059702195
-0.050922807 -0.2971369 0.059682019
-0.051095776 -0.29725647 0.059617996
-0.051265638 -0.29735669 0.059663579
-0.051435448 -0.29746583 0.059652634
-0.051609881 -0.29758269 0.059611678
-0.051778696 -0.29768884 0.059615739
-0.051950052 -0.29779494 0.059630174
-0.052118309 -0.29790935 0.059580006
-0.052287836 -0.2980293 0.059499837
-0.052463807 -0.29813373 0.059543103
-0.052639484 -0.29825851 0.059457138
-0.052807197 -0.29836196 0.059473902
-0.05297754 -0.2984654 0.059501022
-0.05314457 -0.29856601 0.059532776
-0.053296443 -0.29868251 0.059404213
-0.053488784 -0.29880133 0.059422038
-0.053658493 -0.29890257 0.0594607
-0.053826027 -0.29901925 0.059393227
-0.054001875 -0.29913771 0.059347652
-0.054169204 -0.29924127 0.059362102
-0.05434053 -0.29935157 0.059349991
-0.054497361 -0.299458 0.059304483
-0.054652322 -0.29955482 0.059312046
-0.05482959 -0.29968464 0.0592007
-0.055019904 -0.29979506 0.059263527
-0.055190749 -0.29990506 0.059251428
-0.055355702 -0.29999575 0.059337415
-0.055527389 -0.30011159 0.059291847
-0.055694796 -0.30021831 0.059286676
-0.05586211 -0.3003248 0.059282672
-0.056034327 -0.3004472 0.059197873
-0.056202292 -0.3005603 0.059154637
-0.05634464 -0.30065152 0.059147239
-0.056506421 -0.30076253 0.059092484
-0.05670625 -0.30088156 0.059139129
-0.056848306 -0.30097148 0.059138652
-0.057046238 -0.30110028 0.05911608
-0.057213314 -0.30121064 0.059086684
-0.057364151 -0.30130303 0.059105799
-0.057531871 -0.30142349 0.059015255
-0.0577197 -0.30154094 0.059023872
-0.057880167 -0.30164692 0.058995649
-0.058049034 -0.30174613 0.059043542
-0.058180645 -0.30181536 0.059131946
-0.058391273 -0.301974 0.058972038
-0.058557373 -0.30207932 0.058970332
-0.05872668 -0.302192 0.058935162
-0.058880132 -0.30228093 0.058986578
-0.059049431 -0.30240056 0.058907568
-0.059221469 -0.30251312 0.05888392
-0.059387255 -0.30261937 0.058875296
-0.059522305 -0.30270341 0.058884084
-0.059730887 -0.30284372 0.058831476
-0.05989651 -0.30294764 0.058836691
-0.060043577 -0.30304533 0.058807366
-0.060224511 -0.30315623 0.05882984
-0.060402051 -0.30327395 0.058795802
-0.060561068 -0.30338046 0.058758356
-0.060717456 -0.30347472 0.058787838
-0.060888413 -0.30359137 0.058734201
-0.061068341 -0.30371445 0.058675919
-0.061233997 -0.30381218 0.058720365
-0.061401948 -0.30392164 0.058700196
-0.061569903 -0.30403015 0.058685798
-0.06173525 -0.30413154 0.058706015
-0.061865803 -0.30422279 0.058651358
-0.062071934 -0.30433959 0.058737211
-0.062231652 -0.30445993 0.058615547
-0.062396668 -0.30456293 0.058624227
-0.062570848 -0.30467156 0.058634035
-0.062713906 -0.30476487 0.058616258
-0.06286788 -0.3048737 0.058544219
-0.063056216 -0.30499753 0.058514755
-0.063229606 -0.30510932 0.058501489
-0.063401625 -0.30520979 0.058553994
-0.063568346 -0.30532047 0.058521137
-0.063730091 -0.30542123 0.05853099
-0.063869633 -0.30549622 0.058614746
-0.064020485 -0.30561551 0.058464263
-0.064212464 -0.30576634 0.058279034
-0.064391904 -0.30586475 0.058374204
-0.064528823 -0.30595106 0.058376055
-0.064719081 -0.30606365 0.058425039
-0.064873874 -0.30616295 0.058416456
-0.06504415 -0.30627075 0.058415886
-0.065221116 -0.30639267 0.058352999
-0.065383449 -0.3065024 0.058308624
-0.065547585 -0.30660576 0.058311544
-0.06572517 -0.30671272 0.058345564
-0.065878831 -0.30681455 0.058316212
-0.066053346 -0.30693072 0.058279876
-0.066214621 -0.30703136 0.058288574
-0.066387884 -0.30714014 0.058293771
-0.066548571 -0.3072525 0.058226325
-0.066697858 -0.30734482 0.058239676
-0.06685558 -0.30745438 0.058178004
-0.067022659 -0.30755904 0.058184378
-0.067202859 -0.30767825 0.05815148
-0.067375034 -0.30778891 0.058140527
-0.067535274 -0.30790025 0.058077697
-0.067704253 -0.30800027 0.058120973
-0.067868434 -0.30811101 0.058077745
-0.068035103 -0.30821615 0.058079503
-0.068199947 -0.30831686 0.05810203
-0.068365104 -0.30842507 0.058078412
-0.068514012 -0.30852577 0.058037549
-0.068682499 -0.30864269 0.057972379
-0.068837963 -0.30874568 0.05794302
-0.069018178 -0.30884787 0.058017418
-0.069156051 -0.30893096 0.058043495
-0.069322929 -0.30904996 0.057958722
-0.069487691 -0.30915082 0.057980105
-0.069670983 -0.30926961 0.057962187
-0.069830634 -0.30937892 0.057909746
-0.069989681 -0.30948216 0.057893068
-0.070138007 -0.30957553 0.05789604
-0.070330322 -0.30969965 0.057880402
-0.070497826 -0.30980936 0.057856776
-0.070637397 -0.30989647 0.057864387
-0.070805117 -0.31001198 0.057804994
-0.070990145 -0.31012747 0.057814769
-0.071142457 -0.31023341 0.057754271
-0.071314536 -0.31034237 0.057753701
-0.071477197 -0.31045195 0.057711627
-0.07163725 -0.31055307 0.057712257
-0.071798012 -0.31065908 0.057685189
-0.071962029 -0.31075522 0.057733104
-0.072136015 -0.3108674 0.057719845
-0.072302021 -0.31097248 0.05771929
-0.072452918 -0.31107351 0.057684176
-0.072623439 -0.31117874 0.057700921
-0.072767794 -0.31127104 0.057694677
-0.072929293 -0.31137586 0.057677992
-0.073113628 -0.3114973 0.057647388
-0.073277205 -0.31161004 0.057589158
-0.073431209 -0.3116971 0.057654418
-0.073584974 -0.31180468 0.0575893
-0.073735133 -0.3119058 0.057550728
-0.073908493 -0.31201318 0.057565149
-0.074074447 -0.31211331 0.057595756
-0.074237712 -0.3122161 0.05759868
-0.074378304 -0.31233075 0.05743669
-0.074548617 -0.31243622 0.057451133
-0.074716367 -0.31253016 0.05752787
-0.074867696 -0.31264353 0.057416618
-0.075021058 -0.31274116 0.057412647
-0.075181261 -0.31284645 0.057387892
-0.075348519 -0.31295013 0.057401188
-0.075522117 -0.31307065 0.057333693
-0.075684808 -0.31316066 0.057415076
-0.075851552 -0.31326494 0.057422601
-0.076004453 -0.31337586 0.057333253
-0.076159269 -0.31348503 0.057262361
-0.0763309 -0.31358966 0.057287179
-0.076492101 -0.31368971 0.057299338
-0.076682232 -0.3138057 0.057326399
-0.076847002 -0.31391147 0.057316631
-0.077004902 -0.31401402 0.057299953
-0.077153273 -0.3141191 0.057229079
-0.077331185 -0.31422773 0.057253879
-0.077474289 -0.31432435 0.057215333
-0.077630639 -0.31442389 0.057211358
-0.077786714 -0.31453133 0.057156611
-0.077940859 -0.31463221 0.057135336
-0.078097753 -0.31474268 0.057064444
-0.078288563 -0.31485856 0.057094961
-0.078468695 -0.3149735 0.057088606
-0.078618966 -0.31506553 0.057107721
-0.078799769 -0.31517652 0.05712904
-0.078949109 -0.31528372 0.057048943
-0.07912235 -0.3153846 0.057103746
-0.079292297 -0.31549457 0.057088189
-0.079455808 -0.3155939 0.057114184
-0.07960853 -0.31570247 0.057038687
-0.079767942 -0.31581092 0.056990858
-0.079917088 -0.31591761 0.056913063
-0.080067806 -0.3160165 0.05689064
-0.080216229 -0.31611651 0.056852087
-0.080370851 -0.31622356 0.056793883
-0.080546409 -0.31633726 0.056777149
-0.080712065 -0.31644234 0.056775447
-0.080880135 -0.31653646 0.056852195
-0.08104977 -0.31664643 0.05683548
-0.081203915 -0.31675026 0.056795746
-0.081374198 -0.31685346 0.056824028
-0.081538357 -0.316953 0.056851182
-0.081703469 -0.31706175 0.056824092
-0.081883252 -0.31717393 0.056833886
-0.08203239 -0.3172797 0.056761861
-0.082191221 -0.31737843 0.05677288
-0.082354583 -0.31747857 0.056793105
-0.082507342 -0.31758279 0.056745298
-0.082667902 -0.3176901 0.056709003
-0.082843818 -0.31779781 0.056731496
-0.083006829 -0.31791621 0.056635197
-0.083175831 -0.31802046 0.056651942
-0.083337031 -0.31812745 0.056620259
-0.083498016 -0.31822866 0.056624342
-0.083664328 -0.31833395 0.056623798
-0.083821304 -0.31842783 0.056657881
-0.08398737 -0.31854194 0.056600802
-0.08414758 -0.31864923 0.056563359
-0.084312931 -0.31875208 0.056574348
-0.084464863 -0.31884772 0.05657731
-0.084632829 -0.31895554 0.05656752
-0.084796749 -0.31907287 0.056481607
-0.084942296 -0.31917033 0.056447662
-0.085111842 -0.31926394 0.056533635
-0.085294947 -0.31936502 0.056626484
-0.085442156 -0.31948936 0.056429859
-0.085608795 -0.31959486 0.056429315
-0.08576943 -0.31969655 0.056428779
-0.085925095 -0.31979948 0.056400582
-0.086101785 -0.31991062 0.056404613
-0.086255625 -0.32000875 0.056399487
-0.08641775 -0.32011285 0.056389719
-0.08658836 -0.32022288 0.056376465
-0.086752556 -0.32033435 0.056328617
-0.086904526 -0.32043037 0.056329269
-0.08705762 -0.32053134 0.056303389
-0.087230869 -0.32064596 0.056271665
-0.087381624 -0.32074231 0.056265391
-0.08754389 -0.32084653 0.056255631
-0.087721176 -0.32095289 0.05629196
-0.087884493 -0.32106197 0.056255657
-0.088050157 -0.32116812 0.056247037
-0.08821094 -0.32126537 0.056275349
-0.08836624 -0.32137337 0.056213684
-0.088528335 -0.32148021 0.056186613
-0.088683359 -0.32158092 0.056169957
-0.088839889 -0.32168862 0.056115206
-0.089018323 -0.32179776 0.056138851
-0.089182317 -0.32190433 0.056120999
-0.089336485 -0.3220076 0.056084722
-0.089493297 -0.3221058 0.05609113
-0.089664951 -0.32221374 0.056095179
-0.089831166 -0.32232243 0.056072704
-0.089990333 -0.32242742 0.056045648
-0.090156645 -0.32252923 0.05606702
-0.090323187 -0.32263798 0.056045696
-0.09047249 -0.3227464 0.055957522
-0.090630583 -0.32284924 0.055939697
-0.090791419 -0.32295179 0.055934548
-0.090957433 -0.32305837 0.055924766
-0.091126688 -0.32316241 0.055943824
-0.091305815 -0.32327673 0.055937469
-0.09145347 -0.32337844 0.055885058
-0.091602609 -0.32348442 0.055811882
-0.091771089 -0.3235887 0.055826321
-0.091946602 -0.3236925 0.055871896
-0.09212178 -0.32379645 0.055915162
-0.092278123 -0.32390404 0.055860411
-0.092427969 -0.3240099 0.055790693
-0.092605606 -0.32411814 0.055816643
-0.092774428 -0.32422704 0.0558034
-0.092934631 -0.32433009 0.055792488
-0.093098074 -0.32443303 0.055795401
-0.093247414 -0.32453674 0.055737227
-0.093417741 -0.32464567 0.055729739
-0.093592823 -0.3247565 0.055729166
-0.093740568 -0.32486233 0.055651378
-0.093894973 -0.32496575 0.055615105
-0.094066486 -0.32507271 0.05562491
-0.094249681 -0.32517934 0.055683151
-0.094408691 -0.32528475 0.055652633
-0.094571337 -0.32539213 0.055624399
-0.094732895 -0.32549953 0.055591565
-0.094908796 -0.32560268 0.055642907
-0.095064543 -0.32571024 0.055585861
-0.095218249 -0.32581782 0.055520739
-0.095396109 -0.32592511 0.055553608
-0.095556438 -0.32603064 0.055527702
-0.095721401 -0.32613617 0.055520233
-0.095889047 -0.32624176 0.055523135
-0.096043408 -0.32634738 0.055473011
-0.096224353 -0.32645696 0.05550357
-0.096390381 -0.32656851 0.05546264
-0.09654139 -0.32667217 0.055411376
-0.096698709 -0.32677782 0.055372782
-0.096862391 -0.32688546 0.055346858
-0.097032562 -0.32699135 0.055357844
-0.09719725 -0.32709911 0.055335373
-0.097349159 -0.3272028 0.05528757
-0.097533472 -0.32730922 0.055351574
-0.097699881 -0.32741714 0.05533487
-0.097865835 -0.3275288 0.055292781
-0.098016918 -0.32763252 0.055241518
-0.098184995 -0.3277424 0.05521905
-0.098365791 -0.32785285 0.055243827
-0.098526865 -0.32796067 0.055206381
-0.098712921 -0.32806602 0.055284221
-0.098869175 -0.32817006 0.055251401
-0.099036746 -0.32827652 0.055248532
-0.099197328 -0.32838807 0.055185702
-0.099364854 -0.3285 0.055148236
-0.099528283 -0.32860273 0.055152308
-0.0996866 -0.32870698 0.055126403
-0.099838898 -0.32881624 0.055045139
-0.10001133 -0.3289232 0.055058412
-0.10016846 -0.32902744 0.055027902
-0.10033037 -0.32913378 0.055003133
-0.10052743 -0.32924098 0.055113245
-0.1006551 -0.32934138 0.054989371
-0.10085888 -0.32945979 0.055055611
-0.10101797 -0.32956782 0.055008933
-0.10118573 -0.32967314 0.055014156
-0.10135075 -0.32977998 0.054998606
-0.10152014 -0.32989582 0.054943826
-0.10167944 -0.33000052 0.054919075
-0.10184914 -0.3301045 0.054940429
-0.10200426 -0.33021057 0.054890305
-0.10216304 -0.33031529 0.054863244
-0.10234366 -0.33042893 0.054867268
-0.10252666 -0.33053783 0.054910507
-0.10268885 -0.33064473 0.054883435
-0.10286954 -0.33075857 0.054886296
-0.10301165 -0.33086008 0.054813143
-0.10319385 -0.33096921 0.054851767
-0.10335842 -0.33108145 0.054800462
-0.10351773 -0.33118817 0.054763012
-0.1036838 -0.33129239 0.054768238
-0.10385593 -0.33140227 0.054761894
-0.10401128 -0.33150211 0.054752156
-0.1041619 -0.33160788 0.054685898
-0.10434239 -0.33172217 0.054685298
-0.10453027 -0.33183581 0.054718133
-0.10468711 -0.33194244 0.054671474
-0.10486969 -0.33205235 0.054706633
-0.10501722 -0.33215141 0.054670382
-0.10517977 -0.33225727 0.05465138
-0.10533997 -0.33236602 0.054604702
-0.10551134 -0.33247468 0.054602988
-0.10567863 -0.33258444 0.054578204
-0.10585131 -0.33270127 0.05453033
-0.10603324 -0.33281314 0.054550495
-0.1061845 -0.33291918 0.054485384
-0.10635057 -0.33302888 0.054455992
-0.10652065 -0.33313456 0.054468125
-0.10670675 -0.33324268 0.054528654
-0.10684314 -0.33335119 0.054388605
-0.1070482 -0.33347002 0.054457154
-0.10718807 -0.33357286 0.054366697
-0.10733242 -0.33367175 0.054318916
-0.1075242 -0.33378878 0.05434598
-0.10771585 -0.33390132 0.05440072
-0.10787344 -0.33400548 0.054372516
-0.10806134 -0.33412519 0.054367274
-0.10823597 -0.33423373 0.054379392
-0.10839839 -0.33434331 0.054336164
-0.10854865 -0.3344509 0.054257214
-0.10871675 -0.33455551 0.054268196
-0.10890435 -0.33467245 0.054279111
-0.10906054 -0.3347781 0.054235913
-0.10924519 -0.33489317 0.054246839
-0.10941243 -0.33500674 0.054197833
-0.10958529 -0.33511838 0.054183409
-0.10973683 -0.3352145 0.054181766
-0.109918 -0.33532333 0.05421808
-0.11010543 -0.33544219 0.05421631
-0.11024866 -0.33555153 0.054098155
-0.11043802 -0.33566356 0.054147147
-0.11058828 -0.3357684 0.054085497
-0.11073712 -0.33586574 0.054065388
-0.11092867 -0.33598995 0.054046303
-0.11107755 -0.33609024 0.054007739
-0.11123137 -0.33619294 0.053973764
-0.1114457 -0.33632314 0.054007679
-0.11163655 -0.33644029 0.054030113
-0.11180228 -0.33654833 0.054009952
-0.11196464 -0.3366515 0.054007113
-0.1121297 -0.33676517 0.053948883
-0.11229461 -0.33687598 0.053907957
-0.11244182 -0.33697757 0.053854398
-0.11260226 -0.33708191 0.053836562
-0.11281417 -0.33720526 0.05390393
-0.1130051 -0.33732304 0.053922914
-0.11316267 -0.33743671 0.053834714
-0.11334024 -0.33754346 0.053869892
-0.11351629 -0.33765969 0.053839307
-0.11369529 -0.33777794 0.053807564
-0.1138663 -0.33789316 0.053763159
-0.11405776 -0.3380087 0.053798292
-0.11423209 -0.33811927 0.053796571
-0.11440191 -0.33823025 0.053774089
-0.1145575 -0.33833408 0.05374011
-0.023578022 -0.27943408 0.06223391
-0.023773089 -0.27956051 0.062214799
-0.023962043 -0.27967665 0.062236086
-0.024152152 -0.27979684 0.062236603
-0.024336495 -0.27990952 0.062261373
-0.024537142 -0.28004387 0.062214546
-0.024747059 -0.28018832 0.062141158
-0.024957545 -0.2803362 0.062048156
-0.025146931 -0.28045374 0.062062517
-0.025361143 -0.2806071 0.061949886
-0.025538236 -0.28070843 0.062017363
-0.025709786 -0.28080478 0.062094092
-0.025913175 -0.28094417 0.06202649
-0.026115716 -0.28108266 0.061961204
-0.026301831 -0.28119901 0.061969817
-0.026484534 -0.28131086 0.061993428
-0.026683804 -0.28144544 0.06193969
-0.026880555 -0.28157678 0.061896343
-0.027066972 -0.28169149 0.061916485
-0.027254205 -0.28181005 0.06191586
-0.027450506 -0.28194126 0.061871365
-0.027640976 -0.28206462 0.061853413
-0.027825966 -0.28218046 0.061860871
-0.028018445 -0.28230688 0.061831381
-0.02822471 -0.28245285 0.061733775
-0.028412398 -0.28257295 0.061725073
-0.028577857 -0.28267789 0.061723359
-0.028788179 -0.28281417 0.061703049
-0.028982002 -0.28294075 0.061678167
-0.029161811 -0.28305018 0.061705258
-0.029344268 -0.28316349 0.061718494
-0.029530261 -0.28328198 0.061713256
-0.029726259 -0.28341505 0.061656058
-0.029908698 -0.28352872 0.061666992
-0.030092139 -0.28364393 0.061672144
-0.030285209 -0.2837733 0.061626505
-0.030477349 -0.28390154 0.061584324
-0.030660693 -0.28401709 0.061587173
-0.030852601 -0.28414536 0.061543837
-0.031048156 -0.28427923 0.061479725
-0.031226646 -0.28438804 0.061505668
-0.031410381 -0.28450471 0.06150274
-0.031594396 -0.28462195 0.061497509
-0.03178395 -0.28474763 0.061461113
-0.031970333 -0.28486875 0.061440878
-0.032159865 -0.28499478 0.061402172
-0.032340884 -0.28510812 0.061409637
-0.032526705 -0.28522888 0.061389402
-0.032712348 -0.28534952 0.061369166
-0.032898199 -0.28547066 0.06134662
-0.033080239 -0.28558609 0.061344858
-0.033266935 -0.28570887 0.061315391
-0.033448458 -0.28582379 0.061314788
-0.033638515 -0.28595218 0.061263379
-0.033805616 -0.28604481 0.06134589
-0.033982065 -0.2861805 0.061194163
-0.034184374 -0.28630033 0.061245397
-0.034372218 -0.28642604 0.061202079
-0.034551851 -0.28653887 0.06120725
-0.034720503 -0.28665039 0.061176691
-0.034920678 -0.28678024 0.0611564
-0.035100065 -0.28689307 0.061160423
-0.035285052 -0.28701186 0.061149411
-0.035470773 -0.2871353 0.061111875
-0.035655007 -0.28725651 0.061082415
-0.035833988 -0.28736928 0.061085269
-0.036029145 -0.28750893 0.060983092
-0.036203139 -0.28761378 0.061015971
-0.036380433 -0.2877242 0.061026912
-0.036565859 -0.28784838 0.060983598
-0.036753319 -0.28797621 0.06092529
-0.036930695 -0.28808722 0.06093277
-0.037099589 -0.2881839 0.060996812
-0.03728614 -0.2883108 0.06094081
-0.037462018 -0.2884196 0.06095637
-0.037642494 -0.28853643 0.060939614
-0.037827261 -0.28866091 0.060891692
-0.038001623 -0.28876746 0.060915343
-0.03819241 -0.28889921 0.060845472
-0.038370579 -0.28901276 0.06084026
-0.03854797 -0.28912506 0.060839672
-0.038728114 -0.28924242 0.060818292
-0.038904779 -0.28935373 0.060821168
-0.039078534 -0.28945988 0.060844816
-0.039262272 -0.28958425 0.06079343
-0.039448246 -0.289713 0.060723588
-0.039620109 -0.28981611 0.060758777
-0.039789222 -0.28991422 0.060814746
-0.039969701 -0.29003343 0.060782991
-0.04016288 -0.2901766 0.060650818
-0.040336866 -0.29028419 0.06066639
-0.04051964 -0.29040852 0.060611546
-0.040700831 -0.29052597 0.060593635
-0.040881895 -0.29064757 0.060549185
-0.041059639 -0.29076302 0.060530134
-0.041235417 -0.29087487 0.06052608
-0.041410394 -0.29098529 0.060527798
-0.041584164 -0.29109347 0.060538761
-0.041762337 -0.29121047 0.06051163
-0.041940615 -0.29132792 0.060482189
-0.042118989 -0.29144579 0.060450438
-0.042296141 -0.29156142 0.060427919
-0.042466961 -0.29165989 0.0604885
-0.042641178 -0.2917698 0.060490221
-0.042789143 -0.29187649 0.06040781
-0.043000966 -0.2920137 0.060387488
-0.043174908 -0.29212365 0.060388062
-0.043352086 -0.29224059 0.060357466
-0.043527022 -0.292353 0.060346503
-0.043702561 -0.29246688 0.06032861
-0.043866877 -0.29257146 0.060324594
-0.044053219 -0.29269439 0.060292818
-0.044231907 -0.2928108 0.060271453
-0.044405624 -0.29292151 0.060266256
-0.044578198 -0.29302984 0.060271442
-0.044756345 -0.2931509 0.060218934
-0.044931386 -0.29326519 0.060196422
-0.045100637 -0.29336649 0.060232777
-0.045276001 -0.29348192 0.060204506
-0.045450777 -0.29359621 0.060180835
-0.045616988 -0.29369065 0.06024836
-0.045797791 -0.29381958 0.060156606
-0.045975976 -0.29393715 0.060126014
-0.046148449 -0.29404691 0.060121968
-0.046320118 -0.29415485 0.060126007
-0.046493918 -0.29426819 0.060104661
-0.04666777 -0.29438192 0.060081005
-0.04683993 -0.29449165 0.060075812
-0.047018625 -0.29461211 0.060029067
-0.047193479 -0.2947292 0.059988104
-0.04736219 -0.29483071 0.060020991
-0.047537416 -0.29494935 0.059971951
-0.047711991 -0.29506022 0.05996906
-0.047880631 -0.29516187 0.060000792
-0.048064217 -0.2952975 0.05987788
-0.048235007 -0.29540545 0.059878465
-0.048402213 -0.29550362 0.059926368
-0.048575677 -0.29561931 0.059888858
-0.048751879 -0.29573619 0.059854813
-0.048892628 -0.29582933 0.059828967
-0.049050793 -0.29592305 0.059868813
-0.04925938 -0.29604852 0.059909642
-0.049436454 -0.29616904 0.059855975
-0.049606495 -0.29628384 0.059810415
-0.04978184 -0.29639998 0.059777524
-0.04995016 -0.29651809 0.059704274
-0.050128058 -0.29662722 0.059725605
-0.050295219 -0.29672629 0.059767723
-0.050471865 -0.296848 0.05970484
-0.050641887 -0.29695675 0.059697345
-0.050814893 -0.2970672 0.059691001
-0.050984472 -0.29717493 0.059688117
-0.051155206 -0.29728687 0.059663318
-0.051324919 -0.29739559 0.059654675
-0.051498741 -0.29751003 0.0596264
-0.051668204 -0.29761842 0.059618913
-0.051842775 -0.29773647 0.059571028
-0.052012771 -0.29784757 0.059548534
-0.052179784 -0.29794744 0.059584893
-0.052351817 -0.29806715 0.059516244
-0.052522995 -0.29817352 0.059528366
-0.052692741 -0.29828504 0.059502415
-0.052864406 -0.29839388 0.059500694
-0.053034291 -0.29850677 0.05946666
-0.053205244 -0.29861316 0.059477627
-0.053375706 -0.29872951 0.059423983
-0.053544506 -0.29883894 0.059407264
-0.053712673 -0.29894578 0.059404392
-0.053884666 -0.29905832 0.05938074
-0.054053515 -0.29916924 0.05935479
-0.054224744 -0.29927894 0.059346139
-0.054390907 -0.29937664 0.059392899
-0.054565512 -0.29950511 0.059279244
-0.054732833 -0.29960978 0.059286755
-0.054896016 -0.29970667 0.059326589
-0.055070523 -0.29982138 0.059299469
-0.055235945 -0.29993215 0.059260841
-0.05540593 -0.30003721 0.059276424
-0.055563543 -0.3001346 0.059290897
-0.055741724 -0.30025768 0.05922569
-0.055901274 -0.30034953 0.059282847
-0.056039371 -0.30044997 0.059200466
-0.056228332 -0.30059412 0.059045237
-0.056421142 -0.30070266 0.059129961
-0.056590687 -0.30080706 0.059147857
-0.056737274 -0.30088559 0.059237354
-0.05689694 -0.30100572 0.059116837
-0.057092626 -0.30114189 0.059038881
-0.057261113 -0.30123684 0.059112146
-0.057428412 -0.30135137 0.059057362
-0.057588533 -0.30145073 0.059069522
-0.057761908 -0.30157146 0.058999717
-0.057934716 -0.30168638 0.058964524
-0.058079056 -0.30177262 0.05899635
-0.058248349 -0.30188018 0.058993474
-0.058414742 -0.30199102 0.058958299
-0.058602907 -0.30212551 0.058860764
-0.0587686 -0.30222365 0.058902889
-0.058937594 -0.30233118 0.058898866
-0.059088111 -0.30242741 0.058892593
-0.059238605 -0.30252543 0.058874782
-0.059410524 -0.30263847 0.058847673
-0.059597667 -0.30276063 0.058823973
-0.059772506 -0.30286875 0.058839537
-0.059916615 -0.30296072 0.058834434
-0.060072668 -0.30307215 0.05875431
-0.060271833 -0.30319679 0.058762871
-0.060424943 -0.30329445 0.058757737
-0.060593288 -0.30340251 0.058747947
-0.060752217 -0.30350789 0.058717422
-0.060917407 -0.30361301 0.058713399
-0.061086155 -0.30371255 0.058758989
-0.06127207 -0.30383956 0.058699522
-0.061437279 -0.30394289 0.058707051
-0.061602294 -0.30404809 0.058701884
-0.061757673 -0.30415159 0.058669053
-0.061928693 -0.30426043 0.058665019
-0.062090054 -0.30436733 0.058634482
-0.062267471 -0.30447674 0.058652349
-0.062431335 -0.30458853 0.058601037
-0.062598959 -0.30469611 0.058591247
-0.062764853 -0.30479273 0.058643766
-0.062905923 -0.30489817 0.058541756
-0.063085251 -0.30501518 0.058519244
-0.063253097 -0.30511996 0.058527909
-0.063407637 -0.30520463 0.058610462
-0.063575268 -0.30532852 0.05849798
-0.063756086 -0.30545363 0.058430463
-0.063913353 -0.3055585 0.058396481
-0.064052239 -0.30565193 0.058361396
-0.064241506 -0.30576828 0.058382686
-0.064408503 -0.30587527 0.058374051
-0.064566307 -0.30597666 0.058364294
-0.064737886 -0.30607924 0.058401793
-0.064911455 -0.30620122 0.05832506
-0.065069839 -0.30629984 0.058334921
-0.065219104 -0.3063927 0.0583448
-0.065384224 -0.30650511 0.058294632
-0.065549336 -0.30660525 0.058321774
-0.06571202 -0.30671319 0.058290079
-0.065892071 -0.3068237 0.058311395
-0.066048831 -0.306916 0.058354717
-0.06620685 -0.30703691 0.058222655
-0.06638056 -0.30714414 0.058239378
-0.066563889 -0.30726588 0.058203001
-0.066722468 -0.30736336 0.05822093
-0.066880025 -0.30747318 0.058156949
-0.06703151 -0.30756927 0.058155283
-0.067198962 -0.30767292 0.058169723
-0.067360654 -0.30778113 0.058132268
-0.067540795 -0.30789995 0.058101658
-0.067707427 -0.30800527 0.058102254
-0.067871027 -0.30810866 0.058102857
-0.068024606 -0.30820826 0.058087349
-0.068197444 -0.30831698 0.05809138
-0.068355568 -0.30841523 0.058102392
-0.068502739 -0.30851939 0.058032677
-0.068682671 -0.30864522 0.057957083
-0.06886103 -0.30875832 0.057955328
-0.069018997 -0.308864 0.057919033
-0.069167055 -0.30895793 0.057917386
-0.069333591 -0.30905551 0.057966441
-0.069486782 -0.30916199 0.057905931
-0.069661923 -0.30927324 0.05790304
-0.069843262 -0.30938807 0.057902426
-0.070001721 -0.30948547 0.057920359
-0.070135288 -0.30956873 0.057927988
-0.070291027 -0.30967045 0.05790785
-0.070481122 -0.30980435 0.057821833
-0.070638694 -0.30990303 0.05782824
-0.070786566 -0.31000945 0.057746977
-0.070977628 -0.31012857 0.057757873
-0.071140185 -0.3102324 0.057751562
-0.071303822 -0.31034076 0.057721019
-0.071457826 -0.3104381 0.057721652
-0.071608916 -0.31053337 0.057723459
-0.071783386 -0.31064495 0.057715949
-0.071954429 -0.31075507 0.057703841
-0.072114728 -0.3108615 0.05767215
-0.072279274 -0.31096825 0.05765545
-0.072449319 -0.31107387 0.057667565
-0.072606109 -0.31117332 0.057665892
-0.072776318 -0.31128421 0.057645708
-0.072950669 -0.31139567 0.057638198
-0.073115952 -0.31150141 0.057630725
-0.073264204 -0.31159967 0.057602543
-0.073418297 -0.31170693 0.057540871
-0.073601738 -0.31181887 0.057566799
-0.073767707 -0.31192377 0.057567395
-0.073925972 -0.31202653 0.05755071
-0.074071303 -0.31211764 0.057555996
-0.074237928 -0.31223631 0.057472363
-0.074403249 -0.31234169 0.057467204
-0.074575558 -0.31245005 0.057471238
-0.074729934 -0.31255147 0.057447646
-0.074898988 -0.31265813 0.057449382
-0.075065501 -0.31276703 0.057426907
-0.075219244 -0.31286436 0.057426393
-0.075389989 -0.31297851 0.057387747
-0.075551882 -0.31308669 0.05735144
-0.075713888 -0.31318596 0.057371661
-0.075881541 -0.31329376 0.057360712
-0.076026328 -0.31338102 0.057387926
-0.07617683 -0.31347665 0.057385113
-0.07637319 -0.31360886 0.057334848
-0.076533452 -0.31371379 0.057312384
-0.076683424 -0.31381387 0.057279579
-0.07683979 -0.31391746 0.057250213
-0.076998435 -0.31401935 0.057240453
-0.077165425 -0.31412745 0.057224888
-0.077325322 -0.3142285 0.057225514
-0.077486038 -0.31433687 0.057183441
-0.077638343 -0.31443509 0.057171393
-0.077817045 -0.31454331 0.057201937
-0.07796932 -0.31464922 0.057141442
-0.078135297 -0.31476164 0.05709473
-0.078282975 -0.31485513 0.057094235
-0.078446925 -0.31495747 0.057102919
-0.0786286 -0.31507891 0.057061929
-0.078781731 -0.31517658 0.0570568
-0.078933321 -0.31527877 0.057017062
-0.079089239 -0.31538206 0.056987703
-0.07925953 -0.31548458 0.057020586
-0.079436891 -0.31559047 0.057060376
-0.079601415 -0.31569976 0.057027519
-0.079753205 -0.31579477 0.05703393
-0.079908475 -0.31589836 0.056999952
-0.080073401 -0.31600735 0.056970555
-0.080238365 -0.31611291 0.056963086
-0.080398738 -0.31622064 0.056923322
-0.080558933 -0.31633177 0.056861632
-0.080731727 -0.31644356 0.05684606
-0.080881879 -0.31654266 0.056820177
-0.081057094 -0.31664681 0.056862272
-0.081224248 -0.31675464 0.056849025
-0.081385642 -0.31686819 0.056776952
-0.081537999 -0.3169663 0.056766056
-0.08166346 -0.31706291 0.056657188
-0.081859127 -0.3171621 0.05681229
-0.082044266 -0.31727839 0.056817435
-0.082204558 -0.31738281 0.056798443
-0.082355388 -0.31748471 0.056757551
-0.082516424 -0.31758574 0.056762785
-0.08267577 -0.31768444 0.056776091
-0.082855329 -0.31779391 0.056802023
-0.083026558 -0.31790945 0.056756455
-0.083183959 -0.31800598 0.05677554
-0.083333507 -0.31809938 0.056783121
-0.083495043 -0.31820643 0.056752585
-0.083648801 -0.31830725 0.05673014
-0.083809786 -0.31840861 0.056733064
-0.083970703 -0.31851581 0.056699067
-0.08413031 -0.31862053 0.056675456
-0.0842259 -0.31873909 0.056309409
-0.084398851 -0.31883943 0.056366511
-0.084582917 -0.31893948 0.056469735
-0.084760286 -0.3190417 0.056532592
-0.084944159 -0.31915337 0.05656198
-0.085107975 -0.31927612 0.056441441
-0.085263014 -0.31937373 0.056444384
-0.085421503 -0.31947589 0.056432314
-0.085583925 -0.31957707 0.056442153
-0.085754663 -0.31969231 0.056396589
-0.085905567 -0.3197884 0.056392614
-0.086072601 -0.31989652 0.056377057
-0.08623895 -0.32000223 0.056374192
-0.086368382 -0.32010594 0.056236465
-0.086540073 -0.32020256 0.056312039
-0.086730659 -0.32031333 0.056373704
-0.086895898 -0.32042199 0.056347765
-0.087053783 -0.32052451 0.056331091
-0.087220348 -0.3206329 0.056312069
-0.087386668 -0.32074386 0.056275744
-0.087553911 -0.32085213 0.056260187
-0.087734297 -0.32096544 0.056265347
-0.087893069 -0.32107034 0.056237131
-0.088048562 -0.32116842 0.056238919
-0.088204406 -0.32127386 0.056195702
-0.088348426 -0.32137638 0.056123696
-0.088499613 -0.32147521 0.056103572
-0.08866699 -0.32157385 0.056149162
-0.088827431 -0.32168093 0.056114007
-0.088982478 -0.32178643 0.05606734
-0.089144275 -0.32188851 0.056069113
-0.089324027 -0.32199278 0.056128502
-0.089493498 -0.322101 0.056122169
-0.089629702 -0.32221138 0.055969417
-0.089785978 -0.32231197 0.055958509
-0.089961715 -0.32241243 0.056025989
-0.090147391 -0.32251644 0.05611074
-0.090303861 -0.32262412 0.056055989
-0.090458535 -0.3227365 0.055964328
-0.090609141 -0.32283789 0.055925757
-0.09078455 -0.32293889 0.055988621
-0.090963259 -0.32305092 0.055994947
-0.091116123 -0.32315886 0.055924058
-0.091265753 -0.32326037 0.055880863
-0.091435656 -0.32336667 0.055888377
-0.091609955 -0.32347041 0.055929326
-0.091757596 -0.32357654 0.055849224
-0.091919243 -0.32368144 0.055832528
-0.092076622 -0.32378235 0.055823922
-0.092226051 -0.32389253 0.055725358
-0.092403889 -0.32399634 0.055780143
-0.092562966 -0.32410362 0.055738077
-0.092728704 -0.32420838 0.055738673
-0.09289109 -0.32431337 0.055724282
-0.093054965 -0.32441622 0.055729508
-0.093221843 -0.32452315 0.055720869
-0.093384117 -0.32462826 0.055705331
-0.093549766 -0.32473534 0.055690929
-0.093704879 -0.3248429 0.055631563
