# .PCD v0.7 - Point Cloud Data file format
VERSION 0.7
FIELDS x y z
SIZE 4 4 4
TYPE F F F
COUNT 1 1 1
WIDTH 1312
HEIGHT 1
VIEWPOINT 0 0 0 1 0 0 0
POINTS 1312
DATA ascii
-0.30812916 -0.25856182 0.061558001
-0.30832946 -0.25853929 0.061539706
-0.30851054 -0.25850227 0.061649553
-0.30872133 -0.25848788 0.061559688
-0.30892554 -0.25846866 0.06151253
-0.30910692 -0.25844496 0.06152086
-0.30932313 -0.25842214 0.061489791
-0.3095026 -0.25841057 0.061408155
-0.30974343 -0.25839442 0.061303142
-0.30992314 -0.25835603 0.061424524
-0.31013614 -0.25834504 0.061306961
-0.31031585 -0.25831699 0.06134991
-0.31051809 -0.25828677 0.061388128
-0.3107262 -0.25827223 0.061301727
-0.3109242 -0.25824922 0.061289214
-0.31111631 -0.25822118 0.061320558
-0.31131357 -0.258194 0.061340339
-0.31152254 -0.25818107 0.061241254
-0.31171894 -0.25815704 0.061237976
-0.3119128 -0.25813073 0.061254315
-0.3121084 -0.25810605 0.061256804
-0.31230718 -0.25808448 0.061232753
-0.31250489 -0.25806198 0.061216772
-0.31270236 -0.25803933 0.061201945
-0.31290415 -0.25802103 0.061150193
-0.31309396 -0.25799114 0.061197698
-0.31329674 -0.25797409 0.06113556
-0.31346214 -0.25795236 0.061143965
-0.31362987 -0.25792474 0.061195053
-0.31385383 -0.25790492 0.061133958
-0.31407881 -0.25788221 0.061093617
-0.31427839 -0.25785416 0.061118007
-0.31448516 -0.25784254 0.061010852
-0.31468174 -0.25782016 0.060994886
-0.31487662 -0.25779602 0.060993917
-0.31506693 -0.25776681 0.061035652
-0.31526777 -0.25774956 0.060976982
-0.31547034 -0.25773451 0.060899839
-0.31566238 -0.2577028 0.06095887
-0.31586161 -0.2576842 0.060911745
-0.3160561 -0.25766012 0.060910776
-0.31625086 -0.25763646 0.060906351
-0.31644654 -0.25761405 0.060891531
-0.31663856 -0.25758708 0.060914811
-0.31683019 -0.25757474 0.060827341
-0.31704205 -0.25755838 0.060751315
-0.31723616 -0.25752932 0.060788412
-0.31743243 -0.25750837 0.060762063
-0.31762737 -0.25748572 0.060749564
-0.31782103 -0.25746143 0.060750909
-0.31801307 -0.2574349 0.060770728
-0.31819114 -0.2574051 0.060828675
-0.31840488 -0.25739306 0.060718026
-0.31859797 -0.25736824 0.060723986
-0.31877851 -0.25734207 0.06075193
-0.31893143 -0.25731507 0.060812309
-0.31916448 -0.25729215 0.06076616
-0.31936729 -0.25729516 0.060551748
-0.31957829 -0.2572625 0.060600303
-0.31976697 -0.25723729 0.060613215
-0.31996375 -0.25721276 0.060613401
-0.32015532 -0.257186 0.060635518
-0.32034773 -0.25716734 0.060595341
-0.32049859 -0.25714988 0.060585365
-0.32072625 -0.25712624 0.060549632
-0.32093486 -0.25710297 0.060528986
-0.32113299 -0.25708163 0.060503777
-0.32132792 -0.25706175 0.060470514
-0.32150882 -0.25703675 0.060489226
-0.32168281 -0.25701305 0.060504511
-0.32186565 -0.25699985 0.060432084
-0.32205456 -0.25697598 0.060434606
-0.32229719 -0.25695416 0.060371116
-0.32248697 -0.25693247 0.060356334
-0.32268476 -0.25691208 0.060324199
-0.32287934 -0.25688449 0.060349774
-0.32306126 -0.25686225 0.060346559
-0.32323977 -0.25684106 0.060338758
-0.32343498 -0.2568149 0.06035278
-0.32365292 -0.25679931 0.060265191
-0.32384461 -0.25677389 0.060276926
-0.32401985 -0.25675446 0.060258754
-0.32418069 -0.25673652 0.060242958
-0.32437894 -0.25670877 0.060266197
-0.32458049 -0.25669095 0.06021098
-0.32476982 -0.25667009 0.060190435
-0.32497278 -0.25664571 0.060183659
-0.32515162 -0.2566272 0.060155086
-0.32534102 -0.25660726 0.06012762
-0.32555586 -0.25657335 0.060181919
-0.32572967 -0.25655028 0.060192592
-0.32591644 -0.25653476 0.06013399
-0.32611954 -0.25651205 0.060114529
-0.32632804 -0.25649685 0.060032748
-0.32651907 -0.25646999 0.06005602
-0.32669148 -0.25645807 0.059983645
-0.32692415 -0.25642136 0.060042478
-0.32709906 -0.25640485 0.06000239
-0.32727599 -0.25638005 0.060023431
-0.32747498 -0.25635678 0.060012065
-0.32767788 -0.25633559 0.059981063
-0.32786372 -0.25632155 0.059912082
-0.32806796 -0.25628591 0.059989512
-0.32825291 -0.25626665 0.059960909
-0.32844138 -0.25624725 0.059929982
-0.32863221 -0.25621754 0.059975173
-0.3288064 -0.25619978 0.059945475
-0.32899845 -0.25618207 0.059898376
-0.32919049 -0.25616571 0.059840906
-0.32937947 -0.25615829 0.059718847
-0.32957759 -0.25613117 0.059737474
-0.32978988 -0.25610122 0.059764102
-0.32995957 -0.25607321 0.059816331
-0.3301478 -0.25606373 0.059710413
-0.33037436 -0.25603476 0.059716221
-0.33053708 -0.25600183 0.059812307
-0.33072487 -0.25598708 0.05974678
-0.3309195 -0.25598398 0.059586629
-0.33110711 -0.25595403 0.059636448
-0.33130169 -0.25593236 0.059617031
-0.33153161 -0.25590524 0.059605509
-0.33171216 -0.25588107 0.059618451
-0.33189994 -0.25585371 0.05964867
-0.33210507 -0.25583059 0.059630349
-0.3322717 -0.2558066 0.059654899
-0.33246219 -0.25579044 0.059597429
-0.33265793 -0.2557548 0.05968298
-0.33287627 -0.25573871 0.059598841
-0.33305979 -0.25572023 0.059565626
-0.3332327 -0.25570261 0.059535932
-0.33341187 -0.25568956 0.059465833
-0.33361045 -0.25566131 0.059492528
-0.33379847 -0.25563452 0.059518136
-0.33400416 -0.25560614 0.059539028
-0.33418825 -0.2555829 0.059541579
-0.33438465 -0.25556815 0.059467927
-0.33456504 -0.25554594 0.059465878
-0.33475807 -0.25552964 0.059407245
-0.33495882 -0.25550875 0.059376255
-0.33514559 -0.25548849 0.059353415
-0.33532181 -0.25546911 0.059334084
-0.33550134 -0.25545007 0.059308968
-0.33571523 -0.25541672 0.059359822
-0.33591145 -0.25539941 0.059305783
-0.33609146 -0.25537834 0.059295665
-0.33627474 -0.25535777 0.0592786
-0.33646372 -0.25532901 0.059318036
-0.33664611 -0.25532332 0.059189089
-0.3368459 -0.25529262 0.059233084
-0.33703753 -0.25526693 0.059247136
-0.33723232 -0.25524205 0.059251938
-0.33741707 -0.25521687 0.059268318
-0.33760539 -0.25520131 0.059208557
-0.33778745 -0.25517419 0.059242263
-0.33797473 -0.25515175 0.059235569
-0.33816066 -0.25513297 0.059202343
-0.33835635 -0.25511512 0.059152927
-0.33855277 -0.25508624 0.059186552
-0.33874944 -0.2550742 0.059092149
-0.33893096 -0.25504914 0.059110858
-0.33912218 -0.25503334 0.059049919
-0.33930492 -0.25501347 0.059028249
-0.33949816 -0.25498465 0.059064209
-0.33969635 -0.25496012 0.059063226
-0.33989084 -0.25493649 0.0590588
-0.34007761 -0.25492245 0.058988664
-0.34024414 -0.25492314 0.058826342
-0.34043995 -0.25488916 0.058899194
-0.34063551 -0.25485611 0.058965135
-0.34083569 -0.25482079 0.059043735
-0.34103677 -0.2547842 0.059131555
-0.34122959 -0.25477749 0.059000254
-0.34140658 -0.25476882 0.058899015
-0.34159684 -0.25475329 0.058836937
-0.34179002 -0.2547321 0.058815211
-0.34198239 -0.25470629 0.058829255
-0.34218246 -0.25467864 0.058850173
-0.34236917 -0.2546514 0.058880396
-0.34256044 -0.25463957 0.058789469
-0.34273741 -0.25462374 0.058742456
-0.34291637 -0.25460994 0.05867812
-0.34311047 -0.25458148 0.058710616
-0.34330863 -0.2545574 0.058706172
-0.34349751 -0.25453249 0.058716774
-0.34369281 -0.25450784 0.058719262
-0.34387875 -0.254493 0.058656041
-0.34406409 -0.25446868 0.058665507
-0.34425202 -0.25445059 0.058625363
-0.3444488 -0.25442377 0.058642834
-0.34463045 -0.25441512 0.058536962
-0.34481245 -0.25440079 0.05847377
-0.34499881 -0.25437984 0.058456693
-0.34518597 -0.25435773 0.058447689
-0.34538108 -0.25432885 0.058482483
-0.34557855 -0.25429678 0.058539186
-0.34577054 -0.25426811 0.058575146
-0.34596536 -0.25424474 0.058568414
-0.3461692 -0.25420901 0.058646999
-0.34635365 -0.2541956 0.058574565
-0.34653342 -0.25418398 0.058492921
-0.34673831 -0.25415584 0.058512665
-0.34692439 -0.25413144 0.058522131
-0.34712136 -0.25410551 0.058532685
-0.34731543 -0.25408345 0.058516726
-0.34749988 -0.25406548 0.058478896
-0.34768912 -0.25404948 0.05842144
-0.34788275 -0.25402793 0.058402017
-0.34806147 -0.25401691 0.05831692
-0.34825811 -0.25398767 0.058352865
-0.34844649 -0.2539686 0.058319625
-0.34864834 -0.25393721 0.058367077
-0.3488245 -0.25393274 0.058234699
-0.34901345 -0.25390917 0.058234919
-0.34920365 -0.25388789 0.058216669
-0.3493914 -0.2538695 0.058178823
-0.34958401 -0.25383821 0.05823439
-0.34978375 -0.25381348 0.058233399
-0.34997514 -0.25379464 0.058195546
-0.35016936 -0.25376904 0.058206111
-0.35036105 -0.25374636 0.058197085
-0.35055125 -0.25372189 0.058203071
-0.35073596 -0.25370342 0.058168698
-0.35092348 -0.25368538 0.058128543
-0.3511098 -0.25366852 0.05808033
-0.35130861 -0.25364846 0.058044732
-0.35148612 -0.25363091 0.058010403
-0.35169351 -0.25359198 0.05810973
-0.35189188 -0.25356922 0.058094904
-0.35210228 -0.25353739 0.058137704
-0.35229158 -0.25352398 0.058060624
-0.3524701 -0.25350553 0.058032054
-0.35265535 -0.25348973 0.057976916
-0.3528429 -0.25346845 0.057960995
-0.35304111 -0.25344908 0.057920784
-0.35323423 -0.25342244 0.057940595
-0.35342261 -0.25340655 0.057883136
-0.35359818 -0.25339392 0.057813056
-0.35378993 -0.25337169 0.057800569
-0.35398957 -0.25334498 0.057814568
-0.35417286 -0.25332791 0.057770982
-0.35436153 -0.25330576 0.057760812
-0.35457104 -0.25327298 0.057811689
-0.35476807 -0.25324613 0.057829168
-0.35496199 -0.25322226 0.057827055
-0.35515609 -0.2532011 0.057804178
-0.35535082 -0.25317943 0.057784751
-0.35554066 -0.25315377 0.057799958
-0.35572892 -0.25313517 0.057763264
-0.3559126 -0.25312063 0.057700068
-0.35611486 -0.25309238 0.057723284
-0.35630214 -0.25307468 0.05768083
-0.35650247 -0.25304559 0.057712138
-0.35668609 -0.25303108 0.057648938
-0.35687965 -0.2530106 0.057621442
-0.35706827 -0.25298646 0.057626277
-0.35726556 -0.25296554 0.057598762
-0.35745797 -0.25294092 0.057603575
-0.35765067 -0.25291875 0.057589937
-0.35784209 -0.25290021 0.05754976
-0.35803464 -0.25287819 0.057534963
-0.35822904 -0.2528547 0.057529386
-0.35841569 -0.25283509 0.057501927
-0.35861093 -0.25281349 0.057481352
-0.3588084 -0.25278765 0.057490751
-0.35899389 -0.25277153 0.057437927
-0.35919356 -0.25274894 0.057420783
-0.35938588 -0.25272495 0.057420984
-0.35956916 -0.25270331 0.057412002
-0.35977823 -0.25267589 0.057422496
-0.35997376 -0.25265199 0.057419222
-0.36016202 -0.2526314 0.057397522
-0.3603625 -0.25261083 0.057364237
-0.36055407 -0.25259241 0.057322912
-0.36073828 -0.25257266 0.057298921
-0.36093077 -0.25254896 0.057296813
-0.36114079 -0.25252128 0.057308462
-0.36132133 -0.25250438 0.057266042
-0.36152041 -0.25247821 0.057276592
-0.36171782 -0.25245786 0.057244468
-0.36191091 -0.25243622 0.057226207
-0.36210218 -0.25241375 0.057216026
-0.36228299 -0.25239897 0.057157449
-0.36247498 -0.25237823 0.057133432
-0.36266953 -0.25235564 0.057120923
-0.362867 -0.25233102 0.057121105
-0.36306947 -0.25230291 0.057143167
-0.36325762 -0.25228509 0.05710071
-0.36346611 -0.25225499 0.057131976
-0.36366618 -0.25222886 0.057141364
-0.36386025 -0.25221121 0.057091955
-0.36405429 -0.25219354 0.057042547
-0.36425322 -0.25217044 0.057030018
-0.36442629 -0.25215691 0.056969181
-0.36463994 -0.25212374 0.057018872
-0.36483017 -0.25210261 0.056999475
-0.36502779 -0.25208467 0.056948889
-0.36520976 -0.25206715 0.056909919
-0.36540771 -0.25204295 0.056906637
-0.36560389 -0.25201392 0.056941424
-0.36580965 -0.25198466 0.056969233
-0.36600155 -0.25196666 0.056924455
-0.36618981 -0.25194913 0.056879684
-0.36638859 -0.25192463 0.056877546
-0.3665835 -0.25190279 0.056859277
-0.36679932 -0.25187317 0.056880116
-0.36698207 -0.25185737 0.056827307
-0.36718246 -0.2518321 0.056829769
-0.3673709 -0.25181073 0.05681384
-0.36757863 -0.25178468 0.056815118
-0.36776921 -0.25176397 0.056792259
-0.36797085 -0.25173625 0.056812018
-0.36816323 -0.25171641 0.056781068
-0.36833784 -0.25170586 0.056696005
-0.36854523 -0.25168034 0.056693815
-0.36875147 -0.25165373 0.05670087
-0.36894071 -0.25163591 0.056657247
-0.36914474 -0.25161079 0.056655083
-0.36934179 -0.25158638 0.056654103
-0.36954302 -0.25156313 0.05664042
-0.36973718 -0.25154242 0.056614075
-0.36993769 -0.25151789 0.056610778
-0.37012911 -0.25150073 0.056560222
-0.37032881 -0.25147858 0.056539629
-0.37053376 -0.25145152 0.0565513
-0.37071589 -0.25143293 0.056520402
-0.37092006 -0.25140822 0.056514777
-0.37112147 -0.25138527 0.056498788
-0.37132636 -0.25135851 0.056508146
-0.37150714 -0.25134432 0.056444954
-0.37171477 -0.25131437 0.056476224
-0.3719306 -0.2512849 0.056495927
-0.37213296 -0.25126681 0.056441858
-0.3723129 -0.25125319 0.056375217
-0.37251127 -0.2512306 0.056359228
-0.37272525 -0.2511991 0.056396239
-0.37290466 -0.2511875 0.056314599
-0.3731128 -0.25115776 0.056343559
-0.37330177 -0.25114074 0.056294173
-0.37350962 -0.25111136 0.056320824
-0.37369806 -0.25109303 0.056281824
-0.37389967 -0.25106898 0.0562739
-0.37409639 -0.25105268 0.056211788
-0.3742919 -0.25103211 0.056183137
-0.37449989 -0.251003 0.056207485
-0.37472814 -0.25096926 0.056247875
-0.37492481 -0.25094825 0.056221526
-0.37513426 -0.25091696 0.056260861
-0.37532166 -0.25089952 0.056216095
-0.37550452 -0.25089103 0.056107905
-0.37572098 -0.25085935 0.056143753
-0.37592429 -0.25083494 0.056136973
-0.37612012 -0.25081465 0.056106009
-0.37632939 -0.2507855 0.056129202
-0.37653247 -0.25076142 0.056120113
-0.3767226 -0.25074273 0.056082264
-0.37693372 -0.25072071 0.056050062
-0.37712801 -0.2506983 0.056036416
-0.37734377 -0.25067234 0.056029573
-0.37753275 -0.2506544 0.055987112
-0.37773642 -0.2506257 0.05601263
-0.37792796 -0.25060958 0.055954006
-0.37812936 -0.25058675 0.055936854
-0.37832862 -0.25056511 0.0559128
-0.37852609 -0.25054142 0.05590605
-0.37874332 -0.25051206 0.055923432
-0.37894911 -0.25049177 0.055883188
-0.37914044 -0.25046989 0.055868395
-0.379352 -0.25044367 0.055867355
-0.37955621 -0.25042281 0.055832885
-0.3797555 -0.25040299 0.055794984
-0.37997156 -0.25037315 0.055816986
-0.38016608 -0.25035882 0.055742189
-0.38037416 -0.25032878 0.055773459
-0.38062796 -0.25029489 0.055790655
-0.38079375 -0.25028333 0.055721775
-0.38098574 -0.25026307 0.05569429
-0.3811774 -0.25024298 0.055665649
-0.27367166 -0.26247796 0.064397573
-0.27391163 -0.26245251 0.064364135
-0.2741639 -0.26243144 0.064285658
-0.27439225 -0.26240498 0.06427072
-0.27458075 -0.2623693 0.064363249
-0.27482441 -0.26234657 0.064305574
-0.27508461 -0.26232788 0.064201683
-0.27527815 -0.26229203 0.064290717
-0.27552465 -0.2622703 0.064222656
-0.27575779 -0.26224554 0.064190395
-0.27597564 -0.26221716 0.064199746
-0.2762323 -0.2621983 0.064100489
-0.27644515 -0.26216888 0.064122535
-0.27667755 -0.26214284 0.064100668
-0.27690765 -0.26211783 0.064073041
-0.27715376 -0.26209691 0.063999213
-0.27735204 -0.26206416 0.064060546
-0.27759346 -0.26204228 0.063998267
-0.27781567 -0.26201567 0.063990287
-0.27803126 -0.26198593 0.064012326
-0.2782726 -0.26196438 0.063947737
-0.27848497 -0.2619355 0.063966334
-0.27869165 -0.26190516 0.064001113
-0.27891049 -0.26187807 0.064000063
-0.27914441 -0.26185501 0.063953973
-0.27937543 -0.26182973 0.063927494
-0.27958229 -0.26179969 0.063959956
-0.27982238 -0.26177862 0.063893065
-0.2800405 -0.26175174 0.063890874
-0.28026763 -0.26172742 0.063860968
-0.28050637 -0.26170635 0.063795239
-0.28070876 -0.26167384 0.063850783
-0.28094694 -0.26165283 0.063785061
-0.28117946 -0.26163042 0.063735515
-0.28141129 -0.26160794 0.063687116
-0.2816236 -0.26157844 0.063710332
-0.28185976 -0.2615574 0.063646927
-0.28209591 -0.26153651 0.063582361
-0.28229848 -0.26150608 0.063621767
-0.28251129 -0.26147866 0.063628815
-0.28274405 -0.26145712 0.063572347
-0.28296885 -0.26143169 0.063552827
-0.28317854 -0.26140359 0.063567974
-0.28339496 -0.26137754 0.063561179
-0.28363204 -0.26135775 0.063487381
-0.28385732 -0.26133287 0.063463241
-0.28407556 -0.26130766 0.063448362
-0.28427806 -0.26127604 0.063496992
-0.28446493 -0.26124132 0.063583761
-0.28470701 -0.26122364 0.063489184
-0.28493503 -0.2612018 0.063439652
-0.28516531 -0.26117906 0.063394725
-0.28536797 -0.26115638 0.063375302
-0.28555858 -0.2611317 0.063382469
-0.2858189 -0.26110491 0.06333971
-0.28605872 -0.26108569 0.063258983
-0.28627858 -0.26106197 0.063231409
-0.28650025 -0.2610389 0.063196905
-0.2867035 -0.26100993 0.06322477
-0.28692296 -0.26098457 0.063209891
-0.28707269 -0.26095217 0.063314125
-0.28729922 -0.26093644 0.063219629
-0.28755423 -0.26090345 0.063228793
-0.28775793 -0.26087487 0.063253194
-0.28796941 -0.26084897 0.063249886
-0.28820381 -0.26083106 0.063164569
-0.28838444 -0.26079467 0.063269816
-0.28863221 -0.2607798 0.063148692
-0.28885925 -0.26075974 0.06308648
-0.289022 -0.26073378 0.063129529
-0.2892597 -0.26071027 0.063083418
-0.28950799 -0.26068696 0.063025713
-0.2897079 -0.26065764 0.06305936
-0.28992179 -0.26063341 0.063041046
-0.29013863 -0.26061034 0.063011184
-0.2903387 -0.26058695 0.062999845
-0.29053906 -0.26056179 0.063001201
-0.2907213 -0.26053572 0.063026853
-0.29098868 -0.26051083 0.062963299
-0.29121482 -0.26049179 0.062894173
-0.2914162 -0.26046348 0.062918589
-0.29162467 -0.26043597 0.062930278
-0.29183277 -0.26041034 0.062928133
-0.29202089 -0.26037702 0.063003361
-0.29226065 -0.26036388 0.062876508
-0.29246798 -0.26033622 0.062890507
-0.29267401 -0.26031008 0.062894143
-0.29290313 -0.26029325 0.062805392
-0.29310334 -0.26026496 0.06283097
-0.29331324 -0.26024061 0.062817276
-0.29353863 -0.26022273 0.06274008
-0.29375476 -0.26019916 0.06271483
-0.29396746 -0.2601763 0.062687293
-0.29418021 -0.26015359 0.062658601
-0.29438746 -0.26012868 0.062651843
-0.29459894 -0.26010355 0.062642761
-0.29479983 -0.26007608 0.062661409
-0.29499573 -0.26004648 0.062700838
-0.29520279 -0.26002175 0.06269294
-0.29540917 -0.25999677 0.062687337
-0.29563481 -0.25998038 0.062598608
-0.29586226 -0.25996286 0.062516786
-0.29607069 -0.25993916 0.06249965
-0.29628608 -0.25991872 0.062451337
-0.2964794 -0.25988838 0.06249886
-0.29668346 -0.25986293 0.062499035
-0.29688609 -0.25983691 0.062504992
-0.29709709 -0.25981259 0.062490139
-0.29730952 -0.25979131 0.062451072
-0.29751867 -0.25976858 0.062425852
-0.29772356 -0.25974396 0.062419109
-0.29794523 -0.25972745 0.062335014
-0.29813802 -0.25969717 0.062382534
-0.29834977 -0.25967383 0.062359609
-0.29856253 -0.25965342 0.062313616
-0.29874733 -0.25963324 0.062291976
-0.29897514 -0.25960654 0.062279359
-0.29917562 -0.25958034 0.062288776
-0.29937676 -0.25955451 0.062294744
-0.29958993 -0.25953251 0.062260281
-0.2998006 -0.25951174 0.062218912
-0.29999995 -0.25948521 0.062231801
-0.30021447 -0.25946671 0.062169641
-0.3004117 -0.25943923 0.062191769
-0.30061841 -0.25941682 0.062166564
-0.30082107 -0.25938988 0.062179446
-0.30102864 -0.25936812 0.062148467
-0.30123803 -0.2593475 0.062107101
-0.30143756 -0.25932154 0.062115379
-0.30162376 -0.25928828 0.062191769
-0.3018488 -0.25927669 0.062067285
-0.30205813 -0.25925395 0.062042065
-0.30226159 -0.25923055 0.062027249
-0.30246776 -0.25920883 0.061997432
-0.30267721 -0.2591891 0.061949149
-0.30287528 -0.2591629 0.061960898
-0.30306774 -0.25913343 0.062002651
-0.30326825 -0.25910875 0.062000543
-0.30347025 -0.25908768 0.061969589
-0.30366904 -0.2590594 0.061996322
-0.30384052 -0.25904164 0.061968986
-0.3040098 -0.25902265 0.06195318
-0.30427152 -0.25901151 0.061790463
-0.30449501 -0.25897411 0.061863206
-0.30472404 -0.25896809 0.061692581
-0.3049041 -0.25893116 0.061802443
-0.30511126 -0.25891158 0.061755318
-0.3053084 -0.25888565 0.061765909
-0.30551931 -0.25886878 0.061694555
-0.30572259 -0.25884712 0.061667055
-0.30591252 -0.25881657 0.061719202
-0.30610248 -0.25878605 0.061771352
-0.30629703 -0.2587586 0.061795808
-0.30650261 -0.25873876 0.061752152
-0.30670708 -0.25871828 0.061714262
-0.30691689 -0.25870174 0.061641756
-0.30709851 -0.25866538 0.061745852
-0.30730146 -0.25864419 0.061714899
-0.30751398 -0.25863004 0.061621614
-0.30770785 -0.25860253 0.061647214
-0.30791143 -0.25858217 0.061609343
-0.30812007 -0.25856894 0.061512616
-0.30833155 -0.25855491 0.061419338
-0.30852619 -0.25852835 0.061436862
-0.30872303 -0.25850353 0.061439384
-0.30891827 -0.25847751 0.061452292
-0.3090829 -0.25845072 0.061499953
-0.30929971 -0.25841838 0.06154044
-0.30950627 -0.25840145 0.061473712
-0.30969808 -0.25837284 0.061509706
-0.30990964 -0.25836033 0.061404899
-0.31010422 -0.25833759 0.061393596
-0.31029907 -0.2583116 0.061406504
-0.31049636 -0.25828779 0.06140095
-0.31065682 -0.25827169 0.061371349
-0.3108792 -0.25824094 0.061394509
-0.31108209 -0.25822586 0.061317421
-0.31126264 -0.25820959 0.061270423
-0.31148785 -0.25817421 0.06132587
-0.3116928 -0.2581616 0.061228015
-0.31188908 -0.25813758 0.061224766
-0.31208792 -0.25811601 0.061200757
-0.31227803 -0.25808635 0.061245985
-0.31247756 -0.25806558 0.061215043
-0.31267372 -0.25804174 0.061210647
-0.3128702 -0.25801831 0.061202787
-0.31306979 -0.25799799 0.061168391
-0.31326196 -0.25797451 0.061165165
-0.31345928 -0.25795218 0.061148085
-0.31365755 -0.25793096 0.061121766
-0.31385416 -0.25790814 0.061109297
-0.31405169 -0.25788638 0.061087593
-0.31420538 -0.25786963 0.061069552
-0.31441674 -0.25784999 0.061018959
-0.31464428 -0.25782195 0.061016724
-0.31483701 -0.25779989 0.061001964
-0.31502137 -0.25777751 0.060997624
-0.3152023 -0.25775585 0.060990989
-0.31540024 -0.25773087 0.060993508
-0.31561726 -0.25770962 0.060949795
-0.31578901 -0.25769624 0.060889006
-0.31599113 -0.25766709 0.060919184
-0.31616405 -0.25766027 0.060807634
-0.3163729 -0.25760534 0.061026931
-0.31653565 -0.25759113 0.060981177
-0.31675693 -0.2575812 0.060847487
-0.31696424 -0.25755385 0.060859188
-0.31716588 -0.25752416 0.060893983
-0.3173545 -0.25750855 0.060834259
-0.31754622 -0.25748676 0.060818352
-0.31771865 -0.25746009 0.060857892
-0.31791079 -0.25743902 0.060836218
-0.31809753 -0.25741041 0.060876854
-0.31829333 -0.25740606 0.060724825
-0.31850535 -0.25738618 0.060675379
-0.31868914 -0.25734183 0.060838275
-0.31888556 -0.25733376 0.060713932
-0.31906825 -0.25731099 0.060714211
-0.31927174 -0.25730279 0.060584072
-0.31947264 -0.25726634 0.060670771
-0.31968996 -0.25724384 0.060636286
-0.31989688 -0.25721699 0.060644519
-0.32009336 -0.25719857 0.060598612
-0.32028943 -0.25717977 0.060556151
-0.32047376 -0.25715387 0.060578346
-0.3206695 -0.25712794 0.060590096
-0.32086918 -0.25711629 0.060489953
-0.32104763 -0.25708672 0.060545616
-0.32120743 -0.25707227 0.060504489
-0.32139584 -0.25704709 0.06051743
-0.32159823 -0.25701958 0.060534924
-0.32180101 -0.25700054 0.060487822
-0.32201377 -0.25697905 0.060449895
-0.32221812 -0.25695601 0.060431629
-0.32241234 -0.25693578 0.060401857
-0.32260641 -0.25691536 0.060373262
-0.32277694 -0.25689286 0.060382821
-0.3229818 -0.25686279 0.060417607
-0.32313251 -0.25683758 0.060466476
-0.32336029 -0.25683641 0.060260091
-0.32356253 -0.25680953 0.060272969
-0.3237412 -0.25678924 0.060258277
-0.32392532 -0.2567637 0.060278162
-0.32413116 -0.25673652 0.060289867
-0.32432759 -0.25671414 0.060273938
-0.324527 -0.25668991 0.060269527
-0.32472232 -0.25667605 0.060190171
-0.32489863 -0.25663745 0.060316205
-0.32510114 -0.25661132 0.060323305
-0.32525995 -0.25659955 0.060262579
-0.32545501 -0.25659943 0.060079414
-0.32565546 -0.25656697 0.060136124
-0.32585046 -0.25654113 0.060147882
-0.3260459 -0.25651708 0.060145803
-0.3262372 -0.25650632 0.060046852
-0.32642969 -0.25647014 0.060139362
-0.32661754 -0.2564449 0.060153458
-0.32680091 -0.25643313 0.060069539
-0.32701194 -0.25641519 0.060006257
-0.32720345 -0.25639087 0.060009953
-0.32740796 -0.25635809 0.060065493
-0.32757473 -0.25633726 0.060065851
-0.32778293 -0.25632682 0.059948366
-0.32798508 -0.25630179 0.059947412
-0.32815516 -0.2562798 0.059953514
-0.32834378 -0.25626191 0.059911102
-0.32854542 -0.25623342 0.059936661
-0.32871899 -0.25621024 0.059948526
-0.32891408 -0.25618714 0.059939515
-0.32909468 -0.2561622 0.059958268
-0.32929033 -0.25614646 0.059892751
-0.32947928 -0.25613979 0.059764981
-0.32967061 -0.25611836 0.059746768
-0.32985821 -0.25609374 0.059756253
-0.3300564 -0.25606751 0.059767991
-0.33024752 -0.25604004 0.05979592
-0.33047068 -0.25601453 0.059778702
-0.33065483 -0.25599444 0.059757061
-0.33082128 -0.25596973 0.059787415
-0.33101249 -0.25594756 0.059774972
-0.33121434 -0.25592256 0.059774011
-0.33141577 -0.25590992 0.05967962
-0.33159307 -0.25588033 0.059736453
-0.33179069 -0.25586817 0.059642084
-0.33200344 -0.25583422 0.059698742
-0.3321735 -0.2558113 0.059711773
-0.33235729 -0.25579235 0.059682056
-0.3325448 -0.25576988 0.059675403
-0.33272409 -0.25576013 0.059579972
-0.33292231 -0.2557345 0.059587099
-0.33313495 -0.2557053 0.059607994
-0.33330482 -0.25568393 0.059609495
-0.33350053 -0.25567716 0.059475921
-0.33368564 -0.25564602 0.059537325
-0.33386624 -0.25562245 0.059545688
-0.3340607 -0.25559911 0.059538998
-0.33425313 -0.25558728 0.059446964
-0.33445117 -0.2555626 0.059447169
-0.33464649 -0.25553429 0.059477381
-0.3348332 -0.2555148 0.05944882
-0.33502486 -0.25550416 0.05934871
-0.33521542 -0.2554819 0.059337419
-0.33539957 -0.25545773 0.059346922
-0.33559108 -0.25543156 0.059364472
-0.33579093 -0.25541335 0.059313923
-0.33596408 -0.25539219 0.05931079
-0.33615881 -0.25536701 0.059317932
-0.33634305 -0.25534296 0.059326284
-0.33653504 -0.2553277 0.059260778
-0.33673152 -0.25529665 0.059310593
-0.33691913 -0.25527295 0.059313159
-0.33710191 -0.25525397 0.059284605
-0.33729681 -0.25522876 0.059291746
-0.33750415 -0.25520703 0.059260778
-0.33769363 -0.25518796 0.05922642
-0.33788452 -0.25516462 0.059223209
-0.33805785 -0.25514314 0.059222374
-0.33826041 -0.2551249 0.059169516
-0.33843219 -0.25509858 0.059206761
-0.33862227 -0.25507748 0.059187394
-0.33880675 -0.25505355 0.059194595
-0.33900371 -0.25503203 0.059171736
-0.33919156 -0.25500816 0.059175462
-0.33938468 -0.25497982 0.059207983
-0.33957455 -0.25495934 0.059184015
-0.33976498 -0.25493741 0.059170417
-0.33995205 -0.25492308 0.059102632
-0.34014142 -0.25490341 0.059072897
-0.34033448 -0.25487569 0.059100807
-0.34052721 -0.2548629 0.059015691
-0.34071225 -0.25483817 0.059028652
-0.34091443 -0.25481251 0.059032306
-0.34111577 -0.25480187 0.058922928
-0.34129903 -0.25478068 0.058910515
-0.34148449 -0.25476167 0.058879651
-0.34167752 -0.25474703 0.058808375
-0.34185016 -0.25472701 0.058797173
-0.34205487 -0.25469053 0.058880392
-0.34224555 -0.25466204 0.058916386
-0.34244412 -0.25464901 0.058827791
-0.34262919 -0.25463048 0.058793455
-0.34281996 -0.25459635 0.058872133
-0.34301615 -0.25458696 0.058758169
-0.34318882 -0.25457257 0.058704287
-0.3433851 -0.25454611 0.058719501
-0.34358633 -0.25452241 0.058709309
-0.34376404 -0.25450495 0.058673874
-0.34395325 -0.25447953 0.058687963
-0.34415007 -0.25445256 0.058706623
-0.34434402 -0.25443521 0.058654957
-0.34453246 -0.25441128 0.058658667
-0.34472337 -0.25438851 0.058650848
-0.34491301 -0.25436777 0.058629181
-0.34510833 -0.25433385 0.058702067
-0.34528536 -0.25432682 0.058588184
-0.34548876 -0.25430024 0.058597606
-0.34567863 -0.25427917 0.058578238
-0.34587052 -0.25425524 0.058578484
-0.34606558 -0.25423151 0.058574095
-0.34626332 -0.25420412 0.058595061
-0.34646189 -0.25416705 0.058688693
-0.34664097 -0.25415644 0.058600184
-0.3468115 -0.25415689 0.058435589
-0.34700978 -0.25413325 0.058427721
-0.347197 -0.25411978 0.058353014
-0.34737787 -0.25409785 0.058348693
-0.34757593 -0.2540704 0.05836967
-0.34775788 -0.25405532 0.058312282
-0.34794679 -0.25403541 0.05828486
-0.3481434 -0.25400603 0.058321983
-0.34833401 -0.25397635 0.058367208
-0.34852213 -0.2539576 0.058331709
-0.34872213 -0.25393221 0.058335379
-0.3489185 -0.25390741 0.058337901
-0.34910887 -0.25388977 0.058292009
-0.34930235 -0.25386474 0.058299158
-0.34948689 -0.25384644 0.058263674
-0.34968176 -0.25382715 0.058225844
-0.34986821 -0.25380665 0.058205344
-0.35005486 -0.25378945 0.058159471
-0.35025182 -0.2537643 0.058164302
-0.35043859 -0.25374344 0.058146112
-0.35063469 -0.25372279 0.058117494
-0.35081485 -0.25370228 0.058102794
-0.35101238 -0.25367677 0.058109935
-0.35120657 -0.25365484 0.058092855
-0.35139269 -0.25363481 0.058068909
-0.35157907 -0.25361779 0.058021877
-0.35176042 -0.25359944 0.057989873
-0.35195997 -0.2535688 0.058033902
-0.35215434 -0.25354683 0.058016837
-0.35236019 -0.25351328 0.058076978
-0.35254717 -0.25349575 0.058033414
-0.35274807 -0.25347054 0.058034766
-0.35294616 -0.25344509 0.058040738
-0.35313135 -0.25342625 0.058008716
-0.35332406 -0.2534062 0.057978965
-0.35350361 -0.25339884 0.057865083
-0.35369429 -0.25337461 0.057868782
-0.35388526 -0.2533502 0.057873644
-0.35406625 -0.25333828 0.057793196
-0.35425034 -0.25331745 0.05777733
-0.35445613 -0.25328508 0.057828251
-0.35465837 -0.25325623 0.057856116
-0.35485369 -0.25323385 0.057841346
-0.35505167 -0.25320628 0.05786347
-0.35524258 -0.25318524 0.057842951
-0.35542139 -0.25317508 0.057750981
-0.35561034 -0.25315851 0.057698175
-0.35579482 -0.25313765 0.057682309
-0.35599431 -0.25310898 0.057711348
-0.35618633 -0.25308701 0.057696592
-0.35637984 -0.2530638 0.057689898
-0.35657123 -0.25303978 0.057691298
-0.35677716 -0.25301397 0.057692625
-0.35696486 -0.25299588 0.057652507
-0.35714769 -0.25297931 0.057605505
-0.35734507 -0.25295305 0.057618402
-0.3575345 -0.25293612 0.057567906
-0.3577261 -0.25291222 0.057568155
-0.35792008 -0.25288895 0.057561457
-0.35810959 -0.25286943 0.057530571
-0.35830286 -0.25284684 0.057519272
-0.35851464 -0.25281423 0.057566702
-0.35869968 -0.25279844 0.057511605
-0.35889405 -0.25277513 0.057504918
-0.35908329 -0.2527535 0.057490177
-0.35928124 -0.25273234 0.057463862
-0.35947037 -0.25271088 0.057447959
-0.35966501 -0.25268751 0.057441272
-0.35985082 -0.25266877 0.057408083
-0.36004809 -0.25264585 0.057395611
-0.36024177 -0.25262338 0.057383157
-0.36042175 -0.25260913 0.057321176
-0.36061484 -0.2525872 0.057305254
-0.36081249 -0.25256178 0.057311229
-0.36100233 -0.25254238 0.057279192
-0.36118469 -0.25252631 0.057228722
-0.36140794 -0.2524842 0.057337232
-0.36159164 -0.25246951 0.057275224
-0.36179572 -0.25244194 0.05729156
-0.36198705 -0.25242388 0.057247967
-0.36217847 -0.2524035 0.057221681
-0.36237004 -0.25238085 0.057212695
-0.3625631 -0.25235936 0.057193324
-0.3627387 -0.2523461 0.057127893
-0.36294058 -0.2523205 0.057131551
-0.36314699 -0.25229174 0.05715479
-0.36334029 -0.25227022 0.057135414
-0.36353654 -0.25224453 0.057144862
-0.36372426 -0.25222707 0.057100132
-0.36392009 -0.25220811 0.057058834
-0.3641113 -0.25218609 0.057045233
-0.36430377 -0.2521612 0.057052385
-0.36450413 -0.25213712 0.057045668
-0.36469468 -0.25211778 0.057012469
-0.36489099 -0.25209451 0.057003461
-0.36508727 -0.25207341 0.056978304
-0.36528265 -0.25205088 0.056964681
-0.36547723 -0.25202692 0.056962602
-0.36567733 -0.25200334 0.056952417
-0.36586237 -0.25198787 0.056895021
-0.36606911 -0.25196195 0.056896344
-0.36625814 -0.25194386 0.056855083
-0.36647251 -0.25191304 0.056886353
-0.36665434 -0.25189385 0.056860112
-0.36684877 -0.25187036 0.056854565
-0.3670612 -0.25184497 0.056846641
-0.36724907 -0.25182778 0.056799613
-0.36743951 -0.2518051 0.056791782
-0.36763969 -0.25178578 0.056749307
-0.36783504 -0.25176004 0.056759905
-0.36803469 -0.25173548 0.0567578
-0.36821026 -0.2517224 0.056691222
-0.36839715 -0.25170591 0.056639589
-0.36858997 -0.25168386 0.056624826
-0.36878458 -0.25166628 0.056574304
-0.36900827 -0.25163066 0.056633212
-0.3692188 -0.25160703 0.056613751
-0.36942011 -0.2515763 0.056656625
-0.36961943 -0.25155237 0.056649905
-0.36981794 -0.25153083 0.056625895
-0.37000272 -0.25151765 0.056551203
-0.37018609 -0.25149813 0.056526106
-0.37037307 -0.25147465 0.056527525
-0.37056684 -0.25145429 0.056498919
-0.37077445 -0.25142568 0.05651984
-0.37098536 -0.25139698 0.056538444
-0.37120414 -0.25136897 0.056544319
-0.37136161 -0.25136679 0.056412082
-0.37157491 -0.25133339 0.056464128
-0.3717674 -0.25131577 0.056415915
-0.37198555 -0.2512866 0.056431025
-0.37215412 -0.25127438 0.056364477
-0.37236875 -0.25125083 0.056340389
-0.37255499 -0.25122669 0.056347575
-0.37277818 -0.25119495 0.05637766
-0.37294316 -0.25118652 0.05628575
-0.37316009 -0.25115007 0.056357376
-0.37333846 -0.25114074 0.056259651
-0.37354863 -0.25111333 0.056269027
-0.37375626 -0.25108412 0.056294568
-0.37400204 -0.25104347 0.056370668
-0.37415013 -0.25104293 0.056235015
-0.37437075 -0.25100997 0.056276646
-0.37454528 -0.25100279 0.056166235
-0.37474743 -0.25097698 0.056171041
-0.37496284 -0.25094879 0.056181554
-0.3751775 -0.25092432 0.056164388
-0.37536255 -0.25090489 0.056136973
-0.37557811 -0.25087363 0.056170546
-0.37577692 -0.25085157 0.056149997
-0.37596151 -0.25083888 0.05607184
-0.37615889 -0.25081611 0.056058209
-0.37637132 -0.25078052 0.056127548
-0.37656662 -0.25076059 0.056094326
-0.37675676 -0.25074813 0.056009222
-0.3769753 -0.25071269 0.056071624
-0.37714964 -0.25070402 0.055972755
-0.37736213 -0.25067663 0.055979811
-0.37758389 -0.25064597 0.056002975
-0.37777373 -0.25062913 0.055951327
-0.37796357 -0.25061229 0.055899676
-0.37817708 -0.25058311 0.055919416
-0.37837324 -0.25056306 0.055886179
-0.37860364 -0.2505298 0.055920839
-0.37880084 -0.25050932 0.055889919
-0.37900212 -0.25048226 0.055905096
-0.37921822 -0.25045368 0.055917919
-0.37938434 -0.25044328 0.05583984
-0.37960836 -0.25041521 0.055841081
-0.3798008 -0.25040033 0.055772118
-0.37997389 -0.25038347 0.055736691
-0.38020563 -0.25035021 0.055770189
-0.38042438 -0.25032067 0.055787601
-0.38063604 -0.25029185 0.055806205
-0.38080737 -0.25028187 0.055720031
-0.3810069 -0.25026506 0.055659104
-0.3811954 -0.25024506 0.055632837
-0.27357012 -0.2624951 0.064363509
-0.27379984 -0.26246864 0.064347453
-0.27401707 -0.26243791 0.064375274
-0.27427658 -0.26241702 0.064288713
-0.27450874 -0.2623899 0.064274952
-0.27472639 -0.26236689 0.06424395
-0.27497455 -0.26233783 0.064230114
-0.27522793 -0.26231754 0.064144738
-0.2754443 -0.26228708 0.064171419
-0.2756635 -0.26225886 0.064178474
-0.27590784 -0.26223525 0.064126581
-0.27617058 -0.26221776 0.064011171
-0.27638978 -0.26218832 0.064027458
-0.27660429 -0.26215932 0.064044915
-0.27682155 -0.26212952 0.064065829
-0.27701947 -0.26209494 0.064141043
-0.2772288 -0.26206324 0.064183906
-0.27744019 -0.26204434 0.06412755
-0.27772573 -0.26202127 0.064032793
-0.27793485 -0.26199126 0.064062975
-0.27815551 -0.26196268 0.064071178
-0.27840611 -0.26194352 0.063980043
-0.27864766 -0.26192057 0.063925862
-0.27886155 -0.26189208 0.063939862
-0.27909112 -0.26186624 0.063919187
-0.27931067 -0.26183781 0.063927405
-0.27953625 -0.26181108 0.063917123
-0.27978668 -0.26179269 0.063820228
-0.27999395 -0.26176122 0.063863099
-0.28016946 -0.26172274 0.063989162
-0.28043681 -0.26170769 0.063850664
-0.28072625 -0.2617006 0.063631311
-0.28090581 -0.26166177 0.063756213
-0.28112525 -0.26163396 0.063759804
-0.28135726 -0.26160979 0.06372413
-0.28156513 -0.26158053 0.063749686
-0.28179929 -0.26155713 0.063705921
-0.28201097 -0.26152909 0.063718781
-0.28225604 -0.26150906 0.063639209
-0.28246981 -0.26148015 0.063656673
-0.28269556 -0.26145476 0.06363602
-0.28294039 -0.26143673 0.06354145
-0.28312927 -0.2614007 0.063636318
-0.28337348 -0.26138276 0.063541755
-0.28357738 -0.26135126 0.063588098
-0.28379411 -0.26132533 0.06358017
-0.28400674 -0.26129654 0.063597642
-0.28425857 -0.26128146 0.063474208
-0.28447196 -0.26125821 0.063448995
-0.28469589 -0.26122805 0.0634664
-0.28492701 -0.26120535 0.063420355
-0.28515044 -0.26118207 0.063385859
-0.28537202 -0.26115659 0.06336984
-0.28556702 -0.26112452 0.063428916
-0.28578109 -0.26109678 0.063437156
-0.28600368 -0.26107362 0.063402668
-0.28625542 -0.26105824 0.063281544
-0.28647843 -0.26103547 0.06324359
-0.28667444 -0.26100221 0.063310742
-0.286883 -0.26097485 0.063321307
-0.28712234 -0.26095599 0.063238293
-0.2873494 -0.26093501 0.063183032
-0.28757811 -0.2609129 0.063134678
-0.28776908 -0.26087815 0.063217998
-0.28798822 -0.26085296 0.063201979
-0.28813756 -0.26082215 0.063294724
-0.28843561 -0.26080787 0.063121468
-0.28863987 -0.26077968 0.063142449
-0.28886113 -0.2607556 0.063116044
-0.28907409 -0.26073059 0.063104674
-0.28928402 -0.26070458 0.063103706
-0.28949013 -0.26067537 0.063130423
-0.28972492 -0.26065844 0.06303706
-0.28988796 -0.26061377 0.063222006
-0.29012993 -0.26059777 0.063114777
-0.29036897 -0.26058093 0.063016772
-0.29058009 -0.26055583 0.063007712
-0.29078236 -0.26052561 0.063046001
-0.29100505 -0.26050502 0.062991902
-0.29122096 -0.26048586 0.062933221
-0.29144534 -0.26046035 0.062914878
-0.2916624 -0.26043603 0.06289427
-0.29187125 -0.26041061 0.062889844
-0.29209119 -0.26038763 0.062856518
-0.29230738 -0.26036325 0.062837064
-0.29249528 -0.26032782 0.062928468
-0.29272893 -0.26031256 0.062823571
-0.29296806 -0.26029769 0.062710576
-0.29317638 -0.26027262 0.06270384
-0.29332891 -0.26024324 0.06278272
-0.29358107 -0.26021579 0.062752724
-0.29378664 -0.26018775 0.062771372
-0.29400522 -0.26016718 0.062720768
-0.29419807 -0.26014224 0.062727943
-0.29444128 -0.26013231 0.062573396
-0.29464898 -0.26009715 0.062643953
-0.29485118 -0.26007012 0.062658012
-0.29506093 -0.26004428 0.062655888
-0.29527357 -0.2600219 0.062624909
-0.2954936 -0.26000071 0.062577739
-0.2957069 -0.25997671 0.062558301
-0.29592431 -0.25995466 0.062520377
-0.29611641 -0.25992355 0.062574856
-0.29631948 -0.25989518 0.062598139
-0.29652268 -0.2598691 0.062604122
-0.29674703 -0.25985059 0.062532708
-0.29695949 -0.25982895 0.062495977
-0.29717064 -0.25980464 0.062481154
-0.29738578 -0.25978452 0.062430553
-0.29760775 -0.25976554 0.062364928
-0.29779178 -0.25973544 0.062419444
-0.29801285 -0.25971168 0.062390737
-0.29822689 -0.25969154 0.062341303
-0.29844174 -0.25966963 0.062304541
-0.29864532 -0.25964928 0.062266685
-0.2988407 -0.25962964 0.062231168
-0.29904196 -0.25959665 0.062291376
-0.29925707 -0.25956589 0.062321521
-0.29947382 -0.25954786 0.062253617
-0.29969403 -0.25952938 0.06218569
-0.29989359 -0.25950283 0.062198609
-0.30009681 -0.25947583 0.06221151
-0.30030328 -0.25945297 0.06218978
-0.3004795 -0.25941914 0.062280104
-0.30072305 -0.25941375 0.062090948
-0.30091849 -0.25940019 0.062009294
-0.30114657 -0.2593672 0.062043991
-0.30133978 -0.25933519 0.062104236
-0.30153811 -0.25930849 0.062119462
-0.30173898 -0.25928071 0.062140442
-0.30194396 -0.25926292 0.062081821
-0.30212447 -0.2592366 0.062110975
-0.30235994 -0.25921321 0.062066052
-0.30256417 -0.25918761 0.062067408
-0.30277947 -0.2591711 0.061989132
-0.30295703 -0.25914592 0.062012531
-0.303123 -0.25910589 0.062159412
-0.3033976 -0.25910106 0.061936669
-0.30359504 -0.25907719 0.061931137
-0.30380389 -0.25905225 0.061923251
-0.30400583 -0.25902858 0.061911933
-0.30421874 -0.25900906 0.061859034
-0.30441511 -0.25898212 0.061877735
-0.30461657 -0.25895566 0.061888337
-0.30481565 -0.25893053 0.061890863
-0.30502188 -0.25891289 0.061829928
-0.30522013 -0.25888452 0.061857857
-0.30543122 -0.25886458 0.061809581
-0.30564421 -0.25884899 0.061726689
-0.30583906 -0.25881863 0.061773084
-0.3060402 -0.25879538 0.061759457
-0.3062464 -0.2587727 0.061736584
-0.30644655 -0.25874898 0.061727576
-0.30664057 -0.2587181 0.061778598
-0.30684739 -0.25869915 0.061726876
-0.30704743 -0.25867561 0.06171672
-0.30724517 -0.25865048 0.061720416
-0.30746973 -0.25864166 0.061575193
-0.30766627 -0.25861594 0.061584666
-0.30786356 -0.25858769 0.061612587
-0.30806842 -0.25856826 0.061566643
-0.30827534 -0.25855052 0.061505713
-0.30845809 -0.25851464 0.061605223
-0.30865306 -0.25848469 0.061648145
-0.30886742 -0.25847304 0.06153411
-0.3090722 -0.2584542 0.061483558
-0.30923438 -0.258432 0.061498947
-0.30944425 -0.25840065 0.06153835
-0.30966112 -0.25837836 0.06150274
-0.30980474 -0.25835478 0.061545908
-0.31003076 -0.25834715 0.061390292
-0.31023741 -0.25833082 0.061318971
-0.31044754 -0.25828242 0.061487556
-0.31064656 -0.25827405 0.061363213
-0.31087261 -0.25824985 0.061333328
-0.3110483 -0.25822899 0.061325587
-0.31127134 -0.25820971 0.061261117
-0.31145138 -0.25817448 0.061358329
-0.31163234 -0.2581735 0.061194845
-0.31185821 -0.25813106 0.061303385
-0.31204924 -0.25810954 0.061286353
-0.31225395 -0.25808552 0.061275013
-0.3124485 -0.25805974 0.061286807
-0.31260309 -0.25804287 0.061268784
-0.31280309 -0.25802645 0.061204411
-0.31301177 -0.2580108 0.061126158
-0.31323227 -0.25798288 0.061129756
-0.31343767 -0.25796032 0.061106883
-0.3135983 -0.25794193 0.061094601
-0.3137655 -0.25789687 0.061278388
-0.3139756 -0.25789198 0.061117075
-0.3142046 -0.25789052 0.060911849
-0.31441259 -0.25784558 0.061056219
-0.31460467 -0.25782239 0.061050713
-0.31481224 -0.25779864 0.061034761
-0.31503069 -0.25776476 0.061085649
-0.31520569 -0.25774962 0.061035246
-0.31541127 -0.25773311 0.060966238
-0.31558868 -0.25770259 0.061030008
-0.31577793 -0.25769544 0.060905706
-0.31599146 -0.25766531 0.060932398
-0.31621867 -0.25764707 0.060856365
-0.31641901 -0.25762039 0.06086928
-0.31659761 -0.25759628 0.060883455
-0.31678852 -0.25757781 0.060843349
-0.31699985 -0.25756046 0.060775466
-0.31715313 -0.25753433 0.060828961
-0.3173641 -0.25750634 0.060841825
-0.31753147 -0.25747785 0.060899884
-0.31776211 -0.25745535 0.060852669
-0.31797367 -0.25743932 0.060774408
-0.31816852 -0.25741094 0.060805805
-0.31833881 -0.25739211 0.060787715
-0.31854475 -0.25737435 0.060727924
-0.31872937 -0.25735405 0.060707465
-0.31891695 -0.2573325 0.060693897
-0.31911772 -0.25730747 0.060694121
-0.31935188 -0.25728026 0.060679197
-0.31951979 -0.25725842 0.060686491
-0.31969887 -0.25724229 0.060639523
-0.31990325 -0.25721729 0.060636267
-0.3201378 -0.25719795 0.060561359
-0.32031465 -0.2571654 0.060641285
-0.32050151 -0.25714347 0.060631186
-0.32067281 -0.25712118 0.060638472
-0.32087055 -0.25711247 0.060517587
-0.32105917 -0.25706568 0.060694352
-0.32126296 -0.2570546 0.060586132
-0.32145002 -0.25704113 0.060511433
-0.32169136 -0.2570076 0.060538001
-0.32188749 -0.25699013 0.060485192
-0.32207492 -0.2569786 0.060395502
-0.32226011 -0.25695461 0.060402721
-0.32245713 -0.25693187 0.060389109
-0.32262266 -0.25690603 0.060428716
-0.32281795 -0.25688806 0.060380518
-0.32300663 -0.25686362 0.060387723
-0.32322666 -0.25684261 0.060339406
-0.32343003 -0.2568177 0.060336154
-0.32361186 -0.25679517 0.060335308
-0.32380748 -0.25677961 0.060268648
-0.32398787 -0.25675344 0.060296655
-0.32418257 -0.25672552 0.060324587
-0.32438874 -0.25668752 0.060418218
-0.32457224 -0.2566812 0.060292788
-0.32475662 -0.2566556 0.0603127
-0.32496348 -0.25664276 0.060214847
-0.32514986 -0.25662407 0.060180537
-0.32536221 -0.25660643 0.060113795
-0.32553467 -0.25657839 0.060163748
-0.32572091 -0.25654632 0.060230948
-0.32592747 -0.25652134 0.060225368
-0.32613114 -0.25649959 0.060197897
-0.32634428 -0.25648749 0.060088478
-0.32652944 -0.25646606 0.060076088
-0.32672897 -0.25644377 0.060056701
-0.32692569 -0.25642595 0.06000619
-0.3271023 -0.25639874 0.060045741
-0.32730821 -0.2563723 0.060051709
-0.32750094 -0.25635377 0.060010448
-0.3276749 -0.25633189 0.060011953
-0.32788539 -0.25631219 0.059962522
-0.32806945 -0.25628543 0.059991658
-0.32825053 -0.25626284 0.059991974
-0.32846731 -0.25623766 0.059978276
-0.32866302 -0.25621766 0.059945073
-0.32885498 -0.25619709 0.059919965
-0.32904682 -0.25617576 0.059900619
-0.32923493 -0.25615305 0.059895132
-0.3293983 -0.25613537 0.059874766
-0.32961127 -0.25611144 0.059855327
-0.32981688 -0.25608352 0.059872825
-0.32999077 -0.25606412 0.059855867
-0.33016461 -0.25604439 0.059841219
-0.33037746 -0.25602135 0.059814859
-0.33055475 -0.25599787 0.059825569
-0.33075333 -0.25597921 0.059779655
-0.33095184 -0.25595474 0.059777588
-0.33112904 -0.25593615 0.059751391
-0.33134863 -0.25591472 0.059706539
-0.33154675 -0.25589746 0.05965025
-0.33173811 -0.25587192 0.05966321
-0.33191857 -0.25585338 0.059633527
-0.33209929 -0.2558296 0.059643079
-0.33228338 -0.25580832 0.059630692
-0.33247408 -0.2557914 0.059579048
-0.33267969 -0.25576332 0.059597708
-0.33285674 -0.25574183 0.059593424
-0.33305138 -0.2557188 0.059584446
-0.33324915 -0.25569886 0.059548922
-0.33344117 -0.25566912 0.059593018
-0.33362815 -0.25565112 0.059552934
-0.33382297 -0.25562668 0.059554335
-0.33402088 -0.25560474 0.059533808
-0.33420706 -0.25557026 0.059619457
-0.33438003 -0.2555525 0.059590973
-0.33456987 -0.25555468 0.059395153
-0.33477727 -0.25551865 0.059472628
-0.33497718 -0.25550285 0.05940365
-0.33516815 -0.25547978 0.059398148
-0.33535641 -0.25545371 0.059418034
-0.33554778 -0.25542939 0.059421763
-0.33573499 -0.25540802 0.059407048
-0.33593065 -0.25539368 0.059331171
-0.33612129 -0.25537187 0.059316441
-0.33630386 -0.25535443 0.059276376
-0.33650145 -0.25532004 0.059350438
-0.33669344 -0.25529367 0.059369158
-0.33690763 -0.25527307 0.05932318
-0.33709496 -0.25526187 0.059231181
-0.33728287 -0.25523767 0.059237234
-0.33747935 -0.25520816 0.059275541
-0.3376824 -0.25518969 0.059223849
-0.33786184 -0.25517049 0.059199944
-0.33804515 -0.25514993 0.059182946
-0.33823937 -0.25512722 0.059171662
-0.33842787 -0.25511071 0.059118878
-0.33862466 -0.25509 0.059090286
-0.33881891 -0.25506699 0.059081309
-0.33902267 -0.25503716 0.05911497
-0.33920354 -0.25501415 0.05911874
-0.33938393 -0.2549924 0.05911329
-0.3395761 -0.25497451 0.059067409
-0.33977517 -0.25496355 0.058962673
-0.33995515 -0.25494248 0.058952615
-0.34016213 -0.25491348 0.05897703
-0.34037736 -0.25488847 0.058963347
-0.34055471 -0.25486603 0.058965985
-0.34073085 -0.25484619 0.058950175
-0.34091091 -0.25482512 0.058940109
-0.34108865 -0.25482196 0.058796249
-0.34129402 -0.25478995 0.058844894
-0.34150273 -0.25475833 0.058887761
-0.3416988 -0.25473827 0.058854554
-0.34188053 -0.25472641 0.058772974
-0.3420662 -0.25470096 0.058790568
-0.34225085 -0.25467747 0.05879432
-0.34243861 -0.25466031 0.05874731
-0.34264675 -0.25462463 0.058821321
-0.34284347 -0.2546033 0.058797341
-0.34303612 -0.25457776 0.058809135
-0.34322843 -0.25455832 0.058774795
-0.34341243 -0.25454175 0.058726646
-0.34360415 -0.25451785 0.058726911
-0.34380272 -0.25448823 0.058764055
-0.3439953 -0.25446832 0.058733176
-0.34418648 -0.25445056 0.058687299
-0.34438404 -0.25442791 0.058672536
-0.34457472 -0.25440583 0.058660116
-0.34475622 -0.25438774 0.058625832
-0.34494603 -0.25436696 0.058604185
-0.3451331 -0.25435016 0.058554869
-0.34532052 -0.25432801 0.058545925
-0.3455143 -0.25430614 0.058528882
-0.34570655 -0.25428185 0.058531456
-0.34589541 -0.25427595 0.058397923
-0.34607431 -0.25426108 0.058341727
-0.34626475 -0.25423914 0.058328148
-0.34646326 -0.25420633 0.058389526
-0.34665555 -0.25417781 0.058424391
-0.34685931 -0.25413856 0.058529567
-0.34705645 -0.25410834 0.058572479
-0.34726071 -0.25407329 0.05864536
-0.34746644 -0.25404903 0.058635179
-0.3476488 -0.25405031 0.058453236
-0.34783265 -0.25403318 0.058409706
-0.34802258 -0.25400841 0.05841805
-0.34821981 -0.25398657 0.058397532
-0.34841198 -0.25396702 0.058364339
-0.34859663 -0.25395265 0.058298886
-0.34878781 -0.25392652 0.058316454
-0.34897912 -0.25390419 0.058305182
-0.34918508 -0.25387594 0.058324993
-0.34937903 -0.25385433 0.058305636
-0.34957507 -0.25383401 0.058274738
-0.34975892 -0.25381306 0.058260042
-0.34994775 -0.25379726 0.058201496
-0.35014746 -0.25377631 0.05817173
-0.35032931 -0.25375757 0.058142051
-0.35051614 -0.25373337 0.058149256
-0.35071883 -0.25370231 0.0581933
-0.35093305 -0.25367609 0.058190007
-0.35111994 -0.25365886 0.058144152
-0.35129994 -0.25363883 0.058126014
-0.35149166 -0.25361979 0.058089368
-0.35167679 -0.25360429 0.058031991
-0.3518768 -0.25357664 0.058052979
-0.35207421 -0.25354853 0.058079738
-0.35227022 -0.25352514 0.058071911
-0.35245186 -0.25351313 0.057991482
-0.3526482 -0.25349262 0.057961732
-0.35285425 -0.25346556 0.057972308
-0.35303745 -0.25344256 0.057973769
-0.35323262 -0.2534202 0.057959024
-0.35342297 -0.25340253 0.057913154
-0.35360935 -0.25338265 0.057888065
