# .PCD v0.7 - Point Cloud Data file format
VERSION 0.7
FIELDS x y z
SIZE 4 4 4
TYPE F F F
COUNT 1 1 1
WIDTH 1286
HEIGHT 1
VIEWPOINT 0 0 0 1 0 0 0
POINTS 1286
DATA ascii
-0.13511388 -0.38971075 0.053613674
-0.13531777 -0.38982183 0.053549301
-0.13552274 -0.38993227 0.053494178
-0.13572206 -0.39003885 0.053447165
-0.13592616 -0.39014873 0.053393207
-0.1361236 -0.3902536 0.053351987
-0.13632894 -0.39036512 0.053289928
-0.13652816 -0.39047223 0.053238295
-0.13672608 -0.39057812 0.053191289
-0.13692679 -0.39068714 0.053130396
-0.13712585 -0.39079255 0.053091485
-0.13732195 -0.39089692 0.05304911
-0.13752225 -0.39100397 0.053002093
-0.13771808 -0.39110833 0.05295857
-0.13791588 -0.39121297 0.052920818
-0.13811168 -0.39131966 0.052858785
-0.13831288 -0.3914263 0.052818712
-0.13850695 -0.39152935 0.052778658
-0.13870227 -0.39163184 0.052747853
-0.13889444 -0.39173302 0.052714739
-0.13909884 -0.39184597 0.052637655
-0.139318 -0.39196301 0.052587099
-0.13947353 -0.39202538 0.05271367
-0.13964599 -0.39211118 0.052723408
-0.13984555 -0.39222139 0.052648649
-0.14011995 -0.39241523 0.052214075
-0.14030306 -0.39250726 0.052216835
-0.14045113 -0.39255247 0.05244863
-0.14064036 -0.3926582 0.052368138
-0.14083429 -0.39276293 0.052314211
-0.1410262 -0.39286324 0.052286886
-0.14121585 -0.39296332 0.052252632
-0.141408 -0.3930642 0.052221838
-0.1416077 -0.39317185 0.052167889
-0.14179024 -0.39326626 0.052149843
-0.1419788 -0.39336565 0.052116748
-0.14217584 -0.39347062 0.052073214
-0.14235462 -0.39356092 0.052072525
-0.14254616 -0.39366195 0.052038264
-0.14273664 -0.3937642 0.051990137
-0.14292692 -0.39386162 0.051978998
-0.143108 -0.39395517 0.051962119
-0.14329645 -0.39405301 0.051940583
-0.14348525 -0.3941538 0.051897079
-0.14367229 -0.39425021 0.051881332
-0.14384824 -0.39433789 0.051889908
-0.14403079 -0.39442894 0.051898457
-0.14420772 -0.39451551 0.051919736
-0.14438021 -0.3945941 0.051986128
-0.14454845 -0.3946673 0.052077964
-0.14469637 -0.39471477 0.052291274
-0.14421681 -0.39351594 0.059804082
-0.14441723 -0.39362028 0.059779041
-0.14453816 -0.39361879 0.060269896
-0.14473623 -0.39372826 0.060195152
-0.14520991 -0.39388138 0.060869634
-0.14685115 -0.39514831 0.057425171
-0.14705281 -0.3952615 0.05733538
-0.14723842 -0.39533788 0.057471082
-0.14747232 -0.39546898 0.05736845
-0.14765953 -0.39556575 0.057350386
-0.14782242 -0.39564392 0.057382129
-0.14802453 -0.39574954 0.057353608
-0.14822206 -0.39585197 0.057332039
-0.14839554 -0.39595166 0.057236571
-0.14856684 -0.3960295 0.057304114
-0.14878961 -0.39615601 0.057193436
-0.14896843 -0.39624488 0.057204306
-0.14916402 -0.39634204 0.057216272
-0.14934355 -0.39642552 0.057272226
-0.14950201 -0.396501 0.057307456
-0.14970636 -0.39661467 0.057224598
-0.1498978 -0.39673626 0.057028476
-0.15005825 -0.39680833 0.057098381
-0.15028197 -0.39691454 0.057150703
-0.15045443 -0.39700136 0.057152357
-0.1506492 -0.39710858 0.057082236
-0.15084495 -0.39720702 0.057084955
-0.15101171 -0.39729244 0.057075061
-0.15117782 -0.39737692 0.057069805
-0.15140225 -0.3974956 0.057027325
-0.15156811 -0.39757997 0.057022057
-0.15177703 -0.39768901 0.056993511
-0.15196776 -0.39779508 0.056916468
-0.15213716 -0.39787433 0.05696553
-0.15230946 -0.39796209 0.056959093
-0.15250559 -0.39806616 0.056919031
-0.15267447 -0.39814851 0.056941509
-0.15283616 -0.39823064 0.056937408
-0.15304367 -0.39835048 0.05681869
-0.15320936 -0.3984237 0.056900144
-0.15342636 -0.39853612 0.056877337
-0.1536002 -0.39862335 0.056881294
-0.15376464 -0.39871082 0.056845985
-0.15396431 -0.39881432 0.056824405
-0.15414608 -0.39890745 0.0568133
-0.15432888 -0.39900261 0.056790628
-0.15449585 -0.39908236 0.056825824
-0.15469515 -0.39918584 0.056803092
-0.15486304 -0.39927182 0.056793202
-0.15504035 -0.39936638 0.056753214
-0.15526247 -0.39949495 0.056624033
-0.15543553 -0.3995775 0.05666152
-0.15560265 -0.39965338 0.056727931
-0.15578543 -0.39975452 0.056657858
-0.1559702 -0.39985037 0.056637496
-0.15615776 -0.39994702 0.056621749
-0.15633819 -0.40003946 0.056610648
-0.15652786 -0.40013573 0.056606449
-0.15670386 -0.40022963 0.056566466
-0.1568848 -0.40032369 0.05654496
-0.15707982 -0.4004263 0.056511849
-0.1572323 -0.40050334 0.056511253
-0.15741204 -0.4005847 0.056584559
-0.15760052 -0.4006955 0.05646129
-0.15778506 -0.40079284 0.056428205
-0.15796202 -0.40087384 0.056493424
-0.15814614 -0.40097627 0.056418724
-0.15831818 -0.40106919 0.056370668
-0.15850857 -0.40115744 0.056432359
-0.1586781 -0.40125689 0.056323044
-0.1588598 -0.40135515 0.056271467
-0.15904763 -0.40144369 0.056320462
-0.15922122 -0.40151665 0.056435391
-0.15940823 -0.40162203 0.056349128
-0.15957756 -0.4016971 0.056430563
-0.15975972 -0.40180412 0.056311935
-0.15993558 -0.40190253 0.056236118
-0.16011645 -0.40198696 0.056289762
-0.16030839 -0.40208644 0.056269363
-0.16047817 -0.40216967 0.056288369
-0.16065325 -0.40226004 0.056272671
-0.16084623 -0.40237048 0.056170188
-0.16101763 -0.40246633 0.056096703
-0.1611934 -0.40255201 0.056120295
-0.16137362 -0.40264276 0.056121916
-0.16155675 -0.40273422 0.05612931
-0.16174054 -0.4028278 0.056122817
-0.16189824 -0.40290025 0.05617886
-0.16207637 -0.40300214 0.056084536
-0.16226476 -0.40310231 0.056044504
-0.16244006 -0.40318719 0.056072727
-0.16260773 -0.40327436 0.056052435
-0.16280456 -0.40338543 0.055960346
-0.16299179 -0.40348324 0.055934194
-0.16317038 -0.4035705 0.055956628
-0.16335569 -0.40366176 0.055974409
-0.16355076 -0.40376869 0.055907771
-0.16370247 -0.40384001 0.055948798
-0.16386703 -0.40391695 0.055996723
-0.16404979 -0.40402162 0.055898905
-0.16423529 -0.4041146 0.055903971
-0.16441591 -0.40421158 0.055858199
-0.16456959 -0.40429184 0.055836797
-0.16475007 -0.40437564 0.055893902
-0.1649293 -0.40446723 0.055885121
-0.16512972 -0.40457743 0.055813827
-0.16530122 -0.40466022 0.05584323
-0.16549858 -0.40477157 0.055751137
-0.1656439 -0.40485746 0.055652313
-0.16583267 -0.40493795 0.055768359
-0.1660182 -0.4050343 0.055746831
-0.16618182 -0.4051252 0.05568146
-0.16634105 -0.40518665 0.055829987
-0.16652289 -0.40527895 0.055825815
-0.1667006 -0.40538695 0.055681776
-0.16686903 -0.405471 0.055689227
-0.16704808 -0.40556836 0.055634197
-0.16722298 -0.40565673 0.055633523
-0.1674044 -0.40574908 0.055627048
-0.16758579 -0.40584189 0.055617101
-0.16775125 -0.40593046 0.055577159
-0.16792263 -0.40601617 0.055583432
-0.1681166 -0.40611267 0.055594254
-0.16829121 -0.40620056 0.05559589
-0.16845308 -0.40628675 0.055560581
-0.16862446 -0.40637583 0.055540279
-0.16880222 -0.40646797 0.055521097
-0.16898327 -0.40656942 0.055441782
-0.16916396 -0.40665406 0.055493109
-0.16933827 -0.40674743 0.055450827
-0.16949956 -0.40683183 0.055427082
-0.16966419 -0.40690926 0.055471539
-0.16984765 -0.40701607 0.055359844
-0.17002799 -0.40711126 0.055326782
-0.170215 -0.40720293 0.055348031
-0.17038307 -0.40727842 0.055421375
-0.17054705 -0.40736684 0.055376805
-0.17071432 -0.40745485 0.055348419
-0.17089728 -0.40755421 0.055293381
-0.17106007 -0.40765116 0.055177148
-0.17124067 -0.40773723 0.055216916
-0.17141084 -0.40782568 0.055196606
-0.17159377 -0.40789452 0.055380881
-0.17176135 -0.40797755 0.055392943
-0.17192696 -0.408097 0.05511139
-0.17210838 -0.40817833 0.055191614
-0.17228864 -0.40826747 0.055205949
-0.17245486 -0.40835673 0.055163689
-0.17262441 -0.40846458 0.054988474
-0.17280659 -0.40852571 0.05523055
-0.17297943 -0.40861639 0.055203289
-0.17316109 -0.40871507 0.055148259
-0.17333779 -0.40880373 0.055152211
-0.17350316 -0.40889433 0.055096082
-0.17367056 -0.40899038 0.05500526
-0.17385942 -0.40908709 0.054994136
-0.1740268 -0.40916899 0.05501429
-0.17419833 -0.40924945 0.05506219
-0.17437343 -0.40934262 0.055024527
-0.17454627 -0.40943095 0.055015761
-0.1747143 -0.40951109 0.055052117
-0.17488024 -0.40961921 0.054860726
-0.17506039 -0.40971789 0.054799918
-0.17524037 -0.40978596 0.054978415
-0.17540683 -0.40987048 0.05497431
-0.175583 -0.40997878 0.054822184
-0.17576469 -0.41005391 0.054952119
-0.17593119 -0.41014728 0.054878645
-0.17609997 -0.41025269 0.054719612
-0.17628446 -0.41032249 0.054902725
-0.17646511 -0.41042697 0.054797977
-0.17663093 -0.41051206 0.054786935
-0.17680113 -0.41060436 0.05473657
-0.17697877 -0.41068968 0.05477057
-0.17715538 -0.41076946 0.05484388
-0.17732143 -0.41086158 0.054778505
-0.17748736 -0.41095364 0.05471313
-0.17766662 -0.41104361 0.05471706
-0.17784236 -0.41113251 0.054715231
-0.17801245 -0.41121697 0.054726135
-0.17818521 -0.4113107 0.054674607
-0.17835394 -0.41139728 0.054663554
-0.1785302 -0.41149175 0.054620102
-0.17870443 -0.41158271 0.054596305
-0.17887713 -0.41166314 0.054648817
-0.17904927 -0.41175702 0.054593824
-0.17922802 -0.41184142 0.054639377
-0.17940268 -0.41193762 0.054576274
-0.1795729 -0.41202772 0.054543249
-0.17974989 -0.41211462 0.054562226
-0.17991023 -0.41219443 0.054570854
-0.18007199 -0.41228923 0.054467343
-0.18025346 -0.4123762 0.054503642
-0.18042144 -0.4124631 0.054486807
-0.18060157 -0.41256246 0.054420225
-0.18078317 -0.41265464 0.05441606
-0.18094856 -0.41273391 0.054448944
-0.18111084 -0.41282177 0.054402079
-0.18129076 -0.41291577 0.054377109
-0.18146782 -0.41300768 0.054356776
-0.18163544 -0.41308486 0.054415096
-0.18180525 -0.41317445 0.054384381
-0.18198058 -0.41326332 0.054381389
-0.18214183 -0.41335168 0.054326437
-0.18231907 -0.41344327 0.054309566
-0.18249021 -0.41353133 0.054296199
-0.18266919 -0.41362131 0.054298975
-0.18284236 -0.41371202 0.054272879
-0.18301539 -0.41379839 0.054280303
-0.18319024 -0.41388759 0.054272693
-0.18335387 -0.41396907 0.054281317
-0.18352002 -0.41406962 0.054150041
-0.18369271 -0.4141604 0.054121632
-0.18386947 -0.41423553 0.054231927
-0.18403038 -0.41433141 0.054116864
-0.18420392 -0.41442141 0.054097701
-0.18437791 -0.41450709 0.054114372
-0.18455909 -0.41459155 0.054169159
-0.18472479 -0.41468334 0.054104939
-0.18489406 -0.41477633 0.054045334
-0.185068 -0.41486597 0.054030791
-0.18523656 -0.41495171 0.054025516
-0.18542315 -0.41503668 0.05409763
-0.18559425 -0.41512826 0.054056514
-0.1857596 -0.41522342 0.053964548
-0.18591097 -0.41531989 0.053806737
-0.18610199 -0.41540593 0.05388809
-0.18627381 -0.4154861 0.053939443
-0.18644159 -0.41557232 0.053927239
-0.18662193 -0.41566855 0.053886086
-0.18680725 -0.41575849 0.053914275
-0.18697572 -0.41584092 0.053934436
-0.1871427 -0.41592765 0.053915299
-0.18731321 -0.41601244 0.053925049
-0.18748443 -0.4161101 0.053836528
-0.18766414 -0.41619015 0.053920232
-0.18782155 -0.4162882 0.053773955
-0.1879994 -0.41638216 0.0537409
-0.18817332 -0.41646531 0.053777229
-0.18834807 -0.41655445 0.053769618
-0.1885217 -0.41665041 0.053704217
-0.18869063 -0.41673294 0.053725529
-0.18886721 -0.41682434 0.053707507
-0.18903966 -0.41691455 0.053682566
-0.18920843 -0.41700333 0.053654172
-0.18937583 -0.41708669 0.053662777
-0.18955795 -0.41717282 0.053708319
-0.18973269 -0.41726211 0.053699557
-0.18990733 -0.41736019 0.053621426
-0.19006374 -0.41744226 0.053596549
-0.19023803 -0.41752884 0.053607434
-0.19039974 -0.41761744 0.053552482
-0.19057292 -0.41770446 0.053555284
-0.19075507 -0.41779104 0.053597357
-0.19092634 -0.41787887 0.053586293
-0.19108959 -0.41796958 0.053520929
-0.1912529 -0.41806015 0.053456716
-0.19141808 -0.41815272 0.053384401
-0.19159371 -0.41823363 0.053445004
-0.19176888 -0.41832551 0.053417735
-0.19192128 -0.41841146 0.053346626
-0.19210628 -0.41849756 0.053403724
-0.19229506 -0.41858262 0.053483922
-0.19248085 -0.41867396 0.053502865
-0.19264075 -0.41877049 0.053378541
-0.19282243 -0.4188605 0.053391725
-0.19302806 -0.41894373 0.05355278
-0.19317231 -0.41903943 0.053373035
-0.19333965 -0.419126 0.053356204
-0.1935045 -0.41921574 0.053304706
-0.19367513 -0.41929901 0.053327166
-0.19383574 -0.41938734 0.0532699
-0.1940167 -0.4194802 0.053257644
-0.19420008 -0.4195677 0.053297408
-0.19436422 -0.41965753 0.053242438
-0.19453485 -0.41974577 0.053225592
-0.19470066 -0.41983041 0.053218026
-0.19486488 -0.41991779 0.053182714
-0.19504924 -0.42001003 0.053188939
-0.19522174 -0.42010024 0.053163994
-0.19538416 -0.42018569 0.053136777
-0.19555415 -0.42027184 0.053133819
-0.19572259 -0.42036515 0.053068422
-0.19590645 -0.42045537 0.053088523
-0.19606173 -0.42054221 0.053022042
-0.19624549 -0.42063254 0.053040978
-0.19642121 -0.42071775 0.053068049
-0.19658756 -0.42080694 0.053026952
-0.19676228 -0.420899 0.052996218
-0.19693534 -0.42098701 0.052990932
-0.19711658 -0.4210737 0.053028386
-0.19728397 -0.42116487 0.052975714
-0.19745551 -0.42125109 0.052978523
-0.19762051 -0.42134047 0.052930497
-0.19779335 -0.42142865 0.052922893
-0.19798355 -0.42151856 0.052970715
-0.1981584 -0.42160866 0.052956171
-0.1983055 -0.42169634 0.052850403
-0.19850291 -0.42178547 0.052932881
-0.1986663 -0.42187712 0.052860573
-0.19883221 -0.42196432 0.052833349
-0.19899948 -0.42205337 0.052796859
-0.19919145 -0.42214149 0.052865487
-0.19934037 -0.42223072 0.052755091
-0.19951278 -0.42232117 0.052727841
-0.19968916 -0.42240924 0.052735254
-0.19987854 -0.42249799 0.052788861
-0.2000563 -0.42258999 0.052770838
-0.20019841 -0.42267767 0.05264543
-0.20038609 -0.42276481 0.052704822
-0.20057699 -0.42285374 0.052763049
-0.20073701 -0.42294353 0.052691914
-0.20088995 -0.42303774 0.052558377
-0.20107137 -0.42312378 0.052601613
-0.20127159 -0.42321223 0.052700259
-0.20143554 -0.4233036 0.052632578
-0.20161253 -0.42339772 0.052594908
-0.20179084 -0.42348614 0.05260694
-0.20196185 -0.42357329 0.052600499
-0.20213218 -0.42366785 0.052532792
-0.20230576 -0.42375302 0.052551784
-0.20245804 -0.42384127 0.052462172
-0.20263296 -0.42393008 0.052458033
-0.20281334 -0.42402047 0.052463122
-0.20298086 -0.42410609 0.052454386
-0.20318022 -0.42419752 0.052526452
-0.20335265 -0.42429021 0.052481852
-0.20352204 -0.42437771 0.052466176
-0.20367214 -0.42446411 0.052382361
-0.20384148 -0.42455688 0.052325062
-0.20402414 -0.42464221 0.052378699
-0.20421647 -0.42473435 0.052417263
-0.20438716 -0.42482367 0.052392326
-0.20455845 -0.42491299 0.052369703
-0.20471489 -0.4250026 0.052285861
-0.20491062 -0.42509323 0.052349854
-0.20506459 -0.42518118 0.052269489
-0.20523258 -0.42526719 0.052259602
-0.20539041 -0.42535841 0.052168816
-0.20554473 -0.42544621 0.052090771
-0.20575958 -0.42553708 0.052228674
-0.20591611 -0.42562661 0.052145984
-0.2061055 -0.42571607 0.052193813
-0.2062663 -0.42580393 0.052141167
-0.20647493 -0.42589533 0.052250195
-0.20659707 -0.42598456 0.05203354
-0.20679978 -0.42607442 0.052131023
-0.20696153 -0.42616394 0.052069135
-0.207156 -0.42625391 0.052133121
-0.20732777 -0.42634362 0.052109346
-0.20750201 -0.42643341 0.052094799
-0.20766383 -0.42652294 0.05203291
-0.20785193 -0.42661309 0.052070335
-0.20801839 -0.4267028 0.052025761
-0.20821163 -0.4267948 0.052068949
-0.20836981 -0.42688426 0.051993191
-0.20855099 -0.42697445 0.052002911
-0.20873433 -0.42706633 0.052007977
-0.20889799 -0.42715445 0.051964574
-0.20906779 -0.42724434 0.051931553
-0.20923807 -0.4273358 0.051888123
-0.20943344 -0.42742684 0.051947486
-0.20960182 -0.42751673 0.051908687
-0.20976895 -0.42760661 0.051865268
-0.20994382 -0.42769685 0.05184957
-0.21013574 -0.42778951 0.05188236
-0.21031637 -0.42788017 0.051886287
-0.21046403 -0.42796904 0.051773578
-0.21063197 -0.4280605 0.05172091
-0.21083888 -0.4281528 0.051816069
-0.21099269 -0.42824197 0.051725302
-0.21117175 -0.42833272 0.051722307
-0.21138236 -0.42842555 0.051827848
-0.21154058 -0.42851505 0.051752098
-0.21170071 -0.42860609 0.051671714
-0.21187675 -0.42869678 0.051657163
-0.21206087 -0.42879242 0.051635653
-0.21227778 -0.42888623 0.051758513
-0.21240984 -0.42897516 0.051583435
-0.21261692 -0.42906845 0.051671661
-0.21278712 -0.4291603 0.051624764
-0.21296084 -0.42925248 0.051589411
-0.21314152 -0.42934239 0.051599123
-0.21330708 -0.42943251 0.05154762
-0.21350792 -0.42953131 0.051567655
-0.21367714 -0.42962179 0.051527701
-0.21384607 -0.42970669 0.051530518
-0.21402054 -0.42979908 0.051496316
-0.21418795 -0.42988804 0.051460996
-0.2143656 -0.42997941 0.051447593
-0.21452251 -0.43007016 0.051356811
-0.21468282 -0.43015435 0.051330768
-0.21491104 -0.4302536 0.051455896
-0.21505472 -0.43034029 0.051344369
-0.21527645 -0.4304364 0.051468372
-0.21544099 -0.4305307 0.051379878
-0.21562611 -0.43062583 0.051366441
-0.21580495 -0.43071765 0.051354196
-0.21598315 -0.43080941 0.051339634
-0.21615395 -0.43089908 0.051312394
-0.21634212 -0.43099603 0.051296644
-0.21652249 -0.43108952 0.051277451
-0.21670297 -0.4311817 0.05126866
-0.21686772 -0.43126684 0.051252998
-0.21704957 -0.43135929 0.051247675
-0.21723287 -0.43145716 0.051205352
-0.21740934 -0.43154514 0.051213924
-0.2175965 -0.43163967 0.051213197
-0.21773183 -0.43172261 0.051098228
-0.21793187 -0.43182012 0.05112521
-0.21812853 -0.43191341 0.051171847
-0.21830212 -0.43200639 0.051129568
-0.21850644 -0.43210724 0.051147275
-0.2186698 -0.43219638 0.051094621
-0.21883214 -0.43228412 0.051048916
-0.21904613 -0.43238264 0.051123232
-0.21921848 -0.43247309 0.051095981
-0.21939495 -0.43256664 0.051060617
-0.21954753 -0.43265316 0.050986048
-0.21972932 -0.43274748 0.050965697
-0.21990821 -0.4328402 0.050946504
-0.22009915 -0.43293592 0.050951552
-0.22029665 -0.43303141 0.050984319
-0.22046375 -0.43312007 0.050950155
-0.22062954 -0.43321103 0.050892871
-0.22083251 -0.43330753 0.050939482
-0.22101946 -0.43340415 0.050921429
-0.22118603 -0.43349653 0.050856043
-0.22136374 -0.4335894 0.050831079
-0.22155318 -0.43368286 0.050847702
-0.22173123 -0.43377709 0.050813481
-0.22189307 -0.43386516 0.050763153
-0.22209582 -0.4339633 0.050795898
-0.22227672 -0.43405807 0.050768606
-0.22247544 -0.4341605 0.05075166
-0.22266693 -0.43425944 0.050733589
-0.22283389 -0.43434849 0.050695948
-0.22301041 -0.43444031 0.050674461
-0.22320047 -0.43453556 0.050679509
-0.22338897 -0.43462947 0.050689187
-0.22355239 -0.43472275 0.050604165
-0.22375515 -0.43481797 0.05066004
-0.2239323 -0.43491125 0.050629295
-0.22411574 -0.43500334 0.050633218
-0.1286426 -0.38619846 0.055550586
-0.12886043 -0.38631645 0.055487353
-0.12907673 -0.38643482 0.05541487
-0.12930404 -0.38656244 0.055313438
-0.12952016 -0.38668105 0.055238642
-0.12974349 -0.38680342 0.055162668
-0.12997533 -0.38693789 0.055025376
-0.13017599 -0.38704351 0.0549911
-0.13037971 -0.38715053 0.054957971
-0.13058949 -0.38726193 0.054914415
-0.13079743 -0.38737345 0.054862782
-0.13100392 -0.38748187 0.054829642
-0.13120684 -0.38758865 0.054795358
-0.13142456 -0.38770863 0.054715935
-0.13163422 -0.38782248 0.054652724
-0.13184915 -0.38794002 0.0545814
-0.13205811 -0.38805351 0.054518193
-0.13226628 -0.38816455 0.054471172
-0.13247833 -0.38828152 0.054392926
-0.13268757 -0.388394 0.054338969
-0.13289322 -0.38850477 0.054283861
-0.13310297 -0.38861808 0.054225281
-0.13331249 -0.38873321 0.054151662
-0.13352072 -0.38884529 0.054096546
-0.13373205 -0.38896263 0.054012518
-0.13394074 -0.38907555 0.053952791
-0.13414529 -0.38918623 0.053894218
-0.13436426 -0.38931024 0.053788196
-0.13456623 -0.3894186 0.053737734
-0.13476305 -0.38951975 0.05372313
-0.13496958 -0.38963321 0.053650677
-0.13517229 -0.38974282 0.053593278
-0.1353761 -0.38985181 0.053545117
-0.135579 -0.38996196 0.053484246
-0.13578081 -0.39007109 0.053426847
-0.13598216 -0.39017797 0.05338563
-0.1361839 -0.39028737 0.053325921
-0.13638651 -0.39039588 0.05327661
-0.13658637 -0.39050362 0.053222686
-0.13678738 -0.39061072 0.053178005
-0.13698745 -0.390719 0.053120613
-0.13718639 -0.3908242 0.053082876
-0.13738313 -0.39092916 0.05303821
-0.13758406 -0.39103684 0.052988909
-0.13778052 -0.3911418 0.052943088
-0.13797647 -0.39124432 0.052914616
-0.13817656 -0.39135364 0.052849136
-0.13837445 -0.3914586 0.052809086
-0.1385684 -0.39156142 0.052770216
-0.13876316 -0.39166319 0.052742898
-0.13895951 -0.39176899 0.052690145
-0.13917767 -0.39189523 0.052563313
-0.13937658 -0.39198938 0.052612297
-0.13952644 -0.39204946 0.0527343
-0.13971104 -0.39215109 0.052667707
-0.13995238 -0.39229155 0.052521139
-0.14017779 -0.39244249 0.052228943
-0.14036472 -0.39253885 0.052213222
-0.14050555 -0.39257994 0.052448563
-0.14070418 -0.39269206 0.052355334
-0.14089845 -0.39279708 0.052300274
-0.14109072 -0.39289773 0.052271813
-0.14128006 -0.39299735 0.052239887
-0.14147331 -0.39309716 0.052221838
-0.14166364 -0.39320052 0.052164476
-0.14185461 -0.39330024 0.052138329
-0.14204417 -0.39340067 0.052100636
-0.14224172 -0.39350384 0.052073311
-0.14241897 -0.39359456 0.052063406
-0.14261213 -0.39369741 0.052021068
-0.14281365 -0.39380583 0.051968295
-0.14298873 -0.39389426 0.051967639
-0.14317206 -0.39398804 0.051957712
-0.14336148 -0.39408696 0.051931579
-0.14354959 -0.39418682 0.051892731
-0.14373638 -0.39428279 0.05187932
-0.14391522 -0.39437151 0.051891372
-0.14409754 -0.39446214 0.051902257
-0.14426909 -0.39454436 0.05193631
-0.14443964 -0.39462036 0.052015457
-0.14460106 -0.39468482 0.052148972
-0.14474939 -0.39472997 0.052381966
-0.1440163 -0.39333898 0.06039932
-0.14446431 -0.39362386 0.059937503
-0.14461011 -0.393657 0.060254917
-0.1448057 -0.39376315 0.060196377
-0.14513774 -0.39388376 0.060565129
-0.14525561 -0.39388409 0.061029483
-0.14559589 -0.39401048 0.061385475
-0.14693041 -0.39519346 0.057384782
-0.14712419 -0.39529574 0.057349376
-0.14732294 -0.39538404 0.057443447
-0.14754567 -0.39550862 0.057347819
-0.14771894 -0.39559495 0.057356425
-0.14790598 -0.39568841 0.057363819
-0.14810254 -0.39578915 0.05735153
-0.14828987 -0.39589262 0.057281464
-0.14844868 -0.39597446 0.057268165
-0.14867748 -0.3960934 0.057240721
-0.14885372 -0.39618787 0.057197288
-0.14903194 -0.3962757 0.057213977
-0.14923163 -0.39637214 0.057247914
-0.14941381 -0.39645928 0.057285398
-0.14957887 -0.39654106 0.057297502
-0.14979008 -0.3966682 0.057136014
-0.14995369 -0.3967616 0.057051003
-0.1501486 -0.39684796 0.057145089
-0.15035406 -0.39695027 0.057155892
-0.15051939 -0.39703643 0.057134468
-0.15073274 -0.39715111 0.057079338
-0.15091766 -0.3972432 0.057089061
-0.15108033 -0.39732918 0.057058394
-0.15125705 -0.39741579 0.057078555
-0.15146992 -0.39753053 0.057021111
-0.15164213 -0.39761752 0.05702047
-0.15185198 -0.3977316 0.056956105
-0.15203618 -0.397827 0.05693692
-0.15219894 -0.39790657 0.056957133
-0.15239692 -0.39800951 0.056933276
-0.152566 -0.39809579 0.056925707
-0.1527399 -0.39817846 0.056965537
-0.15293795 -0.39829382 0.056844562
-0.15310556 -0.39837804 0.056847405
-0.15328749 -0.39846256 0.056904547
-0.15350951 -0.39858341 0.056835506
-0.15366022 -0.398651 0.056901999
-0.15385009 -0.39876193 0.056783374
-0.15403338 -0.39884904 0.056825474
-0.15421739 -0.39894596 0.056793578
-0.15440045 -0.39903709 0.056803294
-0.1545811 -0.39912394 0.056837313
-0.15477122 -0.39922807 0.056773022
-0.15493695 -0.39930543 0.056822129
-0.15513456 -0.39942396 0.056674562
-0.15533747 -0.39953011 0.056644905
-0.15550977 -0.39961097 0.056692831
-0.15568046 -0.39969337 0.056722254
-0.15586437 -0.39979655 0.056640644
-0.15605333 -0.39989555 0.056612194
-0.15622853 -0.39998227 0.056625411
-0.1564237 -0.40008408 0.056599259
-0.15659946 -0.40017211 0.056604385
-0.15678358 -0.40027219 0.056548212
-0.15697175 -0.40037063 0.056520924
-0.1571504 -0.40046513 0.056486733
-0.15730457 -0.4005349 0.056549747
-0.15749195 -0.40062675 0.056571022
-0.15768044 -0.4007374 0.056448925
-0.15786481 -0.40082863 0.056463271
-0.1580459 -0.40091833 0.056476474
-0.15823133 -0.40102348 0.056385599
-0.15839808 -0.4011043 0.056411576
-0.15859185 -0.40120572 0.056383111
-0.15875392 -0.4012998 0.056286559
-0.15894496 -0.40138939 0.05634018
-0.15913777 -0.40148926 0.056319818
-0.15930276 -0.40155995 0.056418635
-0.15948522 -0.40166035 0.056353211
-0.15965168 -0.40173441 0.056431212
-0.15984073 -0.40185198 0.056257095
-0.16001923 -0.40194348 0.056246024
-0.16020331 -0.40203586 0.056249965
-0.16038516 -0.40212244 0.056290913
-0.16056119 -0.40221485 0.056262515
-0.16074289 -0.4023084 0.056247965
-0.16092727 -0.40241715 0.056124724
-0.16109481 -0.40250191 0.056122951
-0.16127351 -0.40258777 0.056156978
-0.16146083 -0.40269092 0.056089222
-0.16164257 -0.40277785 0.056126706
-0.16181259 -0.40286243 0.056136481
-0.16197757 -0.40293986 0.056182124
-0.16216111 -0.40304995 0.056045011
-0.16234699 -0.40314162 0.05606167
-0.16251938 -0.40322545 0.056086458
-0.16269599 -0.40332365 0.056015275
-0.16289082 -0.40342748 0.055971779
-0.16307563 -0.40352613 0.055929478
-0.16326085 -0.40361646 0.055954225
-0.16345108 -0.40371504 0.055933863
-0.16362551 -0.40380773 0.055897374
-0.16377902 -0.40387437 0.055982366
-0.16395362 -0.40396816 0.055937782
-0.16413455 -0.40406498 0.055894334
-0.16433045 -0.40416482 0.055886671
-0.16448471 -0.40424687 0.055853724
-0.16465645 -0.40432963 0.055884305
-0.16483591 -0.40442145 0.055874392
-0.16502829 -0.4045195 0.055866741
-0.16520889 -0.40461779 0.055810582
-0.16539091 -0.40470871 0.055817999
-0.16556987 -0.40481588 0.055685531
-0.16573225 -0.4048973 0.055689558
-0.16591895 -0.40498173 0.055766329
-0.16610222 -0.40508199 0.055705525
-0.16626813 -0.4051674 0.055692196
-0.16642028 -0.40521982 0.055883557
-0.16661829 -0.40534118 0.055715173
-0.16678047 -0.40542221 0.05572151
-0.16695033 -0.40551698 0.055650353
-0.16712868 -0.40560693 0.055650853
-0.16730757 -0.40570274 0.055607408
-0.16748883 -0.40579194 0.055625245
-0.16766724 -0.40588424 0.055607237
-0.16783281 -0.4059726 0.055569619
-0.16801052 -0.40605676 0.055612899
-0.16820501 -0.40615869 0.055583283
-0.16836685 -0.40624058 0.055581525
-0.16853534 -0.40633082 0.055540431
-0.16871004 -0.40641981 0.055534005
-0.16888797 -0.40651292 0.055507906
-0.16907237 -0.40661725 0.055419356
-0.16924676 -0.40669194 0.055523917
-0.16941798 -0.40679181 0.055418074
-0.16958274 -0.4068706 0.055452153
-0.16976026 -0.40696368 0.055424906
-0.16993421 -0.40706244 0.055338699
-0.17012116 -0.4071601 0.055312566
-0.1702989 -0.40724266 0.055368569
-0.17047045 -0.40731987 0.055441927
-0.17063442 -0.40741065 0.055378884
-0.17080149 -0.40750286 0.055316985
-0.17098148 -0.40759921 0.05527354
-0.17114741 -0.40769938 0.055144593
-0.17132805 -0.40778664 0.055175141
-0.17150332 -0.40786251 0.055273928
-0.17167616 -0.40793258 0.05540856
-0.17184481 -0.40803367 0.05528307
-0.17201604 -0.40813842 0.055139065
-0.17220084 -0.40822205 0.055214681
-0.17237119 -0.4083091 0.05520596
-0.1725425 -0.40840963 0.055095494
-0.17272291 -0.40849841 0.055113323
-0.17289573 -0.40857258 0.055215586
-0.17307526 -0.40866607 0.055192955
-0.17325349 -0.40876478 0.05512407
-0.17342414 -0.40884936 0.055136167
-0.17359176 -0.4089458 0.055043049
-0.17376655 -0.40904173 0.054982278
-0.17394714 -0.40912941 0.055009361
-0.17411508 -0.40921012 0.055041112
-0.17428893 -0.40929601 0.055055499
-0.17446731 -0.40939113 0.055015527
-0.17463255 -0.40946901 0.055058848
-0.17480111 -0.40955943 0.0550166
-0.17496909 -0.40967256 0.054793984
-0.17515813 -0.40975758 0.054875374
-0.17533161 -0.40982386 0.055042386
-0.17549638 -0.40992314 0.054915749
-0.17567617 -0.41002265 0.054846868
-0.17585443 -0.41009751 0.054965299
-0.17601562 -0.41020352 0.054771613
-0.17619959 -0.41029245 0.05480215
-0.17637876 -0.41037485 0.054865073
-0.17655306 -0.41047615 0.054760382
-0.1767204 -0.41055846 0.054777101
-0.17689463 -0.41065106 0.054740611
-0.17707528 -0.41073111 0.054827817
-0.17724428 -0.41081822 0.054813314
-0.17741212 -0.41091478 0.054720193
-0.1775908 -0.41100621 0.054710284
-0.17776659 -0.41109544 0.054706167
-0.17793758 -0.41117871 0.054729812
-0.17810526 -0.41126755 0.054696817
-0.17827621 -0.4113577 0.054666128
-0.17845114 -0.41144812 0.054649293
-0.17862637 -0.41154444 0.054587364
-0.17880072 -0.41162279 0.054663025
-0.17897271 -0.41171733 0.054602265
-0.17915018 -0.41180387 0.054625891
-0.17933114 -0.41189778 0.054605566
-0.17949525 -0.41198465 0.054573741
-0.17967726 -0.41208276 0.054524511
-0.17984512 -0.41215885 0.054592103
-0.18000443 -0.41224596 0.054539483
-0.18017799 -0.41234306 0.054464847
-0.1803506 -0.41242462 0.054508138
-0.18052961 -0.41252035 0.05446586
-0.18070506 -0.41262001 0.054378495
-0.1808854 -0.41270345 0.054437943
-0.18105006 -0.41278899 0.054418836
-0.18121669 -0.41287741 0.054384682
-0.18140438 -0.4129734 0.054374747
-0.18157324 -0.41305441 0.054407649
-0.18174142 -0.41314113 0.05439315
-0.18190937 -0.41322801 0.054376345
-0.18208228 -0.41331476 0.054380331
-0.18225603 -0.41341004 0.054320719
-0.18243067 -0.41349971 0.054308508
-0.18260127 -0.41358855 0.054287072
-0.18278237 -0.41368133 0.05427599
-0.18295527 -0.41376808 0.054279976
-0.18312855 -0.41385886 0.054253895
-0.1832955 -0.41394201 0.054262526
-0.18346822 -0.4140332 0.054230668
-0.18362565 -0.41413248 0.054075159
-0.18381934 -0.41421086 0.054227058
-0.18397972 -0.41429922 0.054168653
-0.18414566 -0.41439131 0.0541033
-0.18432161 -0.41447973 0.054106109
-0.18449652 -0.414565 0.054129742
-0.18467815 -0.41465333 0.054155659
-0.18483981 -0.41474426 0.054082222
-0.1850092 -0.41483733 0.054022629
-0.18518311 -0.4149234 0.054035861
-0.18536025 -0.41501111 0.054049082
-0.18554294 -0.41509897 0.054083094
-0.18571162 -0.41519228 0.054018881
-0.18586399 -0.41529205 0.053839102
-0.18604082 -0.41537991 0.05385001
-0.18622856 -0.41546118 0.053955682
-0.18639052 -0.41554755 0.053919245
-0.18657491 -0.41563818 0.05393821
-0.18675557 -0.41573444 0.053898238
-0.18693599 -0.41582057 0.05393688
-0.18710122 -0.41590506 0.053928174
-0.18727514 -0.41598821 0.053964525
-0.18743382 -0.41608617 0.053824037
-0.18762645 -0.41617271 0.05390773
-0.18777837 -0.41626078 0.05381814
-0.18795206 -0.41636029 0.053724997
-0.18812671 -0.4164432 0.053765975
-0.18830237 -0.4165321 0.053764164
-0.18847708 -0.41662771 0.053705715
-0.18865243 -0.41671363 0.05372588
-0.18882373 -0.41680145 0.053714834
-0.18900214 -0.41689527 0.05368527
-0.18916743 -0.41698271 0.053653438
-0.18933965 -0.41707015 0.053649336
-0.18951708 -0.41714945 0.053729609
-0.18968898 -0.41724306 0.053675789
-0.1898752 -0.41734242 0.053633481
-0.19003408 -0.4174237 0.053624801
-0.19019994 -0.41751087 0.053597588
-0.19036983 -0.41759932 0.053576145
-0.19053683 -0.41768605 0.053557027
-0.19072084 -0.41777486 0.053588726
-0.19088806 -0.41786152 0.053570762
-0.19105998 -0.41795206 0.053541221
-0.19121815 -0.4180446 0.053441204
-0.1913972 -0.418138 0.053417418
-0.19155687 -0.41822174 0.053392544
-0.19174947 -0.41830796 0.053478539
-0.19189766 -0.41839814 0.053357754
-0.19207531 -0.41848403 0.053387161
-0.19226909 -0.41857028 0.053477772
-0.19245905 -0.41866049 0.053522158
-0.19261597 -0.4187555 0.053397868
-0.192792 -0.41884989 0.053354438
-0.1930005 -0.41892985 0.053552531
-0.19315606 -0.41902757 0.053401649
-0.19331831 -0.41911572 0.05335249
-0.19348295 -0.41920564 0.053298701
-0.19365624 -0.41928831 0.053336214
-0.19381465 -0.41937983 0.05324544
-0.19400179 -0.41947123 0.053269025
-0.19418165 -0.41955975 0.053286858
-0.19434813 -0.41964912 0.053244624
-0.19451854 -0.41973755 0.053225495
-0.19468412 -0.41982237 0.053215627
-0.19484912 -0.41990969 0.053183798
-0.19503285 -0.42000219 0.053185433
-0.19521077 -0.42009369 0.053172059
-0.19537175 -0.42017955 0.053135611
-0.19554253 -0.42026567 0.05313614
-0.19571136 -0.42035905 0.053071927
-0.19589561 -0.42044932 0.05309321
-0.19605023 -0.4205364 0.053022116
-0.19623095 -0.42062518 0.053041097
-0.19641544 -0.42071557 0.053062379
-0.19658111 -0.42080277 0.053034022
-0.19675323 -0.42089325 0.053005636
-0.19692989 -0.42098513 0.052984174
-0.1971124 -0.42107171 0.053027429
-0.19727996 -0.42116299 0.052974775
-0.19745168 -0.42124927 0.052977614
-0.19761753 -0.42133865 0.05293306
-0.19779423 -0.4214285 0.052927777
-0.19798326 -0.42151865 0.052968711
-0.19815785 -0.42160892 0.052951869
-0.19830787 -0.42169631 0.052859984
-0.1985018 -0.42178601 0.052924011
-0.1986665 -0.42187762 0.0528575
-0.19883722 -0.42196634 0.052837204
-0.19900444 -0.42205551 0.05279959
-0.19919723 -0.42214569 0.052855525
-0.19934776 -0.42223483 0.05275207
-0.19952275 -0.42232513 0.052736387
-0.19969909 -0.42241332 0.052742675
-0.19988866 -0.42250213 0.052796315
-0.20006323 -0.42259458 0.052762143
-0.20021166 -0.42268369 0.052650597
-0.2004015 -0.42277074 0.052719261
-0.20059015 -0.42286 0.052765969
-0.20075162 -0.42295173 0.052685596
-0.20090473 -0.42304599 0.052552067
-0.2010901 -0.42313182 0.052612662
-0.20129125 -0.42322221 0.052699786
-0.20145716 -0.42331353 0.052640207
-0.201629 -0.42340812 0.052578285
-0.2018103 -0.42349648 0.052603059
-0.20198409 -0.42358351 0.052608192
-0.2021528 -0.42367831 0.052532412
-0.20232931 -0.42376524 0.052549105
-0.20248385 -0.42385346 0.052468758
-0.20265818 -0.42394242 0.052461173
-0.20283991 -0.42403463 0.052457031
-0.20301732 -0.42412353 0.052462153
-0.20321153 -0.4242135 0.052525025
-0.20338279 -0.42430633 0.052474678
-0.20355454 -0.42439559 0.052454378
-0.20371053 -0.4244819 0.052394837
-0.20386915 -0.4245716 0.052319098
-0.20406704 -0.42466182 0.052394677
-0.20426044 -0.42475408 0.052436732
-0.20442608 -0.42484361 0.052389875
-0.20460027 -0.42493469 0.052364957
-0.20476073 -0.42502606 0.052283425
-0.20496346 -0.42511669 0.052375175
-0.20510344 -0.4252049 0.052237067
-0.20528328 -0.42529088 0.052274555
-0.20543042 -0.42538229 0.052139889
-0.20559411 -0.42547011 0.052098822
-0.20580518 -0.42556113 0.05222059
-0.20596935 -0.42564905 0.052180678
-0.20614943 -0.4257403 0.052177697
-0.20632662 -0.42582995 0.052175879
-0.20651753 -0.42592138 0.052214488
-0.20664987 -0.42601073 0.052037098
-0.20685461 -0.42610237 0.05212884
-0.20702195 -0.42619044 0.052100468
-0.20720766 -0.42628041 0.052129842
-0.20738657 -0.42637196 0.052119933
-0.20755556 -0.42646173 0.052084617
-0.20772275 -0.42655149 0.052042376
-0.20790742 -0.42664167 0.052065972
-0.20808354 -0.42673326 0.052044515
-0.20827095 -0.42682368 0.052077342
-0.20841782 -0.42691287 0.051958874
-0.20861542 -0.42700368 0.052028663
-0.20878586 -0.42709523 0.051985253
-0.20895678 -0.42718524 0.051955715
-0.20912424 -0.42727512 0.05191347
-0.20930792 -0.42736569 0.051930133
-0.20949477 -0.42745802 0.051945634
-0.20966047 -0.4275479 0.051896457
-0.20982714 -0.42763782 0.051850747
-0.21000934 -0.42772853 0.051860482
-0.2102032 -0.42782292 0.051887512
-0.21038048 -0.42791349 0.051878758
-0.21053229 -0.42800415 0.051768359
-0.21069245 -0.42809227 0.05171112
-0.21089336 -0.42818579 0.051772803
-0.21106625 -0.42827621 0.051747888
-0.21125758 -0.42836785 0.051786486
-0.21146522 -0.42846066 0.05188052
-0.21159701 -0.42855138 0.051690422
-0.21178167 -0.42864272 0.051704772
-0.21195407 -0.42873761 0.051642854
-0.21213868 -0.42882761 0.051667601
-0.21232904 -0.42892244 0.051677302
-0.21250108 -0.4290145 0.051636204
-0.21268672 -0.42910621 0.051651705
-0.2128554 -0.42919803 0.051599052
-0.21303493 -0.42928651 0.05161573
-0.21322313 -0.4293814 0.051616188
-0.21340023 -0.42947543 0.051579691
-0.21357666 -0.42956939 0.051540878
-0.213745 -0.42965707 0.05151945
-0.21391854 -0.42974666 0.051503778
-0.21408576 -0.42983568 0.051467314
-0.2142664 -0.42992738 0.051463172
-0.21443853 -0.43001828 0.051431324
-0.214589 -0.43010709 0.051330172
-0.21481033 -0.43020019 0.051476192
-0.21496652 -0.43029234 0.05137156
-0.21515712 -0.43038389 0.051407844
-0.21535683 -0.43047786 0.051461454
-0.21552236 -0.43057367 0.051364876
-0.21570697 -0.43066883 0.051349159
-0.21588638 -0.43075946 0.051348496
-0.21605921 -0.43085074 0.051316634
-0.2162475 -0.4309451 0.051321723
-0.21641786 -0.4310388 0.051260971
-0.21661091 -0.43113381 0.051279917
-0.21678713 -0.43122298 0.051278103
-0.21696083 -0.43131056 0.051278617
-0.21714741 -0.43140891 0.051245548
-0.21730895 -0.43149775 0.051188301
-0.2175201 -0.43159527 0.051259197
-0.21767515 -0.43168461 0.051171914
-0.21783116 -0.43177021 0.051118147
-0.21801877 -0.43186495 0.051117454
-0.21822606 -0.43196228 0.051174499
-0.21840185 -0.43205565 0.051138006
-0.21858151 -0.43215081 0.051102653
-0.21874557 -0.43223885 0.051061586
-0.21895237 -0.4323377 0.05110475
-0.21914276 -0.43243062 0.051129475
-0.21930623 -0.43252248 0.051056031
-0.21948086 -0.43261331 0.051034577
-0.21964934 -0.4327046 0.050985392
-0.2198219 -0.43279648 0.050947759
-0.22001907 -0.43289313 0.050970145
-0.22020365 -0.4329868 0.050965995
-0.22039002 -0.43308079 0.050966468
-0.22055131 -0.43316993 0.050905742
-0.22074574 -0.43326518 0.050928149
-0.22094604 -0.43336385 0.050947063
-0.22110948 -0.43345582 0.050872453
-0.22129413 -0.43355101 0.050856747
-0.22147232 -0.43364161 0.050851461
-0.22165346 -0.43373632 0.05082535
-0.2218245 -0.43382832 0.050780784
-0.22200607 -0.43392077 0.050774332
-0.22220285 -0.43401927 0.050780538
-0.22236782 -0.4341116 0.050709404
-0.22258772 -0.43421751 0.05074906
-0.22276525 -0.4343119 0.050711397
-0.22293113 -0.43440083 0.050670322
-0.22313607 -0.43450096 0.050696153
-0.22330643 -0.43458834 0.050685111
-0.22346567 -0.43467981 0.050597809
-0.22367941 -0.43478042 0.050654832
-0.22385848 -0.43487173 0.050647225
-0.22404642 -0.43496695 0.050644215
-0.22420275 -0.435058 0.050548837
-0.1284157 -0.38607538 0.05561807
-0.12862869 -0.38619003 0.055561781
-0.12884626 -0.38630757 0.055500854
-0.12906292 -0.38642615 0.055428363
-0.12928264 -0.38654786 0.055343136
-0.12950471 -0.38667211 0.055247497
-0.12972414 -0.38679224 0.055173829
-0.12996453 -0.38693148 0.055033028
-0.13016737 -0.38703907 0.054991808
-0.1303663 -0.38714117 0.054978359
-0.13058063 -0.38725695 0.054918587
-0.13078895 -0.38736865 0.054866947
-0.13099158 -0.38747481 0.054836132
-0.13119544 -0.38758236 0.054799527
-0.13140881 -0.38769779 0.054738618
-0.1316238 -0.38781685 0.054655727
-0.1318388 -0.38793427 0.054585546
-0.13204899 -0.38804883 0.054518864
-0.13225259 -0.38815504 0.054491512
-0.13246758 -0.38827485 0.054402836
-0.13267918 -0.38838953 0.054340772
-0.13288432 -0.38849962 0.054289132
-0.13309525 -0.38861397 0.054227069
-0.1333009 -0.38872489 0.054170802
-0.13351043 -0.38884002 0.054097183
-0.1337221 -0.38895753 0.054013144
-0.1339303 -0.38906977 0.053956874
-0.13413545 -0.3891809 0.053897139
-0.13435122 -0.38930139 0.053806145
-0.13455735 -0.38941389 0.053739481
-0.13475505 -0.38951579 0.053722557
-0.13495815 -0.38962546 0.053666305
-0.13516819 -0.38974068 0.05359384
-0.13536856 -0.38984779 0.053546846
-0.13557476 -0.38995931 0.053488266
-0.13577822 -0.39007002 0.05342507
-0.13597912 -0.39017621 0.053387325
-0.13617989 -0.39028439 0.053333391
-0.13638514 -0.39039558 0.053273663
-0.13658831 -0.39050466 0.053222034
-0.13679016 -0.39061251 0.053175032
-0.1369895 -0.39071983 0.053122267
-0.13718548 -0.39082161 0.053099565
-0.13738607 -0.39093059 0.053038694
-0.13758731 -0.39103842 0.052989393
-0.13778333 -0.39114273 0.052947044
-0.13798034 -0.39124623 0.052915089
-0.13817832 -0.39135298 0.052861173
-0.13837993 -0.39146191 0.052804921
-0.13857669 -0.39156556 0.052770659
-0.13877222 -0.39166799 0.052741036
-0.13896698 -0.39177182 0.052697528
-0.13919495 -0.39190891 0.052524388
-0.1393957 -0.39200279 0.052582625
-0.13953909 -0.39205754 0.052720852
-0.13972668 -0.39216027 0.052657716
-0.13998002 -0.39231855 0.052418575
-0.14018095 -0.39244139 0.052250165
-0.1403764 -0.39254293 0.052227478
-0.14052418 -0.39259177 0.052429289
-0.14072332 -0.3927021 0.052352235
-0.14091586 -0.39280495 0.052307587
-0.14110976 -0.39290729 0.052272175
-0.14130276 -0.39300877 0.052240245
-0.14150104 -0.393112 0.05221523
-0.14168455 -0.3932094 0.052177552
-0.14187866 -0.3933126 0.052136365
-0.14206892 -0.39341372 0.052096345
-0.14226188 -0.39351353 0.052077126
-0.1424481 -0.39361009 0.052056782
-0.14263856 -0.39370954 0.052030642
-0.14284042 -0.39381811 0.051977858
-0.14301784 -0.39390922 0.051965646
-0.14320543 -0.3940056 0.051952232
-0.14339492 -0.39410439 0.051927254
-0.14358065 -0.39420116 0.051903442
-0.14376205 -0.39429513 0.051884264
-0.14394474 -0.39438593 0.05189516
-0.14412892 -0.39447618 0.05191645
-0.14430214 -0.39455777 0.051962066
-0.14447065 -0.39463344 0.052035447
-0.1446311 -0.39469388 0.052196741
-0.14408229 -0.39339402 0.060228474
-0.14432922 -0.39356852 0.059836712
-0.14447796 -0.39360273 0.060157627
-0.14465563 -0.39367965 0.060257576
-0.14485487 -0.3937847 0.060222149
-0.14517353 -0.39388984 0.06065923
-0.14567029 -0.39407301 0.061189324
-0.14590091 -0.39422616 0.060900532
-0.14697781 -0.39521694 0.057388201
-0.14716652 -0.395309 0.057412945
-0.14738899 -0.39542374 0.057393614
-0.14759582 -0.39553511 0.057338506
-0.14776476 -0.39561516 0.057379514
-0.14795652 -0.39571494 0.05735568
-0.14815789 -0.39581919 0.057335272
-0.1483397 -0.39592397 0.057232846
-0.14849766 -0.3959949 0.057301648
-0.14872867 -0.39612308 0.057210594
-0.14890029 -0.39621064 0.057203025
-0.14909631 -0.39630789 0.057216182
-0.14928378 -0.39639595 0.057267524
-0.14945531 -0.39647698 0.057310835
-0.14964075 -0.39657539 0.057273149
-0.14982601 -0.39669383 0.057077043
-0.1499991 -0.3967776 0.057105303
-0.15022421 -0.39688525 0.057151884
-0.15040931 -0.39697698 0.057165086
-0.15058102 -0.39706916 0.057121664
-0.15078941 -0.39717942 0.05708158
-0.15096402 -0.39726585 0.057094812
-0.15112975 -0.39735281 0.057068765
-0.15133473 -0.39745826 0.057052974
-0.15152481 -0.39755854 0.057018738
-0.1517192 -0.3976585 0.057004146
-0.15191104 -0.3977657 0.056922488
-0.15208252 -0.39784774 0.056957707
-0.15225257 -0.39793128 0.056975577
-0.15245371 -0.39803904 0.056926273
-0.15261386 -0.39811805 0.056940712
-0.15278056 -0.39819619 0.056987505
-0.15298988 -0.39832225 0.056827161
-0.15315655 -0.39839655 0.056904018
-0.15336758 -0.3985061 0.056880116
-0.15355287 -0.39860427 0.056843586
-0.1537053 -0.39867449 0.05689621
-0.15391725 -0.3987945 0.056793675
-0.15409194 -0.39887875 0.056824252
-0.15427563 -0.39897478 0.056798134
-0.15445001 -0.39905858 0.056831025
-0.15464967 -0.39916193 0.056810625
-0.15482073 -0.39925304 0.056772999
-0.15499237 -0.39933652 0.056797802
-0.1552079 -0.39946997 0.056603901
-0.15538672 -0.39955351 0.056656428
-0.15555796 -0.39963192 0.056719393
-0.15574145 -0.39972901 0.056684032
-0.15591843 -0.39982325 0.056645215
-0.15611151 -0.39992505 0.056610972
-0.15629004 -0.400013 0.056627654
-0.15648548 -0.40011498 0.056601487
-0.15665033 -0.40020075 0.056581229
-0.15683894 -0.4002994 0.056553937
-0.15703084 -0.40039986 0.056525476
-0.15719229 -0.40048435 0.056501754
-0.15736189 -0.40055957 0.056583226
-0.1575475 -0.40066332 0.056503911
-0.15773895 -0.40076917 0.05643151
-0.15792027 -0.40085325 0.056489825
-0.15810269 -0.40095097 0.056445204
-0.15828058 -0.40105039 0.056369387
-0.15845683 -0.40112898 0.056450836
-0.15864187 -0.40123346 0.056363422
-0.15881631 -0.4013319 0.056281835
-0.15900373 -0.40141845 0.056344748
-0.15919156 -0.40150583 0.056403026
-0.1593734 -0.401604 0.056352634
-0.15954223 -0.40168339 0.056398265
-0.1597203 -0.4017792 0.056351349
-0.15990153 -0.40188342 0.056251239
-0.16008097 -0.40196994 0.056282956
-0.16026852 -0.4020707 0.056234848
-0.16044275 -0.4021506 0.056297809
-0.16061912 -0.40224338 0.056268252
-0.160808 -0.40234864 0.056190077
-0.16098389 -0.40244839 0.056103863
-0.16116029 -0.40253469 0.056125179
-0.1613393 -0.40262067 0.056159209
-0.16152538 -0.40271953 0.056120358
-0.16171032 -0.40281531 0.056101181
-0.16187155 -0.40288907 0.056160711
-0.16204721 -0.40298194 0.056127682
-0.16223539 -0.40308878 0.056034483
-0.16241434 -0.40317518 0.056065049
-0.16258384 -0.40325785 0.056087542
-0.16277336 -0.4033708 0.055951554
-0.1629564 -0.40346223 0.055958979
-0.16314335 -0.40355769 0.055950187
-0.16333529 -0.40365097 0.055978388
-0.16351835 -0.40375358 0.055897929
-0.16368434 -0.40383476 0.055918135
-0.16384806 -0.40390685 0.056000784
-0.16402815 -0.40401047 0.055900667
-0.16421135 -0.4041039 0.055893056
-0.16439846 -0.4042021 0.055863462
-0.16455223 -0.40428108 0.055852488
-0.16473003 -0.40436381 0.055907339
-0.16491021 -0.40445778 0.055883538
-0.16511098 -0.40456712 0.055820361
-0.16528346 -0.40465277 0.055831283
-0.16547735 -0.40475869 0.055768125
-0.1656296 -0.4048481 0.055669274
-0.16581942 -0.4049319 0.055763401
-0.16599846 -0.40502217 0.055763893
-0.16617274 -0.40512112 0.055677675
-0.16634008 -0.40519416 0.05576726
-0.16651088 -0.40526909 0.055855669
-0.16669296 -0.40538359 0.05567807
-0.16685803 -0.40546167 0.055719096
-0.16703486 -0.40556201 0.055631712
-0.16721326 -0.40565008 0.055647247
-0.16739218 -0.40574369 0.055621147
-0.16757409 -0.40583688 0.055610068
-0.1677462 -0.40592527 0.055597872
-0.16791821 -0.40601304 0.055590302
-0.16810609 -0.40610442 0.055617355
-0.16828795 -0.40620056 0.055583149
-0.16845012 -0.40628392 0.05557099
-0.16862205 -0.4063752 0.055535667
-0.16880025 -0.40646595 0.055529222
-0.16897529 -0.40656304 0.055460356
-0.16916627 -0.40665936 0.055460811
-0.16934103 -0.40674525 0.055478662
-0.16950598 -0.40683493 0.055428326
-0.16967435 -0.40691128 0.055495936
-0.16985185 -0.4070161 0.055376172
-0.17002939 -0.40711194 0.055326954
-0.17021684 -0.40720502 0.055338979
-0.17038856 -0.40728292 0.055407729
-0.17055976 -0.40737042 0.055399001
-0.17072763 -0.40745696 0.055384509
-0.1709076 -0.40755835 0.055301748
-0.17107143 -0.40764949 0.055235229
-0.17125164 -0.40774465 0.055202186
-0.17142552 -0.40783468 0.055184193
-0.1716053 -0.40790516 0.05534311
-0.17177746 -0.40798342 0.055410702
-0.17194407 -0.40809953 0.055159152
-0.1721251 -0.408187 0.055189714
-0.17230584 -0.40827638 0.055204082
-0.17247327 -0.40836167 0.055197671
-0.17264278 -0.40847248 0.054999314
-0.17282796 -0.40853906 0.055210251
-0.17299868 -0.4086253 0.055209614
-0.17318089 -0.4087241 0.055155754
-0.17336085 -0.40881649 0.05514352
-0.17352751 -0.4089039 0.055117469
-0.1736984 -0.40900257 0.055019706
-0.17387708 -0.40909857 0.054973949
-0.17405179 -0.40918225 0.055009153
-0.17422381 -0.40926281 0.055058241
-0.17439984 -0.40935481 0.055033304
-0.17457241 -0.40944567 0.055003762
-0.17474566 -0.40952301 0.05508291
-0.17491049 -0.40962511 0.054934286
-0.17508733 -0.40973476 0.054774061
-0.17527081 -0.40980521 0.054947995
-0.17544064 -0.40988228 0.055015594
-0.17561042 -0.40998882 0.054851919
-0.1757997 -0.41007528 0.054922912
-0.17596708 -0.41015866 0.054931551
-0.17612505 -0.41026333 0.054735541
-0.17631496 -0.41033998 0.054886326
-0.17649409 -0.41044047 0.054807037
-0.17666277 -0.41052905 0.054779813
-0.1768339 -0.41062063 0.054738704
-0.17701119 -0.41070783 0.054756559
-0.17719294 -0.41078669 0.054857641
-0.17735639 -0.4108772 0.054794602
-0.17752597 -0.41097108 0.054729216
-0.17770384 -0.41106462 0.054699652
-0.17787723 -0.41115144 0.054704797
-0.17805104 -0.41123763 0.054716878
