# .PCD v0.7 - Point Cloud Data file format
VERSION 0.7
FIELDS x y z
SIZE 4 4 4
TYPE F F F
COUNT 1 1 1
WIDTH 1215
HEIGHT 1
VIEWPOINT 0 0 0 1 0 0 0
POINTS 1215
DATA ascii
-0.108634 -0.31784359 0.056022037
-0.10880285 -0.31793931 0.056013528
-0.10895889 -0.31803691 0.055946238
-0.10913387 -0.3181318 0.055965398
-0.10930371 -0.31822968 0.05594651
-0.10947196 -0.31832561 0.055934545
-0.10965 -0.31842682 0.055923712
-0.10982022 -0.31852472 0.055905972
-0.10997263 -0.31861836 0.055851378
-0.11014073 -0.31871223 0.0558521
-0.11032628 -0.31880844 0.055901222
-0.11048823 -0.31890738 0.055846598
-0.11064245 -0.31900293 0.055786241
-0.11083479 -0.31909651 0.055876844
-0.11100445 -0.31919891 0.055827979
-0.11115286 -0.31929082 0.055769935
-0.11133814 -0.31938544 0.055828273
-0.11149573 -0.3194848 0.055755217
-0.11168793 -0.31958312 0.055814695
-0.11185354 -0.31968999 0.055722009
-0.11200505 -0.31978366 0.055663958
-0.1121797 -0.31988156 0.055662364
-0.11234637 -0.31997606 0.055653863
-0.11253436 -0.3200731 0.055706423
-0.11270975 -0.32017514 0.055680599
-0.11287106 -0.32027215 0.055636369
-0.11305185 -0.32037187 0.055645134
-0.11319645 -0.32046399 0.055572107
-0.11334361 -0.3205598 0.055484079
-0.1135297 -0.32065541 0.055538956
-0.113707 -0.32075357 0.055545423
-0.11385906 -0.32084715 0.055489682
-0.11403744 -0.32094148 0.055524968
-0.11422772 -0.32103729 0.055593684
-0.11439791 -0.32114175 0.055533279
-0.1145702 -0.32125184 0.055444032
-0.1147392 -0.32134676 0.055441294
-0.11491761 -0.32144144 0.055474285
-0.11508858 -0.32154208 0.055441555
-0.11525245 -0.32164106 0.055393845
-0.1154222 -0.32173425 0.055404946
-0.11557891 -0.3218278 0.055366486
-0.11574253 -0.32192308 0.055341844
-0.1159376 -0.32202157 0.055410545
-0.11609792 -0.32212621 0.055313263
-0.11626635 -0.32222152 0.055305906
-0.1164398 -0.32232231 0.055281248
-0.11661057 -0.32241768 0.055281967
-0.11679438 -0.32252213 0.055271104
-0.11697078 -0.32261941 0.055279884
-0.11712076 -0.32271132 0.055227607
-0.11728862 -0.32280329 0.05523986
-0.11746988 -0.32290968 0.0552071
-0.11765472 -0.3230108 0.055221625
-0.11781317 -0.32310641 0.055176243
-0.11795506 -0.32319823 0.055095151
-0.11813769 -0.3232924 0.055146575
-0.11831682 -0.32339019 0.055162258
-0.11848992 -0.32349485 0.055111073
-0.11866555 -0.32359436 0.055102549
-0.11884493 -0.32369402 0.055106711
-0.1190173 -0.3237901 0.05510857
-0.1191721 -0.32388401 0.05506089
-0.11933309 -0.3239764 0.055045485
-0.11949494 -0.32407567 0.054988563
-0.11968582 -0.32417768 0.055019211
-0.11987779 -0.32428491 0.055019878
-0.12005943 -0.32439011 0.054996345
-0.12021651 -0.32448083 0.054977484
-0.12038641 -0.32458389 0.054925159
-0.12053616 -0.32467267 0.05489248
-0.12070277 -0.32476392 0.054904737
-0.1209008 -0.32486516 0.054966506
-0.12105422 -0.32496414 0.054880772
-0.12123361 -0.32506454 0.054880314
-0.12141199 -0.32516328 0.054886781
-0.12159391 -0.3252672 0.054872468
-0.12175471 -0.32536498 0.054821316
-0.12191863 -0.32545972 0.054801285
-0.12208334 -0.32555455 0.054783572
-0.12226695 -0.32565552 0.054794632
-0.12244382 -0.32575449 0.054794177
-0.12261246 -0.32585612 0.054746456
-0.12278515 -0.32595327 0.05474256
-0.12296233 -0.32605243 0.054742109
-0.12310837 -0.32614923 0.054643705
-0.12330866 -0.3262471 0.054735448
-0.12349418 -0.3263534 0.054718837
-0.12364355 -0.32645047 0.054630801
-0.12381241 -0.32654601 0.054623447
-0.12399746 -0.3266508 0.054614902
-0.12416457 -0.32674786 0.054591414
-0.12434191 -0.32685208 0.054558665
-0.1244556 -0.32693502 0.054432668
-0.12468976 -0.32703838 0.054611973
-0.12487337 -0.32714945 0.054557301
-0.12503915 -0.32724506 0.054538421
-0.125232 -0.32735401 0.054531008
-0.12540187 -0.32745317 0.054504052
-0.12556303 -0.32754689 0.054480575
-0.1257198 -0.32764173 0.054434039
-0.12589531 -0.32774153 0.054423213
-0.1260937 -0.32784384 0.054479215
-0.12627017 -0.32795286 0.054411873
-0.12644583 -0.32805437 0.054390658
-0.12663054 -0.3281554 0.054405183
-0.1267938 -0.32825261 0.054366708
-0.12697934 -0.32835537 0.054373153
-0.12715235 -0.32845378 0.054362323
-0.12727559 -0.32854635 0.054208633
-0.12751061 -0.32866544 0.054288756
-0.12767178 -0.32875666 0.054281421
-0.12783305 -0.32884797 0.054274086
-0.12799573 -0.32894823 0.054213703
-0.12820381 -0.32905278 0.054290436
-0.12832083 -0.32914293 0.054129831
-0.12853701 -0.32925734 0.054171953
-0.12870678 -0.32935429 0.054158837
-0.12889874 -0.32945564 0.05419755
-0.1290915 -0.32956865 0.054163605
-0.12925699 -0.32965809 0.054183945
-0.12946431 -0.32977745 0.054161504
-0.12964106 -0.32987991 0.054137982
-0.12980607 -0.3299779 0.054100662
-0.12997422 -0.33007076 0.054108292
-0.13015416 -0.33017659 0.054074388
-0.13029779 -0.33026603 0.054015212
-0.13052055 -0.33038375 0.054059613
-0.13066037 -0.33047405 0.053980839
-0.1308547 -0.330578 0.054011472
-0.13103616 -0.3306815 0.053998321
-0.13122909 -0.33078676 0.054015134
-0.13138756 -0.33087721 0.054003187
-0.13156827 -0.33098489 0.053960059
-0.13168785 -0.33106938 0.053845584
-0.13192917 -0.33117425 0.054041006
-0.13209783 -0.33128566 0.053929865
-0.13230866 -0.33140647 0.053910878
-0.1324877 -0.33150595 0.053915031
-0.13264897 -0.33160666 0.053846575
-0.050773766 -0.28961799 0.029205278
-0.050942231 -0.28972629 0.029113721
-0.051110122 -0.28983212 0.029036015
-0.051272657 -0.28993338 0.028968703
-0.05143743 -0.29003569 0.028902546
-0.051600236 -0.29013371 0.02885714
-0.051758297 -0.29022783 0.028819837
-0.051918343 -0.29032466 0.028772131
-0.052072451 -0.29041606 0.028738288
-0.052226231 -0.29050511 0.028718295
-0.052378386 -0.29059219 0.028705215
-0.052532677 -0.29068014 0.02869444
-0.052685715 -0.29076862 0.028675599
-0.052836463 -0.29085422 0.028667143
-0.052986182 -0.29094064 0.028649461
-0.053136133 -0.29102331 0.028657146
-0.053287163 -0.29110959 0.028645229
-0.053429544 -0.29118872 0.028648324
-0.053575959 -0.29126692 0.028672177
-0.05372183 -0.29134661 0.028684493
-0.053866461 -0.29142681 0.028688734
-0.054002728 -0.29149365 0.028749522
-0.054145798 -0.2915675 0.02878952
-0.054287076 -0.29163891 0.028838765
-0.054421879 -0.2917037 0.028907625
-0.054561108 -0.29177451 0.028953403
-0.054699302 -0.29183939 0.029033793
-0.054833092 -0.29190716 0.029079588
-0.054967344 -0.29196647 0.029181898
-0.055097304 -0.29202199 0.029293444
-0.055231437 -0.29208317 0.029383074
-0.05536063 -0.29213968 0.029485395
-0.055491187 -0.2922003 0.029565806
-0.055621359 -0.29225326 0.02969465
-0.055752426 -0.29231203 0.029788898
-0.055883791 -0.29236639 0.029913131
-0.056011103 -0.29241949 0.030030455
-0.056140594 -0.29247564 0.030136235
-0.056272179 -0.29253221 0.03024663
-0.056402221 -0.29257658 0.030430838
-0.056508683 -0.29260597 0.030626655
-0.056634307 -0.29265565 0.030760121
-0.056753166 -0.29269519 0.030935142
-0.056872167 -0.29273459 0.031111315
-0.056989759 -0.29277164 0.031297859
-0.053599153 -0.2863028 0.061007977
-0.053796142 -0.28642598 0.060923278
-0.053966723 -0.28651503 0.060964368
-0.054159053 -0.28662106 0.060974255
-0.054352887 -0.28674001 0.060905717
-0.054544833 -0.28685272 0.060870618
-0.054727186 -0.28695387 0.060875915
-0.054911807 -0.28705877 0.060865067
-0.055106889 -0.28718072 0.060781524
-0.055285681 -0.28727296 0.060831822
-0.055470683 -0.28737897 0.0608152
-0.055658322 -0.28748944 0.060778964
-0.055837467 -0.28758615 0.060801584
-0.056029923 -0.28770128 0.060752645
-0.056214936 -0.287808 0.060731415
-0.056393441 -0.28790399 0.060756333
-0.056581795 -0.28801665 0.060708568
-0.056725986 -0.28809291 0.060737029
-0.056927886 -0.28822523 0.060610801
-0.057135563 -0.28834072 0.060614884
-0.057324786 -0.28844804 0.060605168
-0.057508115 -0.28854918 0.060613927
-0.057688072 -0.28865254 0.060596168
-0.057873484 -0.2887657 0.060534563
-0.05805409 -0.28885841 0.060588315
-0.058241487 -0.28896737 0.060561307
-0.058411144 -0.2890653 0.060541268
-0.058611769 -0.28918609 0.0604854
-0.058789395 -0.28928211 0.06050685
-0.05896724 -0.28938714 0.060470641
-0.059145216 -0.28948832 0.060459811
-0.059342589 -0.28960407 0.060424708
-0.05952131 -0.28970265 0.060433477
-0.05969996 -0.28980121 0.060442254
-0.059880599 -0.28991258 0.060374893
-0.060057651 -0.2900129 0.06036637
-0.060238641 -0.29012552 0.060292087
-0.060436934 -0.29023543 0.060298502
-0.060613081 -0.2903299 0.060324579
-0.060804412 -0.29044974 0.060241051
-0.060985312 -0.29055399 0.060220979
-0.061163515 -0.29065779 0.060194001
-0.061329845 -0.29074746 0.060215488
-0.061484568 -0.29081842 0.060316596
-0.061680462 -0.29093426 0.060275726
-0.061873719 -0.29103991 0.060291376
-0.062053747 -0.2911433 0.060273618
-0.062219508 -0.29125771 0.060132477
-0.062411759 -0.29136705 0.060120456
-0.06260521 -0.29148969 0.060026538
-0.062757671 -0.29155564 0.060151871
-0.062943749 -0.29167345 0.060062587
-0.063140497 -0.29177731 0.060102455
-0.063316673 -0.29187378 0.060115844
-0.063497305 -0.29198036 0.060079627
-0.063670732 -0.29207084 0.06012186
-0.063851424 -0.29217798 0.060082182
-0.064030483 -0.29227585 0.060096726
-0.064206503 -0.29237255 0.060107805
-0.064391583 -0.29249087 0.060011603
-0.064573258 -0.29260159 0.059952319
-0.064748995 -0.29269832 0.059962247
-0.064924315 -0.29279411 0.059976798
-0.065097488 -0.29289722 0.059935983
-0.065279275 -0.29299679 0.059949368
-0.065459952 -0.29310662 0.059892382
-0.065636434 -0.29320607 0.059887324
-0.065813363 -0.29330683 0.059875336
-0.06599471 -0.29341951 0.059802212
-0.066160455 -0.29350477 0.059850238
-0.066337883 -0.29361454 0.05978173
-0.06650684 -0.29370874 0.059783604
-0.06669151 -0.29381064 0.059792358
-0.066876508 -0.29391363 0.059795342
-0.067040779 -0.29400235 0.059815686
-0.067230009 -0.29411781 0.05975293
-0.067388311 -0.29421243 0.059713304
-0.067585744 -0.29432982 0.059667822
-0.06775029 -0.29442811 0.059627034
-0.067911498 -0.29451653 0.05963815
-0.068106823 -0.29462034 0.059673414
-0.068288028 -0.29473007 0.059618741
-0.068461344 -0.2948235 0.059641369
-0.068619698 -0.29492062 0.059585594
-0.068785734 -0.29500803 0.059620932
-0.068986028 -0.29512012 0.059620425
-0.069160163 -0.29521683 0.05962459
-0.069337726 -0.29532579 0.059561856
-0.069505632 -0.29541051 0.059621401
-0.069686368 -0.29552191 0.059554048
-0.069857009 -0.295627 0.059491321
-0.070025131 -0.2957232 0.059477061
-0.070209585 -0.29582959 0.059455827
-0.070388637 -0.29594791 0.059337717
-0.070556469 -0.29602176 0.059467629
-0.070734903 -0.29612729 0.059430264
-0.070887983 -0.29623228 0.059304148
-0.071040802 -0.29631302 0.0593349
-0.071236312 -0.29642135 0.059341326
-0.071429268 -0.29653108 0.059329301
-0.071603738 -0.29663405 0.059294254
-0.071752608 -0.29670972 0.059343472
-0.071917623 -0.29680878 0.059299223
-0.072105974 -0.29691115 0.059318349
-0.07227429 -0.29701367 0.059263706
-0.072474033 -0.29711604 0.059324335
-0.072621003 -0.29719687 0.05933319
-0.072820522 -0.29731435 0.059294619
-0.072995335 -0.2974239 0.059218042
-0.073143631 -0.29751432 0.059169218
-0.073328495 -0.29761547 0.059183739
-0.073513538 -0.29771793 0.059190191
-0.073686689 -0.29781997 0.059156302
-0.073857829 -0.29792994 0.059063591
-0.074033014 -0.29802689 0.059070062
-0.074205503 -0.29812643 0.059050016
-0.074376434 -0.29821286 0.059109554
-0.074542567 -0.29830989 0.059082609
-0.07472083 -0.29840875 0.059087921
-0.07489343 -0.29851225 0.059042498
-0.075065799 -0.29861456 0.059003998
-0.075237609 -0.29871142 0.05899895
-0.075396568 -0.29879999 0.05900085
-0.075581014 -0.29890427 0.058993459
-0.075753003 -0.29900691 0.058951497
-0.075921267 -0.29909945 0.058961451
-0.076096073 -0.29920048 0.058940236
-0.076264158 -0.29929009 0.058968648
-0.076435708 -0.29939067 0.058938213
-0.07660082 -0.29948786 0.058906652
-0.076765805 -0.29958427 0.058879707
-0.07693065 -0.29967508 0.05888851
-0.077101819 -0.29976287 0.058939978
-0.077285632 -0.2998746 0.058881849
-0.077450313 -0.29997155 0.058850285
-0.077602252 -0.30006012 0.058826827
-0.077810884 -0.30018714 0.058759391
-0.077981643 -0.30028483 0.058745123
-0.078152336 -0.30038229 0.058732003
-0.07830441 -0.30046135 0.058770824
-0.078481473 -0.30056077 0.058768064
-0.07864546 -0.30065858 0.058728434
-0.078818433 -0.30076656 0.058655322
-0.078976668 -0.30085084 0.058682606
-0.079155751 -0.30096135 0.058615256
-0.079327285 -0.3010456 0.058690943
-0.079519168 -0.30115953 0.05864777
-0.079688884 -0.30126053 0.058608122
-0.079858914 -0.30135798 0.058592696
-0.080029503 -0.30145097 0.058608413
-0.080176786 -0.30154011 0.058564201
-0.080330797 -0.3016293 0.058544204
-0.080532774 -0.30174002 0.05855868
-0.080683567 -0.30182725 0.058539845
-0.080836132 -0.30192342 0.058469102
-0.080997936 -0.30200651 0.058517132
-0.08117687 -0.30212724 0.05838288
-0.081370093 -0.30222791 0.058430828
-0.081541471 -0.30231598 0.058481146
-0.081718758 -0.3024253 0.058414944
-0.0818877 -0.30252391 0.058387987
-0.082057364 -0.30261922 0.058385249
-0.082234003 -0.30271521 0.058403254
-0.082385771 -0.30279621 0.058428243
-0.08255057 -0.3028959 0.058379374
-0.082722895 -0.30299428 0.058366247
-0.08289431 -0.30309552 0.058331214
-0.083069354 -0.30319649 0.058311153
-0.083231464 -0.30329144 0.058283057
-0.083393924 -0.30338502 0.058265351
-0.083582781 -0.30348855 0.058278702
-0.083732724 -0.30356395 0.058333691
-0.083895721 -0.30367699 0.058191407
-0.084050491 -0.30377015 0.058148332
-0.084230348 -0.30386689 0.058173254
-0.084404744 -0.30396801 0.058149733
-0.084572338 -0.30405718 0.058179293
-0.084736265 -0.30414608 0.058197334
-0.084908798 -0.30425131 0.058140375
-0.085082248 -0.30433613 0.058219522
-0.085227855 -0.30442238 0.058188006
-0.085391566 -0.30453777 0.058033034
-0.085585982 -0.30463716 0.05809366
-0.085736409 -0.30472097 0.058095589
-0.085918441 -0.30483791 0.057997085
-0.08609309 -0.30493706 0.057987411
-0.086253494 -0.30502468 0.058000844
-0.086434081 -0.30512786 0.057986543
-0.086586505 -0.30522275 0.057923872
-0.086747266 -0.30530223 0.05799152
-0.086932123 -0.30540496 0.057995655
-0.087114736 -0.30551156 0.057966359
-0.087276563 -0.30560389 0.057954416
-0.087420486 -0.30569118 0.057910211
-0.087594159 -0.30579138 0.057890162
-0.087771237 -0.30589277 0.057874713
-0.087938815 -0.30598903 0.057858139
-0.088123269 -0.30609205 0.057858828
-0.088272914 -0.30617651 0.057853825
-0.088435292 -0.30626133 0.057892632
-0.08859577 -0.30634278 0.057946429
-0.088761546 -0.30645984 0.057787992
-0.088935331 -0.30656525 0.057734497
-0.089109249 -0.30666435 0.057722513
-0.089281179 -0.30675435 0.057762444
-0.089447796 -0.3068513 0.057737805
-0.089606471 -0.30694115 0.057730474
-0.089773946 -0.3070313 0.05775312
-0.089944124 -0.3071349 0.057698473
-0.090101548 -0.30722067 0.057713065
-0.090282932 -0.30733246 0.057645701
-0.09044981 -0.30742335 0.057661425
-0.090621188 -0.30751976 0.057657532
-0.090785101 -0.30760369 0.057707861
-0.090954989 -0.30771205 0.05762092
-0.091105856 -0.30779985 0.057598628
-0.091266267 -0.30789262 0.057578605
-0.091446258 -0.30799493 0.057567768
-0.091612682 -0.30808645 0.057577725
-0.091784731 -0.30819178 0.057518464
-0.091945477 -0.30828404 0.05750306
-0.092105836 -0.30837661 0.057484198
-0.092274107 -0.30847573 0.057451468
-0.092457913 -0.30857432 0.057478681
-0.092607401 -0.30866295 0.057446003
-0.092779242 -0.30875874 0.057447877
-0.0929536 -0.30885684 0.057443973
-0.093113236 -0.30894545 0.057448182
-0.093266159 -0.30904415 0.057362441
-0.093445487 -0.30914238 0.057375818
-0.093623303 -0.3092376 0.057403054
-0.093771376 -0.3093313 0.057332315
-0.093931094 -0.30942404 0.057309993
-0.094097763 -0.30950719 0.057375312
-0.09426567 -0.30960611 0.057342581
-0.094448313 -0.30970618 0.057355963
-0.094609335 -0.30980605 0.057292115
-0.094761565 -0.3099001 0.057234053
-0.094925977 -0.30998534 0.057277471
-0.095102027 -0.31008226 0.057287402
-0.09527839 -0.3101868 0.057248887
-0.095444009 -0.31027538 0.057274994
-0.095598623 -0.31037521 0.057188097
-0.095768325 -0.31046876 0.057196885
-0.095938981 -0.3105655 0.057188384
-0.09608987 -0.31065613 0.057147622
-0.096261367 -0.310756 0.05712181
-0.096436471 -0.31085363 0.057123672
-0.096601419 -0.31094292 0.057142861
-0.096771784 -0.3110542 0.057038613
-0.096946105 -0.31114873 0.057057779
-0.097095348 -0.31123295 0.057052787
-0.097268388 -0.31133884 0.056993522
-0.097427458 -0.31142801 0.056991965
-0.097589113 -0.31151581 0.057008855
-0.097742155 -0.31160146 0.05700846
-0.097919643 -0.31171498 0.056915741
-0.098064914 -0.31180459 0.056861155
-0.098232441 -0.31188947 0.056918405
-0.098399289 -0.31198478 0.056905292
-0.098562926 -0.31207511 0.056912947
-0.098726787 -0.31216535 0.056921754
-0.098904662 -0.31225547 0.056982432
-0.099088162 -0.31235924 0.056975044
-0.099249795 -0.31245074 0.056967705
-0.099455431 -0.3125667 0.056961417
-0.09961842 -0.31266391 0.056921788
-0.099749804 -0.31274685 0.056860324
-0.099916071 -0.31284255 0.056842595
-0.10009238 -0.31294015 0.056849066
-0.10025078 -0.31303304 0.056820981
-0.10039869 -0.31312716 0.056746792
-0.10055423 -0.31321508 0.056740623
-0.1007212 -0.31331044 0.05672751
-0.10089169 -0.31340745 0.056716699
-0.1010603 -0.31350517 0.056694355
-0.10123633 -0.31360596 0.05667891
-0.10139593 -0.31369829 0.056658901
-0.10156468 -0.31379309 0.056656159
-0.10173409 -0.31389055 0.056638423
-0.10188903 -0.31398737 0.056572285
-0.10206547 -0.31408235 0.056596052
-0.10223567 -0.31417954 0.056582931
-0.10240636 -0.3142738 0.056590576
-0.10256155 -0.31436208 0.05658095
-0.10271285 -0.31445986 0.056495212
-0.10287308 -0.3145465 0.056514412
-0.10305216 -0.31464919 0.056497812
-0.10322241 -0.31474376 0.056501988
-0.10336898 -0.31483465 0.056443941
-0.10354032 -0.31492627 0.056471191
-0.10371069 -0.31502619 0.056440763
-0.10388759 -0.3151243 0.056446079
-0.10405561 -0.31521443 0.056471031
-0.10421371 -0.31531513 0.056391045
-0.10439138 -0.31541312 0.056399811
-0.10455939 -0.31550854 0.056390155
-0.10472289 -0.31560004 0.056389742
-0.10488256 -0.31569508 0.056352425
-0.10504508 -0.31578937 0.0563301
-0.10521089 -0.31588039 0.056341209
-0.10538451 -0.31598711 0.056278482
-0.10555197 -0.3160778 0.056297667
-0.10569991 -0.31616804 0.056248844
-0.10588185 -0.31627038 0.056244921
-0.10603397 -0.31636456 0.056185707
-0.10620302 -0.31645507 0.056211807
-0.10636364 -0.31654742 0.056195252
-0.10654923 -0.31664914 0.056208614
-0.10671928 -0.31674927 0.056175888
-0.10689203 -0.31684646 0.056171987
-0.10704978 -0.31693473 0.056171581
-0.10720688 -0.31703258 0.056106597
-0.10736452 -0.31712556 0.056075051
-0.10754631 -0.31722125 0.056113802
-0.10770498 -0.31731412 0.056086868
-0.10786342 -0.31740704 0.056058783
-0.10804599 -0.31750512 0.056084841
-0.10822595 -0.317606 0.056083232
-0.10838336 -0.3176946 0.056079365
-0.1085493 -0.31778869 0.056070879
-0.10870978 -0.31789041 0.055993184
-0.10887903 -0.31798404 0.055999674
-0.10903532 -0.31807736 0.055961214
-0.10920822 -0.31817496 0.055955008
-0.10939303 -0.31827325 0.05598798
-0.10955282 -0.31836832 0.055950671
-0.10972048 -0.31846675 0.055920251
-0.10987765 -0.31856215 0.055871412
-0.11004366 -0.31865647 0.055861764
-0.11022571 -0.31874892 0.055922419
-0.11039983 -0.3188467 0.055919677
-0.11054435 -0.31894356 0.055815503
-0.11072733 -0.31903619 0.055878468
-0.11089914 -0.31913853 0.055837665
-0.11104912 -0.31923258 0.055771537
-0.11124019 -0.3193205 0.055894461
-0.11139572 -0.31942031 0.055811021
-0.11156843 -0.31951642 0.055814043
-0.11173804 -0.31962109 0.055750169
-0.11189139 -0.31971684 0.055685192
-0.11205769 -0.31981149 0.055674385
-0.11222641 -0.31990802 0.055660117
-0.11240946 -0.32000351 0.055704635
-0.11258152 -0.32010192 0.055690348
-0.11275806 -0.32020408 0.055667993
-0.1129193 -0.32029927 0.055635281
-0.11307575 -0.32039675 0.055570297
-0.11323719 -0.32048798 0.055564109
-0.11339208 -0.32058159 0.055518735
-0.1135826 -0.32067913 0.05557707
-0.11373903 -0.32077661 0.055512086
-0.11390185 -0.3208679 0.055510513
-0.11409995 -0.32096151 0.055621888
-0.11427943 -0.32106 0.055634119
-0.11444774 -0.32117051 0.055527575
-0.1145988 -0.32126817 0.055441838
-0.11478621 -0.32136646 0.055484042
-0.11494652 -0.32146379 0.055434033
-0.11511969 -0.32156265 0.055420905
-0.11529107 -0.32165784 0.055425081
-0.11545384 -0.32175139 0.055408522
-0.11561038 -0.32184699 0.055356216
-0.11579242 -0.32194209 0.055399582
-0.11597443 -0.32204288 0.055406038
-0.11613762 -0.32214394 0.055342183
-0.11630472 -0.32224312 0.055304844
-0.11646758 -0.3223387 0.055275597
-0.11664949 -0.32243782 0.055292442
-0.11682852 -0.32254067 0.055274677
-0.11700238 -0.32263812 0.055273086
-0.11715 -0.32272658 0.055234641
-0.1173375 -0.322826 0.055269916
-0.11749269 -0.32292706 0.055177249
-0.11768462 -0.32303017 0.055204444
-0.11784595 -0.32312417 0.055179819
-0.11797972 -0.32321075 0.055103347
-0.11817401 -0.32331058 0.055160522
-0.11834168 -0.32340655 0.055146247
-0.1185168 -0.32350966 0.055112354
-0.11868719 -0.3236075 0.055095777
-0.11887552 -0.32371446 0.055084914
-0.11904792 -0.323809 0.055097163
-0.11920984 -0.32390153 0.055084068
-0.11938336 -0.32399794 0.055088237
-0.11953116 -0.32409519 0.054993279
-0.11972103 -0.32419735 0.055019319
-0.11990376 -0.324301 0.055009633
-0.12007681 -0.32440263 0.054978047
-0.12023929 -0.3244971 0.05495457
-0.1204035 -0.32459503 0.054914929
-0.12055434 -0.32468563 0.054874178
-0.12073644 -0.32478115 0.054915234
-0.12092306 -0.32488361 0.054927446
-0.12109302 -0.32498032 0.054916635
-0.12125833 -0.3250801 0.054868925
-0.12145142 -0.32518476 0.054890346
-0.12162188 -0.32528654 0.054848388
-0.12178682 -0.3253831 0.054820284
-0.12194627 -0.32547444 0.054806035
-0.12211856 -0.32557315 0.054790601
-0.12229961 -0.32567412 0.054792445
-0.12248664 -0.32577717 0.054802358
-0.1226494 -0.32587534 0.054755799
-0.12281622 -0.32597223 0.054732312
-0.12299079 -0.32606974 0.054733016
-0.12313566 -0.32616502 0.054640379
-0.12334143 -0.32626346 0.054748271
-0.12352462 -0.32637289 0.054702818
-0.12368247 -0.32647079 0.054640129
-0.1238506 -0.32656488 0.054639705
-0.12402792 -0.32666606 0.054626565
-0.12420308 -0.32676709 0.054606512
-0.12436631 -0.32686552 0.054559954
-0.12449305 -0.32695135 0.054462746
-0.12473726 -0.32705888 0.054651283
-0.12491019 -0.32716912 0.054563183
-0.12506506 -0.32726076 0.054530501
-0.1252705 -0.32737571 0.054529969
-0.12543499 -0.32746989 0.054515712
-0.12560718 -0.32756642 0.054514118
-0.12575705 -0.32765916 0.05445607
-0.12592335 -0.32775664 0.054426812
-0.12613285 -0.32786483 0.054485101
-0.12629688 -0.32797116 0.054390099
-0.12647645 -0.32807022 0.054398868
-0.12666382 -0.32817471 0.054400697
-0.12683281 -0.32827121 0.054387584
-0.12700804 -0.32836998 0.054382518
-0.12719354 -0.32847589 0.054368202
-0.12731513 -0.32855958 0.054266393
-0.12754418 -0.328684 0.05429003
-0.12771875 -0.32877848 0.054310352
-0.12788035 -0.32886997 0.054303017
-0.12803757 -0.32896826 0.054235719
-0.12823161 -0.32906973 0.054281365
-0.1283703 -0.32916278 0.054180663
-0.12857449 -0.32927436 0.054197446
-0.12873262 -0.32937136 0.054141674
-0.12891358 -0.32946855 0.05416774
-0.12913018 -0.32959205 0.054152198
-0.12930058 -0.32968226 0.054185212
-0.12949651 -0.32979882 0.05413973
-0.12967524 -0.32990023 0.054130048
-0.12984145 -0.32999712 0.05410425
-0.13001621 -0.33009529 0.054101493
-0.13018641 -0.33019283 0.054086063
-0.13035212 -0.33028698 0.054076418
-0.13055857 -0.33040392 0.054066662
-0.13070729 -0.33049566 0.05401092
-0.1308839 -0.33059573 0.0540024
-0.13107035 -0.33070287 0.053983465
-0.13125916 -0.33080906 0.05397952
-0.13142139 -0.33090019 0.0539768
-0.13160929 -0.33100498 0.053978629
-0.13172509 -0.33109036 0.053844538
-0.13196239 -0.33119476 0.054028481
-0.13214275 -0.33130953 0.053938054
-0.13235104 -0.33142874 0.053920224
-0.13253176 -0.33153269 0.053901307
-0.13269295 -0.33162946 0.053858224
-0.13286179 -0.33172747 0.053834721
-0.050754275 -0.28960386 0.029226366
-0.05092743 -0.28971797 0.029113989
-0.051098976 -0.28982639 0.029032774
-0.051262349 -0.28992864 0.028961971
-0.051427253 -0.29002908 0.028908461
-0.05159016 -0.29012716 0.028863026
-0.051751517 -0.29022545 0.028810687
-0.05191417 -0.29032356 0.028764103
-0.05207064 -0.29041591 0.028732533
-0.052225567 -0.2905044 0.028720586
-0.052378766 -0.29059279 0.028702864
-0.05253252 -0.29068202 0.028681692
-0.052687198 -0.29077053 0.028668586
-0.052836832 -0.2908546 0.028665882
-0.052989386 -0.29094264 0.028648164
-0.053138979 -0.29102689 0.028644301
-0.053291664 -0.2911132 0.028638128
-0.053436864 -0.29119393 0.028641198
-0.053583339 -0.29127216 0.02866503
-0.053732257 -0.2913537 0.028676178
-0.053877391 -0.29143456 0.028678097
-0.054016691 -0.29150328 0.028737715
-0.054159366 -0.29157653 0.028780015
-0.054303005 -0.29164892 0.028831542
-0.05443655 -0.29171196 0.028907325
-0.054579243 -0.29178521 0.028949635
-0.05471715 -0.29185191 0.029017327
-0.054854259 -0.29191744 0.029089641
-0.054988816 -0.29197711 0.029190805
-0.055119276 -0.29203326 0.029300055
-0.055257924 -0.2920984 0.029380441
-0.055386983 -0.29215464 0.029483922
-0.055520389 -0.29221454 0.029579323
-0.055646632 -0.29226655 0.029700123
-0.055785596 -0.2923294 0.029796656
-0.055911779 -0.29238099 0.029919762
-0.056041501 -0.29243511 0.030039391
-0.056172226 -0.29249051 0.030154407
-0.056310002 -0.2925511 0.030261334
-0.056435227 -0.29258832 0.030474421
-0.056543618 -0.29262286 0.030643724
-0.056668781 -0.2926693 0.03079683
-0.056789964 -0.29270959 0.030975323
-0.05691129 -0.29274976 0.031154968
-0.057035334 -0.29279113 0.031336915
-0.053681858 -0.28635564 0.060965031
-0.053877935 -0.28647408 0.060907967
-0.054051556 -0.28655756 0.060996339
-0.054248855 -0.28667825 0.060928896
-0.054442223 -0.28679302 0.060885698
-0.054628827 -0.28689727 0.060886346
-0.054821618 -0.28701153 0.060844306
-0.055010129 -0.28711915 0.060829952
-0.055198278 -0.28722996 0.060793687
-0.055380795 -0.28732818 0.060818575
-0.055575773 -0.28744686 0.060755763
-0.055756927 -0.28754309 0.060788736
-0.055948082 -0.28765592 0.060750149
-0.056136776 -0.28776488 0.06072773
-0.056320049 -0.28786492 0.060743388
-0.056508597 -0.287974 0.06071981
-0.056673184 -0.28806555 0.060722832
-0.056836639 -0.2881707 0.060633563
-0.057071708 -0.28830189 0.060635235
-0.057269141 -0.28842318 0.060564335
-0.057449393 -0.28851891 0.060597312
-0.057621621 -0.2886126 0.06061415
-0.057823569 -0.28873858 0.060529403
-0.057999894 -0.28882766 0.060591221
-0.058186989 -0.2889359 0.060567647
-0.058364466 -0.28903949 0.060539488
-0.058552161 -0.2891534 0.060481306
-0.058743667 -0.28925771 0.060499251
-0.058929831 -0.28936508 0.060477987
-0.059092212 -0.28945878 0.060459085
-0.059299998 -0.28958073 0.060421616
-0.059483513 -0.28968379 0.060418814
-0.059663836 -0.28978094 0.060442563
-0.059841666 -0.2898913 0.060371719
-0.060025074 -0.28999463 0.060366612
-0.060198769 -0.29010212 0.060299236
-0.060409579 -0.29022241 0.060283672
-0.060587984 -0.29031655 0.060320113
-0.060778048 -0.29043373 0.060249232
-0.060956288 -0.29054201 0.060193375
-0.061141044 -0.2906445 0.060198653
-0.061298866 -0.2907362 0.060176309
-0.061468899 -0.29080895 0.060321219
-0.061668687 -0.29092768 0.060275689
-0.061859909 -0.29103398 0.060279787
-0.062041067 -0.2911396 0.06025162
-0.062207453 -0.29125011 0.060138114
-0.062401161 -0.2913624 0.060112216
-0.062588349 -0.29148188 0.060015962
-0.062754035 -0.29155526 0.060141265
-0.062939323 -0.29167119 0.060061172
-0.063139141 -0.29177624 0.060104482
-0.063319445 -0.29187626 0.060109761
-0.063500568 -0.29198381 0.060068898
-0.063676216 -0.29207358 0.060123809
-0.06386169 -0.2921859 0.060067929
-0.06403961 -0.29228103 0.060096301
-0.064218804 -0.29238501 0.060071588
-0.064402238 -0.29249939 0.059994958
-0.06458725 -0.29261196 0.059935622
-0.064765282 -0.29270804 0.059958227
-0.064943947 -0.2928057 0.059972741
-0.065120906 -0.29291183 0.059926122
-0.065303758 -0.29301396 0.059926786
-0.065487474 -0.29312494 0.059873231
-0.065663308 -0.29322261 0.059877373
-0.065843292 -0.29332459 0.059868816
-0.066025294 -0.29343885 0.059787571
-0.066185579 -0.29351628 0.059866749
-0.066365078 -0.29363146 0.059770513
-0.066543274 -0.2937296 0.059780419
-0.066731349 -0.29383358 0.059787992
-0.06691657 -0.29393706 0.059788648
-0.067091979 -0.29403502 0.05978933
-0.067273661 -0.2941438 0.059742697
-0.067433044 -0.29424152 0.059686899
-0.067636773 -0.29436189 0.059644818
-0.06778457 -0.29444939 0.059613273
-0.067983851 -0.29455701 0.059638128
-0.068156928 -0.29464924 0.059667654
-0.068345137 -0.29476413 0.059604861
-0.068518892 -0.2948589 0.059620544
-0.068673313 -0.29495186 0.059577443
-0.068864755 -0.29505208 0.059621923
-0.069051638 -0.29515505 0.059631806
-0.06922847 -0.29526091 0.059586339
-0.069405742 -0.29535922 0.059591636
-0.069580883 -0.2954599 0.059573866
-0.069760129 -0.29556587 0.059536465
-0.069933765 -0.29567191 0.05947832
-0.07009811 -0.29576406 0.059476726
-0.070284352 -0.29587734 0.059417386
-0.070473351 -0.29599127 0.05936382
-0.07063967 -0.29606977 0.059457973
-0.070810147 -0.29617688 0.05938137
-0.070957333 -0.29626882 0.059318684
-0.071135692 -0.29636297 0.059355121
-0.071345001 -0.29648238 0.059339561
-0.071515791 -0.29658079 0.059320651
-0.071684159 -0.29668158 0.059277508
-0.071845971 -0.29676467 0.059325535
-0.072034821 -0.29686892 0.059334263
-0.072206028 -0.29697093 0.059293419
-0.072385162 -0.29706994 0.059301011
-0.072564647 -0.29717109 0.059295926
-0.072749078 -0.29726771 0.059338119
-0.072927862 -0.29738268 0.059240736
-0.073092222 -0.29748175 0.059194148
-0.0732558 -0.29757667 0.059171785
-0.07344944 -0.29767719 0.059222031
-0.073626861 -0.29778767 0.059148878
-0.07380069 -0.29789487 0.059083804
-0.073976032 -0.29799211 0.059089109
-0.074149221 -0.29809648 0.059040181
-0.074323386 -0.29818451 0.059100859
-0.074489728 -0.29828256 0.059068114
-0.074670434 -0.29837516 0.059123009
-0.074844025 -0.29848757 0.059023328
-0.075016215 -0.29858693 0.059003256
-0.075188212 -0.29868495 0.058991261
-0.075353526 -0.29877588 0.0590012
-0.075534694 -0.29887548 0.059012257
-0.075710133 -0.29898235 0.058955256
-0.075881891 -0.29908094 0.058938645
-0.076050423 -0.29917863 0.058916267
-0.076224782 -0.29926822 0.058967717
-0.076399542 -0.29936829 0.058952257
-0.076561652 -0.29946664 0.058902211
-0.076733053 -0.29956505 0.0588856
-0.076888502 -0.29965258 0.05888173
-0.077069245 -0.29974714 0.058923934
-0.077224679 -0.2998302 0.058948889
-0.077424273 -0.29995787 0.058844529
-0.077569954 -0.30004293 0.058821067
-0.07777562 -0.30016547 0.058772065
-0.07794638 -0.30026618 0.058738157
-0.078120388 -0.30036408 0.058734223
-0.078275606 -0.30044687 0.058760338
-0.078443311 -0.30054 0.058764506
-0.078620188 -0.30064288 0.058738656
-0.078793116 -0.30075297 0.058651671
-0.078951463 -0.30083677 0.058682397
-0.079124428 -0.30094281 0.058621936
-0.079305299 -0.30103478 0.058681443
-0.079494238 -0.30114582 0.058646336
-0.079663977 -0.30124739 0.05860319
-0.079834126 -0.30134472 0.058588892
-0.080004744 -0.30143806 0.058602273
-0.080152161 -0.30152693 0.058560353
-0.080306411 -0.30161503 0.058548409
-0.080514602 -0.30173063 0.058553621
-0.080665566 -0.30181724 0.058539368
-0.080814764 -0.30191353 0.058455899
-0.080983251 -0.30199838 0.058516599
-0.081159055 -0.30211788 0.058378845
-0.081352435 -0.30221829 0.058429085
-0.081526853 -0.30230898 0.058473617
-0.081701197 -0.30241612 0.058410846
-0.081873335 -0.3025167 0.058382705
-0.08204937 -0.30261555 0.058379926
-0.082223259 -0.3027086 0.058407143
-0.082371503 -0.3027896 0.058419444
-0.082542337 -0.30289409 0.058361296
-0.082712494 -0.30298752 0.058372382
-0.082883157 -0.3030917 0.058315396
-0.083058737 -0.30319121 0.05830685
-0.083220445 -0.30328774 0.058267191
-0.083398908 -0.30338937 0.058255173
-0.083576255 -0.3034831 0.058290467
-0.083733439 -0.30357036 0.058294661
-0.083887421 -0.30367711 0.058160424
-0.084047541 -0.30376616 0.05816346
-0.084232837 -0.30386898 0.058168724
-0.084404401 -0.30396783 0.058149811
-0.084569469 -0.30405396 0.05818975
-0.084738687 -0.30414903 0.058186993
-0.084905036 -0.30425081 0.058130018
-0.08508011 -0.30433208 0.058237985
-0.085232183 -0.30443048 0.058151059
-0.085409403 -0.3045508 0.058013294
-0.085589364 -0.30463907 0.058093574
-0.085742861 -0.30472496 0.05809316
-0.085933544 -0.30484888 0.057980746
-0.08610376 -0.30494112 0.057999901
-0.086266816 -0.30503163 0.058004081
-0.086455926 -0.3051419 0.057974737
-0.086589344 -0.30522686 0.05790747
-0.086762339 -0.30530661 0.058017753
-0.086954035 -0.30541939 0.057981476
-0.087137103 -0.30552539 0.05795791
-0.087285459 -0.30561247 0.057930984
-0.0874433 -0.30570453 0.05790633
-0.087614514 -0.30580887 0.057850502
-0.087804094 -0.30591068 0.057877682
-0.087967023 -0.30600771 0.057839178
-0.088138953 -0.30610391 0.057838712
-0.088301875 -0.30618799 0.057884425
-0.088460498 -0.30626592 0.057954378
-0.088630103 -0.30637804 0.05784202
-0.088795401 -0.30648953 0.057718128
-0.088969976 -0.30658191 0.05775227
-0.089147687 -0.30668205 0.057747185
-0.089321241 -0.30677599 0.057767484
-0.089479573 -0.30687222 0.05771745
-0.089650311 -0.30696401 0.057741225
-0.089813232 -0.30705997 0.057709638
-0.089984126 -0.30715171 0.05773456
-0.090157293 -0.30726263 0.057642963
-0.090325706 -0.30735722 0.057640206
-0.090500258 -0.30745542 0.057636276
-0.090673655 -0.30754447 0.057687726
-0.090841174 -0.30764017 0.057674583
-0.091000445 -0.30773959 0.057607252
-0.091150381 -0.30782846 0.05757454
-0.091337375 -0.30793363 0.057570584
-0.091505632 -0.30802831 0.057566676
-0.091679618 -0.30813187 0.057525828
-0.091848664 -0.30823055 0.057498846
-0.092006922 -0.30832055 0.057489187
-0.092178062 -0.30842182 0.057452969
-0.092357986 -0.30851948 0.057472095
-0.092521615 -0.30861369 0.057454355
-0.092687853 -0.3087101 0.057432
-0.092867121 -0.30880845 0.057444207
-0.093029208 -0.30889952 0.057441458
-0.093187369 -0.30899832 0.057374131
-0.093368135 -0.30909982 0.057371341
-0.093546137 -0.30919498 0.057399705
-0.093698733 -0.30928943 0.057340458
-0.09386465 -0.30938581 0.057316944
-0.094030984 -0.30946931 0.057378791
-0.09420795 -0.30957383 0.057342559
-0.09438701 -0.30967262 0.05735131
-0.094551794 -0.30977386 0.057292029
-0.09470807 -0.30986914 0.057240855
-0.09487851 -0.30995813 0.057281926
-0.095054366 -0.31005529 0.05728953
-0.095237501 -0.31016308 0.057254434
-0.095399067 -0.31025064 0.057272457
-0.095561035 -0.31035337 0.057193577
-0.09573219 -0.31044984 0.057188503
-0.095904253 -0.31054577 0.057190344
-0.096061908 -0.3106434 0.057128787
-0.09623678 -0.31074125 0.05712831
-0.09641853 -0.31084225 0.057132445
-0.096582189 -0.3109324 0.057141233
-0.096748911 -0.3110424 0.057032347
-0.096929394 -0.31114054 0.057050321
-0.097081363 -0.31122681 0.057041842
-0.09725374 -0.31132966 0.056999851
-0.097415529 -0.31142092 0.056994803
-0.097582713 -0.31151268 0.05700589
-0.09774445 -0.31160745 0.056977764
-0.097913757 -0.31171516 0.056893095
-0.098070435 -0.31180567 0.056874223
-0.098238863 -0.31189352 0.056915302
-0.098407298 -0.31198815 0.056912545
-0.098577954 -0.31208166 0.056924772
-0.09875378 -0.31217277 0.05697161
-0.098929457 -0.31226736 0.056995369
-0.09911675 -0.3123759 0.056970641
-0.099289589 -0.31247509 0.056954026
-0.099481218 -0.31258482 0.056937363
-0.099634454 -0.31268016 0.056874648
-0.099786043 -0.31276676 0.056862712
-0.099966012 -0.31286904 0.056851842
-0.10012407 -0.3129591 0.056841038
-0.10029142 -0.31306055 0.05678983
-0.10043897 -0.3131488 0.056752518
-0.10059828 -0.3132413 0.05673017
-0.10077585 -0.31334156 0.056723926
-0.10094718 -0.31343833 0.056717701
-0.10111117 -0.3135379 0.056666505
-0.10129371 -0.31364217 0.05665217
-0.10146073 -0.31373474 0.056657486
-0.10163662 -0.31383282 0.056659326
-0.10180032 -0.31393525 0.056588516
-0.10196488 -0.31402874 0.056578849
-0.10215554 -0.31413314 0.056593336
-0.10231347 -0.31422612 0.056562915
-0.1024875 -0.3143166 0.056607448
-0.10264268 -0.31441602 0.056525119
-0.10279337 -0.31450301 0.056507416
-0.10297305 -0.31460285 0.056511544
-0.10315336 -0.31469983 0.056536444
-0.10329266 -0.31479573 0.056419551
-0.10346817 -0.31488612 0.056469839
-0.10364176 -0.31498522 0.056456689
-0.10382145 -0.31508788 0.056442365
-0.10400775 -0.31518877 0.056463782
-0.1041572 -0.31528145 0.056404546
-0.10433597 -0.31538182 0.056401759
-0.10450611 -0.31547934 0.056386311
-0.10467303 -0.31557259 0.056387018
-0.10483593 -0.31566942 0.056349661
-0.10499846 -0.31576124 0.056343462
-0.1051702 -0.31585592 0.056352228
-0.1053489 -0.31596658 0.056282528
-0.1055169 -0.31605971 0.056287855
-0.10566761 -0.31614935 0.056252841
-0.10584489 -0.31625032 0.056240831
-0.10600568 -0.3163476 0.056193102
-0.10617682 -0.31644017 0.056213405
-0.10633936 -0.31653219 0.056206048
-0.10652635 -0.31663612 0.056210168
-0.10669916 -0.31673813 0.05617509
-0.106872 -0.31683537 0.056171164
-0.10703298 -0.31692547 0.056170736
-0.10719284 -0.31702521 0.056103393
-0.10735129 -0.31711814 0.05607529
-0.10753776 -0.31721538 0.056120936
-0.10769872 -0.31731024 0.056089353
-0.10786089 -0.3174049 0.056063537
-0.10804478 -0.31750283 0.056095354
-0.10822432 -0.31760612 0.056076407
-0.10838452 -0.31769437 0.056085214
-0.10855199 -0.31779054 0.05606861
-0.10871381 -0.3178921 0.055996653
-0.10888063 -0.31798616 0.05599159
-0.10904346 -0.31808084 0.055968083
-0.10921988 -0.31818026 0.055962995
-0.10939933 -0.31827712 0.055985585
-0.10957 -0.31837744 0.055953983
-0.10973544 -0.3184762 0.055913161
-0.10989004 -0.31856984 0.055866599
-0.11006218 -0.31866562 0.055869602
-0.1102504 -0.31875959 0.05594293
-0.11041622 -0.31886053 0.055889416
-0.11057192 -0.3189562 0.055833634
-0.11076061 -0.3190504 0.055906959
-0.11091513 -0.31915462 0.055791177
-0.11107437 -0.3192457 0.05577806
-0.11127254 -0.3193351 0.055917129
-0.11142185 -0.31943765 0.055793285
-0.11161184 -0.31953844 0.055828542
-0.1117703 -0.31964418 0.055717368
-0.11192714 -0.31973761 0.055680029
-0.11209535 -0.31983423 0.055663422
-0.11227459 -0.31993204 0.055679094
-0.11245762 -0.32002965 0.055709753
-0.11262849 -0.32013026 0.055676993
-0.11279817 -0.32022893 0.055652317
-0.1129737 -0.32033125 0.055625312
-0.11311659 -0.32042167 0.055556867
-0.11328192 -0.32051668 0.055540271
-0.11345393 -0.32061133 0.055550192
-0.11362609 -0.32071191 0.055522051
-0.11378312 -0.32080743 0.05547202
-0.11397937 -0.3209011 0.055576473
-0.11417148 -0.320999 0.055638261
-0.11433832 -0.32110193 0.055575516
-0.11450894 -0.32121429 0.055465456
-0.11467741 -0.32130945 0.055459239
-0.11485798 -0.32140428 0.055499136
-0.11501761 -0.32150549 0.055421412
-0.11518768 -0.32160261 0.055408273
-0.11537124 -0.3217032 0.055421621
-0.11552282 -0.32179335 0.055386607
-0.11569093 -0.32189059 0.055365395
-0.11588822 -0.3219893 0.055441007
-0.11604454 -0.32209238 0.055339068
-0.11622009 -0.32219151 0.055332832
-0.11638427 -0.3222926 0.055272393
-0.11655748 -0.32238632 0.055292703
-0.11674522 -0.32249281 0.055282973
-0.11692238 -0.32259211 0.055281341
-0.11708102 -0.32268605 0.055247463
-0.11725532 -0.32277825 0.055281609
-0.11742158 -0.32288301 0.055205017
-0.11759904 -0.3229807 0.055214923
-0.11777628 -0.32308558 0.055177536
-0.11791989 -0.32317233 0.055135615
-0.11810122 -0.32326847 0.055169746
-0.11828366 -0.32336825 0.055184253
-0.11844511 -0.3234694 0.05511345
-0.11861687 -0.3235673 0.055101447
-0.1188096 -0.32367444 0.055105552
-0.11898614 -0.32377428 0.055098154
-0.11914609 -0.32386681 0.055078112
-0.11932404 -0.32396337 0.055097256
-0.11947532 -0.3240608 0.055013791
-0.11966783 -0.32416481 0.055037498
-0.11985186 -0.32427028 0.05502085
-0.12002672 -0.32437539 0.054973084
-0.12018275 -0.32446626 0.054949597
-0.12035699 -0.32456803 0.054921445
-0.12050673 -0.32465696 0.054887585
-0.12068416 -0.32475394 0.054902103
-0.1208735 -0.32485491 0.054933902
-0.12104726 -0.32495517 0.054913823
-0.12122039 -0.32505542 0.054891445
-0.12140393 -0.32515794 0.054892104
-0.12158209 -0.3252635 0.054853555
-0.12175003 -0.32536191 0.054824263
-0.12191283 -0.32545513 0.054809988
-0.12208335 -0.32555217 0.054799147
-0.12226594 -0.32565325 0.054805577
-0.12245271 -0.32575795 0.05480393
-0.12261884 -0.32585803 0.054757334
-0.122785 -0.32595491 0.054731518
-0.12296513 -0.32605445 0.054739106
-0.12311232 -0.32614997 0.054653339
-0.12331522 -0.32624823 0.054752015
-0.1235003 -0.32635942 0.054701906
-0.12366234 -0.32645774 0.054651864
-0.12382764 -0.32655007 0.054652587
-0.12400714 -0.32665458 0.054625563
-0.12417984 -0.32675388 0.054607794
-0.12434317 -0.32685238 0.05456122
-0.12447491 -0.32693872 0.054478955
-0.12472801 -0.32705176 0.054664016
-0.12489277 -0.32715973 0.054560903
-0.12505217 -0.32725337 0.054531634
-0.12525696 -0.32736832 0.054528777
-0.1254285 -0.32746324 0.05453524
-0.12559767 -0.32755953 0.054524403
-0.12574455 -0.32765201 0.054457095
-0.1259166 -0.32775167 0.05443472
-0.1261258 -0.32785985 0.05449184
-0.12629171 -0.32796794 0.054392185
-0.12647335 -0.32806727 0.054406699
-0.12665844 -0.32817155 0.054401584
-0.12682886 -0.32826978 0.054382667
-0.12702125 -0.32837352 0.054407537
-0.12719594 -0.32847676 0.054371309
-0.12730542 -0.32855755 0.054244116
-0.12754923 -0.32868528 0.054299988
-0.12772825 -0.32878476 0.054304119
-0.12788528 -0.3288728 0.054302547
-0.12804833 -0.32897186 0.05425135
-0.12824976 -0.32908013 0.054279659
-0.12838595 -0.32917002 0.054190453
-0.12859358 -0.3292821 0.054216433
-0.12874144 -0.3293764 0.054141052
-0.12895222 -0.32948476 0.054202788
-0.12914342 -0.32959777 0.054163054
-0.12930854 -0.32969302 0.054144148
-0.12951674 -0.32980844 0.054150518
-0.12969348 -0.32990965 0.054135051
-0.12985766 -0.33000773 0.054094229
-0.13003424 -0.3301048 0.054105289
-0.13020708 -0.33020559 0.054078292
-0.13038573 -0.33030164 0.054103196
-0.13058323 -0.33042014 0.054050751
-0.13072364 -0.3305051 0.054008849
-0.13090371 -0.33060855 0.053991064
-0.13111389 -0.33072349 0.054007806
-0.13127935 -0.33081928 0.053986602
-0.13146587 -0.33091831 0.05402071
-0.13162535 -0.33102018 0.053938366
-0.13174242 -0.33110166 0.05383423
-0.13203685 -0.33121917 0.054140318
-0.13216259 -0.33132541 0.05390694
-0.13238285 -0.33144796 0.053910967
-0.13255775 -0.3315483 0.053894345
-0.13272586 -0.33164895 0.053851202
-0.13290994 -0.33175087 0.053857639
-0.050719585 -0.28958037 0.02925289
-0.050890833 -0.28969201 0.0291497
-0.051063009 -0.28980115 0.029066123
-0.051227745 -0.28990507 0.028989498
-0.051392961 -0.2900078 0.0289221
-0.051553413 -0.29010472 0.028875481
-0.051717397 -0.29020429 0.028824244
-0.051878422 -0.29030025 0.028785694
-0.052037168 -0.2903955 0.028743699
-0.052194349 -0.29048681 0.028721318
-0.052348815 -0.29057682 0.028697794
-0.052499752 -0.29066235 0.028690439
-0.052653551 -0.29074967 0.028681915
-0.052806094 -0.2908375 0.028665315
-0.052958947 -0.29092589 0.028646417
-0.053108823 -0.29101047 0.028641362
-0.053261794 -0.29109713 0.028634001
-0.053405885 -0.29117635 0.028642811
-0.053550124 -0.29125369 0.028664311
-0.053700227 -0.2913368 0.028669646
-0.053842921 -0.29141435 0.028684232
-0.053987432 -0.29149008 0.028717279
-0.054124929 -0.29155847 0.028772252
-0.054268073 -0.29163238 0.028812222
-0.054408774 -0.29170296 0.028864887
-0.054548394 -0.29177201 0.028923325
-0.054683793 -0.29183748 0.028989853
-0.0548237 -0.29190689 0.029047141
-0.0549578 -0.29196596 0.029150598
-0.055087842 -0.29202381 0.029247139
-0.055224754 -0.29208657 0.029336739
-0.055354632 -0.292144 0.02943559
-0.055487167 -0.29220271 0.029535582
-0.055617765 -0.29225856 0.029647119
-0.055751204 -0.29231831 0.029743649
-0.055881515 -0.29237348 0.029858656
-0.056009762 -0.29242554 0.029986357
-0.056140311 -0.29248315 0.030086357
-0.056273483 -0.29253957 0.030203655
-0.056406811 -0.29259357 0.03033711
-0.05651243 -0.29261678 0.030569874
-0.056633774 -0.29266268 0.030712591
-0.056756973 -0.29270604 0.030878382
-0.056876771 -0.29274663 0.031049952
-0.056996189 -0.2927838 0.031242289
-0.053605381 -0.28630707 0.061002865
-0.053802311 -0.28643006 0.060919218
-0.053980932 -0.28652132 0.060975235
-0.054165281 -0.286625 0.06097123
-0.054363322 -0.28674701 0.060897972
-0.054554865 -0.28685901 0.060866266
-0.054739352 -0.28695995 0.060880728
-0.054925967 -0.28706792 0.060857106
-0.055119641 -0.28718749 0.060783856
-0.055298552 -0.28727978 0.060834106
-0.055486985 -0.28739128 0.060794324
-0.0556776 -0.28750291 0.060761474
-0.055855535 -0.28759754 0.060793266
-0.056049868 -0.28771567 0.060731545
-0.056235284 -0.28782299 0.060707934
-0.056416139 -0.28791904 0.060740866
-0.056608103 -0.28803393 0.060691848
-0.056750983 -0.28810787 0.060730673
-0.056958444 -0.28824189 0.060613528
-0.057161365 -0.28835687 0.060603715
-0.057355858 -0.28846925 0.060580067
