# .PCD v0.7 - Point Cloud Data file format
VERSION 0.7
FIELDS x y z
SIZE 4 4 4
TYPE F F F
COUNT 1 1 1
WIDTH 921
HEIGHT 1
VIEWPOINT 0 0 0 1 0 0 0
POINTS 921
DATA ascii
-0.36086863 -0.2725262 0.061336279
-0.36107206 -0.27249828 0.061356071
-0.36129335 -0.2724756 0.061321579
-0.36150607 -0.27245161 0.06130442
-0.36172959 -0.27243006 0.061259538
-0.36194605 -0.27240783 0.061226223
-0.36216408 -0.27238429 0.061200969
-0.36238271 -0.27236319 0.061157264
-0.36257124 -0.27232951 0.061232477
-0.36278722 -0.27230749 0.061198004
-0.36303234 -0.27229592 0.061060771
-0.36323234 -0.27226734 0.061088648
-0.36343527 -0.2722379 0.061119966
-0.36365661 -0.2722187 0.061060108
-0.36382085 -0.27218962 0.061123908
-0.36409247 -0.27217558 0.060980774
-0.3642877 -0.27214298 0.061042119
-0.36449873 -0.27211967 0.061021507
-0.36471531 -0.27209678 0.060992807
-0.36491534 -0.27206865 0.061017223
-0.36514568 -0.27205229 0.060928486
-0.36535406 -0.27202818 0.060915969
-0.36555588 -0.27200112 0.060931146
-0.36576587 -0.27197793 0.060910545
-0.36598235 -0.27195567 0.060877234
-0.36619198 -0.27193254 0.060856633
-0.36641619 -0.27191421 0.060787536
-0.36661631 -0.27188674 0.060807332
-0.36683485 -0.27186596 0.060761321
-0.367035 -0.27183861 0.06077997
-0.36724424 -0.27181345 0.060774367
-0.36744499 -0.27178651 0.060789555
-0.36765602 -0.2717624 0.060774714
-0.36785108 -0.27173269 0.060815293
-0.36806729 -0.27171379 0.060757771
-0.36828005 -0.27169326 0.060715243
-0.36847338 -0.27167735 0.060656663
-0.36869591 -0.27164516 0.060690206
-0.36890578 -0.27162105 0.060676526
-0.36911508 -0.2715992 0.060646698
-0.36932895 -0.27157745 0.060612246
-0.36952481 -0.27154857 0.060645901
-0.36973906 -0.27152976 0.06058953
-0.36994582 -0.27150697 0.060568951
-0.37015539 -0.2714884 0.060514905
-0.37033898 -0.27146059 0.060552083
-0.37056869 -0.27143559 0.060526777
-0.37077254 -0.27141157 0.060517732
-0.3709825 -0.27138856 0.06049598
-0.37118927 -0.27136639 0.060470782
-0.37139666 -0.2713421 0.060460575
-0.37160644 -0.27132195 0.060418062
-0.37180471 -0.27129513 0.060434408
-0.37200013 -0.27126932 0.060446166
-0.37220797 -0.27124292 0.060450949
-0.3724182 -0.27122352 0.060402665
-0.37262976 -0.27120233 0.060365915
-0.37284106 -0.27118388 0.060309563
-0.37302339 -0.27115589 0.060349047
-0.37324208 -0.27113116 0.060331866
-0.37344199 -0.27110589 0.060335536
-0.37361994 -0.27107796 0.060378499
-0.37384754 -0.27105924 0.060309388
-0.37405962 -0.27103928 0.060263403
-0.3742612 -0.27101251 0.060276281
-0.37446904 -0.27099293 0.06023147
-0.37465051 -0.27095872 0.060317099
-0.37484857 -0.27094159 0.060263112
-0.37506983 -0.27092254 0.060202099
-0.37527934 -0.27089861 0.060187262
-0.37548447 -0.27087477 0.060175914
-0.37568301 -0.27085251 0.060158823
-0.37589017 -0.2708303 0.060133621
-0.37609693 -0.27081415 0.060064603
-0.37630096 -0.27079311 0.060033653
-0.37649852 -0.27076119 0.060088061
-0.3767108 -0.27074325 0.060027093
-0.37691662 -0.27072391 0.059982292
-0.37711447 -0.27069873 0.05998712
-0.37729037 -0.27067643 0.059990894
-0.3774837 -0.27066097 0.059928857
-0.3777023 -0.2706323 0.059940502
-0.37791556 -0.27060285 0.059962552
-0.37811616 -0.2705802 0.059946597
-0.37832734 -0.27056271 0.059883334
-0.37851641 -0.27053782 0.059893962
-0.37872612 -0.27051264 0.059888348
-0.37890893 -0.27048963 0.059890945
-0.37913126 -0.27046809 0.059847221
-0.37930223 -0.27044591 0.059854478
-0.37951711 -0.27042544 0.059809636
-0.37971616 -0.27040598 0.059771795
-0.37992841 -0.27037269 0.059822675
-0.38013923 -0.27036017 0.059723653
-0.38031498 -0.27034262 0.059692841
-0.38051397 -0.27030498 0.059787601
-0.38073158 -0.27028418 0.059742749
-0.38091862 -0.27026585 0.059707269
-0.38111755 -0.27024341 0.059691325
-0.38132739 -0.27021581 0.059703007
-0.38152805 -0.27019125 0.059700906
-0.38173279 -0.27017471 0.059636511
-0.3819201 -0.27015337 0.059622936
-0.38210911 -0.27012977 0.059624337
-0.38232955 -0.27010909 0.05957602
-0.38252562 -0.2700887 0.059547409
-0.38272083 -0.2700634 0.059555706
-0.38292301 -0.27004117 0.059535138
-0.38310692 -0.2700212 0.05951466
-0.38331139 -0.27000168 0.059472173
-0.38352922 -0.26998371 0.059406567
-0.38372517 -0.26995528 0.059436772
-0.38391969 -0.26992974 0.059447374
-0.38410297 -0.26990968 0.059428059
-0.38429168 -0.26988673 0.059424847
-0.38450405 -0.26985884 0.059436519
-0.38470095 -0.26984563 0.059354864
-0.38489014 -0.2698141 0.059413932
-0.38507095 -0.2697964 0.05937963
-0.38526481 -0.26977047 0.059393704
-0.38548172 -0.26974848 0.059358072
-0.38566571 -0.26973024 0.059324913
-0.385869 -0.26971152 0.059277825
-0.38606182 -0.26968458 0.059299968
-0.38624263 -0.26966262 0.059296794
-0.38643399 -0.26964426 0.059257828
-0.38663796 -0.26962718 0.059198059
-0.38683835 -0.26960012 0.059214395
-0.38703567 -0.26957422 0.059224993
-0.3872382 -0.26955023 0.059217107
-0.38742328 -0.26952931 0.059202392
-0.38762164 -0.26951659 0.059116121
-0.38781938 -0.26948589 0.059161298
-0.38801256 -0.26946586 0.059132706
-0.38819844 -0.26944676 0.059104145
-0.38839972 -0.26942766 0.059061676
-0.3885923 -0.26940724 0.059036545
-0.38879144 -0.2693789 0.059063278
-0.38899475 -0.26935735 0.05903694
-0.38918778 -0.26933813 0.059002586
-0.38937792 -0.26931423 0.059005134
-0.38956738 -0.26928917 0.059016917
-0.38976339 -0.26926896 0.058987156
-0.38996127 -0.26924536 0.05898045
-0.39015359 -0.26922578 0.058949556
-0.39035246 -0.26920426 0.058926702
-0.39055377 -0.26918042 0.058918819
-0.39073974 -0.2691564 0.058926016
-0.39092901 -0.26913908 0.058881294
-0.39111635 -0.26911804 0.058865406
-0.39131644 -0.26909211 0.058873683
-0.39150801 -0.26907232 0.058845103
-0.39170146 -0.26904026 0.058904141
-0.39188799 -0.26902628 0.058837526
-0.39211515 -0.26900208 0.058808774
-0.39228657 -0.26898003 0.058814868
-0.39246884 -0.26896593 0.058752894
-0.39267135 -0.26894668 0.058710419
-0.39286467 -0.26892349 0.058704883
-0.39305657 -0.26889667 0.058727033
-0.39324713 -0.26887619 0.058704212
-0.39344406 -0.26885289 0.058696363
-0.39364722 -0.26883686 0.058629669
-0.39382979 -0.26881564 0.058619574
-0.3940267 -0.26879293 0.058607109
-0.39421481 -0.26876613 0.058632731
-0.39441937 -0.26874441 0.058606394
-0.39460969 -0.26872474 0.058577813
-0.39480668 -0.26870298 0.058558427
-0.39498892 -0.26868165 0.058549494
-0.39518967 -0.26866055 0.058522016
-0.39537081 -0.26863521 0.058543056
-0.39556417 -0.26861456 0.058519073
-0.39575648 -0.26858976 0.058526229
-0.39594954 -0.26856819 0.058509171
-0.39614311 -0.26854923 0.058472507
-0.39633265 -0.26852903 0.058448534
-0.39654055 -0.26850975 0.058401424
-0.39672875 -0.2684834 0.05842359
-0.39691067 -0.26846239 0.058412347
-0.39710358 -0.26844195 0.058387216
-0.397306 -0.26841351 0.058411621
-0.39749843 -0.26839045 0.058406092
-0.39768761 -0.2683703 0.058382131
-0.39788443 -0.26835379 0.058324691
-0.398074 -0.26833832 0.058266129
-0.39825869 -0.26831272 0.058286011
-0.39845514 -0.26829642 0.05822742
-0.39864337 -0.26827037 0.058247283
-0.39883894 -0.26824549 0.058252115
-0.39903045 -0.26821384 0.05831001
-0.39921904 -0.26819077 0.058307968
-0.39941522 -0.26817623 0.058236692
-0.39960754 -0.26815823 0.058194265
-0.39980671 -0.26813605 0.058176022
-0.39998797 -0.26811245 0.058184382
-0.40017644 -0.26809159 0.058166187
-0.40036485 -0.26807028 0.058151454
-0.40056387 -0.26805097 0.058112454
-0.40075573 -0.26802987 0.058093097
-0.4009476 -0.26800558 0.058096796
-0.40115026 -0.26797715 0.058121197
-0.40132749 -0.26796603 0.058041949
-0.40152648 -0.26794058 0.05804792
-0.40171799 -0.26792189 0.058011256
-0.40190598 -0.26790234 0.057983845
-0.40211198 -0.26787633 0.057987474
-0.40229693 -0.26785055 0.058008503
-0.40248439 -0.26783535 0.05794996
-0.4026756 -0.26781654 0.057914458
-0.40287423 -0.26779348 0.057903133
-0.40307596 -0.26777351 0.057866428
-0.40327883 -0.26774442 0.057895444
-0.4034631 -0.26772407 0.057877265
-0.40364736 -0.26770341 0.057861403
-0.40384012 -0.26767334 0.057906613
-0.40402362 -0.2676574 0.057857305
-0.404212 -0.2676329 0.057865635
-0.40440178 -0.26761964 0.057790931
-0.40459362 -0.26759505 0.05779694
-0.40479678 -0.26756623 0.057823647
-0.40499446 -0.26754692 0.057785802
-0.40517563 -0.26752412 0.057788406
-0.40535197 -0.26750728 0.057751823
-0.40555283 -0.26747432 0.057810824
-0.4057509 -0.26745307 0.057786822
-0.40594023 -0.26742566 0.057815906
-0.40612048 -0.2674194 0.057698585
-0.40632063 -0.26740232 0.057642281
-0.40651563 -0.26737893 0.057636738
-0.40670148 -0.26735193 0.057665832
-0.40689233 -0.26732004 0.05772604
-0.40707257 -0.26730067 0.05770443
-0.40727201 -0.26728511 0.057637755
-0.40746921 -0.26726553 0.057602219
-0.40765503 -0.26724929 0.057552911
-0.40786943 -0.26721907 0.057579566
-0.40805557 -0.26720166 0.057538319
-0.40824321 -0.26717997 0.057527047
-0.40844011 -0.26714274 0.057620667
-0.40868545 -0.26710349 0.057685226
-0.40887636 -0.26708266 0.057664715
-0.40907189 -0.26704198 0.057784863
-0.40926051 -0.26701066 0.057842776
-0.40946981 -0.26697081 0.05794441
-0.40966347 -0.26693651 0.058019593
-0.40986612 -0.26689765 0.058120102
-0.41005778 -0.26686138 0.058211438
-0.41025972 -0.26682529 0.058292352
-0.41044787 -0.26679039 0.058376789
-0.41067487 -0.26674503 0.058502547
-0.41087252 -0.26670551 0.058612306
-0.41107315 -0.26666737 0.058709376
-0.411273 -0.26663136 0.058791447
-0.41147515 -0.26659128 0.05890118
-0.4116815 -0.26655668 0.05896708
-0.41189173 -0.26651514 0.059080243
-0.41209292 -0.26647848 0.059165768
-0.41229585 -0.26643908 0.059269741
-0.41249853 -0.26640069 0.059366785
-0.4127045 -0.26636297 0.059455756
-0.41290843 -0.2663233 0.059560873
-0.34337032 -0.27449965 0.062752113
-0.34354705 -0.27446035 0.062879242
-0.34383452 -0.27444661 0.062719829
-0.34409183 -0.27442566 0.062640131
-0.34433335 -0.27440095 0.062602028
-0.34458056 -0.27437934 0.062536225
-0.34478211 -0.27434486 0.062605575
-0.34500891 -0.27431679 0.062605605
-0.34524092 -0.27429008 0.062590614
-0.34547359 -0.27426523 0.062561788
-0.34564698 -0.27424401 0.062559769
-0.34592888 -0.27421167 0.062541068
-0.34615207 -0.27418149 0.062559575
-0.34638655 -0.27415749 0.062522665
-0.3466273 -0.27413368 0.062478803
-0.346838 -0.27410203 0.062519275
-0.3471548 -0.27409872 0.062257074
-0.34733987 -0.27406046 0.062369172
-0.34758615 -0.27403864 0.062305674
-0.34775853 -0.27400333 0.062407456
-0.34803605 -0.27398542 0.062287301
-0.34825912 -0.27395764 0.0622885
-0.34848756 -0.27393138 0.062273532
-0.34869868 -0.27390206 0.062296703
-0.34892434 -0.27387521 0.062288664
-0.34909961 -0.27384081 0.062381208
-0.34934291 -0.27382237 0.062295813
-0.34956735 -0.27379045 0.062325843
-0.34985635 -0.27378047 0.062137585
-0.35006985 -0.27374893 0.062174588
-0.35029563 -0.27372271 0.06216193
-0.35054132 -0.27370241 0.062088065
-0.3507579 -0.27367368 0.062101986
-0.3510097 -0.27365544 0.062007323
-0.35123745 -0.27363023 0.061985441
-0.35146165 -0.27360579 0.061961256
-0.35166177 -0.27357244 0.062023699
-0.35187671 -0.2735436 0.06203993
-0.35211211 -0.27352107 0.061991476
-0.35233584 -0.27349684 0.061966158
-0.35256082 -0.27347133 0.061948895
-0.35276628 -0.27343985 0.061992854
-0.35300896 -0.27342007 0.061917841
-0.35321236 -0.27338806 0.061967574
-0.35343653 -0.27336267 0.061950319
-0.35366359 -0.27334005 0.061909981
-0.35389653 -0.27331769 0.0618627
-0.35410756 -0.27328837 0.061885878
-0.35435367 -0.27327055 0.061793551
-0.35452855 -0.2732313 0.061921842
-0.35476464 -0.27322116 0.061782286
-0.35500711 -0.27319178 0.061777629
-0.35521531 -0.27316186 0.061807729
-0.35546806 -0.27314699 0.0616877
-0.35571826 -0.27313152 0.061574593
-0.35591629 -0.27309841 0.061637037
-0.35612786 -0.27306998 0.06165329
-0.35632157 -0.27303728 0.061716914
-0.35654405 -0.2730127 0.061695047
-0.35674763 -0.27298161 0.061737865
-0.3569923 -0.27296507 0.061637469
-0.35716349 -0.27293578 0.061696596
-0.35743043 -0.27291617 0.061598398
-0.35763317 -0.27288502 0.061642371
-0.35786319 -0.27286568 0.061575495
-0.35807207 -0.27284455 0.061541013
-0.35830781 -0.27283338 0.061409533
-0.35854656 -0.27280048 0.061433718
-0.35869959 -0.27277434 0.061486006
-0.3589462 -0.2727367 0.061537839
-0.35918093 -0.27271995 0.061447874
-0.35937458 -0.27268583 0.061521873
-0.35959241 -0.27267274 0.06142047
-0.35979807 -0.27265516 0.061362937
-0.36001611 -0.27262861 0.061359551
-0.36026782 -0.27259538 0.061374448
-0.36049214 -0.2725755 0.061316825
-0.36071363 -0.27255264 0.061283443
-0.36091495 -0.27252182 0.061326262
-0.36113095 -0.27249697 0.061312515
-0.36134174 -0.27247208 0.061303385
-0.36155504 -0.2724463 0.061298877
-0.36178064 -0.27242562 0.061245866
-0.36199296 -0.2723996 0.061243657
-0.36222655 -0.27238253 0.06115716
-0.36243874 -0.27235672 0.061153799
-0.36263192 -0.27232501 0.061210513
-0.36286268 -0.27230719 0.061132099
-0.36308962 -0.27228791 0.061067551
-0.36329976 -0.27226156 0.061069958
-0.36350027 -0.27223322 0.061095491
-0.3637206 -0.27221143 0.061055187
-0.36387432 -0.27218634 0.06109941
-0.36414939 -0.27216303 0.061020769
-0.36435774 -0.27213627 0.061027817
-0.36457282 -0.27211261 0.061005995
-0.36477244 -0.27208424 0.061032683
-0.36499402 -0.27206373 0.060981989
-0.36521804 -0.27204451 0.060919762
-0.36543372 -0.27202159 0.060892172
-0.36563709 -0.27199528 0.060900383
-0.36584765 -0.27197012 0.060893577
-0.36606333 -0.2719475 0.060863681
-0.36628354 -0.27192718 0.060813002
-0.36649162 -0.27190343 0.060798123
-0.36670667 -0.27188089 0.060768232
-0.36691028 -0.27185518 0.060771838
-0.36711732 -0.27182889 0.060776576
-0.36732048 -0.27180305 0.060781337
-0.36753035 -0.27177832 0.060772225
-0.36773354 -0.27175266 0.060775831
-0.3679283 -0.27172756 0.060782932
-0.36815831 -0.27170616 0.060731061
-0.36837748 -0.27168658 0.06067577
-0.36857307 -0.27166218 0.060677104
-0.36879152 -0.27163765 0.060658723
-0.368999 -0.27161476 0.060638092
-0.36920866 -0.27159068 0.060624365
-0.36942083 -0.27157056 0.060579494
-0.36961079 -0.271541 0.060623527
-0.36983275 -0.27152139 0.060565915
-0.37001762 -0.27149925 0.060560383
-0.37023371 -0.27148432 0.060473979
-0.37045756 -0.27145091 0.060515538
-0.37065876 -0.27142534 0.060520314
-0.37086633 -0.27140087 0.060511202
-0.37107027 -0.271377 0.060500968
-0.37126321 -0.27136526 0.06041237
-0.371494 -0.27133617 0.060415838
-0.37169549 -0.27130851 0.060435601
-0.37187538 -0.27128413 0.060450848
-0.37210983 -0.27126014 0.060413934
-0.37231255 -0.27123612 0.060406014
-0.3725206 -0.27121273 0.060388841
-0.37273651 -0.27119702 0.060308192
-0.37293828 -0.27116996 0.060323346
-0.37314299 -0.27114758 0.060301565
-0.37333998 -0.27111763 0.060342111
-0.37353247 -0.27109611 0.060325008
-0.37371314 -0.27106705 0.060373705
-0.37395918 -0.27105176 0.060262926
-0.37415943 -0.27102411 0.060283843
-0.3743712 -0.27100703 0.060217056
-0.37454364 -0.27097851 0.060269251
-0.37476534 -0.27095658 0.060228951
-0.37496948 -0.27093774 0.060181811
-0.37518412 -0.27091131 0.060180742
-0.37538779 -0.27088636 0.060178578
-0.37559551 -0.27086741 0.060129121
-0.37579396 -0.27083901 0.060156964
-0.37600645 -0.27082375 0.060076341
-0.37621015 -0.27080861 0.06000267
-0.37640235 -0.27077276 0.060090523
-0.37661383 -0.27075413 0.060035273
-0.37681976 -0.27073479 0.059990421
-0.37702483 -0.27071172 0.059973262
-0.37720373 -0.27068841 0.059981607
-0.37739491 -0.27067453 0.059910309
-0.37761703 -0.27064526 0.059923042
-0.37781429 -0.27061653 0.05995436
-0.37803018 -0.27059245 0.059934843
-0.37824109 -0.27057469 0.059873827
-0.37842554 -0.27054945 0.059891365
-0.37863967 -0.27052432 0.059881072
-0.3788152 -0.27050224 0.059883662
-0.3790428 -0.27047798 0.059854858
-0.37921917 -0.27045673 0.059850525
-0.37942949 -0.2704359 0.059812579
-0.37963009 -0.27041766 0.059764307
-0.37983763 -0.27038386 0.059823245
-0.38004985 -0.27036878 0.059741467
-0.3802444 -0.27035305 0.059680533
-0.38042706 -0.27031568 0.059788033
-0.38064462 -0.27029473 0.059744284
-0.38083705 -0.2702775 0.059696052
-0.38103226 -0.27025536 0.059681248
-0.38124889 -0.2702263 0.059697468
-0.38144609 -0.27020231 0.059694186
-0.38165021 -0.27018508 0.059635513
-0.3818453 -0.27016324 0.059618399
-0.38203463 -0.27013993 0.05961746
-0.38225573 -0.27011982 0.059564471
-0.38245526 -0.27009872 0.059538111
-0.38264713 -0.27007413 0.059544079
-0.38284925 -0.27005175 0.059524633
-0.3830328 -0.27003133 0.059507571
-0.38323992 -0.27001026 0.05947426
-0.38345462 -0.26999313 0.059405148
-0.38365155 -0.26996571 0.059427246
-0.38384831 -0.26993814 0.059450485
-0.38402882 -0.2699194 0.059424222
-0.38422182 -0.26989672 0.059415191
-0.38443825 -0.26986879 0.059423335
-0.38464138 -0.26985341 0.059351988
-0.38482744 -0.2698229 0.059406422
-0.38500857 -0.26980549 0.059369765
-0.38520268 -0.26977983 0.059381492
-0.38542295 -0.26975697 0.059349261
-0.38561538 -0.26973927 0.059304487
-0.38582155 -0.26971909 0.059265412
-0.38600671 -0.26969248 0.059292167
-0.38619217 -0.26967138 0.05927857
-0.38638359 -0.26965302 0.059239559
-0.38658971 -0.26963347 0.059195869
-0.38679501 -0.26960769 0.059198312
-0.38699514 -0.26958022 0.059218079
-0.38718545 -0.26955551 0.059226364
-0.38738155 -0.26953909 0.059168875
-0.38757467 -0.26952431 0.059102193
-0.38777572 -0.26949275 0.059150781
-0.38797674 -0.26947272 0.059115198
-0.38815898 -0.26945391 0.059087761
-0.38836586 -0.26943743 0.059021004
-0.38856599 -0.26941055 0.059036162
-0.38875848 -0.26938385 0.059057117
-0.38895893 -0.26936388 0.059021525
-0.38915384 -0.26934129 0.059010178
-0.38934594 -0.26932064 0.058987312
-0.38953415 -0.26929334 0.059016369
-0.38974166 -0.26927298 0.058977284
-0.38993949 -0.26924926 0.058971688
-0.3901282 -0.26922995 0.058941923
-0.39033419 -0.26920742 0.058920141
-0.39053541 -0.26918328 0.058914538
-0.39072621 -0.26916119 0.05890321
-0.39091834 -0.26914194 0.058869962
-0.39110506 -0.26911959 0.05886443
-0.39130619 -0.26909575 0.05885651
-0.39150152 -0.26907578 0.058825567
-0.39169458 -0.26904285 0.05889149
-0.3918907 -0.26903337 0.058783267
-0.39210382 -0.269003 0.058812194
-0.3922838 -0.26898322 0.058794007
-0.39247379 -0.26896963 0.058721572
-0.39267576 -0.268949 0.05868943
-0.39287111 -0.26892132 0.058714978
-0.39306352 -0.26889569 0.058727868
-0.39325765 -0.26887465 0.058706142
-0.39345506 -0.26885253 0.058689028
-0.39366329 -0.26884031 0.058589973
-0.39384815 -0.26881486 0.058608655
-0.39404428 -0.26878974 0.058614608
-0.39423981 -0.26876265 0.058635548
-0.39444453 -0.26874122 0.058606856
-0.39464226 -0.26872161 0.058571279
-0.39483175 -0.26869938 0.058562268
-0.39501891 -0.26868215 0.05851867
-0.39521369 -0.26865262 0.058558069
-0.39540383 -0.26863331 0.058527142
-0.39560011 -0.26860946 0.05852386
-0.39579663 -0.26858667 0.058512509
-0.39598989 -0.26856601 0.058488488
-0.39617985 -0.26854721 0.058454107
-0.39638704 -0.2685239 0.058436934
-0.39658001 -0.2685028 0.058416374
-0.3967686 -0.26847816 0.058425814
-0.3969582 -0.26845923 0.058392584
-0.39716142 -0.2684353 0.058383506
-0.39735702 -0.26840913 0.058397532
-0.39754942 -0.26838574 0.058394272
-0.39773861 -0.26836559 0.058370259
-0.39793572 -0.26835114 0.058297791
-0.39812824 -0.26833025 0.058276072
-0.39832088 -0.26831093 0.058242828
-0.39850959 -0.26828945 0.058229212
-0.3987087 -0.26826364 0.058237445
-0.39890015 -0.26823151 0.058298778
-0.39909571 -0.26820523 0.058313951
-0.39928827 -0.26818749 0.058269177
-0.39948425 -0.26816905 0.058226686
-0.39968014 -0.26815125 0.058179583
-0.39987209 -0.26812601 0.058190167
-0.40006065 -0.26810625 0.058163863
-0.40024903 -0.26807833 0.058197521
-0.4004482 -0.26806027 0.058149256
-0.40064371 -0.26804045 0.058117148
-0.4008356 -0.2680198 0.058094293
-0.40103829 -0.26799121 0.058119804
-0.40122291 -0.26797399 0.058078527
-0.40141809 -0.26795626 0.058031429
-0.40161338 -0.26793393 0.058017783
-0.40180877 -0.26791018 0.058014508
-0.4020074 -0.26789001 0.057982385
-0.40220329 -0.2678597 0.058026388
-0.40238711 -0.267847 0.057952825
-0.40258184 -0.26782888 0.057909191
-0.40277347 -0.2678062 0.057901315
-0.40298986 -0.26778114 0.057888716
-0.40318534 -0.26775563 0.057898123
-0.4033767 -0.26773474 0.05787757
-0.40355745 -0.26771468 0.057860535
-0.40375361 -0.26768515 0.057898771
-0.40393794 -0.26766449 0.05788286
-0.40412211 -0.26764464 0.05786119
-0.40431929 -0.26762938 0.057794474
-0.40450761 -0.26760539 0.057799313
-0.40470991 -0.26758078 0.057796001
-0.40490937 -0.26755336 0.057815775
-0.40509665 -0.2675344 0.057784859
-0.4052802 -0.26751637 0.057750512
-0.40547121 -0.26748145 0.057832599
-0.40567932 -0.26746166 0.057788894
-0.40586871 -0.26743424 0.05781794
-0.40605056 -0.26742226 0.057740927
-0.40624726 -0.26740578 0.057683438
-0.40644011 -0.26739022 0.057622522
-0.40662923 -0.26736379 0.057644643
-0.40681961 -0.26733336 0.057694443
-0.40700576 -0.267306 0.05772581
-0.40720177 -0.26729086 0.057659112
-0.40739432 -0.26727536 0.057598189
-0.40758425 -0.26725718 0.057559192
-0.40779743 -0.2672306 0.057560436
-0.40799183 -0.2672092 0.05754102
-0.40817258 -0.26718786 0.057533208
-0.40837061 -0.26715669 0.05758182
-0.40860423 -0.26711255 0.05769252
-0.40881181 -0.26709253 0.057651129
-0.40901008 -0.2670534 0.057757393
-0.40919614 -0.26702005 0.057832588
-0.409408 -0.26698208 0.057918027
-0.40960237 -0.26694614 0.058004715
-0.40980783 -0.2669085 0.058093645
-0.40999976 -0.26687157 0.058189567
-0.41019535 -0.2668345 0.058283165
-0.41038916 -0.26680195 0.058345638
-0.41061288 -0.26675636 0.058475994
-0.41081765 -0.26671597 0.058585696
-0.41101173 -0.26667735 0.058691978
-0.41121832 -0.26664132 0.058768224
-0.41141316 -0.26660228 0.058876812
-0.41161993 -0.26656684 0.058948446
-0.41182995 -0.26652566 0.059059273
-0.41203484 -0.2664884 0.059145898
-0.41223708 -0.2664502 0.059241772
-0.41244438 -0.26640949 0.059351459
-0.41264746 -0.26637089 0.059449628
-0.41285223 -0.2663357 0.059521269
-0.34325713 -0.27451542 0.062739477
-0.34346202 -0.27448291 0.062791482
-0.34361795 -0.27444917 0.062896788
-0.34396991 -0.27443901 0.062652864
-0.34419945 -0.27441278 0.062636711
-0.34446052 -0.27439296 0.062545449
-0.34466743 -0.27436131 0.062589377
-0.34490031 -0.27433467 0.062573209
-0.34513009 -0.27430889 0.062553599
-0.34534866 -0.27427882 0.062575556
-0.34557068 -0.27425903 0.062519088
-0.34575307 -0.27423391 0.062537767
-0.34604278 -0.27420041 0.062520161
-0.34623635 -0.27416408 0.062610283
-0.34651309 -0.27415118 0.062454373
-0.34671947 -0.27411833 0.062507518
-0.34698102 -0.27410176 0.062392049
-0.34724003 -0.27408314 0.06229388
-0.34743813 -0.27404988 0.062357455
-0.34766337 -0.27402562 0.062330946
-0.34788784 -0.27399638 0.062341344
-0.3481347 -0.27397498 0.062274374
-0.34833986 -0.27394387 0.062315997
-0.34856439 -0.27391651 0.062312558
-0.34879816 -0.27389184 0.062281396
-0.3489835 -0.27385858 0.062356561
-0.34920976 -0.27383688 0.062310454
-0.34940335 -0.27380764 0.062348682
-0.34971923 -0.27379355 0.06216605
-0.34993967 -0.27376559 0.062170699
-0.35016969 -0.27374217 0.062133797
-0.35039279 -0.27371517 0.062129207
-0.35063291 -0.2736949 0.062059961
-0.35085589 -0.27366808 0.062054224
-0.35109985 -0.27364925 0.061971121
-0.35131633 -0.27362069 0.061983865
-0.35153568 -0.27359304 0.06198737
-0.35174558 -0.27356261 0.062019754
-0.3519662 -0.27353889 0.061993271
-0.35218146 -0.27351537 0.061970271
-0.35241646 -0.27348596 0.061972547
-0.35264146 -0.27346045 0.061955266
-0.35285535 -0.27343333 0.061959948
-0.35307598 -0.27340662 0.061955385
-0.3532899 -0.27337962 0.061958916
-0.35352015 -0.27335617 0.061921999
-0.35375053 -0.27333286 0.061883949
-0.35396749 -0.27330533 0.061888613
-0.35420078 -0.27328497 0.061826319
-0.35440925 -0.27325487 0.061857551
-0.35462055 -0.27322933 0.061853029
-0.35483378 -0.27321348 0.061775852
-0.35508078 -0.27318195 0.061782666
-0.35530388 -0.273157 0.061763085
-0.35557061 -0.2731469 0.061595708
-0.35577565 -0.27311611 0.061635029
-0.35599774 -0.27309304 0.061602771
-0.35619277 -0.27305889 0.061675586
-0.356381 -0.27302608 0.061744969
-0.35661519 -0.2730037 0.061696514
-0.35683256 -0.27297929 0.061678119
-0.3570534 -0.27295619 0.06164702
-0.35727027 -0.27292806 0.061656304
-0.35751131 -0.27291054 0.061566297
-0.3577069 -0.27287871 0.061621819
-0.35793501 -0.27285677 0.061575688
-0.35816556 -0.27284545 0.061449997
-0.3583768 -0.27282149 0.061433934
-0.35860035 -0.27279252 0.061443184
-0.35876715 -0.27276376 0.0615023
-0.35902193 -0.272733 0.061496399
-0.35924539 -0.27271006 0.061461836
-0.35944593 -0.27268046 0.061496574
-0.35965833 -0.27267119 0.061372109
-0.35985592 -0.27264655 0.06137342
-0.3601169 -0.27261281 0.061383642
-0.36033535 -0.27259049 0.061349094
-0.36056206 -0.27256954 0.061297216
-0.36077121 -0.27254376 0.061296165
-0.36097443 -0.27251366 0.061332025
-0.36119658 -0.27249327 0.061280169
-0.36140677 -0.27246609 0.061288334
-0.36161003 -0.27243823 0.061308064
-0.36184275 -0.27242047 0.061227329
-0.36204454 -0.27239212 0.061251678
-0.36228752 -0.27237895 0.061128225
-0.36248669 -0.27234763 0.061176799
-0.36269253 -0.27231911 0.061198819
-0.36293557 -0.27230862 0.061055757
-0.36313504 -0.27227756 0.061102033
-0.36334857 -0.27225474 0.061075583
-0.36356148 -0.27222961 0.061066441
-0.36375684 -0.27220333 0.061081596
-0.3639634 -0.27219069 0.060987148
-0.36419332 -0.27215606 0.061032116
-0.36440396 -0.27213025 0.061029896
-0.36461946 -0.27210894 0.060990758
-0.36481747 -0.27207759 0.061040491
-0.36504483 -0.27206191 0.060949404
-0.36526188 -0.27203944 0.06091718
-0.36546978 -0.27201509 0.060906898
-0.36568189 -0.27199054 0.060894299
-0.36589029 -0.27196661 0.060880564
-0.36610237 -0.27194223 0.060866807
-0.36632568 -0.27192563 0.060786113
-0.36652794 -0.27189675 0.060813926
-0.36674684 -0.27187833 0.060750544
-0.36694914 -0.27184963 0.060777202
-0.36715481 -0.27182493 0.060771547
-0.36736286 -0.27179915 0.060771659
-0.36756799 -0.27177435 0.060767159
-0.36777329 -0.27174732 0.060778808
-0.36797288 -0.271727 0.060746662
-0.36820018 -0.27170423 0.060707461
-0.36841184 -0.27168557 0.0606522
-0.36861694 -0.27165636 0.060679987
-0.36882737 -0.27163488 0.060646638
-0.36904037 -0.27161241 0.060617894
-0.36924633 -0.2715888 0.060604166
-0.36945182 -0.27156252 0.060610056
-0.36965567 -0.27154043 0.060587112
-0.36986965 -0.27151895 0.060550287
-0.37007499 -0.27149794 0.060518116
-0.3702586 -0.27148023 0.060481444
-0.37049094 -0.27144891 0.060499869
-0.37069482 -0.27142221 0.060510375
-0.37090009 -0.27139899 0.060494348
-0.37110785 -0.27137467 0.06048407
-0.3713097 -0.27135754 0.060426548
-0.37153217 -0.27133408 0.060396597
-0.37172729 -0.27130532 0.060430214
-0.37192068 -0.27128085 0.060433842
-0.37213483 -0.27125543 0.060425851
-0.37234724 -0.27123448 0.060386714
-0.37254968 -0.27121034 0.06037993
-0.37277219 -0.27119589 0.060284257
-0.37296921 -0.27116862 0.060305171
-0.37317541 -0.27114433 0.060296059
-0.3733696 -0.27111533 0.060331974
-0.37355745 -0.27109078 0.060341399
-0.37377182 -0.27106911 0.060305726
-0.37399215 -0.27104861 0.060256187
-0.37418637 -0.27101979 0.060290944
-0.37440315 -0.27100304 0.060217209
-0.37456375 -0.27097535 0.06027405
-0.37478092 -0.27095619 0.060217608
-0.37500736 -0.27093461 0.060170341
-0.37521297 -0.27090788 0.060179681
-0.3754192 -0.27088469 0.0601625
-0.37562376 -0.27086344 0.060132638
-0.37582859 -0.27083948 0.060122382
-0.37603885 -0.27082258 0.060055591
-0.37624085 -0.27079991 0.060038425
-0.37643322 -0.27077037 0.060080118
-0.37664497 -0.27075186 0.060023706
-0.37685096 -0.27073249 0.059978846
-0.37705305 -0.27070713 0.059981287
-0.37723088 -0.27068618 0.059973463
-0.37742627 -0.27066889 0.059922896
-0.37765068 -0.27064127 0.059921771
-0.37785187 -0.27061221 0.059951887
-0.37806016 -0.27058876 0.059934687
-0.37827048 -0.27057046 0.059878275
-0.37846541 -0.27054676 0.059874982
-0.37866643 -0.27052119 0.059879735
-0.3788524 -0.27049717 0.059886869
-0.3790696 -0.2704747 0.059854638
-0.37924322 -0.27045459 0.059844531
-0.37946719 -0.27043459 0.059788052
-0.37966093 -0.27041039 0.059789382
-0.37987262 -0.27038005 0.059819445
-0.38008586 -0.27036944 0.059704214
-0.38026419 -0.27034667 0.05970908
-0.38045743 -0.27031118 0.059793435
-0.380678 -0.27029285 0.059727743
-0.38086945 -0.27027464 0.05968757
-0.3810643 -0.27025208 0.059676215
-0.38127542 -0.27022165 0.059707433
-0.3814843 -0.27020082 0.059670635
-0.3816869 -0.27018201 0.059624642
-0.3818796 -0.27015781 0.059627127
-0.38208154 -0.27013466 0.059613429
-0.38229042 -0.27011448 0.059572011
-0.38248861 -0.27009606 0.059527189
-0.38269147 -0.27007014 0.059533082
-0.38288277 -0.2700491 0.059513666
-0.3830758 -0.27002579 0.059509233
-0.38327992 -0.27000996 0.059440166
-0.38349652 -0.26998615 0.059418321
-0.38369548 -0.26996085 0.059423082
-0.38389018 -0.26993084 0.059465919
-0.38407123 -0.26991707 0.059402741
-0.38426727 -0.26988867 0.059432879
-0.38448194 -0.26986775 0.059391439
-0.38468438 -0.26984218 0.059395023
-0.38486421 -0.26981831 0.05940681
-0.38505748 -0.26980096 0.059358552
-0.38525182 -0.26977545 0.059369102
-0.38546291 -0.26975104 0.059356511
-0.38566881 -0.26973516 0.059286274
-0.38586453 -0.26971167 0.059280679
-0.38604802 -0.2696878 0.059288979
-0.38624144 -0.26966667 0.059268393
-0.38644111 -0.2696487 0.059218954
-0.38664758 -0.26962423 0.059211001
-0.38685358 -0.26959917 0.059207655
-0.38706556 -0.26957163 0.059216961
-0.38723713 -0.26954797 0.059234541
-0.38744578 -0.26953822 0.059117019
-0.38764343 -0.26951295 0.059122942
-0.3878352 -0.26948473 0.059155412
-0.38803738 -0.26946631 0.059107125
-0.38822296 -0.26944661 0.059083119
-0.38843116 -0.26943204 0.059001349
-0.38863212 -0.26940018 0.059052229
-0.38882959 -0.26937506 0.059056997
-0.38903543 -0.26935744 0.058999456
-0.38922793 -0.26933071 0.059020393
-0.38942075 -0.26931107 0.058989435
-0.38961372 -0.26928526 0.059003454
-0.38981983 -0.26926222 0.058985114
-0.39001924 -0.26924115 0.058958739
-0.3902072 -0.26922038 0.0589405
-0.39041701 -0.26919767 0.058916375
-0.39060986 -0.26917189 0.058930393
-0.39080325 -0.2691547 0.058880977
-0.39099857 -0.2691341 0.058854628
-0.39119095 -0.26910758 0.058874413
-0.39138988 -0.26908687 0.058845736
-0.39158893 -0.26905838 0.058873557
-0.39177981 -0.26903692 0.058857605
-0.39199895 -0.26901972 0.058785006
-0.39218035 -0.26899424 0.058807153
-0.39236581 -0.26897833 0.05875548
-0.39257225 -0.26895893 0.058710616
-0.39276633 -0.26893723 0.058693498
-0.39296153 -0.26890892 0.058723643
-0.39315552 -0.26888707 0.058707677
-0.39335635 -0.26886377 0.058696277
-0.39356616 -0.26884487 0.058644481
-0.39375398 -0.26882741 0.05860202
-0.39395046 -0.26880306 0.058602188
-0.39414239 -0.26877609 0.058625434
-0.39434305 -0.26875311 0.058611728
-0.39454767 -0.26873124 0.058586486
-0.39473799 -0.26871127 0.058560159
-0.39493129 -0.26868919 0.058546491
-0.39512897 -0.26866975 0.058509745
-0.39531675 -0.26864123 0.058548003
-0.39551035 -0.2686207 0.058522813
-0.3957099 -0.26859486 0.058531031
-0.39590338 -0.26857436 0.058505841
-0.39610061 -0.26855463 0.058471408
-0.3962976 -0.26853418 0.058442742
-0.39650208 -0.26851514 0.058396738
-0.3966938 -0.26848742 0.058425743
-0.3968831 -0.268466 0.058410954
-0.39707986 -0.26844588 0.058379982
-0.39728236 -0.26841697 0.058407784
-0.397475 -0.26839435 0.058398735
-0.39767143 -0.26837301 0.05837699
-0.39786839 -0.26835632 0.058320649
-0.39806521 -0.26833984 0.058263153
-0.3982501 -0.26831484 0.058278367
-0.39845383 -0.26829749 0.058220834
-0.39864221 -0.2682716 0.058239482
-0.39884496 -0.26824442 0.0582546
-0.39903665 -0.26821336 0.058307834
-0.39922905 -0.2681911 0.058296476
-0.39942887 -0.26817486 0.058234356
-0.39962488 -0.26815641 0.058191855
-0.39982417 -0.26813281 0.058183931
-0.40001276 -0.26811069 0.058174908
-0.40020132 -0.2680873 0.058175113
-0.40040058 -0.26806828 0.058133744
-0.4005962 -0.26804736 0.05810969
-0.40079173 -0.26802674 0.058083341
-0.40099096 -0.2679984 0.05811001
-0.4011901 -0.26797435 0.058105547
-0.40137103 -0.26796281 0.058026221
-0.40157726 -0.26793581 0.058036704
-0.40177265 -0.26791397 0.058019578
-0.40196776 -0.26789531 0.05797939
-0.40216711 -0.26786697 0.058006056
-0.40235507 -0.2678484 0.057971671
-0.40254629 -0.2678318 0.057919964
-0.40274152 -0.26780948 0.057906296
-0.40294769 -0.26778314 0.057912175
-0.40314981 -0.26776123 0.057889242
-0.40335587 -0.26773602 0.057887055
-0.40353322 -0.26771608 0.057872314
-0.40373254 -0.26768947 0.057886302
-0.40392104 -0.26766515 0.057893425
-0.40410119 -0.26764911 0.057847541
-0.40430278 -0.26762918 0.057810776
-0.4044939 -0.26760927 0.057783287
-0.40469632 -0.2675845 0.057781119
-0.40489334 -0.26755279 0.057834312
-0.40508717 -0.26753604 0.057781447
-0.40527508 -0.26751462 0.057767816
-0.40545776 -0.26748613 0.057810705
-0.40566671 -0.26746339 0.057787746
-0.40586302 -0.26743606 0.057809815
-0.40604281 -0.26741943 0.057768546
-0.40623865 -0.26740652 0.057685692
-0.40643096 -0.26739326 0.057608616
-0.40663072 -0.26736581 0.057628367
-0.4068177 -0.26733568 0.05767931
-0.40700436 -0.26730698 0.057719871
-0.40719762 -0.26729 0.057669319
-0.40739661 -0.26727605 0.057591051
-0.40758714 -0.26725638 0.057562418
-0.40780017 -0.26723063 0.057557888
-0.40799177 -0.2672078 0.057551157
-0.4081794 -0.26718658 0.057536364
-0.40837616 -0.26715904 0.057559591
-0.40859997 -0.26711425 0.057684146
-0.40881854 -0.26709238 0.05764614
-0.40901962 -0.26705498 0.057737373
-0.40920603 -0.26702094 0.057817154
-0.40942156 -0.26698253 0.057902545
