# .PCD v0.7 - Point Cloud Data file format
VERSION 0.7
FIELDS x y z
SIZE 4 4 4
TYPE F F F
COUNT 1 1 1
WIDTH 1291
HEIGHT 1
VIEWPOINT 0 0 0 1 0 0 0
POINTS 1291
DATA ascii
-0.27326718 -0.19869691 0.053390354
-0.27345148 -0.19867758 0.053373605
-0.27367783 -0.19866191 0.053273104
-0.2738871 -0.19863953 0.053258426
-0.27409011 -0.19861552 0.053266969
-0.27429852 -0.19858915 0.053292815
-0.27451432 -0.19857244 0.053214416
-0.27468461 -0.19854887 0.053255662
-0.27486482 -0.19852313 0.053307243
-0.27507502 -0.19850916 0.053208053
-0.27527818 -0.1984856 0.053211957
-0.2754786 -0.19846702 0.053169578
-0.27565834 -0.19844833 0.053151708
-0.2758601 -0.19841991 0.053205401
-0.27605405 -0.19839938 0.05318971
-0.27628261 -0.19838099 0.053113505
-0.27647254 -0.19835684 0.053138372
-0.27669495 -0.19834077 0.053046018
-0.2768628 -0.19833101 0.052953005
-0.27706963 -0.19829561 0.053070322
-0.27727813 -0.19827414 0.053047549
-0.27746502 -0.19825965 0.052979834
-0.2776297 -0.19822587 0.053128794
-0.27783784 -0.1982042 0.053108346
-0.27803683 -0.19819464 0.052978005
-0.27822423 -0.19817241 0.052986681
-0.27842417 -0.19815551 0.052928105
-0.27862653 -0.19813238 0.052928545
-0.27882639 -0.19811107 0.052913953
-0.27902934 -0.19808882 0.052905135
-0.27921599 -0.19807087 0.052872144
-0.27940711 -0.19804879 0.052875005
-0.27962297 -0.19802321 0.052884571
-0.27981502 -0.19800243 0.052873533
-0.27999738 -0.19798449 0.052845217
-0.28019378 -0.19796449 0.052821402
-0.28039014 -0.19794463 0.052796423
-0.28059328 -0.19792899 0.052721612
-0.28079551 -0.19790111 0.052769512
-0.28099653 -0.19788282 0.052723661
-0.28117391 -0.19786415 0.052708119
-0.2813549 -0.19783914 0.052751593
-0.28156707 -0.1978268 0.052633859
-0.28177428 -0.19780698 0.052596055
-0.28197455 -0.19778225 0.052615032
-0.2821607 -0.19775292 0.05269549
-0.28234673 -0.19773655 0.052647464
-0.28253177 -0.19771865 0.052615654
-0.28273928 -0.1977002 0.05256395
-0.28292826 -0.19769026 0.052448757
-0.28312761 -0.1976641 0.052482791
-0.28332606 -0.19764364 0.052461274
-0.28351137 -0.19760391 0.052645925
-0.28369781 -0.19758178 0.052654617
-0.28390387 -0.19758634 0.052376032
-0.28410131 -0.19755575 0.052456394
-0.28429464 -0.19753283 0.052465022
-0.28448632 -0.197515 0.052425042
-0.28469023 -0.19750944 0.052249506
-0.28487492 -0.19746454 0.052486263
-0.28507316 -0.1974448 0.052457795
-0.28527614 -0.19742814 0.052393407
-0.28547278 -0.19740427 0.052407783
-0.28566101 -0.19738881 0.052348167
-0.28585702 -0.19737504 0.052262992
-0.28606513 -0.19735304 0.052246019
-0.28625071 -0.19732994 0.052265137
-0.28643924 -0.19730397 0.052309684
-0.28663713 -0.19728543 0.052269649
-0.2868304 -0.19726346 0.052269015
-0.2870158 -0.19723912 0.05230087
-0.28721333 -0.19723684 0.052099932
-0.28741476 -0.19722046 0.052034393
-0.28760752 -0.19717816 0.052236337
-0.28779402 -0.19715974 0.052207984
-0.28799331 -0.19715342 0.052045226
-0.28819475 -0.19711512 0.05219733
-0.28838193 -0.19710329 0.052102976
-0.28858367 -0.19709389 0.051967982
-0.2887781 -0.1970536 0.052147925
-0.28898299 -0.19704244 0.052026793
-0.28917229 -0.19702102 0.052025035
-0.28936553 -0.197005 0.051965363
-0.28956875 -0.19697712 0.052012093
-0.28975421 -0.19694975 0.052074045
-0.28994733 -0.19693595 0.051992375
-0.29014024 -0.19691938 0.051938497
-0.29033652 -0.19689707 0.051937833
-0.29052928 -0.19687399 0.051948778
-0.29072201 -0.19685289 0.05194005
-0.2909146 -0.19683544 0.051895425
-0.29110721 -0.1968147 0.051883228
-0.29130319 -0.19679639 0.051843204
-0.29150286 -0.19677497 0.051829781
-0.29169211 -0.19675113 0.051852334
-0.29189152 -0.19673195 0.051816911
-0.29208821 -0.19670518 0.051860236
-0.29228705 -0.19669004 0.051785454
-0.29247916 -0.19667146 0.051752426
-0.29267222 -0.196646 0.05178652
-0.29285413 -0.1966252 0.051787145
-0.29304442 -0.1966164 0.0516592
-0.29323798 -0.19658856 0.051716443
-0.29343373 -0.19656806 0.051698424
-0.29363137 -0.19655469 0.051607449
-0.29384205 -0.19652876 0.051626336
-0.29402086 -0.19650598 0.051650144
-0.29420874 -0.19648859 0.051610198
-0.2944113 -0.19646765 0.051588643
-0.29461065 -0.19644582 0.051579848
-0.29478994 -0.1964217 0.051616386
-0.294985 -0.19640279 0.05158332
-0.29517782 -0.19637971 0.051594272
-0.29536435 -0.19636573 0.05152192
-0.29556352 -0.19634414 0.051510818
-0.29575822 -0.19632562 0.051474281
-0.29595473 -0.19630176 0.051488664
-0.2961497 -0.19628228 0.051461387
-0.29634216 -0.19626027 0.051461916
-0.29653826 -0.19623776 0.051463574
-0.29672092 -0.19621488 0.051483873
-0.29691282 -0.19621067 0.051308449
-0.29711086 -0.19618338 0.051355232
-0.2972984 -0.19615716 0.051403273
-0.29748914 -0.19614655 0.051292688
-0.29768875 -0.19612363 0.051294308
-0.29787827 -0.19610068 0.051307596
-0.29808089 -0.19607171 0.051365919
-0.29826474 -0.19606048 0.051269289
-0.29845411 -0.19604455 0.051213123
-0.2986542 -0.19602075 0.051222846
-0.29884201 -0.19600126 0.051203735
-0.29904664 -0.19596927 0.051289819
-0.29924238 -0.19595367 0.051223174
-0.29942644 -0.1959466 0.051084872
-0.29961658 -0.19593433 0.050991654
-0.29981923 -0.19590056 0.05109743
-0.30000758 -0.19587997 0.051088743
-0.30020228 -0.19585444 0.051121667
-0.30040339 -0.19583999 0.05103761
-0.30061769 -0.1958098 0.051094655
-0.30079609 -0.1957894 0.051095322
-0.30098265 -0.19576666 0.051109791
-0.30117017 -0.19575246 0.051038597
-0.30137357 -0.19572923 0.051039025
-0.30156335 -0.19570671 0.05104769
-0.30175281 -0.19569869 0.050912809
-0.30194965 -0.19567539 0.050921395
-0.30214047 -0.19565149 0.050942786
-0.30234158 -0.19563141 0.050914291
-0.30253544 -0.1956123 0.050884709
-0.30272776 -0.1955909 0.050879449
-0.30292535 -0.19557112 0.05085215
-0.30311894 -0.19555226 0.050820261
-0.30330667 -0.19553255 0.050803468
-0.30349776 -0.19550465 0.050864205
-0.30369139 -0.19548579 0.050832316
-0.30390152 -0.19545864 0.050863937
-0.30408782 -0.19544469 0.050791591
-0.30426911 -0.19542885 0.050743606
-0.30445987 -0.19540565 0.050758038
-0.30465147 -0.19538899 0.050706487
-0.30484614 -0.19536512 0.050723203
-0.30504343 -0.19534199 0.05072948
-0.30523351 -0.19531979 0.050734665
-0.30541685 -0.19531211 0.050603315
-0.30561334 -0.19528991 0.05060149
-0.30578923 -0.19528295 0.050471358
-0.30599827 -0.19524054 0.050655793
-0.30617395 -0.195237 0.050492108
-0.30636665 -0.19521545 0.050487995
-0.30657089 -0.19518209 0.050587974
-0.30678651 -0.19515036 0.050658904
-0.30697441 -0.19513716 0.05057729
-0.30716082 -0.19512528 0.050484106
-0.30738378 -0.19508351 0.050646417
-0.30758879 -0.19506279 0.050620206
-0.30775705 -0.19505915 0.050465837
-0.30794862 -0.195039 0.050449014
-0.30813614 -0.19501676 0.050457694
-0.30831501 -0.19500563 0.050365746
-0.3085286 -0.19497377 0.050440166
-0.30871034 -0.19495986 0.050372496
-0.30891472 -0.19493385 0.050399542
-0.30909961 -0.19491701 0.050357308
-0.30928922 -0.19489872 0.050324291
-0.30947527 -0.19487803 0.050319098
-0.30967328 -0.19485785 0.050295267
-0.30987668 -0.194833 0.050311904
-0.31006181 -0.19481859 0.05024536
-0.31025034 -0.19479586 0.050257504
-0.31044 -0.19477756 0.050224487
-0.31064293 -0.1947559 0.050209865
-0.31082821 -0.19474125 0.050145637
-0.31102037 -0.19471824 0.050156597
-0.31122422 -0.19469331 0.050173219
-0.31141609 -0.19467069 0.050180707
-0.31160244 -0.19465509 0.050124567
-0.31179568 -0.19463639 0.05009152
-0.31200311 -0.19460885 0.050130107
-0.31219265 -0.19459069 0.050095938
-0.31237945 -0.19457224 0.050067581
-0.31257126 -0.1945523 0.050048437
-0.31276828 -0.19453073 0.050039671
-0.31296766 -0.19450504 0.050069071
-0.31317258 -0.19448221 0.050063703
-0.31335264 -0.19446896 0.049991414
-0.31354138 -0.19444914 0.049974613
-0.31374779 -0.19442299 0.050000485
-0.3139292 -0.19440866 0.049937446
-0.314123 -0.19438966 0.049906708
-0.31432095 -0.19436541 0.049923398
-0.31451556 -0.19434807 0.049875289
-0.31470257 -0.1943296 0.049846925
-0.31488952 -0.19431336 0.049796574
-0.3150939 -0.19428687 0.049828254
-0.31531292 -0.19425231 0.049923461
-0.31547278 -0.194253 0.049735598
-0.31567788 -0.19422619 0.04976958
-0.31588417 -0.19419657 0.04983018
-0.31608012 -0.19417629 0.049809843
-0.3162576 -0.19417067 0.049664654
-0.31644642 -0.19415106 0.049645536
-0.3166647 -0.19411367 0.049769692
-0.31686026 -0.19409576 0.049726203
-0.31705582 -0.19407982 0.049663037
-0.31725878 -0.19405501 0.049679674
-0.3174518 -0.19403283 0.049681354
-0.3176502 -0.19401307 0.049652897
-0.31784207 -0.19399174 0.049647637
-0.31801507 -0.19398068 0.04956153
-0.31821194 -0.19396192 0.049524978
-0.31841466 -0.1939356 0.049556665
-0.31860369 -0.19391808 0.049516708
-0.31881818 -0.19388451 0.049607329
-0.31901512 -0.19386771 0.049551092
-0.31920817 -0.19384588 0.049549308
-0.31937975 -0.19383557 0.049457423
-0.31957638 -0.19381706 0.049418554
-0.31977072 -0.1937945 0.049422536
-0.31997904 -0.1937671 0.049458809
-0.32018143 -0.19374341 0.04946503
-0.32037196 -0.19372512 0.049430851
-0.32055581 -0.19371086 0.049364325
-0.32075942 -0.1936883 0.049357809
-0.32095408 -0.19366583 0.049360625
-0.32113764 -0.19364996 0.0493103
-0.32132065 -0.19363615 0.049240313
-0.32149523 -0.19362551 0.049148403
-0.32171786 -0.19358855 0.049263254
-0.32190275 -0.19357534 0.049185131
-0.32211411 -0.19354515 0.049245682
-0.32229424 -0.1935313 0.049179193
-0.32252494 -0.19349192 0.049309015
-0.32267863 -0.19349647 0.049089961
-0.32289085 -0.19346443 0.049167868
-0.32307693 -0.19344886 0.049111731
-0.32328966 -0.1934184 0.049173422
-0.32348844 -0.19339743 0.049156532
-0.32368338 -0.19337702 0.04913852
-0.32386851 -0.19336203 0.049077764
-0.32407582 -0.19333486 0.049112882
-0.32426453 -0.19331795 0.049067151
-0.32447326 -0.19329014 0.049106881
-0.32465917 -0.19327636 0.049033381
-0.32485917 -0.19325338 0.049035009
-0.32506436 -0.19322926 0.049042366
-0.32525316 -0.19321081 0.049011674
-0.32544744 -0.19319259 0.048972823
-0.32563719 -0.19317521 0.048930556
-0.32584897 -0.19314624 0.048978366
-0.32603887 -0.19312885 0.048936084
-0.32623276 -0.19311088 0.048894931
-0.32642785 -0.19309081 0.048873436
-0.32663998 -0.19306344 0.048905049
-0.32684225 -0.19303975 0.048911266
-0.32701373 -0.19303191 0.048795074
-0.32720059 -0.19301614 0.048740096
-0.32743156 -0.19297941 0.048843294
-0.3276082 -0.19296888 0.048747893
-0.32780975 -0.19294573 0.048749492
-0.32803997 -0.19290827 0.048860803
-0.32821703 -0.19289899 0.048752662
-0.3284055 -0.19288397 0.048688404
-0.32860395 -0.19286397 0.048662253
-0.32880583 -0.19284232 0.048648797
-0.32904854 -0.19280204 0.048773885
-0.32920438 -0.19280168 0.048601113
-0.32942492 -0.19276962 0.048669681
-0.329622 -0.19275188 0.048622709
-0.32981789 -0.19273195 0.0485989
-0.33002278 -0.19270633 0.048621312
-0.33021343 -0.19269037 0.048563972
-0.33043024 -0.19266737 0.048546914
-0.33061427 -0.19264913 0.048519738
-0.33080891 -0.19262724 0.048516776
-0.33100176 -0.19260892 0.048480257
-0.33119825 -0.19258893 0.048456442
-0.33139712 -0.19256783 0.048440702
-0.33157185 -0.19255938 0.048326802
-0.33178863 -0.19252601 0.048412766
-0.33199665 -0.19250342 0.048401572
-0.33218074 -0.19248667 0.048359353
-0.33241671 -0.19244869 0.04846945
-0.33259934 -0.19243923 0.04835663
-0.33281779 -0.19241464 0.048353441
-0.33301482 -0.19239341 0.0483412
-0.3332099 -0.19237438 0.048309289
-0.33341229 -0.19235209 0.04830163
-0.33361164 -0.19233502 0.04824537
-0.33382463 -0.19230931 0.048259601
-0.33402571 -0.19228645 0.048258897
-0.33421275 -0.19226611 0.048249058
-0.33442676 -0.19224389 0.048227392
-0.33461717 -0.19222714 0.048178159
-0.33483857 -0.19219674 0.048229359
-0.33502597 -0.19218138 0.048169736
-0.33518994 -0.19217135 0.048083711
-0.33540565 -0.19214731 0.048078239
-0.33564776 -0.19210815 0.048192915
-0.33583125 -0.1920958 0.04810787
-0.33604711 -0.19207431 0.04807692
-0.3362281 -0.19205816 0.04803241
-0.33645076 -0.19203018 0.048058126
-0.33666453 -0.19200006 0.048115183
-0.33685014 -0.19198805 0.048024327
-0.33705035 -0.19196622 0.048014369
-0.33723575 -0.1919519 0.047946665
-0.3374351 -0.19193169 0.047921661
-0.33765274 -0.19190499 0.047940478
-0.33785236 -0.19188474 0.047915477
-0.33806548 -0.19186006 0.047919288
-0.33824882 -0.19184434 0.047867805
-0.3384684 -0.19181824 0.047878504
-0.33868822 -0.19179092 0.047900781
-0.33887491 -0.19177623 0.047835376
-0.33908299 -0.19175386 0.047821872
-0.33927917 -0.19173414 0.047795743
-0.33949387 -0.19170915 0.047800694
-0.33968103 -0.19169545 0.047724877
-0.33987767 -0.1916745 0.047710314
-0.34010491 -0.19164681 0.047727887
-0.34028915 -0.19163321 0.047654405
-0.34053794 -0.19160147 0.047687981
-0.34074259 -0.19158193 0.047650203
-0.34093302 -0.19156367 0.047616024
-0.34116027 -0.19153517 0.047641698
-0.341353 -0.19151385 0.04763528
-0.34153146 -0.19150265 0.047544487
-0.34175956 -0.19147289 0.047581732
-0.34196341 -0.19144948 0.047583312
-0.34217194 -0.19142649 0.047575593
-0.34236115 -0.19141221 0.047503222
-0.34258011 -0.19138628 0.04751277
-0.23563704 -0.20301677 0.053097557
-0.23588055 -0.20299459 0.053042099
-0.23613335 -0.20297405 0.052959926
-0.2363857 -0.20295355 0.052877765
-0.23663938 -0.20293453 0.052779384
-0.23688707 -0.20291352 0.052707687
-0.23716564 -0.2028967 0.052559309
-0.23740011 -0.20287485 0.052510869
-0.23761994 -0.20285057 0.052503079
-0.23786148 -0.20282896 0.052444167
-0.23810187 -0.20280726 0.05238758
-0.2383346 -0.20278431 0.052351892
-0.23856622 -0.20276126 0.052318536
-0.23881438 -0.20274125 0.052236412
-0.23905091 -0.20272043 0.052175216
-0.23929387 -0.20269972 0.052105878
-0.23953959 -0.20267963 0.052027248
-0.2397695 -0.20265678 0.051993899
-0.24001798 -0.20263742 0.051904827
-0.24025506 -0.20261608 0.051848266
-0.24048741 -0.20259517 0.051792912
-0.24072766 -0.20257464 0.051724739
-0.24096134 -0.20255299 0.051675163
-0.24120468 -0.20253329 0.051595394
-0.24144721 -0.20251355 0.051516794
-0.24168402 -0.20249283 0.051454447
-0.24191764 -0.20247282 0.051388662
-0.24216691 -0.20245478 0.051285695
-0.24240142 -0.20243396 0.051226839
-0.2426195 -0.20241 0.05121791
-0.24285562 -0.2023897 0.051152095
-0.24309173 -0.20236953 0.051085126
-0.24331988 -0.20234908 0.051029809
-0.24355344 -0.20232862 0.050968654
-0.2437852 -0.20230789 0.050912142
-0.2440137 -0.20228659 0.050864924
-0.24424006 -0.20226495 0.050823502
-0.24447408 -0.20224501 0.050756551
-0.24470061 -0.20222488 0.050700087
-0.24492714 -0.20220357 0.050655205
-0.24515797 -0.20218329 0.050595228
-0.2453828 -0.20216183 0.050553821
-0.24560912 -0.20214078 0.050506622
-0.24583618 -0.20211999 0.050455943
-0.24605978 -0.20209984 0.050402977
-0.24627963 -0.20207766 0.050374351
-0.2465089 -0.20205767 0.050313234
-0.24673164 -0.20203632 0.050273016
-0.24695343 -0.20201486 0.050235108
-0.24717255 -0.20199287 0.050205335
-0.24739167 -0.20197229 0.050161675
-0.24765605 -0.20195836 0.05000069
-0.2478345 -0.20192185 0.05016112
-0.24825042 -0.20188135 0.050092515
-0.24853663 -0.20186786 0.049902391
-0.24900901 -0.20183904 0.049653869
-0.24914412 -0.20180149 0.049873713
-0.24937306 -0.20178282 0.049799863
-0.24959585 -0.20176275 0.049746916
-0.24981257 -0.20174128 0.049714848
-0.25002906 -0.20171982 0.049682781
-0.25025219 -0.20169739 0.049652971
-0.25046191 -0.20167717 0.049616341
-0.2506808 -0.20165661 0.049572676
-0.25089598 -0.20163658 0.049527891
-0.25111035 -0.20161362 0.049513206
-0.25131854 -0.20159194 0.049492795
-0.25153458 -0.201571 0.049456097
-0.25175822 -0.20154932 0.049418181
-0.25196141 -0.20152798 0.049400128
-0.25217101 -0.20150556 0.049385484
-0.25238404 -0.20148414 0.04935693
-0.2525931 -0.20146318 0.049328405
-0.25280154 -0.20144066 0.049316093
-0.25300387 -0.20141649 0.049326979
-0.25320405 -0.20139176 0.049345993
-0.25339335 -0.20136546 0.049392886
-0.25358459 -0.20133671 0.049461748
-0.25374061 -0.20130076 0.049642064
-0.25264075 -0.20062362 0.057609826
-0.25291049 -0.20061702 0.057370089
-0.253061 -0.20056967 0.057669666
-0.25327674 -0.20054528 0.057667702
-0.2534962 -0.20052208 0.057649501
-0.25379762 -0.20043285 0.058194257
-0.2543737 -0.20033506 0.058513112
-0.25457758 -0.200305 0.058580704
-0.25605965 -0.2005206 0.054762539
-0.25624952 -0.20048828 0.054868456
-0.25650844 -0.20046541 0.054802433
-0.25673637 -0.20044255 0.054771427
-0.25691798 -0.20041956 0.054794084
-0.25714558 -0.20039673 0.054763071
-0.25736234 -0.200372 0.054763418
-0.25757384 -0.20035961 0.054646894
-0.25775439 -0.20033289 0.054707758
-0.25802216 -0.20031229 0.054609247
-0.25821468 -0.20028993 0.054613285
-0.25843173 -0.20026387 0.054626353
-0.25862786 -0.20023562 0.054684766
-0.25880846 -0.20021263 0.054708585
-0.25903168 -0.20019263 0.054654472
-0.25926927 -0.20018744 0.054437008
-0.25944561 -0.20016307 0.05447939
-0.25969103 -0.20012762 0.054553553
-0.25988555 -0.20010458 0.054562204
-0.26010308 -0.20008674 0.054493085
-0.26032344 -0.20006251 0.054484136
-0.26051062 -0.2000425 0.054470859
-0.26070589 -0.20002194 0.054454029
-0.26095694 -0.19999669 0.054420497
-0.26113862 -0.19997661 0.054414216
-0.261372 -0.1999522 0.054392412
-0.26159409 -0.19993512 0.054310516
-0.2617805 -0.19990927 0.054356284
-0.26197362 -0.19988824 0.054346427
-0.2621983 -0.19986656 0.054307342
-0.26238889 -0.19984256 0.054329917
-0.26256797 -0.19982381 0.054313235
-0.26280236 -0.19980873 0.054197665
-0.26298589 -0.1997797 0.05427818
-0.26322821 -0.19975381 0.054260924
-0.26342073 -0.19973087 0.054270752
-0.26361075 -0.19971533 0.054209985
-0.26383558 -0.19969025 0.054204464
-0.26404387 -0.19966832 0.054186366
-0.26424432 -0.19964717 0.054169498
-0.26443315 -0.19962278 0.054197878
-0.26466012 -0.19959898 0.054177288
-0.26484612 -0.1995777 0.054177918
-0.26505488 -0.19956085 0.054108873
-0.26530969 -0.19954206 0.054007012
-0.26549676 -0.19951706 0.054043505
-0.26568452 -0.19949012 0.054098513
-0.26589435 -0.1994743 0.054017901
-0.26610422 -0.19945174 0.054004412
-0.26630336 -0.19943073 0.053987559
-0.2665174 -0.19940816 0.053969406
-0.26672381 -0.199384 0.053975627
-0.26692766 -0.19936572 0.053926311
-0.26712826 -0.19934583 0.053896707
-0.26735181 -0.19932394 0.053861104
-0.26751548 -0.19930355 0.053878132
-0.26771605 -0.19927399 0.053944603
-0.26794016 -0.19926263 0.053803667
-0.26814455 -0.19924034 0.053793699
-0.26834351 -0.19921248 0.05384513
-0.26855528 -0.19919714 0.053757556
-0.26874655 -0.19917773 0.053733818
-0.26896414 -0.19915056 0.053757302
-0.26915517 -0.19914167 0.053629406
-0.26935965 -0.1991147 0.053665742
-0.26958081 -0.19908991 0.05366141
-0.26974684 -0.19905795 0.053790696
-0.26996541 -0.19904245 0.053697266
-0.27014035 -0.19901322 0.053789429
-0.27036914 -0.19900461 0.053616032
-0.2705687 -0.19898576 0.053577177
-0.27077416 -0.1989596 0.053604253
-0.27097565 -0.19893368 0.053633671
-0.27117398 -0.19891427 0.053601772
-0.27137262 -0.19889228 0.053595338
-0.27159706 -0.19887936 0.053469434
-0.27177924 -0.19886097 0.053445786
-0.27197993 -0.19883478 0.053478684
-0.27218795 -0.19881685 0.053421237
-0.27238777 -0.19879006 0.05346109
-0.27257925 -0.19876641 0.053479016
-0.2727614 -0.19874209 0.053514399
-0.27297521 -0.19873212 0.053371243
-0.27318734 -0.19870523 0.053398248
-0.27337182 -0.19868284 0.05341161
-0.27357802 -0.19866768 0.053328715
-0.27379325 -0.19864672 0.053293191
-0.27400482 -0.19862629 0.053256541
-0.27420947 -0.19860035 0.053282458
-0.27442223 -0.19857769 0.053266637
-0.27461961 -0.19855955 0.05322317
-0.27478963 -0.19853228 0.053301483
-0.27498803 -0.19851521 0.053246439
-0.27519163 -0.19849567 0.05320986
-0.27541003 -0.19847122 0.053205557
-0.27558577 -0.19845635 0.053154178
-0.27577448 -0.19843104 0.053191822
-0.27597901 -0.19840908 0.053178385
-0.27619681 -0.19838433 0.053177558
-0.2763975 -0.19836664 0.053125963
-0.27660027 -0.19834325 0.053128745
-0.27680573 -0.19833469 0.052981034
-0.27699807 -0.19830921 0.053016316
-0.2772001 -0.19828123 0.053065412
-0.2774047 -0.19826427 0.053002201
-0.27758378 -0.19824168 0.053023726
-0.27774775 -0.19820705 0.053181969
-0.27797964 -0.19819844 0.053005069
-0.27815822 -0.19817533 0.053032383
-0.27836099 -0.1981616 0.052939098
-0.27855495 -0.19813803 0.052953541
-0.27876118 -0.19811961 0.052903045
-0.27896246 -0.19809544 0.052915104
-0.27915961 -0.19807594 0.052885529
-0.27934939 -0.19805716 0.052857179
-0.27954775 -0.19802947 0.052907463
-0.27976233 -0.19800742 0.052883521
-0.27994409 -0.19798873 0.052863345
-0.28013447 -0.19797128 0.052821096
-0.2803337 -0.19795004 0.05280656
-0.28053012 -0.1979305 0.052778147
-0.28074837 -0.19790897 0.05274491
-0.28093553 -0.19788173 0.052803393
-0.28112516 -0.19786985 0.052706752
-0.28130314 -0.19784634 0.052738704
-0.28151265 -0.19782987 0.052665029
-0.2817167 -0.19781123 0.052619185
-0.28192511 -0.1977873 0.052620761
-0.28210884 -0.19776058 0.052678123
-0.28229836 -0.19773705 0.052697234
-0.28248826 -0.19772105 0.052641101
-0.28268597 -0.19770569 0.052569855
-0.28288764 -0.19769104 0.052486993
-0.28308237 -0.19767076 0.05246786
-0.28328109 -0.19765109 0.05243827
-0.28346679 -0.19761248 0.052611358
-0.28365374 -0.19758365 0.052686051
-0.2838591 -0.19758654 0.052424908
-0.2840558 -0.19756299 0.052435853
-0.28425503 -0.1975365 0.052473392
-0.28444648 -0.19751823 0.05243808
-0.28465039 -0.19751278 0.052261449
-0.28483564 -0.19746967 0.052479684
-0.28503352 -0.19744916 0.052459367
-0.28523901 -0.1974293 0.052423928
-0.28543663 -0.19740847 0.052407078
-0.28562787 -0.19739103 0.052363668
-0.28582436 -0.19737895 0.052261181
-0.28603247 -0.19735728 0.052240774
-0.28621781 -0.19733375 0.052264549
-0.28640983 -0.19730726 0.052310251
-0.28660396 -0.19728869 0.052274927
-0.28680095 -0.19726722 0.052265026
-0.28698966 -0.1972418 0.052303825
-0.28718305 -0.19723764 0.052126125
-0.28738844 -0.19722281 0.05204092
-0.28758153 -0.19718291 0.052218564
-0.28776747 -0.19716187 0.052216876
-0.28796646 -0.19715394 0.052070379
-0.28816813 -0.19711807 0.052198187
-0.28835493 -0.19710359 0.052130502
-0.28855711 -0.19709811 0.051956195
-0.28875494 -0.19705707 0.052139599
-0.2889595 -0.19704373 0.05204051
-0.28915244 -0.1970233 0.052024856
-0.28934556 -0.19700672 0.051971015
-0.28954875 -0.19697942 0.052012
-0.2897341 -0.19695193 0.052075125
-0.28992712 -0.19693698 0.052005075
-0.29012352 -0.19692153 0.051936157
-0.29032332 -0.19689742 0.051949389
-0.29051596 -0.19687563 0.051947635
-0.29070863 -0.19685349 0.051949352
-0.29090112 -0.19683661 0.05189899
-0.29109722 -0.19681549 0.051886778
-0.29129308 -0.19679788 0.051839858
-0.2914927 -0.19677565 0.051834568
-0.29168189 -0.19675158 0.051859472
-0.29188117 -0.196733 0.0518183
-0.29207772 -0.19670658 0.051858179
-0.29227665 -0.19669002 0.051797338
-0.29247564 -0.19667195 0.051751543
-0.29266873 -0.19664592 0.051791459
-0.29285008 -0.19662796 0.051764347
-0.29304409 -0.19661722 0.051651455
-0.2932412 -0.19658852 0.051713329
-0.29343665 -0.19656909 0.051684927
-0.29363459 -0.19655381 0.051612515
-0.29384166 -0.19652806 0.051633783
-0.29402727 -0.19650544 0.051648293
-0.29421479 -0.19648924 0.05159682
-0.29442501 -0.19646512 0.051598381
-0.29462048 -0.19644441 0.051582713
-0.294799 -0.1964227 0.051596135
-0.2949906 -0.19640349 0.051570084
-0.29519054 -0.19637935 0.051583309
-0.29537675 -0.19636598 0.051505223
-0.2955763 -0.19634296 0.051508036
-0.29577443 -0.19632415 0.051470354
-0.29597065 -0.19630092 0.051478978
-0.29616585 -0.19628048 0.051461004
-0.29636127 -0.19625942 0.051448811
-0.29655752 -0.1962363 0.051456276
-0.29674652 -0.19621433 0.051460348
-0.29693812 -0.1962105 0.051281504
-0.29713941 -0.19617538 0.051402371
-0.29732725 -0.19615611 0.051380984
-0.29751858 -0.19614393 0.051285487
-0.29771864 -0.19611979 0.051298711
-0.29791117 -0.19609742 0.051302742
-0.29811397 -0.19606796 0.051365718
-0.29830083 -0.1960572 0.051261
-0.29849011 -0.19604127 0.051204875
-0.29868633 -0.19601826 0.051211197
-0.29888135 -0.19599761 0.051195525
-0.29908547 -0.19596648 0.051273536
-0.29928127 -0.19595051 0.051210403
-0.29946277 -0.19594771 0.051032826
-0.29966521 -0.1959254 0.051025193
-0.29986757 -0.19589214 0.051126361
-0.30004981 -0.19587606 0.051079564
-0.30025557 -0.1958486 0.051119361
-0.30045879 -0.19583063 0.051067743
-0.30066079 -0.19580418 0.051101785
-0.30084541 -0.19578423 0.051090844
-0.30103308 -0.19575973 0.05112154
-0.30122674 -0.19575089 0.050990146
-0.30143249 -0.19571923 0.051071614
-0.3016144 -0.19570798 0.050977357
-0.30181471 -0.1956936 0.050893351
-0.30200598 -0.19566882 0.050922863
-0.30220574 -0.195646 0.050923355
-0.30240813 -0.19562846 0.050868273
-0.30260193 -0.19560492 0.050882719
-0.30279395 -0.19558379 0.050875183
-0.30299491 -0.19556373 0.050846729
-0.30318454 -0.19554567 0.050811436
-0.30338013 -0.19552414 0.050803866
-0.30357179 -0.19549546 0.050871573
-0.30376741 -0.19547801 0.050823499
-0.30397853 -0.19545738 0.050789163
-0.30415532 -0.19543914 0.05077019
-0.30434951 -0.1954194 0.050746437
-0.3045359 -0.19540124 0.050715797
-0.30472681 -0.19538151 0.050695546
-0.30493104 -0.19535397 0.050737664
-0.3051216 -0.19533476 0.050712779
-0.30531141 -0.19531631 0.050680965
-0.30549833 -0.19530451 0.050586663
-0.30569944 -0.1952841 0.050561681
-0.30588663 -0.19526491 0.050540298
-0.30608714 -0.195235 0.050610244
-0.30626202 -0.19522874 0.050474383
-0.30646342 -0.19520143 0.050517693
-0.30667302 -0.19516909 0.05060143
-0.30688235 -0.19514051 0.050648142
-0.30706844 -0.19513218 0.050520286
-0.30726755 -0.19511071 0.05050806
-0.307493 -0.19506656 0.050691202
-0.30766898 -0.19506472 0.05051019
-0.30785623 -0.19504565 0.050487652
-0.30804634 -0.19502985 0.050429203
-0.30823615 -0.19500536 0.050457571
-0.30841872 -0.19499065 0.050396882
-0.30862516 -0.19496836 0.050384585
-0.30882639 -0.19494222 0.050416313
-0.30901706 -0.19492579 0.050363652
-0.30920851 -0.19490576 0.050345711
-0.30939746 -0.19488521 0.050335884
-0.30958265 -0.194868 0.050297156
-0.30979231 -0.19484301 0.050307985
-0.30998546 -0.19482431 0.050274976
-0.31017309 -0.19480495 0.050254744
-0.31036204 -0.19478451 0.050243773
-0.31055838 -0.19476837 0.050181791
-0.31075722 -0.19474483 0.0501904
-0.31094024 -0.19472939 0.050136648
-0.31114426 -0.1947042 0.050155628
-0.31133863 -0.19467942 0.050181631
-0.31152847 -0.19466344 0.05012551
-0.31172556 -0.19464406 0.050094772
-0.3119255 -0.19461994 0.050107997
-0.31212589 -0.19459552 0.050123539
-0.31231275 -0.19457939 0.05007207
-0.31250864 -0.19455619 0.050080705
-0.31269944 -0.1945394 0.050031513
-0.31289744 -0.194517 0.05002971
-0.31310776 -0.19448762 0.050083358
-0.31329948 -0.19447014 0.050039943
-0.31347448 -0.1944606 0.049936488
-0.31369555 -0.19442569 0.050032862
-0.31387457 -0.19441536 0.049932849
-0.31406289 -0.1943958 0.049913771
-0.31425756 -0.19437613 0.049888849
-0.31447238 -0.19434622 0.049942456
-0.31464881 -0.19433537 0.049850568
-0.31483889 -0.19431899 0.049797907
-0.31504238 -0.19429307 0.04982499
-0.31525359 -0.19425963 0.049917981
-0.31543356 -0.19425257 0.049784392
-0.31562179 -0.19423535 0.049742162
-0.31583315 -0.19420423 0.049812008
-0.31603503 -0.19417976 0.049826369
-0.31621757 -0.19417065 0.049710121
-0.31639481 -0.19415888 0.049626324
-0.31661195 -0.19412418 0.049725048
-0.31681842 -0.19409885 0.049742851
-0.31701306 -0.1940815 0.049694777
-0.31722039 -0.1940577 0.049696364
-0.3174099 -0.19403778 0.049679596
-0.31761017 -0.19401479 0.049681246
-0.31779945 -0.19399898 0.049623959
-0.3179855 -0.1939833 0.049569026
-0.3181704 -0.19396833 0.049508311
-0.31837705 -0.19394134 0.049542308
-0.31856233 -0.19392423 0.049502429
-0.31877735 -0.19389211 0.049578022
-0.31897774 -0.19387119 0.049558837
-0.3191748 -0.19385053 0.049540836
-0.31935105 -0.19383912 0.049454741
-0.31954858 -0.19381818 0.049439043
-0.31972957 -0.19380377 0.04937721
-0.31994602 -0.19377311 0.049436592
-0.32015336 -0.19374453 0.049485631
-0.32034364 -0.19372813 0.049432971
-0.32053104 -0.19371347 0.049366452
-0.32073289 -0.19369367 0.049334519
-0.32093757 -0.19366342 0.049403258
-0.32110623 -0.19365636 0.049282499
-0.32130602 -0.19363433 0.049274899
-0.32147312 -0.19362803 0.049148362
-0.32168809 -0.19359718 0.04921123
-0.32187918 -0.1935786 0.049179394
-0.32209483 -0.19354758 0.049243409
-0.32227379 -0.19353433 0.049172334
-0.32250577 -0.19349584 0.04929176
-0.32266465 -0.19349572 0.049113221
-0.32286885 -0.19346982 0.049139131
-0.32305896 -0.19345194 0.049101524
-0.32327574 -0.19342077 0.049165532
-0.32347021 -0.19340053 0.049146399
-0.32367107 -0.19337839 0.049138781
-0.32385665 -0.19336312 0.049080383
-0.32406381 -0.19333759 0.049099322
-0.32425398 -0.19331981 0.049060561
-0.32446042 -0.1932932 0.049091086
-0.324651 -0.19327526 0.049053468
-0.32484472 -0.1932572 0.049013507
-0.32505804 -0.19322865 0.049055554
-0.32524547 -0.19321246 0.04900407
-0.32543734 -0.19319391 0.048971076
-0.32562673 -0.19317821 0.048912641
-0.32584319 -0.19314672 0.048980121
-0.32603526 -0.19312815 0.048947111
-0.3262265 -0.19311154 0.048895605
-0.32641861 -0.19309296 0.048862606
-0.32663411 -0.19306381 0.048908096
-0.32684025 -0.19303955 0.048915483
-0.32701486 -0.19303007 0.048812032
-0.32719928 -0.1930155 0.048747852
-0.32742202 -0.19298145 0.048833791
-0.32760552 -0.19296886 0.048751101
-0.3278043 -0.19294707 0.048742346
-0.32803228 -0.19291069 0.048845604
-0.32821277 -0.1928982 0.04876525
-0.32839939 -0.19288549 0.048680212
-0.32859886 -0.19286351 0.048672609
-0.32880688 -0.19284162 0.048654508
-0.3290433 -0.19280298 0.04877042
-0.3292037 -0.19280314 0.04858724
-0.32943004 -0.19276823 0.048677772
-0.32962331 -0.19275092 0.048630875
-0.32982221 -0.19273087 0.04860476
-0.33002415 -0.19270663 0.048616812
-0.33021122 -0.19269235 0.048546817
-0.33043158 -0.19266486 0.048570275
-0.33062357 -0.19264688 0.048531495
-0.33081242 -0.19262634 0.048521668
-0.33100733 -0.19260837 0.048479382
-0.33119932 -0.1925891 0.048453331
-0.33140445 -0.19256638 0.048446834
-0.33158171 -0.19255671 0.048342206
-0.33178321 -0.19253042 0.048375096
-0.33200505 -0.19250137 0.048412431
-0.33218715 -0.19248684 0.04835058
-0.33242634 -0.1924473 0.048472255
-0.33260989 -0.1924374 0.048362941
-0.33282042 -0.1924151 0.048345976
-0.33301905 -0.19239438 0.048326805
-0.33322018 -0.19237256 0.048315711
-0.33342007 -0.19235136 0.048300005
-0.33361971 -0.19233286 0.048257675
-0.33382601 -0.19231011 0.04825002
-0.33402696 -0.19228727 0.048249345
-0.33422217 -0.19226578 0.048241779
-0.33443058 -0.19224349 0.048227146
-0.33462462 -0.1922276 0.048165195
-0.33483237 -0.19219944 0.048209604
-0.33502832 -0.19218276 0.048153415
-0.3351925 -0.19217259 0.048068583
-0.33541802 -0.19214545 0.048082743
-0.33565152 -0.19210878 0.048182473
-0.33583236 -0.19209754 0.048089381
-0.33605447 -0.19207206 0.048090834
-0.3362374 -0.19205627 0.048040554
-0.33645171 -0.19203064 0.048052497
-0.33667156 -0.1920003 0.048104893
-0.33685321 -0.19198872 0.048014119
-0.33706498 -0.19196315 0.048028395
-0.33723927 -0.19195113 0.047950417
-0.3374458 -0.19193022 0.047924228
-0.33765081 -0.19190761 0.047916576
-0.3378568 -0.19188583 0.047899656
-0.33807129 -0.19185936 0.047919694
-0.33825761 -0.19184354 0.047865912
-0.33846861 -0.19181979 0.047862832
-0.33868408 -0.19179308 0.047884025
-0.33888379 -0.19177411 0.047846317
-0.33909407 -0.19175196 0.047828197
-0.33928281 -0.19173412 0.047791757
-0.33950123 -0.19170871 0.047796719
-0.33968365 -0.19169578 0.047718663
-0.33988759 -0.19167295 0.04771449
-0.34011528 -0.19164392 0.047744825
-0.3403025 -0.19163021 0.047669049
-0.34054047 -0.19160166 0.047683083
-0.34074542 -0.19158199 0.047646493
-0.34094101 -0.19156161 0.047627352
-0.34116554 -0.19153307 0.047656562
-0.34135041 -0.19151485 0.047628257
-0.34152958 -0.19150333 0.047539815
-0.34176555 -0.19147152 0.047588594
-0.34197614 -0.19144653 0.047598261
-0.34218082 -0.19142501 0.04758019
-0.34236574 -0.19141237 0.047496323
-0.23574492 -0.20300543 0.053087942
-0.236 -0.20298417 0.053010367
-0.23624206 -0.20296426 0.052934065
-0.23649222 -0.20294355 0.052856542
-0.23673996 -0.20292369 0.052773237
-0.23699918 -0.20290475 0.052667841
-0.23726736 -0.20288748 0.052535735
-0.237492 -0.20286523 0.052502431
-0.23771301 -0.20284128 0.052489996
-0.23794962 -0.20281895 0.052443847
-0.23819 -0.20279853 0.052374512
-0.23842309 -0.20277578 0.052336492
-0.23865347 -0.20275381 0.052293871
-0.23889433 -0.20273262 0.052231476
-0.23913243 -0.20271222 0.052164476
-0.23937967 -0.2026936 0.052069604
-0.23961262 -0.2026725 0.052015383
-0.23984605 -0.20265041 0.051970426
-0.24008343 -0.20263033 0.051901106
-0.2403193 -0.2026089 0.051846866
-0.24055865 -0.20258941 0.051769428
-0.24079612 -0.2025685 0.051708229
-0.24102734 -0.20254771 0.051652864
-0.24126333 -0.20252673 0.051593985
-0.24150763 -0.20250867 0.051496826
-0.24174552 -0.2024883 0.051429827
-0.24197683 -0.20246796 0.051369827
-0.24222226 -0.20244931 0.051277291
-0.24245134 -0.20242876 0.051221948
-0.24267501 -0.20240603 0.051194444
-0.24290383 -0.20238563 0.051137947
-0.24314323 -0.20236625 0.051059358
-0.24336654 -0.20234497 0.051017955
-0.2435964 -0.20232387 0.050967239
-0.24383119 -0.20230512 0.050887525
-0.24405748 -0.2022835 0.050846107
-0.24428065 -0.20226257 0.050801236
-0.24451031 -0.20224184 0.050747052
-0.24473827 -0.20222212 0.050684772
-0.24496405 -0.20220079 0.05064103
-0.24519379 -0.2021804 0.05058337
-0.24541613 -0.20215853 0.050548922
-0.24563718 -0.20213772 0.050505232
-0.24586633 -0.20211752 0.050446417
-0.24608991 -0.20209748 0.050392285
-0.24631077 -0.20207565 0.050359007
-0.24653482 -0.20205462 0.050314136
-0.24675825 -0.20203355 0.050270416
-0.24697791 -0.20201303 0.050225582
-0.24719873 -0.20199156 0.050188839
-0.24741784 -0.20197108 0.050144006
-0.24768865 -0.20195352 0.050011877
-0.24784334 -0.20191818 0.050187584
-0.24827297 -0.20188114 0.050069056
-0.24856603 -0.20187213 0.049826745
-0.2490077 -0.20183209 0.049724314
-0.24916519 -0.20180145 0.049850229
-0.24939086 -0.20178211 0.049786806
-0.24960661 -0.2017618 0.049744319
-0.24982235 -0.20174019 0.049714569
-0.25004169 -0.20171958 0.049670894
-0.25027144 -0.20169756 0.049629435
-0.2504701 -0.20167743 0.049604475
-0.25068647 -0.20165634 0.049568925
-0.25090289 -0.20163676 0.049518332
-0.25111189 -0.20161393 0.049508326
-0.25132537 -0.20159236 0.0494809
-0.25153956 -0.20157105 0.04945001
-0.2517598 -0.20154859 0.049423691
-0.2519623 -0.20152861 0.049392905
-0.25216812 -0.20150673 0.049377136
-0.25238174 -0.2014856 0.049345084
-0.25259182 -0.2014636 0.049325801
-0.25279844 -0.20144069 0.049319282
-0.25299478 -0.20141791 0.049323279
-0.25319836 -0.20139278 0.049342263
-0.25338274 -0.20136668 0.049392682
-0.25357163 -0.20133738 0.049469676
-0.25372934 -0.20130055 0.04965695
-0.25263813 -0.20062824 0.057566948
-0.25290161 -0.20061989 0.05735153
-0.25304359 -0.20057014 0.057684809
-0.25326544 -0.20054772 0.057656154
-0.25376981 -0.20043226 0.058231555
-0.25436199 -0.20033999 0.058477379
-0.25454676 -0.20030393 0.05862619
-0.25604108 -0.20052369 0.054752838
-0.25622535 -0.20048967 0.054881979
-0.2564927 -0.20046808 0.054793872
-0.25671595 -0.2004455 0.054765206
-0.25689703 -0.20042247 0.054789022
-0.25712278 -0.20039915 0.054764971
-0.25734022 -0.20037478 0.054760672
-0.25754946 -0.20036173 0.054653414
-0.25773272 -0.20033611 0.05470036
-0.25799865 -0.20031501 0.054608792
-0.25819823 -0.20029174 0.054613926
-0.25841188 -0.20026642 0.054623552
-0.25860581 -0.20023935 0.054672718
-0.25878543 -0.20021611 0.054700032
-0.25900856 -0.20019625 0.054644741
-0.25924942 -0.20019057 0.054428373
-0.25942525 -0.20016615 0.054471917
-0.25966623 -0.20013107 0.05454728
-0.25985715 -0.20010868 0.054553643
-0.26008239 -0.2000902 0.054482128
-0.26030102 -0.20006546 0.054480139
-0.2604973 -0.20004538 0.054457508
-0.26067585 -0.20002599 0.054447778
-0.26093054 -0.20000045 0.054413043
-0.26111037 -0.19997977 0.054414872
-0.26134872 -0.19995561 0.054384917
-0.26156676 -0.199939 0.054303046
-0.26175243 -0.19991298 0.054351136
-0.26195297 -0.19989124 0.054340042
-0.26217228 -0.19986947 0.054307945
-0.26236013 -0.19984648 0.054323599
-0.26254395 -0.19982789 0.054299921
-0.26277655 -0.1998122 0.054192446
-0.26296392 -0.19978297 0.054270618
-0.26320216 -0.19975753 0.054253399
-0.26339293 -0.19973399 0.054271344
-0.26358515 -0.19971959 0.054196656
-0.26380861 -0.19969408 0.054196931
-0.26401576 -0.19967182 0.054183468
-0.26422048 -0.19965065 0.054161921
-0.2644088 -0.19962621 0.054191463
-0.2646313 -0.19960266 0.054173224
-0.26481819 -0.199582 0.054166883
-0.26503003 -0.19956458 0.054100126
-0.2652837 -0.19954544 0.054002881
-0.2654703 -0.19952038 0.054040544
-0.26565498 -0.19949436 0.054089796
-0.2658647 -0.19947869 0.054008003
-0.26607794 -0.19945574 0.053994484
-0.26628068 -0.19943444 0.053976424
-0.26648721 -0.19941284 0.053957172
-0.26669848 -0.19938672 0.053977251
-0.26690188 -0.19936839 0.053929083
-0.26710606 -0.19934821 0.053898282
-0.26733372 -0.19932631 0.053857997
-0.26749411 -0.19930677 0.053870425
-0.26768556 -0.19927731 0.053946242
-0.26791432 -0.19926624 0.053797133
-0.26812208 -0.19924356 0.053787138
-0.26832035 -0.19921555 0.053840894
-0.26853237 -0.19920054 0.053749826
-0.26872453 -0.19918184 0.053717971
-0.26893911 -0.19915314 0.053760007
-0.26913521 -0.19914484 0.05362045
-0.26933968 -0.19911809 0.053654477
-0.26955634 -0.19909348 0.053653657
-0.26972944 -0.19906072 0.053782895
-0.26994672 -0.19904466 0.053696409
-0.27012122 -0.19901536 0.053789742
-0.27035326 -0.19900627 0.053617455
-0.27055037 -0.19898887 0.053567022
-0.27075765 -0.19896135 0.053605657
-0.27095959 -0.19893594 0.053629279
-0.27115804 -0.19891688 0.053593904
-0.27135593 -0.19889462 0.053590942
-0.27158654 -0.19888031 0.053471915
-0.27176943 -0.19886266 0.053440142
-0.27197066 -0.1988371 0.053466097
-0.27218175 -0.19881859 0.053410914
-0.27238122 -0.19879185 0.053450771
-0.27257496 -0.19876702 0.053477939
-0.27275708 -0.19874291 0.05351102
-0.2729699 -0.1987325 0.053373627
-0.2731829 -0.19870654 0.053390209
-0.27337047 -0.19868357 0.053405866
-0.27357608 -0.19866826 0.053325266
-0.27379516 -0.19864732 0.053285062
-0.27400574 -0.19862641 0.053254195
-0.27421048 -0.19860081 0.053276651
-0.27441728 -0.19857696 0.053279385
-0.27463025 -0.19855836 0.053223036
-0.27479744 -0.19853245 0.053290971
-0.27499834 -0.19851428 0.053243995
-0.2752021 -0.19849519 0.053202771
-0.27541944 -0.19847015 0.053205419
-0.27559969 -0.19845594 0.053142421
-0.27578819 -0.19843078 0.053178903
-0.27599198 -0.19840844 0.053170096
-0.27620766 -0.19838206 0.053187814
-0.2764169 -0.19836515 0.053118758
-0.27662575 -0.19834013 0.053130742
-0.27683088 -0.19833162 0.052983005
-0.27701786 -0.1983092 0.052994043
-0.27722225 -0.1982799 0.053053528
-0.27742904 -0.19826141 0.053003024
-0.27761301 -0.19824015 0.053005978
-0.27777261 -0.19820541 0.05317007
-0.27800953 -0.19819401 0.053015087
-0.27818936 -0.19817263 0.053023867
-0.27839231 -0.19815959 0.05292362
-0.27858549 -0.19813552 0.052943856
-0.278795 -0.19811673 0.052893326
-0.27899569 -0.19809228 0.052908853
-0.27919605 -0.1980723 0.052880406
-0.27938616 -0.19805442 0.052842773
-0.27958769 -0.19802615 0.052895345
-0.27980149 -0.19800361 0.052877195
-0.27998647 -0.19798443 0.052858144
-0.28017622 -0.19796658 0.052820526
-0.28037119 -0.19794534 0.052810647
-0.28057522 -0.197926 0.05277174
-0.28079304 -0.19790441 0.05273965
-0.28097916 -0.19787613 0.052809723
-0.28117603 -0.197864 0.05270721
-0.28135478 -0.19784215 0.052721795
-0.28156254 -0.19782355 0.052671269
-0.28176653 -0.19780537 0.052620791
-0.28197879 -0.19778207 0.05261191
-0.28216559 -0.19775453 0.052673876
-0.28235778 -0.19772953 0.052704543
-0.28254452 -0.1977153 0.05263453
-0.28274557 -0.19769979 0.052560925
-0.28294694 -0.19768529 0.05247689
-0.28314853 -0.19766425 0.052457683
-0.28333959 -0.19764508 0.052431643
-0.28353268 -0.19760668 0.052594259
-0.28371927 -0.19757777 0.052670136
-0.2839233 -0.19757871 0.052429788
-0.28412423 -0.19755693 0.052418694
-0.28432238 -0.19752869 0.052474771
-0.28451735 -0.19751072 0.05243247
-0.28471717 -0.19750537 0.052259311
-0.28490597 -0.19746245 0.052471761
-0.28510332 -0.19744141 0.052457228
-0.28530869 -0.19742215 0.052415993
-0.2855131 -0.19740044 0.052400243
-0.28570038 -0.19738333 0.052358016
-0.28590003 -0.19737078 0.052256633
-0.28610781 -0.19734915 0.052236214
-0.28629667 -0.19732593 0.052253015
-0.28648466 -0.19729942 0.052303389
-0.28668195 -0.19728026 0.052270338
-0.28687871 -0.19725905 0.052258119
-0.28706697 -0.19723298 0.052303866
-0.28726372 -0.19722927 0.052118007
-0.28747231 -0.19721407 0.052032754
-0.2876617 -0.19717504 0.052205838
-0.2878508 -0.19715308 0.052209899
-0.28805649 -0.19714427 0.052064471
-0.28825426 -0.19710815 0.052199274
-0.28844082 -0.19709451 0.052123483
-0.28864259 -0.19708896 0.051950306
-0.2888402 -0.19704795 0.052133732
-0.28904796 -0.19703412 0.052035749
-0.28923345 -0.19701502 0.052015536
-0.28943333 -0.19699706 0.051967397
-0.28963268 -0.19697091 0.052001476
-0.28982133 -0.19694281 0.0520669
-0.29001042 -0.19692785 0.052001502
-0.29020649 -0.1969123 0.051933721
-0.29040241 -0.19688876 0.051945828
-0.29060188 -0.19686584 0.051947482
-0.29079071 -0.19684391 0.05195155
-0.29098639 -0.19682749 0.051893041
-0.29117861 -0.19680715 0.051877394
-0.29137415 -0.19678923 0.051833935
-0.29156992 -0.19676721 0.051830992
-0.29176241 -0.19674252 0.051858172
-0.29196486 -0.1967243 0.051810026
-0.29216105 -0.19669849 0.05184412
-0.29235604 -0.19668226 0.05178446
-0.29255119 -0.19666439 0.051741004
-0.2927404 -0.19663891 0.051779799
-0.29292113 -0.19662303 0.051733006
-0.29311875 -0.19660942 0.051644366
-0.29331547 -0.19658133 0.051700465
-0.29350692 -0.19656284 0.051667452
-0.29371166 -0.19654655 0.051597286
-0.29391518 -0.19651981 0.051632479
-0.29409662 -0.19649906 0.051633134
-0.29428029 -0.19648318 0.051582843
-0.29449409 -0.19645725 0.051598258
-0.29468182 -0.19643858 0.051571071
-0.29486704 -0.19641659 0.051579803
-0.29505494 -0.1963972 0.051559567
-0.29525435 -0.19637384 0.051565856
-0.29544389 -0.19635975 0.05149119
-0.29563951 -0.19633727 0.051492885
-0.29583383 -0.19631869 0.051457535
-0.29603672 -0.19629504 0.051462635
-0.29622468 -0.19627494 0.051449344
-0.29641983 -0.19625381 0.051438298
-0.29661226 -0.19623099 0.051446963
-0.29679722 -0.19620995 0.051446438
-0.29698858 -0.19620581 0.051271036
-0.29719344 -0.19616969 0.051397674
-0.29737735 -0.19615099 0.051375154
-0.29756823 -0.19613908 0.051277325
-0.29776812 -0.19611473 0.051292866
-0.29795626 -0.19609392 0.051286522
-0.298159 -0.196064 0.051354136
-0.2983419 -0.1960538 0.051248278
-0.29853117 -0.19603729 0.051197924
-0.29872665 -0.19601518 0.051196147
-0.2989184 -0.19599386 0.05119092
-0.29912207 -0.195963 0.051266626
-0.29931742 -0.19594732 0.05120118
-0.29949445 -0.19594596 0.051014338
-0.29969773 -0.19592169 0.051025216
-0.2998955 -0.1958901 0.051114865
-0.30007774 -0.19587357 0.051072679
-0.3002829 -0.19584665 0.051107857
-0.30048674 -0.1958272 0.051070116
-0.30068445 -0.19580181 0.051098406
-0.30086812 -0.1957829 0.051078208
-0.30105567 -0.19575819 0.051111236
-0.30124882 -0.19574964 0.050977498
-0.30145088 -0.19571817 0.051061317
-0.30163151 -0.19570835 0.050954327
-0.30183655 -0.19569145 0.050889939
-0.3020235 -0.19566774 0.050913699
-0.3022193 -0.19564548 0.050913073
-0.30242154 -0.19562775 0.050860293
-0.30261207 -0.19560386 0.050881714
-0.30280676 -0.19558313 0.050867196
-0.30300781 -0.1955626 0.050843369
-0.30319011 -0.19554526 0.050809294
-0.30338162 -0.19552441 0.050799444
-0.30357218 -0.1954968 0.050857905
-0.3037678 -0.19547899 0.050813284
-0.30397823 -0.1954588 0.050775483
-0.30415431 -0.1954411 0.050751872
-0.30434981 -0.19541946 0.050745457
-0.30453122 -0.19540302 0.050703295
-0.30472597 -0.19538228 0.050688777
-0.30492252 -0.19535585 0.050728668
-0.30511299 -0.19533642 0.050706092
-0.30530572 -0.195318 0.050670758
-0.3054896 -0.19530572 0.050584573
-0.30568659 -0.19528601 0.0505573
-0.30586705 -0.19526687 0.050542925
-0.30607182 -0.19523893 0.050588522
-0.3062447 -0.19523115 0.050470021
-0.3064459 -0.19520374 0.050514489
-0.30665416 -0.19517249 0.050588995
-0.30686301 -0.19514409 0.050634556
-0.30704904 -0.19513553 0.050508991
-0.30724981 -0.19511212 0.050514109
-0.3074744 -0.19506854 0.050692655
-0.30764145 -0.195069 0.050498959
-0.30783251 -0.19504902 0.050481014
-0.30801901 -0.19503342 0.050424892
-0.30821139 -0.1950092 0.050447449
-0.30839023 -0.19499481 0.050387934
-0.30859646 -0.19497241 0.050376795
-0.30879852 -0.19494525 0.050417792
-0.30898684 -0.19493072 0.050348923
-0.30917904 -0.1949098 0.050339065
-0.30936393 -0.19488981 0.050328121
-0.30954912 -0.19487236 0.050291702
-0.3097544 -0.19484822 0.050299086
-0.30994785 -0.19482903 0.050270699
-0.31013083 -0.19481078 0.050244719
-0.31032804 -0.19478837 0.050244082
-0.31051886 -0.194774 0.050170559
-0.31071898 -0.19474916 0.050190739
-0.31089699 -0.19473509 0.050128914
-0.31110051 -0.19471009 0.050146732
-0.31129521 -0.1946848 0.05017738
-0.31148461 -0.19466898 0.050120078
-0.31168067 -0.19465019 0.050084714
-0.31188112 -0.19462542 0.050103724
-0.31208101 -0.19460118 0.050118115
-0.3122679 -0.19458483 0.050068945
-0.31245935 -0.19456248 0.050074138
-0.31265053 -0.19454516 0.050029568
-0.31284681 -0.1945239 0.050018519
-0.31305748 -0.19449401 0.05007679
-0.31324977 -0.19447587 0.050039154
-0.31342286 -0.19446762 0.049925275
-0.31364086 -0.19443247 0.050027475
-0.31381923 -0.19442244 0.049925134
-0.31401122 -0.19440225 0.049908333
-0.31420553 -0.19438259 0.049883403
-0.31441754 -0.19435233 0.049943991
-0.31459197 -0.19434275 0.049841683
-0.31477889 -0.19432627 0.049793668
-0.31498161 -0.19430065 0.049818449
-0.31519532 -0.19426739 0.049906798
-0.3153795 -0.19425717 0.049799766
-0.31555825 -0.1942443 0.049725212
-0.31576964 -0.19421293 0.049797371
-0.3159706 -0.19418682 0.049829103
-0.31615427 -0.19417678 0.049720924
-0.3163358 -0.19416605 0.049622025
-0.31654644 -0.19413348 0.049706928
-0.31675526 -0.19410636 0.049739756
-0.31694657 -0.19408904 0.049695183
-0.3171525 -0.19406599 0.04969098
-0.3173404 -0.19404694 0.049667273
-0.31754032 -0.194024 0.049668927
-0.31773138 -0.1940088 0.049603514
-0.31791675 -0.19399145 0.049565926
-0.31810066 -0.19397694 0.049501739
-0.31830266 -0.19395083 0.049532309
-0.31849259 -0.1939325 0.049499322
-0.31870317 -0.19390297 0.049554128
-0.31890774 -0.19387925 0.049558051
-0.31910673 -0.19385909 0.049533088
-0.31928042 -0.19384725 0.04945394
-0.31947738 -0.1938265 0.049437094
-0.31965479 -0.19381411 0.049359068
-0.3198759 -0.19378224 0.049425352
-0.32008404 -0.19375297 0.049480181
-0.32027495 -0.19373605 0.049432129
-0.32045886 -0.19372155 0.049367942
-0.32065749 -0.19370352 0.049322139
-0.3208715 -0.19366929 0.04941975
-0.32103208 -0.19366686 0.049261991
