# .PCD v0.7 - Point Cloud Data file format
VERSION 0.7
FIELDS x y z
SIZE 4 4 4
TYPE F F F
COUNT 1 1 1
WIDTH 1282
HEIGHT 1
VIEWPOINT 0 0 0 1 0 0 0
POINTS 1282
DATA ascii
-0.25515994 -0.13448019 0.056114778
-0.2553629 -0.1343977 0.056085207
-0.2555764 -0.13431385 0.056033682
-0.25578582 -0.13423008 0.05599371
-0.25600138 -0.1341465 0.055934109
-0.25620556 -0.13406447 0.055897616
-0.25641793 -0.13398111 0.055846095
-0.25662589 -0.1338978 0.055807285
-0.25683323 -0.13381457 0.05576963
-0.25703901 -0.13373303 0.055725053
-0.25724769 -0.13365008 0.055681624
-0.25752035 -0.13356408 0.05546838
-0.25769651 -0.13347255 0.055581961
-0.25782153 -0.13339557 0.055746488
-0.25803247 -0.13331792 0.055659208
-0.25835061 -0.13323914 0.055260066
-0.25853038 -0.13315928 0.055281345
-0.25870985 -0.13307127 0.055360306
-0.25888526 -0.13299292 0.055383898
-0.25909063 -0.13291255 0.055332404
-0.25929183 -0.13283047 0.055305161
-0.25949526 -0.1327486 0.055269819
-0.25969744 -0.13266677 0.055237953
-0.2599147 -0.13258247 0.055178333
-0.26010177 -0.13250345 0.055171899
-0.26030183 -0.13242352 0.055133123
-0.26050827 -0.13234068 0.05509546
-0.26070037 -0.13226052 0.05508209
-0.26090187 -0.13217929 0.055047914
-0.26110137 -0.13209976 0.055007979
-0.26129985 -0.13201687 0.054994572
-0.26149157 -0.13193703 0.054980054
-0.26169255 -0.1318562 0.05494472
-0.261893 -0.13177544 0.054910552
-0.26208282 -0.13169573 0.054900646
-0.26226789 -0.13161576 0.054906908
-0.26245567 -0.13153429 0.054915458
-0.26264137 -0.13145271 0.054930944
-0.26280817 -0.13136962 0.055013422
-0.26297313 -0.13128634 0.055102818
-0.26310417 -0.13120002 0.055314615
-0.26209033 -0.13058916 0.062605858
-0.26212147 -0.1304812 0.063266784
-0.26233774 -0.13039765 0.06320487
-0.26275289 -0.13012348 0.063880585
-0.26480943 -0.12973835 0.060433056
-0.26502272 -0.12965558 0.060374614
-0.26522696 -0.12955783 0.060447711
-0.2654672 -0.12946901 0.060351104
-0.26565725 -0.12938739 0.060353886
-0.26583672 -0.12930635 0.060384396
-0.26604879 -0.12921996 0.060354792
-0.26624808 -0.12914398 0.060290627
-0.26642647 -0.12907313 0.060253084
-0.26665139 -0.12897679 0.060254589
-0.26684028 -0.12890163 0.060215838
-0.26702267 -0.12882344 0.060217492
-0.26723427 -0.12872934 0.060243271
-0.26742008 -0.12864557 0.060273755
-0.26758423 -0.12857072 0.060306631
-0.26780719 -0.12849554 0.060166243
-0.26799256 -0.12842882 0.06007906
-0.2681832 -0.12833555 0.060161434
-0.26840526 -0.1282416 0.06015487
-0.26858732 -0.12816605 0.060139228
-0.26880848 -0.12808074 0.060074985
-0.26899567 -0.1279977 0.060096234
-0.26916039 -0.12792987 0.060078345
-0.26934826 -0.12784705 0.060096137
-0.26957801 -0.1277574 0.06003648
-0.26977721 -0.12767486 0.060018461
-0.26997539 -0.12759887 0.059957765
-0.27016959 -0.12751995 0.059929378
-0.27034312 -0.12744109 0.059962217
-0.27054328 -0.12735914 0.059937276
-0.27071634 -0.12728478 0.059940122
-0.2708939 -0.12720238 0.059985638
-0.27111402 -0.1271276 0.059851021
-0.27128175 -0.12704989 0.059893109
-0.27148294 -0.12696171 0.059908539
-0.27170843 -0.1268772 0.05982583
-0.27185288 -0.12680314 0.059911832
-0.27207312 -0.126727 0.059786454
-0.27225888 -0.12664226 0.059823867
-0.27245367 -0.12656225 0.059801243
-0.2726377 -0.12648189 0.05981328
-0.27283159 -0.126397 0.059827588
-0.27302322 -0.12632363 0.059768066
-0.2731958 -0.12624268 0.059818216
-0.27342835 -0.12616888 0.059639715
-0.2736192 -0.12608594 0.059649415
-0.27379757 -0.12600186 0.059704155
-0.27397895 -0.12592363 0.059709281
-0.27416861 -0.12585045 0.059654385
-0.27437273 -0.12577176 0.05959481
-0.27456099 -0.1256858 0.059633367
-0.2747674 -0.12560298 0.059595715
-0.27494472 -0.12552895 0.059583537
-0.27514282 -0.12544885 0.059551686
-0.27533883 -0.12536818 0.059530221
-0.27551672 -0.1252972 0.059494972
-0.2756744 -0.12521684 0.059585556
-0.27587527 -0.12513804 0.059536386
-0.2760804 -0.12506355 0.059444509
-0.27626649 -0.12497719 0.059492297
-0.27646026 -0.12489895 0.059460461
-0.27665383 -0.12482888 0.059372086
-0.27682352 -0.12474472 0.059453394
-0.27703074 -0.12466636 0.059382282
-0.27720597 -0.12460082 0.059317052
-0.27740064 -0.12451244 0.05935327
-0.27760157 -0.12442371 0.059373323
-0.27779102 -0.1243445 0.059361111
-0.2779676 -0.12426583 0.059383549
-0.27814728 -0.12419128 0.059367914
-0.2783455 -0.12412172 0.059262224
-0.27852887 -0.12404031 0.059283487
-0.27873212 -0.12396166 0.059226234
-0.27890673 -0.12387656 0.059299439
-0.27909216 -0.12380204 0.059266478
-0.27929288 -0.12372562 0.059201159
-0.27948299 -0.12365654 0.059116259
-0.27966198 -0.12357651 0.05914101
-0.27984706 -0.12349322 0.059170336
-0.28004435 -0.1234158 0.059122331
-0.28023675 -0.12333615 0.059104338
-0.2804006 -0.12325811 0.059160292
-0.28058273 -0.12318286 0.059142336
-0.28078482 -0.12311148 0.059037782
-0.28097081 -0.12302895 0.059059035
-0.28114337 -0.12294903 0.05910226
-0.28135851 -0.12287869 0.058951519
-0.28154653 -0.12279744 0.05895777
-0.2817367 -0.12271742 0.058949016
-0.2819351 -0.12262878 0.058975995
-0.28212911 -0.12255771 0.058893383
-0.28230429 -0.12247947 0.05891699
-0.28246403 -0.12239907 0.059001796
-0.28265974 -0.12232941 0.058904193
-0.28285301 -0.12224825 0.058894262
-0.28304666 -0.12217088 0.058856659
-0.28320611 -0.12210067 0.058871083
-0.28338662 -0.12201884 0.058903899
-0.28357306 -0.12194075 0.058892846
-0.2837919 -0.12185841 0.058814775
-0.28396726 -0.12178059 0.05883491
-0.28417212 -0.12170406 0.058758043
-0.28432855 -0.12164687 0.05869057
-0.28452167 -0.12155157 0.058779866
-0.28471154 -0.12147267 0.058764193
-0.28489417 -0.12140778 0.058672398
-0.28505802 -0.12132198 0.058782563
-0.28524578 -0.12123788 0.058809582
-0.28543365 -0.12117735 0.058671623
-0.28559932 -0.12110052 0.058713723
-0.28579399 -0.12102982 0.058626503
-0.28597662 -0.12095007 0.058638539
-0.28615722 -0.12087281 0.05863905
-0.28635094 -0.12079377 0.058612972
-0.28652623 -0.1207206 0.058600813
-0.28670296 -0.12064452 0.058604795
-0.28690064 -0.12056064 0.058600631
-0.2870872 -0.12048448 0.058575742
-0.28725493 -0.12041372 0.058569372
-0.28743452 -0.12034037 0.058545657
-0.28761971 -0.12026332 0.05853115
-0.2878091 -0.1201947 0.058445107
-0.28799921 -0.12010893 0.058476724
-0.28818825 -0.12003585 0.05842299
-0.28835297 -0.11996274 0.058442015
-0.28852347 -0.11988121 0.058502544
-0.28872013 -0.11981609 0.058370329
-0.28891212 -0.11974192 0.058315419
-0.28909865 -0.11965752 0.058348209
-0.28927141 -0.11957337 0.058420274
-0.28944421 -0.11950392 0.058389656
-0.28962135 -0.11942931 0.058382109
-0.28981224 -0.11935972 0.058298364
-0.28999302 -0.11929463 0.058213502
-0.29017982 -0.11921588 0.05820591
-0.29035872 -0.11913854 0.058212195
-0.29052401 -0.11904503 0.058371965
-0.29069963 -0.11896892 0.058379412
-0.29089493 -0.11891711 0.058158368
-0.29108062 -0.11883174 0.058200393
-0.29125464 -0.11875399 0.058223993
-0.29143691 -0.11868116 0.058188729
-0.29163179 -0.1186254 0.057996534
-0.2917982 -0.11851985 0.05823705
-0.29198304 -0.11844492 0.058208704
-0.29217488 -0.11837395 0.058131874
-0.29235291 -0.11829581 0.058146238
-0.29252997 -0.11822883 0.058085613
-0.29271647 -0.11815716 0.058029577
-0.29290846 -0.11808117 0.057987362
-0.2930778 -0.11800294 0.058028284
-0.29325029 -0.11792288 0.058072664
-0.29343855 -0.11784797 0.058033921
-0.29361096 -0.11777455 0.058032151
-0.29378289 -0.11769325 0.058086913
-0.29397753 -0.11763711 0.057898168
-0.29416838 -0.11756787 0.057812124
-0.29433364 -0.11746694 0.058023795
-0.29450718 -0.11739585 0.058002412
-0.29470432 -0.11733928 0.057809051
-0.29488379 -0.11724088 0.057960689
-0.29506186 -0.11717942 0.057858534
-0.29525298 -0.11711255 0.05775518
-0.29542997 -0.11701618 0.057899907
-0.29561856 -0.11695303 0.057778098
-0.29578876 -0.11687577 0.0578098
-0.29597741 -0.11680483 0.057742208
-0.29615626 -0.11672024 0.057799254
-0.29632896 -0.11663926 0.057849392
-0.29650882 -0.11657603 0.057754163
-0.29669553 -0.1165013 0.05771888
-0.29687488 -0.11642756 0.05769863
-0.29705518 -0.11634615 0.057729132
-0.29723141 -0.11627457 0.057703122
-0.29741064 -0.11620088 0.057682872
-0.29758909 -0.11612503 0.057679929
-0.2977761 -0.11605249 0.057628497
-0.29795045 -0.1159756 0.057645179
-0.29813313 -0.1159016 0.057616845
-0.29831716 -0.11581958 0.057640418
-0.29850289 -0.11574361 0.057616681
-0.29867572 -0.11567463 0.057582602
-0.29886559 -0.11560103 0.057530012
-0.29903141 -0.11551902 0.057607867
-0.29919928 -0.11544489 0.057624567
-0.2993888 -0.11538647 0.057466999
-0.29956505 -0.1153015 0.057534434
-0.29974759 -0.11522904 0.05749571
-0.29993543 -0.11516589 0.057376221
-0.30011871 -0.11507972 0.057430938
-0.30028677 -0.11500684 0.057438415
-0.30046228 -0.11493623 0.057407785
-0.30065778 -0.1148589 0.057364404
-0.30083138 -0.11477605 0.057424933
-0.30100277 -0.11470158 0.057433546
-0.3011781 -0.11463054 0.057406384
-0.30135944 -0.11455198 0.05741382
-0.3015385 -0.11448399 0.057354342
-0.30172026 -0.11441004 0.057328314
-0.30189866 -0.11433753 0.057302292
-0.30208689 -0.11426033 0.057279706
-0.30226481 -0.11418208 0.057295222
-0.30243993 -0.11411213 0.057261139
-0.30261785 -0.11403305 0.057282422
-0.30279616 -0.11396075 0.057255253
-0.30297503 -0.11390654 0.05710002
-0.30315912 -0.11381128 0.057215881
-0.30333069 -0.11374053 0.057197966
-0.30350888 -0.11367406 0.057130422
-0.3036935 -0.11359625 0.057122838
-0.30386829 -0.11351901 0.057140674
-0.30405301 -0.11343735 0.057159625
-0.30422768 -0.11336974 0.057110544
-0.30440873 -0.11330338 0.057033762
-0.30458692 -0.11322319 0.057061963
-0.30476838 -0.11314425 0.057071701
-0.30495337 -0.11306134 0.057098728
-0.30513421 -0.1129934 0.057033475
-0.30530396 -0.11294425 0.056870207
-0.30549157 -0.11286698 0.056849923
-0.30567431 -0.11277312 0.05696002
-0.30584565 -0.11270164 0.056947872
-0.30603373 -0.11262103 0.056949515
-0.30622423 -0.112547 0.056898072
-0.30640984 -0.11246101 0.056944706
-0.30657497 -0.11238953 0.056951042
-0.30675095 -0.11230749 0.05699886
-0.30692932 -0.11225267 0.056849409
-0.30712238 -0.11216002 0.056920242
-0.30728576 -0.11210036 0.056849286
-0.30747381 -0.1120391 0.056715947
-0.30764756 -0.11195321 0.056797236
-0.30783212 -0.11187593 0.056786194
-0.30802134 -0.11180624 0.056708224
-0.30820078 -0.11172403 0.056746811
-0.30837828 -0.1116519 0.056720793
-0.30856231 -0.11157716 0.056693602
-0.30873644 -0.11150647 0.0566676
-0.30891469 -0.11143072 0.056664657
-0.30909631 -0.11134048 0.056752838
-0.30927959 -0.11126919 0.056703735
-0.30946839 -0.11119918 0.056629226
-0.30963436 -0.11112571 0.056647085
-0.30980802 -0.11105687 0.056609556
-0.30998576 -0.11098348 0.056591615
-0.31016392 -0.11090861 0.056582905
-0.3103539 -0.11082272 0.056615673
-0.31052536 -0.11075119 0.056603529
-0.31070429 -0.1106839 0.056539442
-0.31087565 -0.11062233 0.056458067
-0.31105793 -0.1105528 0.05639974
-0.31123212 -0.11047217 0.056442957
-0.31141725 -0.11039349 0.056439988
-0.31158802 -0.11032407 0.056415148
-0.31176817 -0.11024338 0.056441043
-0.31195846 -0.11014977 0.056526884
-0.31214991 -0.11006988 0.056513514
-0.3123191 -0.11001335 0.056403309
-0.31250957 -0.10993602 0.056374945
-0.31270164 -0.10983109 0.056534618
-0.3128812 -0.10977626 0.056381695
-0.31305462 -0.10970736 0.056345314
-0.31322536 -0.10963812 0.056319326
-0.31339875 -0.10956196 0.056333698
-0.31357521 -0.10949226 0.056293849
-0.31376302 -0.10941476 0.056274712
-0.31394765 -0.10933148 0.0563052
-0.31412014 -0.10926481 0.056256138
-0.31430203 -0.1091885 0.056246266
-0.31447491 -0.1091142 0.056249101
-0.31464741 -0.10904736 0.056201186
-0.31483975 -0.10896575 0.05619704
-0.31502259 -0.10889366 0.056154858
-0.31518665 -0.10882133 0.056170415
-0.31536862 -0.10874515 0.056159392
-0.31554967 -0.10867697 0.056095287
-0.31573316 -0.10859749 0.056102715
-0.31590253 -0.10853132 0.05605942
-0.31608358 -0.10845156 0.056076076
-0.3162711 -0.10836954 0.056089256
-0.31644341 -0.10830277 0.056041334
-0.31662506 -0.10822755 0.056024544
-0.31681019 -0.10815069 0.056008887
-0.31699193 -0.10807014 0.056028996
-0.31717244 -0.1079974 0.055998359
-0.31734982 -0.10792053 0.056005798
-0.31752637 -0.10785046 0.055968247
-0.31770688 -0.10777275 0.055972226
-0.31789738 -0.10769095 0.055975009
-0.31807512 -0.10761873 0.055948991
-0.31824374 -0.10755385 0.055898786
-0.31843442 -0.1074672 0.055935018
-0.31860355 -0.10740607 0.055857122
-0.31878689 -0.10732831 0.055853002
-0.31896648 -0.10725282 0.055844285
-0.31915671 -0.1071675 0.055872444
-0.31932318 -0.10711081 0.055771489
-0.31949914 -0.10703737 0.055759318
-0.31968638 -0.10695315 0.055788647
-0.31987762 -0.10686228 0.055852566
-0.32005239 -0.10680404 0.055737734
-0.32022512 -0.10673626 0.055695586
-0.32041511 -0.10664378 0.05577451
-0.32060456 -0.10656077 0.055788834
-0.32077402 -0.10650678 0.055660173
-0.32094118 -0.10644816 0.055570744
-0.32113445 -0.10635096 0.055672731
-0.32132474 -0.10626297 0.055719346
-0.32150576 -0.10619397 0.055661023
-0.32168472 -0.10612816 0.055586547
-0.3218711 -0.10604282 0.055626258
-0.32205713 -0.10596211 0.055634826
-0.32222757 -0.10590192 0.055546537
-0.32241029 -0.1058226 0.055555116
-0.32258305 -0.10575498 0.05551181
-0.32276231 -0.10568111 0.055492714
-0.32294515 -0.10560555 0.055474758
-0.32313082 -0.10552218 0.055502936
-0.32331878 -0.10543915 0.055521872
-0.32349932 -0.10536721 0.055485468
-0.32367793 -0.10529461 0.055459447
-0.32385144 -0.10522254 0.055444986
-0.32402122 -0.10516278 0.055355549
-0.3242211 -0.10506641 0.055432133
-0.32441229 -0.10497936 0.055469517
-0.32458472 -0.10491583 0.055398524
-0.32476559 -0.10484029 0.055386346
-0.32493964 -0.10477774 0.055303819
-0.32513803 -0.10468099 0.055387318
-0.32529643 -0.10463041 0.05526793
-0.32548437 -0.10454524 0.055301875
-0.32564688 -0.10449521 0.055166312
-0.3258276 -0.10442006 0.055151824
-0.32601669 -0.10433356 0.055191524
-0.32620317 -0.10425084 0.055212777
-0.3263863 -0.10417581 0.055190209
-0.32657883 -0.10408521 0.055248357
-0.32675266 -0.10402275 0.055165831
-0.32692105 -0.10396129 0.055092547
-0.32711142 -0.10387689 0.055113785
-0.32729703 -0.10379288 0.055146582
-0.32748264 -0.10371498 0.055136681
-0.32766855 -0.10363381 0.05514871
-0.32785031 -0.10356102 0.055114612
-0.32802927 -0.10348894 0.055083979
-0.32821462 -0.10341165 0.055070624
-0.32840112 -0.10333007 0.055083796
-0.32858759 -0.10324866 0.055095822
-0.32875305 -0.10319374 0.054985635
-0.32895228 -0.10309929 0.055050682
-0.32912755 -0.10303208 0.05499699
-0.32931292 -0.1029551 0.054981332
-0.32948861 -0.10288739 0.054929946
-0.3296839 -0.10279562 0.054988082
-0.32986811 -0.1027203 0.054964349
-0.33004367 -0.10265279 0.054911807
-0.33022347 -0.10258018 0.054882322
-0.3304176 -0.10249567 0.05489317
-0.33060697 -0.1024117 0.054914411
-0.33078787 -0.10233797 0.054889541
-0.3309584 -0.10227659 0.054809332
-0.33113846 -0.10220386 0.054779846
-0.33132136 -0.10213043 0.054746892
-0.3315179 -0.10203844 0.054802723
-0.33171549 -0.10194799 0.0548447
-0.33191961 -0.10185014 0.054918952
-0.33206588 -0.10181942 0.054696932
-0.33226296 -0.10172738 0.054751601
-0.33243942 -0.10166411 0.054666758
-0.33263916 -0.10156929 0.054732956
-0.33281705 -0.10150443 0.054655023
-0.33301643 -0.10141273 0.054700457
-0.3332054 -0.10133538 0.054676708
-0.33338115 -0.10126814 0.054621864
-0.33356959 -0.10118422 0.054645419
-0.33374962 -0.10110987 0.054627471
-0.33394906 -0.10102821 0.054602534
-0.33412468 -0.10096118 0.054546528
-0.33430517 -0.10088647 0.05452973
-0.33448815 -0.10080902 0.054524463
-0.33466807 -0.10073736 0.054488059
-0.33485425 -0.10065889 0.054480478
-0.33503526 -0.1005884 0.054432523
-0.33519706 -0.10052958 0.054360423
-0.33541867 -0.10041302 0.054513063
-0.33558533 -0.1003604 0.054383263
-0.33578748 -0.10026288 0.054460995
-0.33598575 -0.10017644 0.054472975
-0.33616176 -0.10011156 0.05440082
-0.33635855 -0.10002905 0.05438973
-0.33654654 -0.0999493 0.054385602
-0.33672169 -0.099881001 0.054339986
-0.33692598 -0.099790834 0.054360013
-0.33710343 -0.099724509 0.054293625
-0.33729994 -0.099638328 0.054309085
-0.33747667 -0.099562071 0.054314215
-0.3376646 -0.099480696 0.054321624
-0.33786416 -0.099402286 0.054273613
-0.33803463 -0.099334821 0.054236084
-0.33823916 -0.099238768 0.054296494
-0.33841097 -0.099176347 0.054219734
-0.33859119 -0.099103227 0.054192558
-0.33877429 -0.099031344 0.054148067
-0.33898008 -0.09893658 0.054195791
-0.33917308 -0.09885487 0.054190487
-0.33935449 -0.098784871 0.054137919
-0.33953431 -0.098712415 0.054107286
-0.33974156 -0.098618671 0.054143459
-0.33992854 -0.098537222 0.054154333
-0.34010968 -0.098467663 0.05409947
-0.340287 -0.098399915 0.054043457
-0.34046873 -0.098325819 0.054018576
-0.34065294 -0.09825331 0.053975239
-0.34085503 -0.098163247 0.054001052
-0.34104696 -0.098081335 0.05400037
-0.34124324 -0.097995251 0.054015819
-0.34141529 -0.097930908 0.053951748
-0.34161511 -0.097843468 0.05396603
-0.3418175 -0.097755596 0.053975698
-0.34198821 -0.097692654 0.053905863
-0.34218252 -0.097612679 0.053884406
-0.34237078 -0.097531021 0.053892963
-0.34256196 -0.097454213 0.053858832
-0.34273997 -0.097384341 0.053815503
-0.34292686 -0.097306058 0.05380445
-0.34312877 -0.097219229 0.05380835
-0.3433108 -0.097151279 0.053739633
-0.34353366 -0.097050369 0.053779218
-0.34371343 -0.096979097 0.053740509
-0.34389392 -0.096907184 0.05370409
-0.34409562 -0.096819118 0.053717218
-0.34427887 -0.096741058 0.053715408
-0.34445411 -0.096676014 0.053646717
-0.34466454 -0.096581906 0.053675961
-0.34485349 -0.096502423 0.05366721
-0.34504592 -0.096419796 0.053669982
-0.34521642 -0.096359245 0.053584013
-0.24604976 -0.13801712 0.058601353
-0.24628109 -0.13792714 0.058539335
-0.24651359 -0.13783866 0.058463462
-0.24674505 -0.13774897 0.058399126
-0.24697897 -0.1376607 0.058317475
-0.24721272 -0.13757119 0.058245055
-0.24746336 -0.13747957 0.058136813
-0.24771097 -0.13739257 0.058005497
-0.24792019 -0.13730609 0.05798509
-0.24813159 -0.13721818 0.057968147
-0.24835581 -0.13713124 0.057906143
-0.24857998 -0.137043 0.057853378
-0.24879196 -0.13695683 0.057822574
-0.2490121 -0.13686898 0.057779051
-0.24923702 -0.1367811 0.057721667
-0.24947213 -0.13669299 0.057635397
-0.24969977 -0.13660674 0.057558395
-0.2499173 -0.13651951 0.057518341
-0.2501317 -0.13643396 0.057475992
-0.25036111 -0.13634662 0.057401277
-0.25058857 -0.13626094 0.057320815
-0.25080982 -0.13617413 0.057266902
-0.25102746 -0.13608901 0.057211854
-0.25125089 -0.13600239 0.057149861
-0.25147238 -0.13591745 0.057082098
-0.25170249 -0.13583098 0.056999318
-0.25192487 -0.13574484 0.056937322
-0.25214449 -0.13565886 0.056882262
-0.25237906 -0.13557428 0.056772929
-0.25258875 -0.13548875 0.056744441
-0.25280094 -0.1354048 0.05669748
-0.25301811 -0.1353194 0.056645904
-0.25323683 -0.13523562 0.056578152
-0.25345176 -0.13515051 0.056531187
-0.25366756 -0.13506551 0.056480765
-0.25388777 -0.13498062 0.056416467
-0.25409701 -0.13489743 0.056372985
-0.25431192 -0.13481282 0.056322563
-0.25452796 -0.13472986 0.056257144
-0.25474072 -0.13464551 0.056211337
-0.25495267 -0.13456282 0.056156307
-0.25516215 -0.1344787 0.056118596
-0.25536796 -0.13439466 0.056091275
-0.25558567 -0.13431083 0.056026995
-0.25579193 -0.13422859 0.055985838
-0.25600377 -0.13414496 0.055937726
-0.25620726 -0.1340629 0.055903494
-0.2564204 -0.13397954 0.055849623
-0.25663251 -0.13389629 0.055798054
-0.25683951 -0.13381305 0.055761497
-0.2570405 -0.13373141 0.055731896
-0.25724885 -0.13364844 0.055689566
-0.25752819 -0.13356259 0.055455457
-0.25769728 -0.13347407 0.055569042
-0.2578215 -0.13339545 0.055747401
-0.25803712 -0.13331632 0.055656593
-0.25835627 -0.13323595 0.055265408
-0.25853723 -0.13315773 0.055271655
-0.25873131 -0.13307028 0.05530322
-0.258883 -0.13299264 0.055392642
-0.25909191 -0.13291076 0.055341084
-0.25929385 -0.1328287 0.055311479
-0.2594977 -0.13274848 0.055263396
-0.25969988 -0.13266665 0.055231482
-0.25991476 -0.13258222 0.055179901
-0.26009837 -0.13250467 0.055173438
-0.26030302 -0.13242328 0.055131137
-0.26051053 -0.13234051 0.055089962
-0.26069677 -0.13226168 0.055084638
-0.26089799 -0.13218042 0.055051576
-0.26109621 -0.13210079 0.055016216
-0.26129845 -0.13201812 0.054990068
-0.26149017 -0.13193826 0.054975498
-0.26168889 -0.13185726 0.054948203
-0.26188558 -0.13177794 0.05491516
-0.26207578 -0.13169825 0.054904051
-0.26226765 -0.13161702 0.054898709
-0.26245892 -0.13153408 0.054907218
-0.26263642 -0.13145535 0.054927316
-0.26280555 -0.13137244 0.055001669
-0.26297346 -0.13128938 0.055080641
-0.2631067 -0.13120326 0.055284355
-0.26208436 -0.13059358 0.06259267
-0.26211259 -0.1304834 0.0632779
-0.26232591 -0.13040145 0.063213639
-0.26276106 -0.1301275 0.063828096
-0.26479748 -0.12974182 0.060444493
-0.26501498 -0.12965956 0.060369823
-0.26521307 -0.12956296 0.060453296
-0.26545012 -0.12947567 0.060355488
-0.26564965 -0.12939136 0.060348958
-0.26582566 -0.12930979 0.060393296
-0.266036 -0.12922513 0.060356732
-0.26623604 -0.1291472 0.060304057
-0.26642305 -0.12907764 0.060231812
-0.26661703 -0.12898675 0.060287613
-0.26682532 -0.12890843 0.060212985
-0.26701003 -0.1288306 0.060205366
-0.26722166 -0.12873647 0.060231097
-0.26740664 -0.12865256 0.060265012
-0.26756755 -0.12857713 0.060311712
-0.26779345 -0.12849823 0.060188558
-0.26798037 -0.12843595 0.060065545
-0.26815346 -0.12834804 0.060162965
-0.26838666 -0.12824968 0.060153998
-0.26856768 -0.1281739 0.060142934
-0.26878542 -0.12809007 0.060078651
-0.26897535 -0.12800752 0.060088322
-0.26914096 -0.12793767 0.060081922
-0.26931787 -0.12785919 0.060102027
-0.2695525 -0.12776829 0.060036525
-0.26974505 -0.12768877 0.060017332
-0.26994845 -0.1276094 0.059964646
-0.27014557 -0.12753107 0.059923522
-0.2703186 -0.12745209 0.059958629
-0.27051601 -0.12736948 0.059946351
-0.27069589 -0.12729436 0.059934121
-0.27087206 -0.1272139 0.059970379
-0.27108225 -0.12713906 0.059865747
-0.27125403 -0.12706459 0.059873171
-0.27144834 -0.12697473 0.059920888
-0.27167985 -0.1268893 0.05982656
-0.27183023 -0.12681438 0.059900992
-0.27203602 -0.12674159 0.059795216
-0.27222651 -0.12665567 0.059826802
-0.27241912 -0.12657742 0.059798378
-0.27260441 -0.12649736 0.0598046
-0.27279499 -0.12641156 0.059835039
-0.27299386 -0.12633528 0.059774287
-0.27315959 -0.12625727 0.059824422
-0.27339062 -0.12618296 0.059653953
-0.27358893 -0.12609965 0.059643965
-0.27376366 -0.12601699 0.059699841
-0.27394325 -0.12593819 0.059714161
-0.27413136 -0.12586699 0.059649989
-0.27433532 -0.12578821 0.059591532
-0.27451998 -0.12570362 0.059631214
-0.27472576 -0.12562057 0.059596971
-0.27490139 -0.12554596 0.059593998
-0.27509904 -0.12546822 0.059547104
-0.27529809 -0.12538591 0.059527893
-0.27547967 -0.12531354 0.059491433
-0.27563462 -0.12523486 0.059578538
-0.27583662 -0.12515377 0.059542
-0.27603883 -0.12508085 0.059447784
-0.27622643 -0.12499499 0.059487462
-0.2764158 -0.12491781 0.059461363
-0.2766135 -0.12484649 0.05936946
-0.27677983 -0.12476377 0.059450749
-0.27698773 -0.12468562 0.059376121
-0.27716303 -0.12462006 0.059310846
-0.27735633 -0.12453111 0.05935511
-0.27755451 -0.12444405 0.059371673
-0.27774402 -0.12436482 0.059359409
-0.27792147 -0.12428646 0.059377201
-0.27810439 -0.12421037 0.059362665
-0.27829874 -0.12414197 0.059260398
-0.27848232 -0.12406064 0.05928047
-0.27868506 -0.12398171 0.059226636
-0.27885935 -0.12389642 0.059302114
-0.27904183 -0.12382351 0.059266813
-0.27924639 -0.12374578 0.059199125
-0.27943376 -0.12367837 0.059110731
-0.27961281 -0.12359832 0.05913543
-0.27979469 -0.12351657 0.059163593
-0.27999473 -0.12343731 0.059120148
-0.28018719 -0.12335765 0.059102111
-0.28035358 -0.12327772 0.059163786
-0.28053436 -0.12320486 0.059133098
-0.28074256 -0.1231302 0.059033088
-0.28092062 -0.12304991 0.059062414
-0.2810882 -0.12297377 0.059094086
-0.28130916 -0.12289996 0.058950178
-0.28150216 -0.12281809 0.058945991
-0.28168714 -0.12273847 0.058949903
-0.28188255 -0.12265144 0.058974542
-0.28208274 -0.12257709 0.058896489
-0.28225005 -0.12250105 0.058928166
-0.282415 -0.12242024 0.05900022
-0.28261399 -0.12234902 0.058903709
-0.28281087 -0.12226649 0.058892578
-0.28299385 -0.12219302 0.058859579
-0.28315398 -0.12212319 0.058869366
-0.28334481 -0.12203714 0.058900941
-0.28352621 -0.12195937 0.058902569
-0.28374717 -0.1218783 0.058809429
-0.283925 -0.12179843 0.058836445
-0.2841258 -0.12172645 0.058739923
-0.28428674 -0.12166486 0.058689706
-0.28447592 -0.12157057 0.058783598
-0.2846745 -0.12149012 0.058752842
-0.28485209 -0.12142541 0.058674879
-0.28500286 -0.12133792 0.058835819
-0.28521228 -0.1212578 0.058770422
-0.28539103 -0.1211944 0.058679752
-0.2855671 -0.12111744 0.058691777
-0.28575864 -0.12104429 0.058631063
-0.28594309 -0.1209659 0.058628049
-0.28612587 -0.12088624 0.058638901
-0.28631923 -0.12080685 0.058616243
-0.28649268 -0.12073629 0.058591362
-0.28667456 -0.12065603 0.058609135
-0.2868816 -0.12057147 0.058581807
-0.28705582 -0.12049761 0.05857769
-0.28722835 -0.12042662 0.058558576
-0.28740942 -0.12035016 0.058552124
-0.28759655 -0.12027477 0.058520261
-0.28779739 -0.12020309 0.058421429
-0.28797153 -0.12011606 0.058509611
-0.28816572 -0.12004772 0.058407344
-0.2883302 -0.11996975 0.058460955
-0.28850976 -0.1198923 0.058466036
-0.28870413 -0.11982487 0.058356851
-0.2889058 -0.11974607 0.058305319
-0.28908423 -0.11966299 0.058353111
-0.28925604 -0.11957776 0.058435529
-0.28943288 -0.11950757 0.058397938
-0.28960982 -0.11943768 0.058358036
-0.28980285 -0.11936537 0.058286928
-0.28999341 -0.11930089 0.058168519
-0.29017696 -0.11921843 0.058196671
-0.29035112 -0.11913551 0.058256008
-0.29052457 -0.11904083 0.058399569
-0.29070944 -0.11897581 0.058301955
-0.29089957 -0.11891218 0.058178939
-0.29108641 -0.11882814 0.058208235
-0.29126725 -0.11874766 0.058230627
-0.29145363 -0.11868595 0.058105312
-0.29164279 -0.11860507 0.058105752
-0.29180881 -0.11851653 0.058228575
-0.29199749 -0.1184408 0.058194399
-0.29219186 -0.11836726 0.058127895
-0.29237002 -0.11828925 0.058141071
-0.29255345 -0.11822533 0.058039997
-0.29274291 -0.11815174 0.057988517
-0.29292679 -0.1180698 0.058012053
-0.29309928 -0.11798974 0.058056392
-0.29328099 -0.11791087 0.05806493
-0.29346994 -0.117837 0.058016915
-0.29363766 -0.11775567 0.05808435
-0.29382047 -0.11768575 0.058027133
-0.29402059 -0.11763223 0.05780369
-0.29420322 -0.1175409 0.057896458
-0.29436895 -0.11744802 0.058050439
-0.29455617 -0.11738729 0.057915896
-0.29474717 -0.11731122 0.057877094
-0.29492354 -0.11722224 0.057972193
-0.29511032 -0.1171703 0.057777647
-0.29530066 -0.11707699 0.057861157
-0.2954843 -0.11700291 0.05783046
-0.29566589 -0.11693318 0.057775542
-0.29584888 -0.11685807 0.057754084
-0.29603371 -0.11677835 0.057759158
-0.29621348 -0.11668643 0.057864621
-0.29638785 -0.11661878 0.057816654
-0.29656649 -0.11655246 0.057746749
-0.29676014 -0.11647575 0.057704486
-0.29693833 -0.11639888 0.057709582
-0.29711965 -0.11632001 0.057719279
-0.29729921 -0.11624702 0.057693217
-0.29748112 -0.11617003 0.057687908
-0.29766053 -0.11609693 0.057663009
-0.2978549 -0.11602391 0.057593048
-0.29802421 -0.11594272 0.057654709
-0.29821759 -0.11586712 0.05760552
-0.29839358 -0.1157826 0.057670612
-0.2985853 -0.11571483 0.057571813
-0.29876375 -0.11563932 0.057566531
-0.29894537 -0.11556198 0.057564691
-0.2991119 -0.11548231 0.057624049
-0.29929742 -0.11542163 0.05749413
-0.29947487 -0.11534195 0.05752115
-0.29965961 -0.11526244 0.057525061
-0.29984391 -0.11519881 0.057419375
-0.30004531 -0.11511385 0.057411686
-0.30020913 -0.11503699 0.057459529
-0.30038449 -0.11496496 0.057439253
-0.30057696 -0.11489009 0.057387754
-0.30075854 -0.11481358 0.057380147
-0.30092892 -0.11473178 0.057442956
-0.30111098 -0.11465838 0.057412274
-0.30128908 -0.11458138 0.057418521
-0.30146819 -0.11451336 0.057358995
-0.30165339 -0.11443862 0.057328302
-0.30183524 -0.11436547 0.057296462
-0.30202323 -0.11428475 0.057299212
-0.30220485 -0.11420971 0.057281218
-0.30238292 -0.11413272 0.05728747
-0.30256778 -0.11405565 0.057274073
-0.30273908 -0.11397707 0.057311501
-0.30292487 -0.11392422 0.057126198
-0.30310601 -0.1138403 0.057171658
-0.30328068 -0.11375784 0.057226382
-0.3034623 -0.11369387 0.057131082
-0.30364698 -0.11361638 0.057121158
-0.30382508 -0.11353821 0.057135485
-0.30400991 -0.1134529 0.057179779
-0.30418786 -0.11338702 0.05710873
-0.30436572 -0.11332053 0.057042286
-0.30454719 -0.1132406 0.057058912
-0.30472863 -0.11316334 0.057057068
-0.30491385 -0.11307585 0.057115212
-0.30510145 -0.11300422 0.057055652
-0.3052713 -0.11295503 0.056892335
-0.30546194 -0.11288044 0.056844305
-0.30564144 -0.11278764 0.056956694
-0.30581617 -0.11271439 0.056946803
-0.30600461 -0.11263049 0.056970321
-0.30619481 -0.1125599 0.056895755
-0.30639037 -0.11246933 0.056944631
-0.30655554 -0.11239801 0.056949776
-0.30673152 -0.11231613 0.056996416
-0.3069101 -0.11226042 0.056852672
-0.30710292 -0.11216952 0.056911938
-0.30727014 -0.11210543 0.056860536
-0.30745807 -0.11204521 0.056720227
-0.3076382 -0.1119581 0.056791078
-0.3078163 -0.11188307 0.056783479
-0.30800894 -0.1118116 0.056707755
-0.30818844 -0.1117292 0.056747459
-0.30836928 -0.11165566 0.056721393
-0.30855343 -0.11158071 0.056695312
-0.30873415 -0.11150755 0.056666933
-0.30890587 -0.11143442 0.056665137
-0.30909416 -0.11134135 0.056753252
-0.30927747 -0.11127004 0.056704111
-0.30946633 -0.11120002 0.05662955
-0.30963221 -0.11112708 0.056643922
-0.30981606 -0.11105308 0.056612074
-0.30999032 -0.11098202 0.056588337
-0.31017196 -0.11090514 0.056583032
-0.3103587 -0.11082066 0.056615785
-0.31054014 -0.11074487 0.056603562
-0.31071189 -0.11068247 0.056526765
-0.3108907 -0.11061542 0.056461483
-0.31106532 -0.1105523 0.056381207
-0.31124839 -0.1104616 0.056468204
-0.31143093 -0.1103913 0.05641444
-0.31160641 -0.11031625 0.056414932
-0.31179094 -0.11023104 0.056459229
-0.31198689 -0.11013766 0.05652656
-0.3121711 -0.11006252 0.056501627
-0.31234664 -0.11000413 0.056385595
-0.31254435 -0.10991446 0.056421764
-0.31273299 -0.10981924 0.056523737
-0.31290853 -0.10976779 0.056359231
-0.31308949 -0.1096937 0.05633663
-0.31325808 -0.1096229 0.056327917
-0.3134352 -0.10955161 0.056297243
-0.31361675 -0.109469 0.056332324
-0.31379801 -0.10940123 0.056264721
-0.31399018 -0.10931311 0.056306679
-0.31416342 -0.10924461 0.056267951
-0.31434396 -0.1091717 0.056238424
-0.31451708 -0.10909698 0.056243543
-0.31469959 -0.10902587 0.056195542
-0.31488931 -0.10894424 0.056199446
-0.31506491 -0.1088764 0.05614917
-0.31524259 -0.10879776 0.056168109
-0.31542373 -0.1087236 0.056145497
-0.31560695 -0.10865068 0.056107882
-0.31578663 -0.10857962 0.056067981
-0.3159669 -0.10850152 0.056075372
-0.3161512 -0.10842072 0.056089673
-0.31633478 -0.10834154 0.056094751
-0.31651309 -0.10827337 0.056038696
-0.31669432 -0.10819917 0.056016088
-0.31688294 -0.10811538 0.056038443
-0.31706703 -0.10804076 0.056010064
-0.31724146 -0.10796979 0.055985168
-0.31742266 -0.10789576 0.055961408
-0.3176077 -0.1078143 0.055978019
-0.31779867 -0.10773166 0.055985369
-0.31798011 -0.10765736 0.055962756
-0.31815916 -0.10758755 0.055915929
-0.31833774 -0.10751382 0.055897947
-0.31852454 -0.10743442 0.055894934
-0.3187021 -0.1073626 0.05586658
-0.31888363 -0.10728827 0.055843968
-0.31907251 -0.10720535 0.055859402
-0.31924427 -0.10714394 0.05577568
-0.31942546 -0.10706578 0.055780765
-0.31960976 -0.10699108 0.055752382
-0.31980085 -0.10690475 0.05578512
-0.31999159 -0.1068192 0.055813234
-0.32015792 -0.10676673 0.055683389
-0.32034937 -0.10667594 0.055746116
-0.32054201 -0.1065876 0.055788074
-0.32071882 -0.10652156 0.055721648
-0.32088909 -0.10647021 0.055572167
-0.32107714 -0.10638152 0.055630289
-0.32127827 -0.10628 0.055739135
-0.32145545 -0.1062133 0.055676166
-0.32163456 -0.10615123 0.055575117
-0.32182753 -0.10606325 0.055613615
-0.32201254 -0.10598034 0.055640601
-0.32219222 -0.10591719 0.055545308
-0.3223787 -0.10583215 0.05558268
-0.32254884 -0.10576863 0.055518579
-0.32272956 -0.10569629 0.055484433
-0.32292175 -0.10561394 0.055486016
-0.32310453 -0.10553493 0.055492248
-0.32329932 -0.10544536 0.055536509
-0.32348463 -0.10537354 0.055485036
-0.32366458 -0.10529906 0.055468202
-0.32383686 -0.10522884 0.055444475
-0.32401362 -0.10516596 0.055356123
-0.32421419 -0.10506863 0.055437282
-0.3244046 -0.10498273 0.055468872
-0.32458082 -0.10491728 0.055400126
-0.32476935 -0.10483765 0.055393647
-0.32494292 -0.10477579 0.055307604
-0.32514498 -0.10467733 0.055392221
-0.32530558 -0.10462696 0.055264704
-0.32549715 -0.10454008 0.055299748
-0.32566091 -0.10448837 0.055172209
-0.32584614 -0.10441031 0.055164583
-0.32603481 -0.10432763 0.055178866
-0.32622689 -0.10424054 0.05521391
-0.32640901 -0.10416694 0.055184375
-0.32660866 -0.10407001 0.055265542
-0.32677686 -0.10401507 0.055147216
-0.32695368 -0.10394555 0.055105016
-0.32714343 -0.10386506 0.055100828
-0.32733646 -0.10377442 0.055157796
-0.32752085 -0.10369822 0.055139791
-0.32771155 -0.10361683 0.055139065
-0.32789144 -0.10354649 0.055093393
-0.32807833 -0.10346723 0.05508922
-0.32826141 -0.1033929 0.055061992
-0.32845435 -0.10330608 0.055092409
-0.32863739 -0.10323194 0.055064026
-0.32881105 -0.10316674 0.055001069
-0.32901081 -0.10307454 0.055048771
-0.3291896 -0.10300303 0.055014633
-0.32937202 -0.1029298 0.054981638
-0.32954955 -0.10286263 0.054920968
-0.32975024 -0.10276707 0.054989442
-0.32993484 -0.10269406 0.05494836
-0.33011195 -0.10262476 0.054903843
-0.33029735 -0.10254811 0.054885834
-0.33049205 -0.10246304 0.054898947
-0.33068344 -0.10237937 0.054912068
-0.33085749 -0.10231648 0.054831803
-0.33103538 -0.102249 0.05477228
-0.3312391 -0.10215098 0.054848813
-0.33140472 -0.10209797 0.054724734
-0.33159849 -0.10200933 0.054765537
-0.33181307 -0.10190172 0.054876644
-0.33199215 -0.10183306 0.054821737
-0.33216038 -0.10178191 0.054676875
-0.33234772 -0.10169865 0.054699246
-0.33253732 -0.10162286 0.054662757
-0.33275685 -0.10151049 0.0547923
-0.33291185 -0.10146929 0.054617502
-0.33311677 -0.10137144 0.054689407
-0.33330277 -0.10129751 0.054650635
-0.33348331 -0.10122491 0.054618798
-0.33366987 -0.10114562 0.054615784
-0.33385795 -0.10106947 0.054586232
-0.33405676 -0.1009886 0.054557785
-0.33423823 -0.10091281 0.054545563
-0.3344205 -0.10083386 0.054552946
-0.33459726 -0.10076569 0.054501515
-0.33478045 -0.10069047 0.05448005
-0.33496925 -0.10061155 0.054467797
-0.33513877 -0.10055358 0.054366782
-0.33533844 -0.10045613 0.054451399
-0.335527 -0.10037997 0.054420695
-0.33570972 -0.1003033 0.054410767
-0.33592024 -0.10019924 0.0545092
-0.3360953 -0.1001399 0.054401234
-0.33629352 -0.10005811 0.054380871
-0.33648038 -0.099977367 0.054387085
-0.33666411 -0.099904403 0.05434832
-0.33685368 -0.099823169 0.054349907
-0.33704111 -0.099750787 0.054296128
-0.33723438 -0.099665821 0.054312695
-0.33742055 -0.099586196 0.054313146
-0.33759934 -0.099510066 0.05431132
-0.33780658 -0.099423766 0.054295532
-0.33798078 -0.099358842 0.054229114
-0.33818233 -0.099263728 0.054291807
-0.33836156 -0.099195831 0.05423113
-0.33852455 -0.099134028 0.054176293
-0.33871838 -0.099055439 0.054146707
-0.33893374 -0.098950967 0.054233585
-0.33911461 -0.09888155 0.05417867
-0.33930597 -0.098805659 0.054137565
-0.33948085 -0.098736137 0.054101132
-0.33968925 -0.098641247 0.054141879
-0.33987769 -0.098558351 0.054158479
-0.34005833 -0.098491333 0.054087415
-0.34023771 -0.098419577 0.054053277
-0.34042335 -0.098343655 0.054029502
-0.34060609 -0.09827061 0.053994197
-0.34080732 -0.098183408 0.054002658
-0.34099567 -0.098105013 0.053988099
-0.34119552 -0.098017409 0.054003496
-0.34136945 -0.097949281 0.053960156
-0.34157288 -0.097860314 0.053974375
-0.34176809 -0.097777501 0.05397018
-0.34194469 -0.097712696 0.053895667
-0.34213737 -0.09763246 0.053881094
-0.34233135 -0.097547188 0.053897671
-0.34251618 -0.097474575 0.053853132
-0.34269691 -0.097404063 0.053806297
-0.342886 -0.097323693 0.053803265
-0.34309468 -0.097232327 0.053818636
-0.34327319 -0.097165883 0.053749885
-0.34349361 -0.097069167 0.053767513
-0.34367731 -0.096996054 0.053729896
-0.3438552 -0.096924759 0.053696919
-0.34406209 -0.096831828 0.053728435
-0.34424707 -0.096754044 0.053719662
-0.34441975 -0.096693248 0.053629011
-0.3446292 -0.096596412 0.053680144
-0.34481749 -0.096519351 0.053656347
-0.34501362 -0.096431516 0.053684458
-0.34519008 -0.096369095 0.053593796
-0.24606681 -0.13801251 0.058582634
-0.24628866 -0.13792445 0.058535628
-0.24652347 -0.1378358 0.05845397
-0.246755 -0.13774607 0.058389619
-0.24699517 -0.13765746 0.058291782
-0.24722812 -0.13756795 0.058221657
-0.24748012 -0.13747627 0.058109939
-0.24771953 -0.13738962 0.058000565
-0.24793273 -0.13730294 0.057969742
-0.24814421 -0.13721499 0.057952777
-0.24836421 -0.1371282 0.057902306
-0.24858347 -0.13704157 0.057853006
-0.24879555 -0.13695535 0.057822183
-0.24902174 -0.13686724 0.057762474
-0.249246 -0.1367808 0.057696998
-0.24947317 -0.13669293 0.05763267
-0.24970217 -0.1366066 0.057552177
-0.24991645 -0.13651945 0.057521358
-0.25013971 -0.13643357 0.057454728
-0.25036636 -0.13634776 0.057377707
-0.25058478 -0.13626231 0.057322644
-0.25080779 -0.13617539 0.057264093
-0.25102511 -0.13609025 0.057210185
-0.25125399 -0.13600346 0.057133157
-0.25147191 -0.13591856 0.057075784
-0.25170088 -0.13583209 0.056996446
-0.25192094 -0.13574742 0.056930989
-0.25214711 -0.1356613 0.056857429
-0.25237492 -0.1355768 0.056767717
-0.25258192 -0.13549127 0.056747302
-0.25279984 -0.13540719 0.056684162
-0.25300986 -0.13532333 0.056642968
-0.25322992 -0.13523951 0.056571744
-0.25344691 -0.13515434 0.056518983
-0.25365606 -0.13507086 0.056477804
-0.25387639 -0.13498591 0.056413494
-0.25408575 -0.13490267 0.056369994
-0.25430426 -0.13481802 0.05630916
-0.25451612 -0.13473502 0.056256421
-0.25472939 -0.13465062 0.056209445
-0.25494069 -0.13456789 0.056156721
-0.25515449 -0.13448372 0.056106284
-0.25535911 -0.1344012 0.056072026
-0.25557163 -0.13431728 0.056023907
-0.25577763 -0.13423498 0.055983886
-0.25598919 -0.13415131 0.055936918
-0.25619766 -0.13406928 0.055887654
-0.25640941 -0.13398585 0.055838384
-0.25661507 -0.13390401 0.055796057
-0.25682074 -0.13382071 0.055764105
-0.25702223 -0.13373901 0.055733331
-0.25723436 -0.13365608 0.05567944
-0.25750104 -0.13356985 0.055485751
-0.25765914 -0.13348258 0.055623561
-0.2577951 -0.13340423 0.055764936
-0.25801888 -0.13332689 0.055637166
-0.25834098 -0.13324493 0.055248305
-0.25852275 -0.1331667 0.055252209
-0.25870481 -0.13307875 0.055323023
-0.25886124 -0.13300127 0.055397399
-0.25907066 -0.13292098 0.055333145
-0.25927344 -0.1328389 0.055301204
-0.25947389 -0.13275847 0.055264667
-0.25967619 -0.1326766 0.05523273
-0.25989014 -0.13259205 0.055184603
-0.26007736 -0.13251464 0.055166569
-0.26027688 -0.13243461 0.055130035
-0.26048037 -0.13235322 0.055091172
-0.26067024 -0.13227285 0.055085819
-0.2608681 -0.13219304 0.05505275
-0.26106745 -0.13211341 0.055013902
-0.26127195 -0.13202912 0.054992348
-0.2614575 -0.13195223 0.054975472
-0.261655 -0.13187109 0.054952793
-0.26185384 -0.13179184 0.054912791
-0.2620455 -0.1317122 0.054897048
-0.26223204 -0.13163225 0.054898635
-0.26241586 -0.13155216 0.054909453
-0.26259792 -0.13147198 0.054926053
-0.26277104 -0.13138935 0.054986518
-0.26293838 -0.1313062 0.055067778
-0.26307333 -0.13122021 0.055265665
-0.26175758 -0.1306911 0.062886894
-0.26200089 -0.13060825 0.062739439
-0.26206791 -0.1305058 0.063254848
-0.26227391 -0.13042299 0.063218281
-0.26247412 -0.1303397 0.0632025
-0.26272282 -0.13015245 0.063767962
-0.26325855 -0.12989458 0.063970059
-0.26341867 -0.12980032 0.064150557
-0.26495644 -0.12968688 0.060353823
-0.26513961 -0.12959418 0.060454637
-0.26537985 -0.12950321 0.060372949
-0.26558447 -0.12941951 0.060346775
-0.26575148 -0.12934263 0.060385346
-0.26595813 -0.12925938 0.060349934
-0.26616412 -0.12917413 0.060330674
-0.26635751 -0.12910745 0.060219184
-0.266514 -0.12902711 0.060313165
-0.266756 -0.12893954 0.060202632
-0.26693827 -0.12886125 0.060205385
-0.26714399 -0.1287723 0.060212661
-0.26732409 -0.1286875 0.060267333
-0.26748887 -0.12861058 0.060312845
-0.26769853 -0.12853085 0.060243957
-0.26790705 -0.12847011 0.060045883
-0.26807165 -0.12838912 0.060120225
-0.26830411 -0.12828627 0.0601447
-0.26848421 -0.1282081 0.060153231
-0.26868489 -0.1281317 0.060087852
-0.26888573 -0.12804683 0.060081299
-0.26905552 -0.12797336 0.060087569
-0.26923141 -0.12789898 0.060082264
-0.26946369 -0.12780528 0.060043298
-0.26964453 -0.12773207 0.060014904
-0.26985183 -0.12764674 0.059992187
-0.27005741 -0.12757008 0.05991409
-0.27022424 -0.12749194 0.059961896
-0.27040383 -0.12741432 0.059968118
-0.27060944 -0.12733351 0.059918862
-0.27077803 -0.12725808 0.059942432
-0.27093965 -0.12718564 0.059966028
-0.27116278 -0.12710924 0.059833646
-0.27132913 -0.12702651 0.059914917
-0.27156094 -0.12693404 0.059869021
-0.27173781 -0.12685855 0.059868336
-0.27189931 -0.12678863 0.059874624
-0.27211988 -0.1267031 0.059813786
-0.27230707 -0.12662338 0.059811905
-0.27249756 -0.12654456 0.059793856
-0.27266419 -0.12646668 0.059840508
-0.27287558 -0.12638158 0.059803918
-0.27305049 -0.12630843 0.059792861
-0.27323157 -0.12623461 0.059767932
-0.27347767 -0.12615238 0.059607774
-0.27365041 -0.12607156 0.059656713
-0.27381861 -0.12598936 0.059728727
-0.27401474 -0.12591541 0.059659909
-0.27419743 -0.12584008 0.059640743
-0.27439743 -0.12575753 0.059620354
-0.27458319 -0.12567827 0.059619635
-0.27478391 -0.12559359 0.059611931
-0.2749646 -0.12552309 0.059565086
-0.27515763 -0.12544385 0.059542414
-0.27535507 -0.12536356 0.059513964
-0.2755152 -0.12529439 0.059519105
-0.27569452 -0.12520812 0.059586473
-0.27589765 -0.12513794 0.059470326
-0.27609283 -0.12505993 0.059432648
-0.27627116 -0.12497607 0.059486173
-0.27646816 -0.12490158 0.059418503
-0.27665025 -0.12482997 0.059375104
-0.2768369 -0.12474107 0.059438981
-0.27702382 -0.12467419 0.059348281
-0.27721682 -0.12460157 0.059279464
-0.27740556 -0.12451358 0.059330642
-0.2775743 -0.12442604 0.059438422
-0.27777454 -0.1243538 0.059345361
-0.27793956 -0.12427033 0.059435856
-0.27814195 -0.12420212 0.059308171
-0.27832824 -0.12413038 0.059253216
-0.27851301 -0.12404656 0.059287116
-0.2787129 -0.12396342 0.059271336
-0.2788848 -0.12388576 0.059300665
-0.27906808 -0.12381018 0.059281494
-0.27928069 -0.12373597 0.059165306
-0.27945831 -0.1236671 0.059116162
-0.27963915 -0.12358778 0.059130456
-0.2798306 -0.12350739 0.059120487
-0.28001797 -0.12342513 0.059135906
-0.28020412 -0.12334849 0.05911557
-0.2803624 -0.12327069 0.059186481
-0.28056043 -0.12320005 0.059088811
-0.28076053 -0.12312126 0.059041888
-0.28093317 -0.12304445 0.059063129
-0.28110772 -0.12296864 0.059071682
-0.28132424 -0.12289242 0.058957793
-0.28152078 -0.12281235 0.058930498
-0.28170365 -0.1227315 0.058949396
-0.28190017 -0.12264498 0.058967091
-0.28209808 -0.12256928 0.058905177
-0.28225529 -0.12249409 0.058961093
-0.28242308 -0.12241819 0.058990438
-0.282617 -0.12234733 0.058906622
-0.28281638 -0.12226273 0.05890239
-0.28299016 -0.12219401 0.05886364
-0.2831645 -0.12211879 0.058868729
-0.28334963 -0.12203614 0.05889339
-0.28353694 -0.12195489 0.058901891
-0.28374758 -0.12187787 0.058811095
-0.28392571 -0.12179806 0.05883693
-0.28412828 -0.12172714 0.058727704
-0.2842893 -0.12166552 0.058677472
-0.28448045 -0.12156875 0.058782868
-0.28468016 -0.12148897 0.058744021
-0.28485212 -0.121424 0.05868452
-0.28499734 -0.12133625 0.058863912
-0.28521106 -0.1212591 0.058765024
-0.28538722 -0.12119367 0.058696281
-0.28555992 -0.12112194 0.058681764
-0.28575212 -0.1210452 0.058644101
-0.28593487 -0.12096936 0.058628395
-0.2861211 -0.12088823 0.058639202
-0.28631029 -0.12080947 0.058624633
-0.28648531 -0.12074006 0.05858703
-0.28666368 -0.12066098 0.058607101
-0.28686965 -0.12057538 0.058590151
-0.28704348 -0.12050103 0.058590636
-0.28722087 -0.12042979 0.058558792
-0.2873987 -0.12035471 0.058552328
-0.28758568 -0.12027905 0.058522768
-0.28778294 -0.12020841 0.058427401
-0.28796074 -0.12012014 0.058513232
-0.28815088 -0.12005237 0.058419056
-0.28831777 -0.11997654 0.058450699
-0.28849265 -0.11989909 0.058469638
-0.28869048 -0.11983019 0.058360431
-0.28888547 -0.11975408 0.058310062
-0.2890678 -0.11966999 0.058353189
-0.28923926 -0.11958425 0.058440201
-0.2894142 -0.11951686 0.05838877
-0.28959048 -0.11944611 0.058356926
-0.28978288 -0.11937291 0.058293894
-0.2899712 -0.11931088 0.058165103
-0.29015422 -0.11922765 0.058200158
-0.29032993 -0.11914638 0.058243308
-0.29049838 -0.11905103 0.058406465
-0.29068035 -0.11898229 0.058343463
-0.29087362 -0.11892774 0.058147751
-0.2910569 -0.11883911 0.058219723
-0.29123256 -0.11876316 0.05822596
-0.29142132 -0.11869284 0.058153696
-0.29161501 -0.11862355 0.058059506
-0.29178023 -0.11852793 0.058234211
-0.29196507 -0.11845269 0.058208108
-0.2921603 -0.11838011 0.058132365
-0.29233795 -0.11830115 0.058153603
-0.2925204 -0.11823551 0.058067515
-0.2927072 -0.11816406 0.05800911
-0.29289263 -0.11808426 0.058013014
-0.29306588 -0.1180052 0.058048092
-0.29324299 -0.11792549 0.058076255
-0.29343191 -0.11785131 0.058030527
-0.29360208 -0.11777389 0.058063321
-0.29378182 -0.1176985 0.058053397
-0.29397908 -0.1176467 0.057826515
-0.29416913 -0.11756113 0.057856925
-0.29433236 -0.11746356 0.058051251
-0.29451099 -0.11740169 0.057950191
-0.29470694 -0.11733475 0.057832912
-0.29488009 -0.11723938 0.057982214
-0.29506609 -0.11718544 0.057803832
-0.29525837 -0.11710421 0.05779732
-0.29543576 -0.11701661 0.057879686
-0.29562697 -0.11695021 0.057772815
-0.29579785 -0.11687414 0.057794064
-0.29598525 -0.11679995 0.057752967
-0.29616278 -0.11671179 0.05783879
-0.29633838 -0.11663735 0.057834648
-0.29652178 -0.11657295 0.057737034
-0.29671124 -0.11649491 0.057716683
-0.29689321 -0.11641757 0.05771368
-0.29707053 -0.11633794 0.057740662
-0.29724714 -0.11626686 0.057709992
-0.29742667 -0.11619355 0.057686217
-0.29760906 -0.11611769 0.057671666
-0.29779693 -0.11604742 0.057601713
-0.29797253 -0.11596192 0.057674862
-0.29816002 -0.11589099 0.057610687
-0.29834035 -0.11580841 0.05764921
-0.29853031 -0.11573378 0.057603482
-0.29870269 -0.11566253 0.057586666
-0.29889271 -0.11558887 0.057534017
-0.29906201 -0.11550539 0.057611793
-0.29923171 -0.11543842 0.057573073
-0.29941913 -0.11537033 0.057489276
-0.29959294 -0.11529002 0.057531286
-0.29978278 -0.11521728 0.05747287
-0.29997635 -0.11514623 0.05739136
-0.30015299 -0.11506142 0.057456437
