# .PCD v0.7 - Point Cloud Data file format
VERSION 0.7
FIELDS x y z
SIZE 4 4 4
TYPE F F F
COUNT 1 1 1
WIDTH 1263
HEIGHT 1
VIEWPOINT 0 0 0 1 0 0 0
POINTS 1263
DATA ascii
-0.29001585 -0.39917809 0.051625215
-0.29020023 -0.39921808 0.051671553
-0.29038575 -0.39926678 0.051657937
-0.29056656 -0.39931867 0.051613208
-0.29074201 -0.39936787 0.051577732
-0.29091802 -0.39941368 0.051567622
-0.29110768 -0.3994537 0.051623162
-0.29128733 -0.39950624 0.051571518
-0.29143527 -0.39956388 0.051426638
-0.29162964 -0.39960995 0.051447567
-0.29181185 -0.3996549 0.051454719
-0.29198152 -0.3997075 0.051384673
-0.29217279 -0.39974988 0.051426381
-0.29236597 -0.3997913 0.051478446
-0.29254124 -0.39984339 0.051422205
-0.29272214 -0.39988655 0.05143974
-0.2929014 -0.39993349 0.051427305
-0.29307893 -0.39998695 0.051365297
-0.29326355 -0.40003088 0.051383965
-0.29344729 -0.40007541 0.05139688
-0.29363555 -0.40012559 0.051377483
-0.29380867 -0.40017602 0.051329333
-0.29398921 -0.40021974 0.051342253
-0.29417965 -0.40026352 0.051372431
-0.29435045 -0.40031254 0.051330056
-0.2945365 -0.40035877 0.05133488
-0.29470327 -0.40040725 0.05128907
-0.29487413 -0.40046129 0.051210951
-0.29506746 -0.40049627 0.051309139
-0.29527211 -0.40053847 0.051376142
-0.29543185 -0.40059552 0.051256571
-0.29560113 -0.4006477 0.051188834
-0.29576549 -0.40070221 0.051095765
-0.29595774 -0.40074322 0.051148981
-0.29616404 -0.40077776 0.051273625
-0.29635689 -0.40083349 0.051223066
-0.29652426 -0.40088406 0.051163416
-0.29669732 -0.40092474 0.051184453
-0.29687196 -0.40098152 0.05109363
-0.29705271 -0.40102592 0.051101949
-0.2972379 -0.40107083 0.051114846
-0.2974143 -0.40112901 0.051017094
-0.29761729 -0.4011755 0.051050667
-0.29778716 -0.4012225 0.051020987
-0.29797491 -0.40127337 0.050995823
-0.29814142 -0.4013195 0.050966151
-0.29831398 -0.40136766 0.050932996
-0.29850978 -0.40140393 0.05102656
-0.29870394 -0.40146127 0.050966769
-0.29887056 -0.40150744 0.050937101
-0.29905525 -0.40155303 0.050944246
-0.29925162 -0.40160283 0.050942104
-0.29942524 -0.40165287 0.050897408
-0.29960045 -0.40170011 0.050875768
-0.29977468 -0.40175208 0.050818391
-0.29991931 -0.40180239 0.050719649
-0.30011076 -0.40184128 0.050786708
-0.30030876 -0.40188214 0.050851434
-0.3004804 -0.40193507 0.050782535
-0.30064464 -0.40198857 0.05069638
-0.30084538 -0.40202656 0.050786465
-0.30104166 -0.40207472 0.050795849
-0.30123472 -0.40214279 0.05065766
-0.30139613 -0.40218475 0.050648771
-0.30157194 -0.40222579 0.050672103
-0.30176041 -0.4022707 0.050690752
-0.30193233 -0.40231937 0.050652985
-0.30210888 -0.40236241 0.050663624
-0.30231631 -0.40240514 0.050731763
-0.30249003 -0.40246332 0.050629415
-0.30266842 -0.40250987 0.050618134
-0.30284244 -0.40255791 0.050588433
-0.30303615 -0.40260351 0.050611664
-0.30323949 -0.40265203 0.0506314
-0.30340546 -0.40270466 0.050554454
-0.30359471 -0.40274993 0.050571948
-0.30377778 -0.40279913 0.050550271
-0.30394772 -0.40284857 0.050503295
-0.30412081 -0.40289703 0.050468978
-0.30431932 -0.40294352 0.050494492
-0.30449718 -0.40299058 0.050478607
-0.30468315 -0.40303907 0.05046729
-0.30484945 -0.40308774 0.050419182
-0.30502596 -0.4031353 0.050397534
-0.3052381 -0.40318376 0.05043336
-0.30541915 -0.40323198 0.050415151
-0.30559921 -0.40327865 0.050406169
-0.30578351 -0.40332782 0.050386794
-0.30597296 -0.40337381 0.050399669
-0.30615449 -0.40342745 0.050343409
-0.30635291 -0.40347472 0.050363157
-0.30651695 -0.40352592 0.050293148
-0.30669463 -0.40357164 0.05028649
-0.30687895 -0.40362102 0.050265953
-0.30704954 -0.40366867 0.050232809
-0.30724955 -0.40370873 0.050306741
-0.30744487 -0.40375894 0.050299995
-0.30761364 -0.40381244 0.050221886
-0.30777842 -0.40385994 0.050179545
-0.30799767 -0.40390602 0.050245315
-0.3081724 -0.40395457 0.0502133
-0.30835724 -0.40400583 0.050180085
-0.30856311 -0.40405545 0.050196338
-0.30873671 -0.40410438 0.050159719
-0.30888885 -0.40415156 0.050096687
-0.30908281 -0.40420079 0.050094556
-0.3092483 -0.40424991 0.050041825
-0.30943647 -0.40429717 0.050043181
-0.30963024 -0.40433985 0.050087176
-0.3098366 -0.40438816 0.050113812
-0.31002659 -0.40443525 0.050119769
-0.31021175 -0.40448675 0.050085392
-0.3103798 -0.40454039 0.050004989
-0.31057885 -0.40458071 0.050075468
-0.31075308 -0.40463141 0.050027318
-0.31094852 -0.40468082 0.050026331
-0.31115425 -0.40473461 0.050012607
-0.31133386 -0.40478262 0.049993251
-0.31150585 -0.40482903 0.049971625
-0.31165549 -0.40488642 0.049831353
-0.31184274 -0.40492973 0.049859237
-0.31203529 -0.40497681 0.049869787
-0.31222877 -0.40502381 0.049882654
-0.31240404 -0.40507442 0.0498368
-0.31261271 -0.40512171 0.049874954
-0.31280544 -0.40517059 0.049872819
-0.31300193 -0.40521884 0.049882211
-0.31318629 -0.40526786 0.049863983
-0.31335589 -0.40532127 0.049788177
-0.31354219 -0.40537307 0.049753796
-0.31374881 -0.40541658 0.049815021
-0.31393498 -0.40547159 0.049757577
-0.3140825 -0.40551826 0.04968996
-0.31428111 -0.405568 0.049692415
-0.31444937 -0.40561557 0.049655825
-0.31466049 -0.40566021 0.049717017
-0.31483385 -0.4057115 0.049663104
-0.31500915 -0.40576246 0.049614944
-0.31522107 -0.40581024 0.049655389
-0.31539926 -0.40586224 0.0496049
-0.3155497 -0.40591145 0.049524583
-0.31574598 -0.40595606 0.04955934
-0.31598398 -0.4059999 0.049674597
-0.31616941 -0.40606409 0.049550284
-0.31635097 -0.40610841 0.04956089
-0.316524 -0.40615702 0.049525432
-0.31671607 -0.40620703 0.049514085
-0.31691027 -0.40625679 0.049508482
-0.31711963 -0.40631151 0.049494751
-0.31730542 -0.40635833 0.049494959
-0.31750053 -0.40640524 0.049511276
-0.3176671 -0.40645787 0.049435489
-0.31786874 -0.40650821 0.049439076
-0.31805038 -0.40655866 0.049405877
-0.31823999 -0.40660661 0.049404919
-0.31846213 -0.40665567 0.049454529
-0.31862885 -0.40670836 0.049378738
-0.3188175 -0.40675798 0.049363948
-0.31898701 -0.40680748 0.049315825
-0.31921393 -0.40685484 0.049386166
-0.31939486 -0.40690705 0.049339134
-0.31954628 -0.40695766 0.049250737
-0.31973648 -0.40700591 0.049248625
-0.31996077 -0.40705535 0.049299374
-0.32015115 -0.40710509 0.049286883
-0.32034957 -0.40715528 0.049285881
-0.32051051 -0.40720469 0.049222805
-0.32075143 -0.4072606 0.049257338
-0.32095063 -0.40731356 0.049237877
-0.32114169 -0.4073635 0.049225383
-0.32129925 -0.40741208 0.049162325
-0.32147428 -0.4074586 0.049145292
-0.32165599 -0.40750438 0.049145535
-0.32186139 -0.40755552 0.049150262
-0.32207674 -0.40760562 0.049180303
-0.32224938 -0.40765524 0.049136773
-0.32246381 -0.40769768 0.049219862
-0.32266355 -0.40775368 0.049179655
-0.32283092 -0.40780926 0.049084257
-0.32304561 -0.40786242 0.049091242
-0.32324818 -0.407913 0.049094837
-0.32342857 -0.40795684 0.049106609
-0.22255901 -0.38140136 0.05709061
-0.2227574 -0.38144442 0.057140373
-0.22298802 -0.38151178 0.057074688
-0.2232171 -0.38157651 0.057025161
-0.22342685 -0.38162774 0.057036825
-0.22364427 -0.38168451 0.057023093
-0.22386113 -0.38174272 0.056997828
-0.22405863 -0.38178554 0.057047598
-0.22429337 -0.38185671 0.056962296
-0.22451264 -0.38191521 0.056939326
-0.22472671 -0.38197193 0.056919839
-0.22494511 -0.38203007 0.056898035
-0.22513731 -0.38207123 0.056950133
-0.22537731 -0.38214517 0.056854438
-0.22557878 -0.38219321 0.056874208
-0.22579384 -0.38224936 0.056860488
-0.22601672 -0.38231313 0.056806371
-0.22622418 -0.38236398 0.056816891
-0.22643706 -0.38242072 0.056795113
-0.2266462 -0.38247296 0.056798711
-0.22687773 -0.38254184 0.0567238
-0.22707814 -0.38258782 0.056756265
-0.22728515 -0.38264066 0.056751799
-0.2275112 -0.3827059 0.056693058
-0.22772491 -0.38276398 0.0566632
-0.22794315 -0.38282368 0.056629859
-0.22814444 -0.38287264 0.056642726
-0.22835067 -0.38292348 0.05665094
-0.22851035 -0.38296595 0.056635182
-0.22869852 -0.38300708 0.056680385
-0.22887269 -0.38302395 0.056873225
-0.22904974 -0.38304672 0.05702915
-0.22921091 -0.38306695 0.057174791
-0.22936222 -0.38308337 0.057329696
-0.22953582 -0.383109 0.05745912
-0.24006626 -0.38601375 0.055681054
-0.24026568 -0.38605708 0.055730805
-0.24047737 -0.38611481 0.055699807
-0.24068162 -0.38617066 0.055668846
-0.24086104 -0.38620502 0.055746369
-0.24108899 -0.38628432 0.055590782
-0.2412771 -0.38632736 0.055622149
-0.2414657 -0.38636824 0.055669658
-0.24167539 -0.38643017 0.055605229
-0.24187443 -0.38648161 0.055596195
-0.24206053 -0.38653368 0.055559553
-0.24225946 -0.38658527 0.055549361
-0.24246605 -0.38663656 0.055555277
-0.24266073 -0.386684 0.055567015
-0.24286318 -0.38674229 0.055515312
-0.24306338 -0.38679567 0.055494733
-0.24326177 -0.38684729 0.055483405
-0.24345493 -0.38689354 0.05550091
-0.2436499 -0.38694459 0.055487286
-0.24386132 -0.38701034 0.055398639
-0.24404477 -0.38704947 0.055449631
-0.24425094 -0.38710999 0.055388682
-0.24442892 -0.38715208 0.055408571
-0.24459176 -0.38720441 0.055328231
-0.24483749 -0.38726106 0.05536624
-0.24503897 -0.38731718 0.055328362
-0.24523214 -0.38736731 0.055318207
-0.24541679 -0.38741416 0.055316154
-0.24561717 -0.38746336 0.055325568
-0.24582332 -0.38752535 0.05525424
-0.24601226 -0.38757119 0.055267155
-0.24620776 -0.38762143 0.055260442
-0.2464053 -0.38767412 0.055239886
-0.24659644 -0.38771954 0.055259712
-0.24679621 -0.38777828 0.055199943
-0.24699293 -0.38783047 0.055181693
-0.2471613 -0.38787547 0.055163585
-0.24736799 -0.38793644 0.055100333
-0.24757527 -0.38798174 0.055150054
-0.24776825 -0.38803327 0.055129517
-0.24796343 -0.38808426 0.055117041
-0.24815814 -0.38813478 0.055106871
-0.24834625 -0.38818073 0.055117495
-0.24854386 -0.38823506 0.055085406
-0.24873161 -0.38829127 0.055022236
-0.2489135 -0.38833675 0.05502481
-0.24912938 -0.38839346 0.055008776
-0.24932456 -0.38844538 0.054989386
-0.24951144 -0.38849038 0.055004623
-0.24969389 -0.38853699 0.055000283
-0.24985602 -0.38857928 0.054990269
-0.25006852 -0.38863963 0.054941975
-0.25027308 -0.38869345 0.054925993
-0.25048023 -0.38874713 0.05491576
-0.25065818 -0.38879213 0.054914899
-0.25084481 -0.38884512 0.054872498
-0.2510466 -0.38888791 0.054930314
-0.25123999 -0.38893872 0.05491554
-0.25143597 -0.3890014 0.054821204
-0.25161204 -0.38904026 0.054860704
-0.25179237 -0.3890852 0.05486444
-0.25198233 -0.38915232 0.054727476
-0.25220081 -0.38919881 0.054788671
-0.25236735 -0.38923657 0.054818995
-0.25254396 -0.38928914 0.054761648
-0.25273502 -0.38933778 0.054758415
-0.25290838 -0.38937289 0.05481983
-0.25311202 -0.38943195 0.054764658
-0.25331992 -0.38949341 0.05470024
-0.25352836 -0.38954711 0.054692309
-0.25370175 -0.38959143 0.054688014
-0.25386736 -0.38962811 0.054724097
-0.25406235 -0.3896839 0.054677039
-0.25425288 -0.3897374 0.054638077
-0.2544311 -0.38978052 0.054651048
-0.25464436 -0.3898527 0.054519735
-0.25482672 -0.38990319 0.05448772
-0.25502148 -0.38995001 0.05450407
-0.25520065 -0.38999531 0.054503202
-0.25538558 -0.39003545 0.054549567
-0.25560954 -0.39009741 0.054510441
-0.25580248 -0.39014652 0.054507196
-0.25596958 -0.39019182 0.054484487
-0.25617528 -0.39024287 0.054490402
-0.25635564 -0.39029106 0.054471087
-0.25653791 -0.39034298 0.054428697
-0.25673223 -0.39038983 0.054443896
-0.25692776 -0.39044479 0.054403752
-0.25711632 -0.39048648 0.05444549
-0.25730506 -0.39054018 0.054401919
-0.2574757 -0.39058203 0.054410312
-0.25768003 -0.39064357 0.054339003
-0.25784507 -0.39068025 0.054373935
-0.25802612 -0.39073154 0.054333858
-0.25819761 -0.39076924 0.054373384
-0.25838488 -0.39083421 0.054246809
-0.25859645 -0.39088044 0.054297663
-0.2587702 -0.39092323 0.054304887
-0.2589643 -0.3909778 0.054264747
-0.25914365 -0.39101282 0.054337665
-0.25932899 -0.39107567 0.054222636
-0.25954965 -0.39113632 0.054186974
-0.2597315 -0.3911773 0.054221831
-0.25991756 -0.39122853 0.054190956
-0.26010436 -0.3912743 0.054200426
-0.26029196 -0.39133 0.054140717
-0.26044998 -0.39137319 0.054116894
-0.26061985 -0.39141533 0.054121837
-0.26084891 -0.39147583 0.054102279
-0.26103514 -0.39152083 0.054116361
-0.26120904 -0.39156592 0.05410745
-0.26135337 -0.39161536 0.054014519
-0.26153037 -0.39167011 0.053942185
-0.26173064 -0.39171138 0.054008082
-0.26193485 -0.39175478 0.054065887
-0.26214316 -0.39182088 0.053969186
-0.26231581 -0.39186338 0.053976417
-0.26247373 -0.39190912 0.053934149
-0.26264572 -0.39196038 0.053877976
-0.26284173 -0.3920083 0.053888559
-0.26303238 -0.39209372 0.053622466
-0.26322478 -0.39211813 0.053794473
-0.26343212 -0.39216164 0.053856872
-0.2635946 -0.39220288 0.053854927
-0.26379317 -0.39224905 0.053882793
-0.26399058 -0.39230365 0.053848397
-0.26417309 -0.3923493 0.053850971
-0.26435578 -0.392396 0.053846624
-0.26451311 -0.39244387 0.053788226
-0.26471955 -0.39249766 0.053775687
-0.26488885 -0.39254257 0.05375988
-0.2650781 -0.39259124 0.053753197
-0.26527411 -0.39264208 0.053743027
-0.26545319 -0.39268851 0.05373409
-0.26562288 -0.39273739 0.053690605
-0.26582485 -0.3927862 0.053705767
-0.26600087 -0.39283508 0.053673785
-0.26618972 -0.39288345 0.053668261
-0.26637149 -0.39292797 0.053677756
-0.26653698 -0.39297271 0.053656206
-0.26670921 -0.39301997 0.053628847
-0.26689413 -0.39306417 0.053646393
-0.26707596 -0.39310998 0.053646676
-0.26725149 -0.39315969 0.053607777
-0.26743326 -0.39320597 0.053604588
-0.26761141 -0.39324859 0.053621016
-0.26779968 -0.39329344 0.053639695
-0.26798138 -0.39333954 0.053637665
-0.26815984 -0.39338839 0.05361028
-0.26834479 -0.39343467 0.053612843
-0.26853323 -0.39348716 0.053577349
-0.26870799 -0.39352956 0.05358918
-0.26890296 -0.39358196 0.053566329
-0.26907769 -0.39362824 0.053550497
-0.26926911 -0.39368293 0.053504609
-0.26945382 -0.39372849 0.053511776
-0.2696453 -0.39377481 0.053525843
-0.26982954 -0.39383206 0.053448856
-0.27001429 -0.39387539 0.053472169
-0.27017826 -0.39392459 0.053416036
-0.27034575 -0.39397052 0.053389866
-0.27054402 -0.39401513 0.053428099
-0.27070844 -0.39405558 0.05343537
-0.27090925 -0.39411089 0.053402118
-0.27108449 -0.39414629 0.053464677
-0.27128124 -0.39420608 0.053392246
-0.27145803 -0.39425805 0.053339507
-0.27164653 -0.39429891 0.053387016
-0.2718311 -0.39434397 0.053397648
-0.27198789 -0.39438847 0.053362302
-0.27215698 -0.39444253 0.053280782
-0.27234027 -0.39449406 0.053242996
-0.27253237 -0.39453503 0.053296253
-0.27271903 -0.39458692 0.05326191
-0.27289882 -0.39463723 0.053226449
-0.27307448 -0.39469004 0.053165652
-0.27326664 -0.39473137 0.053216599
-0.27342582 -0.39477807 0.053169716
-0.27363062 -0.39482647 0.053192932
-0.27379844 -0.39486647 0.053209405
-0.27397659 -0.39492154 0.053137068
-0.27415267 -0.39497042 0.053105086
-0.27433372 -0.39501411 0.05311919
-0.27451554 -0.39506751 0.053065278
-0.27469173 -0.39511529 0.053041361
-0.27487865 -0.3951745 0.052955147
-0.27505481 -0.39521065 0.053014241
-0.27525103 -0.39525217 0.05307094
-0.27542633 -0.39530218 0.053029735
-0.27560532 -0.39535162 0.052998897
-0.2757825 -0.39539593 0.053001497
-0.27596259 -0.39545181 0.052926831
-0.27615485 -0.39549494 0.052965105
-0.27633482 -0.39555046 0.052892745
-0.27650011 -0.39559644 0.052861977
-0.27668723 -0.39563438 0.052927934
-0.27686054 -0.39568743 0.052861378
-0.27704132 -0.39573169 0.052870881
-0.27721447 -0.39577642 0.052863125
-0.27738786 -0.39582852 0.052803483
-0.27758357 -0.39586508 0.052894764
-0.2777665 -0.39590517 0.052937686
-0.27795517 -0.39595661 0.052910253
-0.27813652 -0.39600018 0.05292552
-0.27831236 -0.39604709 0.05290737
-0.27849367 -0.39610487 0.052821174
-0.27867368 -0.39614394 0.052866414
-0.27884895 -0.39619163 0.052841354
-0.27902636 -0.39624879 0.052752875
-0.27921858 -0.39627379 0.052920263
-0.27938592 -0.39634117 0.052740756
-0.27956447 -0.39638308 0.052762952
-0.27975368 -0.39642039 0.052836969
-0.2799339 -0.39646614 0.052834943
-0.28010893 -0.39651993 0.05276607
-0.28028876 -0.39657202 0.052717935
-0.28047085 -0.39661482 0.052740116
-0.28065702 -0.39665172 0.052811835
-0.28083453 -0.39670146 0.052776389
-0.2810024 -0.39676461 0.052628011
-0.2811861 -0.39681071 0.052629426
-0.2813631 -0.39686063 0.052591674
-0.28154597 -0.39690787 0.05258387
-0.28172532 -0.39695448 0.052573781
-0.28190121 -0.39701077 0.05248877
-0.28208077 -0.39705697 0.052482132
-0.28225955 -0.39710912 0.052431691
-0.28243145 -0.39716473 0.052344389
-0.28261036 -0.39722127 0.05226282
-0.2827886 -0.39726391 0.052279249
-0.28296643 -0.39731663 0.052223049
-0.28314251 -0.39736649 0.05218415
-0.28331885 -0.39742061 0.05211528
-0.28349468 -0.39747509 0.052042942
-0.28367299 -0.39752665 0.051995963
-0.283847 -0.39757824 0.05194094
-0.28405136 -0.3976149 0.05204716
-0.28425607 -0.39765161 0.052153386
-0.28443217 -0.39769259 0.052177895
-0.28460157 -0.39774901 0.052080229
-0.28479129 -0.39778048 0.052196909
-0.28498772 -0.39781818 0.052281264
-0.28517219 -0.39786789 0.052258465
-0.28533894 -0.39792654 0.052140061
-0.28552195 -0.39796537 0.052192215
-0.2856977 -0.39800724 0.052209809
-0.28590876 -0.39805591 0.052242208
-0.28609821 -0.39810881 0.052205551
-0.28627151 -0.39815313 0.052201252
-0.28644627 -0.39820376 0.052154295
-0.2866174 -0.39824995 0.052132711
-0.28681204 -0.39829075 0.052191716
-0.28699091 -0.3983452 0.052125134
-0.28716555 -0.39839938 0.052052811
-0.28733289 -0.39844865 0.05200243
-0.28750801 -0.39849859 0.051961225
-0.28768504 -0.39855403 0.051884275
-0.28785533 -0.39860064 0.05185809
-0.28801611 -0.3986547 0.051761627
-0.28819397 -0.39869872 0.051767681
-0.28837207 -0.39874598 0.051750675
-0.28857887 -0.39878163 0.051868416
-0.28877071 -0.39881542 0.0519724
-0.28896025 -0.39885122 0.052057937
-0.28914347 -0.39889851 0.052050132
-0.28933638 -0.39895844 0.051969655
-0.28951707 -0.39900753 0.051944569
-0.28966039 -0.39907014 0.051755954
-0.28985366 -0.39910704 0.051840324
-0.29004133 -0.39915434 0.051840574
-0.29021695 -0.3992005 0.051827036
-0.29041469 -0.39924112 0.051892944
-0.29061285 -0.39929399 0.051872388
-0.29077336 -0.39934719 0.051781684
-0.29095274 -0.39939398 0.051770438
-0.29112521 -0.39944229 0.051736165
-0.29127926 -0.39949626 0.051628198
-0.29146752 -0.39953449 0.051694162
-0.29167855 -0.39955875 0.051900651
-0.29184541 -0.39962229 0.051747657
-0.29200551 -0.39967522 0.051658116
-0.29220188 -0.39971194 0.05174939
-0.29239878 -0.39975429 0.051801465
-0.29257277 -0.39981022 0.051715311
-0.29273516 -0.39986438 0.051621139
-0.29290602 -0.39991632 0.051558055
-0.2930941 -0.39996111 0.051576745
-0.29328191 -0.40000343 0.051612731
-0.29346287 -0.40004969 0.051608395
-0.29364645 -0.40009722 0.051599428
-0.29382175 -0.40014932 0.051543236
-0.29399657 -0.40019625 0.051522799
-0.29418576 -0.40024087 0.051544931
-0.29434517 -0.40029863 0.051419653
-0.29456136 -0.4003292 0.051590383
-0.29475135 -0.4003737 0.051614821
-0.29491323 -0.40043515 0.05146762
-0.29507694 -0.40048528 0.051404569
-0.29528144 -0.40052 0.051524632
-0.29543874 -0.40057838 0.051391289
-0.2956247 -0.40062249 0.051411141
-0.29580981 -0.4006696 0.051407933
-0.29598501 -0.40072149 0.051352903
-0.29618463 -0.40076178 0.05142457
-0.29637241 -0.40081024 0.05141674
-0.29654765 -0.40085971 0.051378995
-0.29673439 -0.40090871 0.051365413
-0.29692149 -0.40095279 0.051387556
-0.29709676 -0.40100229 0.051349811
-0.29726991 -0.40105268 0.05130171
-0.29741329 -0.40111384 0.05112347
-0.29759759 -0.40115687 0.051147938
-0.29781726 -0.40118703 0.051327877
-0.29800975 -0.4012315 0.051356919
-0.29817256 -0.40129095 0.051225848
-0.29831606 -0.40135375 0.051036082
-0.29849979 -0.40139502 0.051072091
-0.29871118 -0.40143183 0.05118981
-0.29891413 -0.4014723 0.051266067
-0.29907569 -0.40152964 0.051147688
-0.29927152 -0.40157318 0.051189393
-0.29945597 -0.40162352 0.051161986
-0.29963979 -0.40167633 0.051116131
-0.29981667 -0.40172523 0.051085304
-0.29998526 -0.40177304 0.051047593
-0.30015951 -0.40182081 0.051020227
-0.30036455 -0.40186346 0.051084947
-0.30054739 -0.40191662 0.051034488
-0.30070555 -0.40196195 0.050995678
-0.30086923 -0.40201578 0.050906107
-0.30105406 -0.40205976 0.050924812
-0.30125991 -0.4021005 0.051004514
-0.30143493 -0.40215027 0.050964471
-0.30163294 -0.40219402 0.051008474
-0.30183068 -0.4022482 0.050977543
-0.3019895 -0.40229952 0.050897222
-0.30216533 -0.402349 0.050860625
-0.30233398 -0.40239489 0.050836757
-0.30252087 -0.40244067 0.050846227
-0.30272093 -0.40248221 0.05090981
-0.30289575 -0.40253612 0.050839789
-0.30307126 -0.40258777 0.050787054
-0.30323878 -0.40263805 0.050729755
-0.30342209 -0.40268326 0.050736945
-0.30362689 -0.40272567 0.050802816
-0.30381709 -0.40277472 0.050794974
-0.30398208 -0.40282777 0.050713476
-0.3041684 -0.40287229 0.050731014
-0.30436862 -0.40292031 0.050748486
-0.30455846 -0.40297154 0.050724514
-0.30472919 -0.4030228 0.050666034
-0.30488864 -0.40306798 0.050630677
-0.30507803 -0.40311375 0.050644755
-0.30527893 -0.40316373 0.050649535
-0.30547234 -0.40321037 0.050664742
-0.30563763 -0.40325767 0.050624743
-0.30583197 -0.40330049 0.050668765
-0.30601132 -0.40335491 0.05060333
-0.30619454 -0.40339914 0.050617423
-0.30637977 -0.40345195 0.050573871
-0.30657068 -0.40349603 0.050602924
-0.3067745 -0.40355289 0.050563887
-0.30694437 -0.40359908 0.050540011
-0.30712375 -0.40364638 0.050525308
-0.30729097 -0.40368977 0.050516423
-0.30747861 -0.40374207 0.050480925
-0.30766311 -0.40378112 0.050534219
-0.30784914 -0.40383041 0.050517172
-0.30800036 -0.40388322 0.050412681
-0.30819434 -0.40392709 0.050448637
-0.30838245 -0.40398112 0.050401609
-0.30856943 -0.40402856 0.050399553
-0.30875289 -0.40408546 0.050323717
-0.30893013 -0.40413529 0.050287124
-0.30911136 -0.40418077 0.050288554
-0.30930415 -0.40422872 0.050293375
-0.30948964 -0.40427336 0.050308619
-0.30966845 -0.40431792 0.050312363
-0.30984682 -0.40436432 0.050302271
-0.31004304 -0.40441504 0.050293252
-0.31022421 -0.40446588 0.050256636
-0.31040096 -0.40450943 0.050263844
-0.31060383 -0.40456378 0.050240956
-0.31077158 -0.40461269 0.050194032
-0.31096408 -0.40466282 0.050182723
-0.31117028 -0.40471655 0.050170194
-0.31135285 -0.40475917 0.05019467
-0.31152117 -0.4048048 0.050171953
-0.31173173 -0.40485302 0.050206665
-0.31189808 -0.40490073 0.050165515
-0.31207412 -0.40495446 0.050098944
-0.31224835 -0.40500063 0.050083116
-0.3124356 -0.40505055 0.050063755
-0.31263486 -0.4050982 0.050082389
-0.31281239 -0.40514696 0.050053861
-0.31300312 -0.40519792 0.050033342
-0.31319842 -0.4052465 0.050038151
-0.31336474 -0.40529439 0.04999584
-0.31355974 -0.40534157 0.050009888
-0.31373468 -0.40539098 0.049972143
-0.31393164 -0.40543643 0.050002318
-0.31412143 -0.40549088 0.049955282
-0.31428778 -0.40554038 0.049901444
-0.31449011 -0.40558958 0.049914297
-0.31467041 -0.40563518 0.049913425
-0.3148554 -0.40568453 0.049894083
-0.3150464 -0.40573591 0.049871244
-0.31521505 -0.40578809 0.049802411
-0.31541443 -0.40582767 0.049878687
-0.31558916 -0.40588188 0.049806364
-0.31578302 -0.40592846 0.049822718
-0.3159942 -0.40598267 0.049815923
-0.31617245 -0.4060334 0.049774714
-0.31634831 -0.40608159 0.04974734
-0.31655511 -0.40613517 0.049737118
-0.31671849 -0.40618101 0.049704038
-0.31690058 -0.40622541 0.049714692
-0.31712186 -0.40626827 0.049807001
-0.31729937 -0.40632367 0.049731199
-0.31747642 -0.40637764 0.049664624
-0.31764531 -0.40642568 0.049625758
-0.3178637 -0.40646651 0.049727309
-0.31806213 -0.4065246 0.049669858
-0.31823242 -0.40657398 0.049624067
-0.31843445 -0.40661746 0.049677275
-0.31858703 -0.40667641 0.049531274
-0.31880498 -0.40671924 0.049617831
-0.31891966 -0.40677491 0.049427059
-0.31918159 -0.40682447 0.049544528
-0.31939679 -0.40687355 0.049581528
-0.31954485 -0.40692329 0.049493194
-0.31974122 -0.40697357 0.049487632
-0.31990445 -0.40702131 0.04944073
-0.32012188 -0.40706903 0.049491554
-0.32034126 -0.40712208 0.049507778
-0.32054731 -0.40718096 0.049458355
-0.32069153 -0.40722436 0.049408086
-0.32089412 -0.40726879 0.049455523
-0.32109085 -0.4073208 0.049438424
-0.32128888 -0.4073754 0.049405184
-0.3214848 -0.40743029 0.049366198
-0.32168472 -0.40747938 0.049375601
-0.32185602 -0.40752915 0.049328648
-0.32204169 -0.40757465 0.049338125
-0.32222724 -0.40762818 0.04928996
-0.32242054 -0.40768352 0.04924291
-0.32261387 -0.40772966 0.049261574
-0.32281828 -0.40777731 0.049289402
-0.32299691 -0.40782911 0.049241271
-0.3231774 -0.40788072 0.049197733
-0.32334611 -0.40793097 0.049142733
-0.22237659 -0.38132051 0.057339121
-0.2226129 -0.38139141 0.057258457
-0.22281751 -0.38143861 0.057289772
-0.22303219 -0.38149467 0.05727607
-0.22325706 -0.381558 0.057228893
-0.22343794 -0.38159049 0.057322584
-0.22368833 -0.38167027 0.057203799
-0.22389103 -0.38171828 0.057225909
-0.22412185 -0.38178635 0.057155639
-0.22432452 -0.38183451 0.057176583
-0.22454002 -0.38189012 0.0571675
-0.22474587 -0.38194072 0.057176903
-0.22496229 -0.38199899 0.05715052
-0.22519018 -0.38206565 0.057084873
-0.22538587 -0.38210738 0.057139292
-0.22561419 -0.38217464 0.057070184
-0.22582085 -0.38222447 0.057086505
-0.22605124 -0.38229355 0.05700817
-0.22626205 -0.38234848 0.056995645
-0.226476 -0.38240579 0.056971572
-0.22668953 -0.38246107 0.05696135
-0.22687462 -0.38249913 0.057022739
-0.22712235 -0.3825781 0.056905113
-0.22732842 -0.38263002 0.056905299
-0.22754574 -0.38269049 0.056865063
-0.22774652 -0.38273865 0.05688256
-0.22795488 -0.38279068 0.056886196
-0.22814316 -0.38282955 0.056947574
-0.2283673 -0.38289562 0.056879632
-0.22855477 -0.38293394 0.05694332
-0.22878851 -0.38300565 0.056852285
-0.2289865 -0.38305214 0.056876712
-0.22920476 -0.38311428 0.056826107
-0.22940308 -0.38316119 0.056848235
-0.22962518 -0.38322657 0.056781467
-0.22983867 -0.38328344 0.056759708
-0.23004662 -0.38333812 0.05674373
-0.23026086 -0.38339585 0.056717355
-0.23046654 -0.38344899 0.05670831
-0.23064137 -0.38349804 0.056672893
-0.2308566 -0.38355082 0.056683414
-0.2310982 -0.38361856 0.056635
-0.23128945 -0.38366675 0.056635253
-0.23149949 -0.38371775 0.056649245
-0.23170199 -0.38376895 0.056648292
-0.23192944 -0.38383824 0.056563053
-0.23212305 -0.38388252 0.056595571
-0.2323273 -0.38393545 0.05658539
-0.23253253 -0.38398927 0.056570578
-0.23273584 -0.38403955 0.056577697
-0.23292728 -0.38408649 0.056587163
-0.23315337 -0.3841514 0.056530751
-0.23336598 -0.38421181 0.056482486
-0.23357329 -0.38426793 0.056454986
-0.23376253 -0.38430914 0.056501359
-0.23397847 -0.38437054 0.056451917
-0.23418322 -0.3844249 0.056432508
-0.23437658 -0.38446972 0.056460418
-0.23458809 -0.38453001 0.056410998
-0.23476891 -0.3845754 0.056412451
-0.23498729 -0.38463512 0.056379128
-0.23517853 -0.38467845 0.056413978
-0.23536748 -0.38473108 0.056378491
-0.23555307 -0.38478091 0.056356858
-0.23577559 -0.38484478 0.056301624
-0.23599334 -0.38490468 0.056266006
-0.23619795 -0.38496241 0.056222379
-0.23640509 -0.38501558 0.056215629
-0.2366199 -0.38507798 0.056156978
-0.23680116 -0.38512006 0.056182638
-0.23698902 -0.38515642 0.056261308
-0.23719974 -0.38521552 0.05621881
-0.2374156 -0.38527703 0.056168206
-0.23761064 -0.3853223 0.056196108
-0.23779023 -0.38536319 0.056227546
-0.23798884 -0.38541421 0.056220844
-0.23822725 -0.38548726 0.056128632
-0.23843269 -0.38554972 0.056052718
-0.23863117 -0.3855986 0.056061015
-0.23882124 -0.38564715 0.056056652
-0.2390016 -0.38568917 0.056081168
-0.23922312 -0.38574746 0.056063972
-0.23944832 -0.38581184 0.056009877
-0.23964171 -0.38585636 0.056040097
-0.2398439 -0.38591182 0.056008015
-0.24004881 -0.38596752 0.055979379
-0.2402499 -0.38602224 0.05595075
-0.24044739 -0.38607362 0.055939443
-0.24065125 -0.38613132 0.055894669
-0.2408462 -0.38617787 0.055913344
-0.24105875 -0.38624439 0.055821262
-0.24125099 -0.38628843 0.055852637
-0.24142812 -0.38633889 0.055811442
-0.24159652 -0.38637275 0.055872917
-0.24180365 -0.38643724 0.055785462
-0.24201262 -0.38649574 0.055744119
-0.24220845 -0.38654652 0.055733971
-0.24241066 -0.38659021 0.055786058
-0.24263476 -0.38665074 0.055757329
-0.24283896 -0.38670772 0.055718318
-0.24302368 -0.38674748 0.055767026
-0.24321048 -0.38680634 0.055683129
-0.24340984 -0.38684446 0.055769809
-0.24361016 -0.38689783 0.055749264
-0.24380095 -0.38694414 0.055762202
-0.2439533 -0.38697278 0.055831809
-0.24415921 -0.38703829 0.055735141
-0.24440295 -0.38713014 0.055518389
-0.24460512 -0.38717154 0.055586614
-0.24479918 -0.38721901 0.055597227
-0.24499723 -0.38727391 0.055561695
-0.24518178 -0.38731104 0.055628859
-0.2453777 -0.38736382 0.055604875
-0.24555007 -0.38740885 0.055593684
-0.24577676 -0.38748103 0.055486538
-0.24593544 -0.38750774 0.055581484
-0.24613705 -0.38757068 0.055495217
-0.24633232 -0.38762343 0.055470087
-0.24653557 -0.38767919 0.05543799
-0.24674889 -0.38773069 0.055454277
-0.24691579 -0.38777015 0.055473089
-0.24713014 -0.38782626 0.05545824
-0.2473278 -0.38788918 0.055365074
-0.24753451 -0.38794321 0.055351414
-0.24772304 -0.38798895 0.055364363
-0.24792093 -0.38804269 0.055336911
-0.24811481 -0.38809511 0.055311777
-0.24830577 -0.38814065 0.055330485
-0.2484961 -0.38818893 0.055328429
-0.24868892 -0.38824043 0.055307921
-0.24888624 -0.38829777 0.055253953
-0.24904607 -0.38832554 0.055343129
-0.24926516 -0.38838935 0.055282142
-0.24946316 -0.38844442 0.055245463
-0.24965221 -0.38849172 0.055248033
-0.24984974 -0.38855395 0.055159476
-0.24999875 -0.38858986 0.055171452
-0.25017011 -0.38862154 0.055253651
-0.25041217 -0.38869455 0.055168342
-0.25061718 -0.38874865 0.055151239
-0.25080401 -0.38879362 0.055166498
-0.25099975 -0.38884699 0.055137895
-0.25119311 -0.3889012 0.055098943
-0.25138459 -0.38894898 0.05510265
-0.25157249 -0.38899583 0.055106379
-0.25173199 -0.38903502 0.055113692
-0.25195125 -0.38910645 0.054998517
-0.25215244 -0.38915637 0.055004485
-0.25234339 -0.3892082 0.054978218
-0.25253123 -0.38925132 0.055008456
-0.25272024 -0.38930055 0.054997191
-0.25290507 -0.38934356 0.055022836
-0.25306034 -0.38938138 0.055032484
-0.2532452 -0.38944235 0.054930139
-0.2534799 -0.3894999 0.054941721
-0.25367516 -0.3895551 0.05489929
-0.25384489 -0.38960236 0.054867357
-0.25403193 -0.38964948 0.054867629
-0.25420958 -0.38969103 0.054890998
-0.25436664 -0.38972279 0.054946762
-0.25455788 -0.38978666 0.054835171
-0.25477326 -0.38984728 0.05479034
-0.25495622 -0.38988319 0.054863267
-0.25517669 -0.3899428 0.054834552
-0.25536618 -0.39000008 0.054766785
-0.25556397 -0.39005154 0.054755479
-0.25573653 -0.39009517 0.054754663
-0.2559014 -0.39013574 0.054761954
-0.25611699 -0.39019299 0.054741338
-0.25631997 -0.39024916 0.054705795
-0.25649583 -0.39029944 0.054663457
-0.25668773 -0.3903465 0.054672923
-0.25686124 -0.39038697 0.054696321
-0.25704718 -0.39043415 0.054694291
-0.25724396 -0.39049101 0.054642625
-0.25740862 -0.39053199 0.054646466
-0.25759766 -0.39057979 0.054645568
-0.25781235 -0.39063713 0.05462265
-0.25800994 -0.39069679 0.054552536
-0.25818276 -0.39073646 0.054580547
-0.25835732 -0.39077976 0.05458549
-0.25853091 -0.39083433 0.054508574
-0.2587342 -0.39088783 0.054492623
-0.25892484 -0.39094055 0.054459438
-0.25910106 -0.39098141 0.054485127
-0.25927863 -0.39103955 0.054389749
-0.25946903 -0.39107087 0.054508764
-0.25966194 -0.3911224 0.054488253
-0.25984579 -0.39117453 0.054447025
-0.26003304 -0.39122787 0.05440348
-0.26022062 -0.39127448 0.05440836
-0.26041555 -0.3913244 0.054402836
-0.26058865 -0.39137384 0.05436166
-0.2607756 -0.39142755 0.054314658
-0.26094753 -0.39146602 0.054349583
-0.26115605 -0.39152002 0.054339383
-0.2613337 -0.39156592 0.054331623
-0.26152372 -0.39162996 0.054216582
-0.26170105 -0.39166623 0.05427685
-0.26187882 -0.39171311 0.054262176
-0.26205748 -0.39177284 0.054157566
-0.26226556 -0.39181718 0.054215394
-0.26245278 -0.39186502 0.054211043
-0.2626414 -0.39190704 0.054250505
-0.26281181 -0.39195144 0.054240484
-0.26299179 -0.39199629 0.054244239
-0.26319319 -0.39206192 0.054138366
-0.26337042 -0.39209703 0.054206714
-0.26356524 -0.39215082 0.054173507
-0.26373711 -0.39220235 0.05411505
-0.26394054 -0.39225331 0.054117545
-0.26412076 -0.39230064 0.054104019
-0.26431113 -0.39235088 0.054088131
-0.26447639 -0.39238876 0.05411502
-0.26468045 -0.39244342 0.054092154
-0.26483876 -0.39249527 0.05400724
-0.26502895 -0.39254627 0.053985585
-0.26523408 -0.39260897 0.053907365
-0.26539508 -0.39264205 0.053960796
-0.26558369 -0.39268491 0.053994499
-0.26574177 -0.39271903 0.054035261
-0.26595327 -0.392784 0.0539524
-0.26613951 -0.39283302 0.053937681
-0.26630187 -0.39287487 0.053931147
-0.26650187 -0.39293045 0.053894468
-0.26668751 -0.39297611 0.053902816
-0.26685929 -0.39301518 0.053933132
-0.26702458 -0.39305452 0.053949647
-0.26718435 -0.39310607 0.053869344
-0.26738468 -0.39317143 0.053763475
-0.26759696 -0.39322251 0.053780917
-0.26776624 -0.39327615 0.053702872
-0.26794821 -0.39332199 0.053703159
-0.26810277 -0.39335153 0.05377046
-0.26829857 -0.39341009 0.053704973
-0.26849052 -0.3934567 0.053717896
-0.26866892 -0.39349452 0.05376894
-0.26884419 -0.39354676 0.053711616
-0.26901931 -0.39359975 0.053648528
-0.26919773 -0.39363855 0.053692654
-0.26938283 -0.39368731 0.053677943
-0.2695713 -0.39373559 0.05367244
-0.26975316 -0.39377719 0.053702716
-0.26993129 -0.39382726 0.053666137
-0.27010924 -0.39387873 0.053619169
-0.27028728 -0.39392695 0.053595275
-0.2704654 -0.39397249 0.053590976
-0.27064306 -0.39402387 0.053544018
-0.27082133 -0.39406651 0.053560466
-0.27100199 -0.39412028 0.053501971
-0.27117649 -0.39416569 0.05349192
-0.27135813 -0.39420885 0.053510662
-0.27154568 -0.39426032 0.053480953
-0.27172402 -0.39430249 0.053500872
-0.27190155 -0.39435014 0.053480428
-0.27208424 -0.39438695 0.053546436
-0.27226022 -0.39444387 0.053456828
-0.27244368 -0.39449674 0.053409841
-0.27263287 -0.39455587 0.053328242
-0.27280572 -0.39458957 0.053398911
-0.27298254 -0.39463896 0.053364646
-0.27316427 -0.39468166 0.053386845
-0.27334577 -0.39472562 0.05339982
-0.27352679 -0.3947717 0.053396665
-0.27370703 -0.39482084 0.05337045
-0.27388698 -0.39487085 0.053337317
-0.27406728 -0.39491904 0.053318009
-0.27424836 -0.39496449 0.053319469
-0.2744334 -0.3950085 0.053338196
-0.27461374 -0.39505637 0.053321198
-0.27479357 -0.39510572 0.053292677
-0.2749761 -0.39514637 0.053331017
-0.27515489 -0.3951987 0.053279448
-0.27534342 -0.39524344 0.053299308
-0.27553532 -0.3952994 0.053245362
-0.27572286 -0.39534682 0.053244483
-0.27590981 -0.39540556 0.053161733
-0.27606925 -0.39545882 0.053068746
-0.27624601 -0.39549574 0.053123258
-0.27642104 -0.39554629 0.053077467
-0.2766107 -0.3955881 0.053120382
-0.27680007 -0.39563954 0.053094123
-0.27696973 -0.39568487 0.053076025
-0.27715066 -0.3957217 0.053138588
-0.27733153 -0.39576712 0.053140037
-0.27750906 -0.3958196 0.053085007
-0.2776852 -0.39586687 0.053064581
-0.27787307 -0.39591324 0.053071767
-0.27805105 -0.39596424 0.053028267
-0.27823594 -0.39600903 0.053041227
-0.27842206 -0.39605868 0.0530219
-0.27860487 -0.39610037 0.053053323
-0.27877054 -0.39616618 0.0528819
-0.27895638 -0.39620912 0.052909847
-0.27913719 -0.39625436 0.052912451
-0.27931371 -0.39630029 0.052902397
-0.27951187 -0.39635506 0.052868027
-0.27970085 -0.3963933 0.052935157
-0.27986518 -0.39643404 0.052940149
-0.28005052 -0.39647847 0.052956562
-0.28022528 -0.39653915 0.052838139
-0.28040314 -0.39658883 0.052803859
-0.28057763 -0.39663181 0.052811109
-0.28075922 -0.39667594 0.052822936
-0.28093141 -0.39673352 0.052721817
-0.28110468 -0.39677817 0.052715231
-0.28128389 -0.39682555 0.052699395
-0.28147465 -0.39686263 0.05277805
-0.28168181 -0.39691532 0.052774765
-0.28188229 -0.39693514 0.052994043
-0.2820271 -0.39699632 0.052818108
-0.28221673 -0.39704087 0.052841417
-0.28238994 -0.39708096 0.052867118
-0.28257483 -0.39714143 0.052768245
-0.28273806 -0.39719838 0.052655637
-0.28292578 -0.3972452 0.052659363
-0.28309101 -0.39729458 0.052604396
-0.28328025 -0.39733967 0.052623101
-0.28345817 -0.39738837 0.052595746
-0.28364003 -0.3974418 0.052541852
-0.28381214 -0.3974832 0.052556023
-0.28399751 -0.39752376 0.052600119
-0.28416032 -0.39757526 0.052525558
-0.2843444 -0.39762601 0.052494716
-0.2845284 -0.39768112 0.052432735
-0.28470665 -0.3977249 0.052441116
-0.28488654 -0.39776292 0.052493304
-0.28507715 -0.39781129 0.052491251
-0.28525805 -0.39785686 0.052491553
-0.28543404 -0.39791122 0.052420385
-0.28560874 -0.39795861 0.052396506
-0.28579167 -0.39801812 0.052301094
-0.2859621 -0.39805749 0.052326806
-0.28614825 -0.39809436 0.05239857
-0.28634223 -0.39813986 0.052423019
-0.28651947 -0.39819646 0.052338019
-0.28669015 -0.39824352 0.052309543
-0.28688771 -0.39828601 0.052361645
-0.28706482 -0.39833871 0.052304316
-0.28724027 -0.39838904 0.05226082
-0.28741381 -0.39844087 0.05220351
-0.28758952 -0.39848721 0.052188843
-0.28776601 -0.39852586 0.052230675
-0.28794724 -0.39857492 0.052206755
-0.28813407 -0.39861956 0.052224319
-0.28830492 -0.39867327 0.052148569
-0.28848556 -0.39871246 0.052193835
-0.28867143 -0.39875802 0.052203342
-0.28884858 -0.39880684 0.052173682
-0.2890338 -0.39884964 0.052201636
-0.2892054 -0.39890578 0.052109733
-0.28939375 -0.39894968 0.052135363
-0.28958791 -0.39898956 0.052200165
-0.28976518 -0.39904797 0.05210248
-0.28994417 -0.39909223 0.052108549
-0.29011598 -0.39914781 0.052021269
-0.29028869 -0.39919326 0.052007776
-0.29048425 -0.39923576 0.052056428
-0.29065987 -0.3992855 0.052017551
-0.29084116 -0.39932841 0.052037448
-0.29102781 -0.39937705 0.052026194
-0.29121649 -0.39943042 0.051984943
-0.2913613 -0.39948174 0.051879339
-0.29154751 -0.39952171 0.051929191
-0.29173744 -0.39956245 0.051980179
-0.29191729 -0.39961535 0.051926296
-0.29208526 -0.39966962 0.051841334
-0.29225069 -0.39971954 0.051782902
-0.29244012 -0.3997637 0.051808536
-0.29262039 -0.39981332 0.051778849
-0.29279229 -0.39985937 0.051759593
-0.29298759 -0.39989761 0.051838227
-0.2931869 -0.3999365 0.051919151
-0.29337671 -0.39998645 0.051904425
-0.29355162 -0.40003923 0.051842488
-0.29373932 -0.40008765 0.05183468
-0.29389867 -0.40014073 0.051742841
-0.29408675 -0.40018359 0.051775396
-0.29427594 -0.40023124 0.051775657
-0.29446617 -0.40028629 0.051725183
-0.2946426 -0.40033284 0.051710512
-0.29481229 -0.40038285 0.051658977
-0.29500076 -0.40043101 0.051654626
-0.29517046 -0.40047583 0.051639989
-0.29533875 -0.40051886 0.051635735
-0.29554018 -0.40056074 0.051699355
-0.29572624 -0.40060779 0.05169848
-0.29589656 -0.40065747 0.051650401
-0.29607001 -0.40070811 0.051601157
-0.29625529 -0.40075803 0.051578376
-0.29643315 -0.40080655 0.051552176
-0.29662094 -0.40085292 0.051559359
-0.29680905 -0.40090159 0.0515504
-0.29698032 -0.40095314 0.051490784
-0.29714346 -0.40100119 0.051441588
-0.29734534 -0.40104851 0.051467158
-0.29753518 -0.40109181 0.051499695
-0.2976886 -0.40114644 0.051385984
-0.2978555 -0.40119511 0.051339075
-0.29805452 -0.40123233 0.051431522
-0.29826331 -0.40127251 0.051520478
-0.29846048 -0.40132689 0.05148726
-0.29861617 -0.4013826 0.051370077
-0.29879287 -0.40142953 0.051353097
-0.29898557 -0.40147001 0.051410992
-0.29917702 -0.40152001 0.051398557
-0.29934663 -0.40157211 0.051332038
-0.29952782 -0.40162179 0.05130351
-0.29971528 -0.40166467 0.05133491
-0.29990637 -0.40172365 0.051257908
-0.30006266 -0.40176558 0.051239878
-0.30025128 -0.40180391 0.05130586
-0.30043185 -0.40185183 0.051288869
-0.30063194 -0.40189466 0.05134327
-0.30080387 -0.40195218 0.05124215
-0.30097458 -0.40200377 0.051181383
-0.30114734 -0.40205455 0.051129837
-0.30134785 -0.40209749 0.051184233
-0.30152881 -0.40214953 0.05113842
-0.30170259 -0.40220204 0.05107649
-0.30186361 -0.40225276 0.051004246
-0.30207413 -0.40229258 0.05109895
-0.30225348 -0.40234521 0.051046219
-0.30245489 -0.40239242 0.051071778
-0.30261886 -0.40243614 0.051054873
-0.30280516 -0.40248048 0.051073592
-0.30298716 -0.40252632 0.05107389
-0.30317089 -0.40257958 0.051024593
-0.30334926 -0.40263647 0.050939582
-0.30351514 -0.40268165 0.050915737
-0.30371353 -0.40271661 0.051023185
-0.30393547 -0.40275994 0.051113218
-0.30410293 -0.40282604 0.050942939
-0.30428424 -0.40287432 0.050924797
-0.30446863 -0.40291786 0.050945833
-0.30464667 -0.40296531 0.050927699
-0.30484599 -0.40301779 0.050911766
-0.30501616 -0.40306196 0.050902892
-0.30521297 -0.40311527 0.050876595
-0.3053773 -0.40316117 0.050844692
-0.30555922 -0.40319651 0.050919935
-0.30575854 -0.40325111 0.050889015
-0.30594119 -0.40329567 0.050899677
-0.30612138 -0.4033556 0.050796218
-0.30629355 -0.40340674 0.050741214
-0.30648154 -0.40344813 0.050784133
-0.30666795 -0.40349185 0.050807472
-0.30683669 -0.40355295 0.050675232
-0.30700499 -0.40359437 0.050682515
-0.30720901 -0.40364435 0.05069308
-0.30740562 -0.40368921 0.050726742
-0.30757296 -0.40373814 0.050678678
-0.30773708 -0.40378788 0.050619103
-0.30797774 -0.40383062 0.050747097
-0.30811071 -0.40388119 0.050625406
-0.30831337 -0.4039284 0.050653271
-0.30848116 -0.40398246 0.050569471
-0.308687 -0.40402901 0.050607696
-0.30887625 -0.40407622 0.050611414
-0.30907771 -0.40412229 0.050645053
-0.30923924 -0.40417784 0.050539371
-0.30942497 -0.40422431 0.05054196
-0.30959001 -0.40426719 0.050533101
-0.30980259 -0.40432611 0.050495211
-0.3099699 -0.4043752 0.050445989
-0.31014383 -0.40441948 0.050442867
-0.31033176 -0.40445909 0.050498474
-0.31048906 -0.40451211 0.050403189
-0.31069109 -0.40456027 0.050422989
-0.31088606 -0.40460843 0.050430138
-0.31102547 -0.40466195 0.050299194
-0.31122854 -0.40471005 0.0503213
-0.31141219 -0.40475261 0.050348096
-0.3116132 -0.40480134 0.050362136
-0.31180069 -0.4048481 0.050365865
-0.31199148 -0.40489423 0.050379954
-0.31218734 -0.4049426 0.050387099
-0.31238922 -0.40499625 0.050367706
-0.31251082 -0.4050467 0.050226461
-0.31270292 -0.40508962 0.050265912
-0.31293383 -0.40513459 0.050360523
-0.313106 -0.40518782 0.050290525
-0.31326371 -0.40524063 0.050197545
-0.31346926 -0.40529063 0.050210413
-0.31366551 -0.40533784 0.050226782
-0.31385726 -0.40538129 0.050261617
-0.31401664 -0.40543842 0.050140958
-0.31421137 -0.40548912 0.050129659
-0.31439334 -0.40553755 0.050111502
-0.31461388 -0.40558684 0.050156582
-0.31480327 -0.40564167 0.050106108
-0.31495351 -0.40568516 0.050066199
-0.31514466 -0.40572765 0.050106805
-0.31535217 -0.40578401 0.050078157
-0.31553748 -0.40582615 0.050110716
-0.31571701 -0.4058798 0.050051067
-0.31588551 -0.40593225 0.049979948
-0.31609112 -0.40598166 0.049997419
-0.31626695 -0.40602854 0.049979292
-0.31645837 -0.40608034 0.049954183
-0.31668106 -0.40612578 0.05003038
-0.31683314 -0.40617654 0.049942039
-0.31703913 -0.40623346 0.04990647
-0.31724176 -0.40628374 0.04991243
-0.31741911 -0.40632629 0.049927734
-0.31759414 -0.40637216 0.049915381
-0.3178027 -0.40642747 0.049895953
-0.31794876 -0.40647623 0.049811088
-0.31812441 -0.4065221 0.049799889
-0.31834185 -0.40656915 0.049855351
-0.31852371 -0.40662417 0.049789935
-0.31872195 -0.40667266 0.049800526
-0.31891227 -0.40672514 0.049768493
-0.31909627 -0.40677151 0.049768783
-0.31930751 -0.40682265 0.049783926
-0.31948662 -0.40687537 0.049730048
-0.31965044 -0.40692458 0.049673926
-0.31988898 -0.406964 0.049821541
-0.32007295 -0.40702587 0.049711134
-0.32026529 -0.40707839 0.049682561
-0.3204501 -0.40712643 0.049672458
-0.32059762 -0.40717229 0.049610659
-0.32081562 -0.40722173 0.049649984
-0.32101411 -0.40727094 0.049655966
-0.3211937 -0.4073225 0.0496113
-0.32138875 -0.40737763 0.049568877
-0.32158053 -0.40742645 0.049565669
-0.32176709 -0.40747458 0.049557865
-0.3219943 -0.40753284 0.049551032
-0.32217568 -0.40757367 0.04958592
-0.32236674 -0.40763345 0.049503151
-0.32252678 -0.40767944 0.049463201
-0.322741 -0.40773538 0.049449503
-0.3229537 -0.40778494 0.049478475
-0.32311124 -0.40782863 0.049450055
-0.32331234 -0.40787303 0.049495231
-0.3234947 -0.40793383 0.049389444
-0.22222687 -0.3812564 0.057527065
-0.22243218 -0.3813054 0.057546847
-0.22266527 -0.38137209 0.057490401
-0.22285643 -0.38141137 0.057554081
-0.2230901 -0.38148049 0.05748149
-0.22330256 -0.38153484 0.057475876
-0.22350445 -0.38158184 0.057503752
-0.22371726 -0.38163662 0.057495832
-0.22391815 -0.38168305 0.057526022
-0.22414501 -0.38174799 0.057470758
-0.22437046 -0.3818121 0.057418957
-0.22460744 -0.38188463 0.057327896
-0.22479746 -0.38192362 0.057391576
-0.22502582 -0.38199025 0.057327077
-0.22524624 -0.38205132 0.057287991
-0.22543171 -0.38208899 0.057352848
-0.22562741 -0.3821286 0.057422262
-0.22586927 -0.38220561 0.057308123
-0.22609004 -0.38226739 0.05726441
-0.22630784 -0.38232714 0.057229944
-0.22650531 -0.38237208 0.05726476
-0.22672497 -0.38243341 0.057222217
-0.22692382 -0.38247949 0.05725126
-0.22712488 -0.38252726 0.057272226
-0.22730984 -0.38257062 0.057295568
-0.22755273 -0.38264221 0.057221778
-0.22778566 -0.38271227 0.057141114
-0.22800243 -0.38277224 0.057103202
-0.22821572 -0.38282973 0.057076823
-0.22840449 -0.38286871 0.057138205
-0.22862501 -0.38293192 0.057084117
-0.22883418 -0.38298658 0.057070456
-0.22904313 -0.38304117 0.057056785
-0.22923841 -0.38308537 0.057092763
-0.22947538 -0.38315985 0.056987863
-0.22966631 -0.38320085 0.057038859
-0.22986661 -0.38325909 0.056983724
-0.23009375 -0.38331845 0.056968816
-0.23031282 -0.38337967 0.056926273
-0.23051481 -0.38342959 0.056933388
-0.23072736 -0.38348591 0.056913938
-0.23093921 -0.38354385 0.056881808
-0.23113739 -0.38359106 0.05690163
-0.23136544 -0.3836621 0.056804851
-0.23157468 -0.38371632 0.056794636
-0.2317659 -0.38375819 0.056839865
-0.23196045 -0.38381109 0.056812428
-0.23216715 -0.38386351 0.056810301
-0.23239475 -0.38392672 0.056768868
-0.23260908 -0.38398769 0.056719434
-0.23280933 -0.38404366 0.056680433
-0.2330119 -0.3840889 0.056722142
-0.23322642 -0.3841483 0.056684233
-0.23340458 -0.38418204 0.056764118
-0.2336179 -0.38424066 0.056729674
-0.23381171 -0.3842853 0.05675989
-0.23402628 -0.3843452 0.056718521
-0.23424003 -0.38440895 0.056648325
