# .PCD v0.7 - Point Cloud Data file format
VERSION 0.7
FIELDS x y z
SIZE 4 4 4
TYPE F F F
COUNT 1 1 1
WIDTH 1247
HEIGHT 1
VIEWPOINT 0 0 0 1 0 0 0
POINTS 1247
DATA ascii
-0.12191539 -0.2980957 0.057445504
-0.12209383 -0.29817063 0.057466894
-0.12226536 -0.29825318 0.057415672
-0.12244554 -0.29832634 0.05745437
-0.1226269 -0.29840812 0.057437703
-0.12278279 -0.29847774 0.057428036
-0.12296635 -0.2985715 0.057336394
-0.12314319 -0.29864353 0.057372801
-0.12332862 -0.29872116 0.057396486
-0.12348888 -0.29880488 0.057303771
-0.12366352 -0.29888374 0.057287123
-0.12383032 -0.29894745 0.057350084
-0.12402011 -0.29903463 0.057321865
-0.12420788 -0.29911044 0.057365149
-0.12437265 -0.29919815 0.057258584
-0.12454166 -0.29927757 0.057221197
-0.12472037 -0.29934856 0.057270274
-0.12490546 -0.29943115 0.057259366
-0.12508006 -0.29950997 0.057242729
-0.12524728 -0.29958251 0.057246856
-0.12542641 -0.29966992 0.057185225
-0.12560463 -0.29974982 0.057172034
-0.12577699 -0.29982632 0.057164621
-0.12594691 -0.2999087 0.05710993
-0.12613104 -0.29998797 0.057118632
-0.12631294 -0.30006897 0.057108887
-0.12648705 -0.3001442 0.057115313
-0.12667452 -0.30024019 0.057020213
-0.12685214 -0.30031288 0.057054296
-0.12701102 -0.30038399 0.05704347
-0.12719525 -0.30047074 0.057001423
-0.12736183 -0.30054387 0.056999795
-0.12753171 -0.30061844 0.056998156
-0.12770212 -0.30069625 0.05697576
-0.12788233 -0.30078551 0.056904897
-0.12804578 -0.30086064 0.05688021
-0.12821813 -0.30093712 0.056872807
-0.12838994 -0.30101049 0.056885
-0.12855259 -0.30108613 0.056854546
-0.12873523 -0.30115983 0.056896694
-0.12891801 -0.30123362 0.056938846
-0.12910318 -0.30131286 0.056951005
-0.12928584 -0.30139029 0.056967787
-0.1294862 -0.30147755 0.056970675
-0.12967128 -0.30156687 0.056913637
-0.12980522 -0.30163568 0.056844059
-0.12999436 -0.30171934 0.056837749
-0.13016908 -0.30179486 0.056844175
-0.13033806 -0.30187342 0.056812555
-0.13049148 -0.30195379 0.056722157
-0.13065536 -0.30203485 0.056658257
-0.13083982 -0.3021116 0.056685414
-0.13102296 -0.30218908 0.056703348
-0.1311951 -0.30226901 0.05667172
-0.13138472 -0.30235258 0.056667715
-0.13155997 -0.30243099 0.056655686
-0.13173665 -0.30251175 0.056632113
-0.1319105 -0.30259383 0.05659125
-0.13208154 -0.30267125 0.056573465
-0.13227755 -0.30275202 0.056607507
-0.1324406 -0.30283305 0.056541301
-0.13261804 -0.30290484 0.056581162
-0.13279243 -0.30298662 0.05654376
-0.13294154 -0.30306494 0.056454536
-0.13312237 -0.30314109 0.056474771
-0.13330759 -0.30321831 0.056500778
-0.13347191 -0.30330414 0.056405742
-0.13363957 -0.30337468 0.056424864
-0.13381618 -0.30344999 0.056438196
-0.13399518 -0.3035326 0.05640886
-0.13419513 -0.30361527 0.056441732
-0.13436209 -0.30368903 0.056436643
-0.13453944 -0.30377501 0.056379624
-0.13471839 -0.30385235 0.056386039
-0.13489594 -0.30393028 0.05638437
-0.13507129 -0.30401161 0.056352735
-0.13523282 -0.30408743 0.056317676
-0.13540916 -0.30416584 0.0563091
-0.13559365 -0.30424663 0.056308582
-0.1357666 -0.3043288 0.056264263
-0.13593842 -0.30440116 0.056283377
-0.1361019 -0.30448139 0.056224097
-0.1362929 -0.30456519 0.05622239
-0.13645725 -0.30464259 0.056185022
-0.13662818 -0.30471539 0.05619837
-0.13680573 -0.30479857 0.056160957
-0.13699445 -0.30487832 0.056180026
-0.13717477 -0.30496067 0.056156453
-0.13735689 -0.30504009 0.056158241
-0.13752535 -0.3051115 0.056173906
-0.13769647 -0.30519894 0.056088075
-0.13786103 -0.30527389 0.056067996
-0.13804026 -0.30535185 0.056070942
-0.13821292 -0.30542934 0.05605777
-0.13838179 -0.30550787 0.05602615
-0.13857938 -0.30558574 0.056084406
-0.13875951 -0.30566835 0.056058511
-0.13892536 -0.3057408 0.056059197
-0.13910136 -0.30582449 0.056013718
-0.13927539 -0.30590409 0.055990152
-0.1394394 -0.30598387 0.05593548
-0.13961892 -0.30606213 0.055937275
-0.139796 -0.30614102 0.055927552
-0.13997439 -0.30621967 0.055923577
-0.14016078 -0.30630314 0.055910356
-0.14033574 -0.30638263 0.055890258
-0.14049585 -0.30646104 0.055833288
-0.14067318 -0.30653784 0.055838548
-0.14086585 -0.30661359 0.055896819
-0.14103878 -0.30669793 0.055837512
-0.14119938 -0.30677623 0.055782847
-0.14139625 -0.30684924 0.055872239
-0.14156535 -0.30693647 0.0557818
-0.14172766 -0.30701229 0.055749048
-0.14192532 -0.30708548 0.055839591
-0.14208296 -0.30716857 0.055743419
-0.14228378 -0.30724975 0.055788979
-0.14245707 -0.30733815 0.055703148
-0.14261594 -0.30741465 0.055655409
-0.14279249 -0.30749416 0.055639915
-0.1429738 -0.3075729 0.055644002
-0.14316383 -0.30765018 0.055683833
-0.14334644 -0.30773491 0.055651017
-0.14351963 -0.30781513 0.055620532
-0.14370573 -0.3078973 0.055615392
-0.14385614 -0.30797517 0.055533081
-0.14401779 -0.30805326 0.055483036
-0.14420673 -0.30813107 0.055515938
-0.14439027 -0.3082118 0.055513103
-0.1445514 -0.30828997 0.055460747
-0.14473751 -0.30836454 0.055507507
-0.14493902 -0.30844092 0.055587661
-0.14511988 -0.30852807 0.05553294
-0.14529732 -0.3086195 0.055439018
-0.14547107 -0.30869794 0.055422381
-0.1456589 -0.30877462 0.055459898
-0.14582932 -0.30885735 0.05540406
-0.14600846 -0.30893901 0.055381626
-0.14619273 -0.30901635 0.055404179
-0.14635399 -0.3090927 0.055364497
-0.1465278 -0.30917323 0.055334024
-0.14672621 -0.3092491 0.055408418
-0.146897 -0.30933744 0.055315673
-0.14707501 -0.30941573 0.05531285
-0.14724764 -0.30950013 0.055252396
-0.14742279 -0.30957511 0.055263422
-0.14762309 -0.30966401 0.05525478
-0.14780205 -0.30974239 0.055254269
-0.1479767 -0.30982125 0.055237629
-0.14814687 -0.30989695 0.055229075
-0.14833114 -0.30998033 0.055210087
-0.14850855 -0.31006259 0.055178445
-0.14869326 -0.31014603 0.055160619
-0.14885233 -0.3102228 0.055111729
-0.14902346 -0.31029856 0.055105478
-0.14922462 -0.31037906 0.055156797
-0.14938347 -0.31046113 0.055071004
-0.14957768 -0.31054229 0.055096973
-0.14976384 -0.31062585 0.055082604
-0.14995281 -0.31071097 0.055065926
-0.15011975 -0.31078559 0.055055067
-0.15028813 -0.31086189 0.055037286
-0.15046105 -0.31094131 0.055011421
-0.15065271 -0.31102642 0.055002797
-0.15084174 -0.31111175 0.054984961
-0.15103051 -0.3111988 0.054954443
-0.15119514 -0.31127378 0.054934364
-0.15138035 -0.31135607 0.054925766
-0.15154296 -0.31143287 0.054887243
-0.15170631 -0.31150964 0.054851018
-0.15191963 -0.3115924 0.054923072
-0.15207921 -0.31167108 0.054862652
-0.15228029 -0.31175455 0.054893211
-0.15243813 -0.31183332 0.054827027
-0.15264957 -0.31191981 0.054867938
-0.15281846 -0.31200308 0.054804023
-0.15299137 -0.31208134 0.054786243
-0.15315589 -0.31215829 0.054752324
-0.15335731 -0.31224057 0.054792114
-0.15353665 -0.31232199 0.054772001
-0.15371858 -0.31240657 0.054738037
-0.15389352 -0.31248656 0.054714467
-0.15408117 -0.31256789 0.054719701
-0.15426169 -0.31264627 0.054723803
-0.15441728 -0.31272674 0.054639168
-0.15464637 -0.31281066 0.054750379
-0.15480453 -0.31289583 0.054641522
-0.15497202 -0.31297457 0.054604135
-0.15516803 -0.31305921 0.054611653
-0.15534167 -0.31313798 0.054592699
-0.15551326 -0.3132214 0.054535706
-0.15567559 -0.31330028 0.054482188
-0.1558585 -0.31337294 0.054532416
-0.15608363 -0.31346542 0.05457329
-0.15625662 -0.31354895 0.054519743
-0.1564451 -0.313631 0.054522671
-0.15663984 -0.31372067 0.054492131
-0.15681395 -0.31379521 0.054503169
-0.15697476 -0.31387427 0.054443885
-0.1571469 -0.31395489 0.054407649
-0.15734945 -0.3140358 0.054460119
-0.15753691 -0.31412265 0.054427288
-0.15771352 -0.31421232 0.054342598
-0.15791336 -0.31429493 0.05437547
-0.15809043 -0.31437433 0.054362286
-0.15827297 -0.31445682 0.054344468
-0.15848495 -0.31454575 0.054370388
-0.15863001 -0.31462029 0.054295011
-0.15877804 -0.31470066 0.05418849
-0.15901856 -0.31479043 0.054293901
-0.15920225 -0.3148717 0.054287616
-0.15936242 -0.31495097 0.054224875
-0.15954196 -0.31503078 0.054216292
-0.15973237 -0.3151167 0.054198451
-0.15990284 -0.3151949 0.054173745
-0.16010074 -0.31528258 0.054166261
-0.16026175 -0.31536055 0.054115057
-0.16050094 -0.3154597 0.054152429
-0.16066617 -0.31553224 0.054150816
-0.16087146 -0.31562465 0.054132923
-0.16106106 -0.3157109 0.054110475
-0.16123633 -0.31579241 0.054077677
-0.16141982 -0.31587428 0.054066785
-0.16160056 -0.31595191 0.054076642
-0.16178752 -0.31603682 0.054055352
-0.16197047 -0.31611744 0.054051369
-0.16216107 -0.31620952 0.053992003
-0.16231336 -0.31628045 0.053962741
-0.16251741 -0.31636778 0.053976007
-0.16272795 -0.31645966 0.053977706
-0.16289037 -0.31653669 0.053936876
-0.16308199 -0.316614 0.053981312
-0.16324022 -0.31669769 0.05388283
-0.16340458 -0.31677085 0.053874291
-0.16368604 -0.31686041 0.054102987
-0.16381848 -0.31695208 0.053873107
-0.16404586 -0.31705081 0.053878233
-0.1642224 -0.31713033 0.053862728
-0.078673117 -0.28331503 0.02924284
-0.078852326 -0.28340772 0.029145509
-0.079034187 -0.28349987 0.029059693
-0.079211645 -0.28358942 0.028978517
-0.079384297 -0.28367415 0.028915793
-0.079551935 -0.28375381 0.028872687
-0.079722524 -0.28383493 0.028828414
-0.07989186 -0.28391671 0.028776076
-0.080058753 -0.28399605 0.028732974
-0.080217831 -0.28406721 0.028722178
-0.0803826 -0.28414276 0.028698677
-0.080540001 -0.28421235 0.028693654
-0.080705464 -0.28428888 0.028665543
-0.080866255 -0.28436232 0.028644362
-0.081018195 -0.28442818 0.028648574
-0.081178136 -0.28450093 0.028629705
-0.081334539 -0.28456804 0.028638512
-0.081493616 -0.28464192 0.028609268
-0.081643805 -0.28470433 0.028631931
-0.081791684 -0.28476229 0.028677665
-0.081944309 -0.28482744 0.028688794
-0.082099721 -0.28489381 0.028699912
-0.082240254 -0.28494757 0.028752577
-0.082388036 -0.28500551 0.028798312
-0.082531855 -0.28505901 0.028862504
-0.082678437 -0.28511557 0.028914012
-0.082819954 -0.28516841 0.0289759
-0.082962126 -0.28521797 0.029062005
-0.083102755 -0.28526771 0.029142344
-0.08323916 -0.28531459 0.029229624
-0.08337903 -0.28536129 0.029328421
-0.083516374 -0.28540909 0.029412229
-0.083651036 -0.28545165 0.029523719
-0.083784893 -0.28549519 0.029625993
-0.083924145 -0.28554079 0.029730551
-0.084054589 -0.28558013 0.029851282
-0.084190406 -0.28562352 0.029960468
-0.084323294 -0.28566548 0.030070815
-0.084459595 -0.28570706 0.030193839
-0.084596545 -0.28574929 0.03031454
-0.08471112 -0.2857646 0.030551776
-0.084832042 -0.2857981 0.030684061
-0.084959611 -0.28583062 0.030842852
-0.085081309 -0.28585801 0.031018946
-0.085203841 -0.28588393 0.031207727
-0.081188239 -0.2797581 0.060988568
-0.081387922 -0.27985144 0.060947679
-0.081592351 -0.27994806 0.060898717
-0.081774518 -0.28002241 0.060935128
-0.081977919 -0.28011504 0.060910381
-0.082178771 -0.28021058 0.060857959
-0.082375631 -0.28029814 0.060848217
-0.082567632 -0.28038257 0.060845409
-0.082770199 -0.28047785 0.060799897
-0.082966104 -0.28056771 0.060771711
-0.083155051 -0.28064537 0.060805805
-0.083353668 -0.2807391 0.060759157
-0.083536349 -0.28081807 0.060765591
-0.083743125 -0.28091353 0.060731605
-0.083935395 -0.28099924 0.060720719
-0.084128246 -0.28108588 0.060705218
-0.084318817 -0.28116629 0.060725469
-0.084484853 -0.28123611 0.060744639
-0.084684834 -0.28135616 0.060522716
-0.084904462 -0.28143728 0.060624763
-0.08510901 -0.28153428 0.060573477
-0.085293874 -0.28161067 0.060604122
-0.085486636 -0.28170168 0.060558647
-0.085686594 -0.28179279 0.0605339
-0.08587385 -0.28186935 0.060570307
-0.086068213 -0.28195971 0.060534049
-0.086263195 -0.28204763 0.060516234
-0.08645501 -0.28214177 0.060446549
-0.086648867 -0.28222126 0.060482938
-0.086836152 -0.2823019 0.060491659
-0.087013409 -0.28238967 0.060422011
-0.087227874 -0.28248543 0.060408752
-0.087416522 -0.28256854 0.060404807
-0.087603323 -0.28264898 0.060413539
-0.08779975 -0.28274041 0.060376115
-0.0879905 -0.28282717 0.060353704
-0.088179037 -0.28291833 0.060294401
-0.088377573 -0.28300595 0.060289264
-0.088562436 -0.28308013 0.060334899
-0.088759154 -0.28317693 0.060261726
-0.088960521 -0.28327745 0.060177028
-0.089138009 -0.28334418 0.060251504
-0.089335062 -0.28343824 0.060197949
-0.089499988 -0.28350505 0.060234413
-0.089686021 -0.28358567 0.060239688
-0.089884959 -0.2836709 0.060251847
-0.090079263 -0.28375277 0.060273238
-0.090238929 -0.28382793 0.060237072
-0.090466306 -0.28393564 0.060181115
-0.090665907 -0.28403994 0.060065284
-0.090832926 -0.28411087 0.060079828
-0.091030084 -0.28419399 0.060101226
-0.091226548 -0.28428492 0.060067259
-0.091409914 -0.28436217 0.060087532
-0.091600493 -0.28444767 0.060073197
-0.091783784 -0.28453419 0.060030051
-0.09196911 -0.2846106 0.060061842
-0.092161536 -0.28469518 0.060059033
-0.09231469 -0.28474143 0.060200457
-0.092536651 -0.2848613 0.06004535
-0.092734814 -0.28496194 0.059950281
-0.09291859 -0.28504089 0.059960172
-0.093102545 -0.28512025 0.059967753
-0.093282908 -0.28520805 0.059907317
-0.093468413 -0.28528047 0.059966784
-0.093666106 -0.28537667 0.059900537
-0.093853332 -0.28545782 0.059905812
-0.094041288 -0.28554589 0.059866115
-0.09423089 -0.28563753 0.059806801
-0.094410852 -0.28571531 0.059813242
-0.094576605 -0.28578603 0.059825495
-0.094781399 -0.28588212 0.059781134
-0.094966747 -0.28596598 0.059762198
-0.095159985 -0.2860496 0.059768606
-0.095321923 -0.28612423 0.059742801
-0.095526636 -0.28621539 0.059731893
-0.095713109 -0.28629655 0.059734855
-0.095892347 -0.28638601 0.059659436
-0.096090987 -0.28647655 0.059634693
-0.096253946 -0.28655466 0.059588142
-0.096454889 -0.286632 0.059660256
-0.096642613 -0.28671691 0.059641309
-0.0968256 -0.28679737 0.059638515
-0.097004183 -0.28688741 0.059557326
-0.097167328 -0.28696054 0.059545368
-0.097372882 -0.28704244 0.059600174
-0.097554877 -0.28712112 0.059606612
-0.097748466 -0.28721517 0.059542678
-0.09790051 -0.28727484 0.05958955
-0.098108962 -0.2873717 0.059550952
-0.098287031 -0.28745559 0.059510127
-0.098485686 -0.28754967 0.059461169
-0.098669134 -0.28763354 0.05943647
-0.09885525 -0.28772518 0.059366792
-0.099032931 -0.28779337 0.059432045
-0.099217504 -0.287873 0.059439637
-0.099402785 -0.28797171 0.059319224
-0.099554464 -0.28804794 0.059251949
-0.099745691 -0.28812253 0.059313707
-0.099952295 -0.28820878 0.059341986
-0.10013542 -0.28829405 0.059306905
-0.10028921 -0.28835985 0.059316881
-0.10046707 -0.28844756 0.059249535
-0.10065559 -0.28852266 0.059299774
-0.10083823 -0.28860754 0.059265845
-0.10101941 -0.28867739 0.059329946
-0.10119042 -0.28876328 0.059254549
-0.10139863 -0.28884566 0.059313953
-0.1015897 -0.28894132 0.059231579
-0.10176694 -0.28903028 0.059153855
-0.10195579 -0.28910705 0.059193715
-0.10213373 -0.28917566 0.059256665
-0.10231867 -0.28927338 0.059142016
-0.10250221 -0.28936628 0.059056204
-0.10268486 -0.28944287 0.05907879
-0.10286582 -0.28952551 0.059055243
-0.10304432 -0.28959689 0.059100904
-0.10320325 -0.28967631 0.059033595
-0.10339525 -0.28975445 0.059073448
-0.10358582 -0.28984094 0.059052188
-0.10376988 -0.28992593 0.059021726
-0.10395057 -0.2900098 0.058988959
-0.10410795 -0.29008394 0.058952793
-0.10430919 -0.29016259 0.059016839
-0.10449009 -0.29024941 0.058964469
-0.10466945 -0.29032677 0.058972076
-0.10485296 -0.29041168 0.058940455
-0.10501263 -0.29048297 0.058930807
-0.1051921 -0.29056221 0.058925718
-0.10537901 -0.29065168 0.058873333
-0.10555209 -0.2907317 0.058844052
-0.10573105 -0.29080838 0.058855116
-0.10589953 -0.29087538 0.058900796
-0.10606912 -0.29095387 0.058871511
-0.10627844 -0.29105061 0.058836371
-0.10643498 -0.29112896 0.058769081
-0.1066537 -0.29122642 0.05875697
-0.10683272 -0.29130852 0.058731131
-0.10701161 -0.29138973 0.058711052
-0.10717344 -0.29145351 0.058759056
-0.10734244 -0.29153377 0.058715947
-0.10751778 -0.29161173 0.058707409
-0.10772295 -0.29170933 0.058653828
-0.10788161 -0.29177865 0.058654562
-0.10807657 -0.29186925 0.0586183
-0.10823517 -0.29193246 0.058660544
-0.10844324 -0.29202676 0.058638088
-0.10862152 -0.29210654 0.058626086
-0.10880304 -0.29218823 0.058610618
-0.10898124 -0.29226744 0.058602072
-0.10913602 -0.2923418 0.058556691
-0.10930047 -0.29242259 0.058496296
-0.10950867 -0.29250583 0.058549944
-0.10966991 -0.29258099 0.058518387
-0.10984094 -0.29266044 0.058486797
-0.10999572 -0.29272941 0.058478326
-0.11018884 -0.29282701 0.058389023
-0.11038077 -0.2929014 0.058454245
-0.11055549 -0.29297623 0.058465309
-0.11074533 -0.29306865 0.058401391
-0.11092965 -0.2931492 0.058402054
-0.11110357 -0.29322872 0.05837854
-0.11129201 -0.2933048 0.05842185
-0.11143639 -0.29337057 0.058404177
-0.11162293 -0.29345816 0.058363326
-0.11180291 -0.29354206 0.058328256
-0.11198311 -0.29362419 0.058305874
-0.11216667 -0.2937071 0.05828809
-0.11234371 -0.29378647 0.058274947
-0.11252088 -0.29386508 0.058267556
-0.11269623 -0.29393578 0.058308594
-0.11286018 -0.29400891 0.058298945
-0.1130442 -0.29410353 0.058202758
-0.11320537 -0.29418662 0.058116995
-0.11339675 -0.29426569 0.058148783
-0.11359096 -0.29434803 0.058166713
-0.11374728 -0.29442087 0.058136322
-0.11392272 -0.29449159 0.058177371
-0.11410552 -0.29457486 0.058154978
-0.11427309 -0.29463553 0.058241025
-0.11443363 -0.29472917 0.058081467
-0.11462309 -0.29482517 0.057992179
-0.11480761 -0.29489177 0.058088556
-0.11497058 -0.29497632 0.05799818
-0.11518147 -0.29507476 0.057956114
-0.11535364 -0.29514438 0.057994865
-0.1155237 -0.29521954 0.057989806
-0.11571898 -0.29530841 0.057966221
-0.11588175 -0.29539138 0.057886235
-0.11602961 -0.29545441 0.057897367
-0.11622967 -0.29553205 0.057964876
-0.11641928 -0.29561573 0.057959761
-0.1165887 -0.29569197 0.057945479
-0.11674849 -0.29577157 0.057879329
-0.1169402 -0.29585874 0.057856914
-0.11712327 -0.29593128 0.057908323
-0.11729914 -0.29601794 0.057842128
-0.11748172 -0.29609162 0.057884317
-0.11763905 -0.29616728 0.057837769
-0.11781007 -0.2962327 0.057901897
-0.11798032 -0.29631418 0.057854168
-0.11816435 -0.29641405 0.057722233
-0.11835693 -0.29649195 0.057765536
-0.11852774 -0.29657182 0.0577305
-0.11870662 -0.29664525 0.057763461
-0.11888029 -0.29672703 0.057723798
-0.11905703 -0.29680392 0.057726789
-0.11922629 -0.29687938 0.057717115
-0.11940473 -0.29696006 0.057699345
-0.11957479 -0.29704046 0.057658546
-0.11976945 -0.29712823 0.057640731
-0.1199497 -0.29720613 0.057647172
-0.12011996 -0.29728001 0.057651345
-0.12029438 -0.29735419 0.05766587
-0.1204763 -0.29744145 0.057613499
-0.12063495 -0.29751906 0.057557728
-0.12081419 -0.29759264 0.057590701
-0.12100024 -0.29767984 0.057551004
-0.12117243 -0.29775676 0.057540171
-0.12135072 -0.29783705 0.057524711
-0.12152752 -0.29791903 0.057493109
-0.12171218 -0.29800224 0.057476472
-0.12189038 -0.29808247 0.057461016
-0.12206455 -0.29815707 0.05747208
-0.12223919 -0.29824114 0.05741974
-0.1224139 -0.29831019 0.057470009
-0.12259163 -0.2983909 0.057449944
-0.12275163 -0.29846588 0.057416078
-0.12294015 -0.29855925 0.057341781
-0.12311332 -0.29863015 0.057374768
-0.12329519 -0.29870659 0.057396192
-0.12346172 -0.29879338 0.057301201
-0.12363704 -0.29887149 0.057291508
-0.12380385 -0.29893965 0.057324514
-0.12400019 -0.29902512 0.057327449
-0.12418188 -0.29909757 0.057375401
-0.12435177 -0.29918936 0.057256185
-0.12451305 -0.29926693 0.057208486
-0.12469745 -0.29934141 0.057250664
-0.12487932 -0.29942241 0.057240952
-0.12505506 -0.2995002 0.057234727
-0.12522155 -0.29957327 0.057233129
-0.12540387 -0.299658 0.057199214
-0.12558602 -0.29973879 0.057191812
-0.12575407 -0.29981863 0.057148706
-0.12593243 -0.29990232 0.057110179
-0.12611137 -0.29997763 0.057130463
-0.12629251 -0.30005914 0.057114996
-0.12646985 -0.30013579 0.057121448
-0.12665935 -0.30023026 0.057042539
-0.12683147 -0.3003031 0.057059381
-0.12699044 -0.30037406 0.057049736
-0.12718759 -0.30046293 0.057031915
-0.127343 -0.30053267 0.057019979
-0.12751849 -0.30061069 0.057011433
-0.12768778 -0.30068922 0.056981012
-0.12787341 -0.30077845 0.056926321
-0.12803763 -0.30085307 0.056907441
-0.12820652 -0.30092821 0.056898929
-0.12838088 -0.30100691 0.056882318
-0.12854379 -0.30108231 0.056854215
-0.12872103 -0.30115926 0.056858353
-0.12890323 -0.30122989 0.056920141
-0.12909441 -0.30130887 0.056951929
-0.12927996 -0.30138794 0.056966428
-0.12947237 -0.30146644 0.057005122
-0.12966466 -0.30155823 0.05695273
-0.12980418 -0.30163372 0.056854352
-0.12999225 -0.30171472 0.05686307
-0.13015966 -0.30179089 0.056843031
-0.13033141 -0.30186796 0.056829892
-0.13049304 -0.30195346 0.056729142
-0.13065113 -0.30203435 0.056649171
-0.13083954 -0.3021121 0.056680955
-0.13102134 -0.30218714 0.05671161
-0.13120325 -0.30227137 0.056679994
-0.13139084 -0.30235285 0.056684114
-0.13156971 -0.30243251 0.056674413
-0.13175125 -0.30251691 0.056640498
-0.13191758 -0.30259651 0.05659394
-0.1320928 -0.30267492 0.056581937
-0.13228525 -0.30275142 0.056634478
-0.13245004 -0.30283457 0.056559086
-0.13262649 -0.30290675 0.056593213
-0.13281263 -0.30299199 0.056567356
-0.13295957 -0.30307123 0.056465499
-0.13314952 -0.30314916 0.056500737
-0.13332736 -0.30321822 0.056560226
-0.13349882 -0.30331224 0.056430627
-0.13365588 -0.30338153 0.056426752
-0.13384084 -0.30345899 0.056450479
-0.13402167 -0.30354357 0.056413107
-0.13421996 -0.30362412 0.056455243
-0.13438769 -0.3037003 0.056436356
-0.13456917 -0.30378467 0.056402441
-0.13474683 -0.30386245 0.056401968
-0.13492671 -0.30393952 0.056413025
-0.13509557 -0.30402055 0.056364145
-0.13525885 -0.30409834 0.056321051
-0.13543974 -0.3041777 0.056319423
-0.13562815 -0.30425969 0.056322385
-0.13580063 -0.30433944 0.056293104
-0.13596782 -0.30441335 0.056288045
-0.13614425 -0.30449685 0.056244917
-0.13632576 -0.30457869 0.056228295
-0.13649628 -0.30465657 0.056205932
-0.13665929 -0.30473185 0.056178987
-0.13685314 -0.30481488 0.056191161
-0.13704334 -0.30489662 0.056201033
-0.13721751 -0.30497596 0.056179818
-0.13739939 -0.30505541 0.056180485
-0.13756576 -0.30512744 0.056185815
-0.13775751 -0.30521375 0.05616916
-0.13793181 -0.30529311 0.056147944
-0.13808459 -0.30537134 0.056070287
-0.13826366 -0.30544707 0.056088258
-0.1384341 -0.3055298 0.056032468
-0.13863121 -0.30560783 0.056088448
-0.13880257 -0.30568576 0.056068387
-0.13898093 -0.3057642 0.056065615
-0.13914891 -0.30584756 0.055998292
-0.13932855 -0.3059257 0.056001276
-0.1394909 -0.30600813 0.055923592
-0.13968424 -0.30608755 0.055958822
-0.1398565 -0.30616534 0.055942222
-0.14003468 -0.30624622 0.055922154
-0.1402172 -0.30632836 0.055906683
-0.14039876 -0.30641073 0.055886596
-0.14055781 -0.30648714 0.055840056
-0.14074026 -0.30656502 0.055853412
-0.14092827 -0.30664176 0.055890966
-0.14110009 -0.30672631 0.055827092
-0.14126608 -0.30680558 0.055781685
-0.14146496 -0.30688033 0.055865332
-0.1416429 -0.30696365 0.055827968
-0.1417999 -0.30704051 0.055772204
-0.14198777 -0.3071177 0.055806298
-0.14215836 -0.30720034 0.055751659
-0.14235893 -0.30728158 0.055796098
-0.14253217 -0.30736995 0.055710305
-0.1426927 -0.30744821 0.055655692
-0.14288029 -0.30752781 0.055672493
-0.14305358 -0.30760589 0.055657044
-0.14324586 -0.30768484 0.055692282
-0.14343213 -0.30776691 0.055688329
-0.14360414 -0.30784932 0.055639442
-0.14378889 -0.30792972 0.055642411
-0.14394434 -0.30800879 0.055567056
-0.14409789 -0.30809006 0.055470951
-0.14429231 -0.30816707 0.055525783
-0.1444751 -0.30824593 0.055533368
-0.14463912 -0.30832368 0.055492572
-0.14482762 -0.30840182 0.055522058
-0.14501864 -0.3084797 0.055560756
-0.14520511 -0.30856794 0.0555153
-0.14538041 -0.30865961 0.055413365
-0.14556324 -0.30873492 0.055445164
-0.14574245 -0.30881271 0.055449307
-0.14594045 -0.30890146 0.055434946
-0.14609982 -0.30897799 0.055388406
-0.14627621 -0.30905437 0.055393696
-0.14644721 -0.3091352 0.055352893
-0.1466219 -0.30921373 0.055338591
-0.14682095 -0.30929327 0.055389956
-0.14698797 -0.30938011 0.055296112
-0.14717183 -0.3094596 0.055302542
-0.14734705 -0.30954003 0.055276714
-0.14753996 -0.30962417 0.055278514
-0.14772047 -0.30970779 0.055246901
-0.14790577 -0.30978554 0.055269476
-0.14806432 -0.3098641 0.055206791
-0.14824179 -0.30993909 0.055224769
-0.14842767 -0.3100259 0.055187382
-0.14863294 -0.31011105 0.055219121
-0.14879379 -0.31018943 0.055164505
-0.14894986 -0.31026995 0.055081069
-0.14913796 -0.31034437 0.05513477
-0.14932081 -0.31042629 0.055121601
-0.14950921 -0.31051132 0.055103801
-0.14969555 -0.3105931 0.055102158
-0.14988811 -0.31067792 0.055098191
-0.15006107 -0.31075382 0.055096582
-0.15022209 -0.31083229 0.055041969
-0.1504 -0.31091306 0.05502189
-0.15057459 -0.31099579 0.054978766
-0.15077507 -0.31108034 0.055000141
-0.1509764 -0.31116834 0.055000767
-0.15115809 -0.31124908 0.054992214
-0.15133029 -0.31132701 0.054974467
-0.1515072 -0.31141141 0.054926723
-0.15166363 -0.31148684 0.054879032
-0.1518537 -0.31156567 0.054908514
-0.15204535 -0.31164452 0.0549426
-0.15221107 -0.31172621 0.054879893
-0.15239631 -0.31181037 0.054858647
-0.1525858 -0.31189117 0.054873139
-0.15278402 -0.31197983 0.054859929
-0.1529451 -0.31205848 0.054804154
-0.15312597 -0.31213969 0.054789834
-0.15330097 -0.31221956 0.054767467
-0.15349072 -0.31230059 0.0547808
-0.15368116 -0.31238332 0.054784916
-0.15385234 -0.31246656 0.054727964
-0.15403992 -0.31254786 0.054733235
-0.15421522 -0.3126263 0.054721236
-0.15437627 -0.31271136 0.054621648
-0.15459317 -0.31278756 0.054749068
-0.15478021 -0.31287539 0.05470822
-0.15494379 -0.31295887 0.054627061
-0.15512112 -0.31303903 0.054609306
-0.15531233 -0.31312531 0.054591503
-0.15549409 -0.31320864 0.054565653
-0.15568164 -0.31329194 0.054557089
-0.1557969 -0.31336337 0.054413795
-0.15604779 -0.31344652 0.054595321
-0.15623961 -0.3135376 0.054546386
-0.15640645 -0.31361353 0.054526348
-0.15660849 -0.31370169 0.054528117
-0.15678546 -0.31378677 0.054475762
-0.15695521 -0.31386432 0.054453406
-0.15712033 -0.31394187 0.054417215
-0.15730768 -0.31402561 0.054405194
-0.15752248 -0.31410968 0.054472659
-0.15771003 -0.31420246 0.054399524
-0.15788992 -0.31428477 0.054374833
-0.15808392 -0.31436735 0.054390464
-0.1582624 -0.31444973 0.054361157
-0.15845589 -0.31453243 0.054374494
-0.15862866 -0.31461334 0.054338284
-0.15879506 -0.3147043 0.054214463
-0.15900856 -0.31479052 0.054263487
-0.15918201 -0.31486428 0.054278016
-0.15934825 -0.31494078 0.054252215
-0.15952012 -0.31502467 0.054192949
-0.15973365 -0.31510836 0.05425927
-0.15985918 -0.31518802 0.054090582
-0.16009815 -0.31527981 0.05417759
-0.16027102 -0.31535956 0.054149456
-0.16048244 -0.31544638 0.054188106
-0.16066769 -0.31553376 0.054144952
-0.16085626 -0.31561142 0.054177888
-0.16107523 -0.31570867 0.054168086
-0.16124552 -0.31579134 0.054112285
-0.16142482 -0.31587443 0.054080687
-0.16159414 -0.31594872 0.054079082
-0.16179149 -0.31603548 0.054076254
-0.16195282 -0.31611645 0.054005496
-0.16217501 -0.31621003 0.054030266
-0.1623276 -0.31628785 0.053954922
-0.16251817 -0.3163662 0.053989008
-0.16272111 -0.31645489 0.053989626
-0.16292068 -0.31654212 0.053990249
-0.16307823 -0.31661484 0.05396447
-0.16327725 -0.31670487 0.053944334
-0.16340916 -0.3167775 0.053842515
-0.16365035 -0.3168579 0.054013692
-0.1638301 -0.31695235 0.053905975
-0.16406009 -0.31705526 0.053890385
-0.16423757 -0.31713212 0.053895675
-0.078658022 -0.28331032 0.029230054
-0.078837141 -0.28340277 0.029133886
-0.079017788 -0.28349355 0.029053861
-0.079197675 -0.28358552 0.02896346
-0.079372302 -0.28367043 0.028905367
-0.07953693 -0.28374863 0.028863441
-0.07970424 -0.28382796 0.028821507
-0.07987158 -0.2839075 0.028778423
-0.080041856 -0.28398848 0.02873417
-0.080203824 -0.28406262 0.028711857
-0.080366418 -0.28413752 0.028686084
-0.080525324 -0.28420863 0.028675307
-0.080689371 -0.28428352 0.028654138
-0.080847159 -0.28435361 0.028646823
-0.081008226 -0.2844255 0.028637191
-0.081162564 -0.28449392 0.028631035
-0.081318632 -0.28456056 0.028642185
-0.081476644 -0.28463125 0.02863141
-0.081627503 -0.28469613 0.028639102
-0.081782743 -0.28476208 0.028652553
-0.08193171 -0.28482309 0.028681006
-0.082079612 -0.28488293 0.028714083
-0.082229242 -0.28494471 0.028739076
-0.082377441 -0.28500301 0.028783681
-0.082518056 -0.28505477 0.028850213
-0.082667753 -0.28511474 0.028887894
-0.082806706 -0.28516459 0.028962506
-0.082947582 -0.28521258 0.029055562
-0.083083779 -0.28525713 0.029157849
-0.083223507 -0.28530768 0.029230151
-0.083362117 -0.28535482 0.029322065
-0.083502501 -0.28540394 0.029405894
-0.083639726 -0.28544727 0.029519716
-0.083773032 -0.2854901 0.029625472
-0.083909363 -0.2855342 0.029731227
-0.084041372 -0.28557527 0.029845063
-0.084178954 -0.28562063 0.029946197
-0.084311984 -0.28566262 0.030056572
-0.08444421 -0.28570139 0.030186556
-0.084580153 -0.28574011 0.030328058
-0.084693357 -0.28575584 0.030558407
-0.084819749 -0.2857914 0.030693015
-0.084945507 -0.28582379 0.030847233
-0.08506716 -0.285851 0.031024516
-0.085191391 -0.28587884 0.031205256
-0.081175894 -0.27975389 0.06098035
-0.081376195 -0.27984786 0.060937189
-0.081582867 -0.27994713 0.060876697
-0.081764162 -0.28001723 0.06093967
-0.08196862 -0.28011402 0.060889572
-0.082169861 -0.2802099 0.060836025
-0.082371041 -0.28030291 0.060802076
-0.082558125 -0.28038076 0.060829289
-0.082760505 -0.28047565 0.060786106
-0.082956225 -0.28056505 0.060760252
-0.083147481 -0.28064558 0.06078168
-0.083345354 -0.28073815 0.060740821
-0.083529338 -0.2808187 0.060740363
-0.083738536 -0.28091726 0.060692564
-0.083920628 -0.2809858 0.060768217
-0.084125504 -0.28108853 0.060678907
-0.084307328 -0.28116664 0.060688827
-0.084472418 -0.28123504 0.060714938
-0.084711686 -0.28136602 0.060535595
-0.084904544 -0.28143981 0.060607761
-0.085103117 -0.28153166 0.060573816
-0.08528889 -0.28160912 0.060599886
-0.085492171 -0.28170794 0.060532488
-0.085684434 -0.28179482 0.060513556
-0.08587382 -0.28187776 0.060513087
-0.086066924 -0.28196263 0.060510293
-0.086255908 -0.28204522 0.060510971
-0.086460233 -0.28215024 0.060404364
-0.086641997 -0.28221902 0.060477711
-0.086822331 -0.28229645 0.060487643
-0.087028101 -0.28240076 0.060390264
-0.087221295 -0.28248298 0.060405917
-0.087411888 -0.28256509 0.060414672
-0.087600484 -0.282648 0.060411893
-0.087794259 -0.28273892 0.060369894
-0.087987989 -0.28283003 0.060326733
-0.088177845 -0.28291535 0.060311273
-0.088367231 -0.28299624 0.060324639
-0.088555351 -0.28307524 0.060347229
-0.088748276 -0.28316578 0.06030523
-0.088945642 -0.28325966 0.060254
-0.089133635 -0.28334281 0.060247757
-0.089313857 -0.28342173 0.060247313
-0.089514703 -0.28351778 0.060191449
-0.089704059 -0.28359953 0.060199056
-0.089889184 -0.28367853 0.060212422
-0.090077147 -0.28376237 0.060201578
-0.090236485 -0.2838411 0.060140058
-0.090432085 -0.28392524 0.060149945
-0.090641171 -0.28401932 0.060132131
-0.090837508 -0.28411373 0.060073979
-0.091005631 -0.28417754 0.060140446
-0.09121348 -0.28427449 0.060099557
-0.091403902 -0.28436378 0.06005872
-0.091593891 -0.28444797 0.060051329
-0.091781706 -0.28453308 0.06003125
-0.091974944 -0.28462344 0.059991553
-0.09215682 -0.28470293 0.059992254
-0.092290863 -0.28475231 0.060055345
-0.09251263 -0.28485718 0.060001742
-0.092717811 -0.28494617 0.060006998
-0.092908531 -0.28503782 0.059951171
-0.093096256 -0.28512406 0.059923016
-0.093280181 -0.28520831 0.059897192
-0.093448259 -0.28528261 0.059892163
-0.093658388 -0.28537697 0.059875485
-0.093844235 -0.28546038 0.059861183
-0.094029412 -0.28554264 0.059852645
-0.094216213 -0.28562832 0.059825655
-0.094400018 -0.28570813 0.059829805
-0.094581969 -0.28580084 0.059740558
-0.094766445 -0.28588244 0.05973433
-0.094953686 -0.28595868 0.059773069
-0.095140345 -0.28603941 0.059779525
-0.095334418 -0.28613621 0.059698313
-0.095517345 -0.28621513 0.059705928
-0.095694229 -0.28629884 0.059662811
-0.095869057 -0.28637218 0.059684288
-0.096073076 -0.28646201 0.059680317
-0.096251294 -0.28654954 0.059615295
-0.096426889 -0.28661862 0.059667904
-0.096618839 -0.28670657 0.059640899
-0.096802995 -0.28678942 0.059625443
-0.096997246 -0.28688341 0.059563838
-0.097180277 -0.28697082 0.059513792
-0.097332969 -0.28703177 0.059553772
-0.097546369 -0.28712589 0.059548624
-0.097732529 -0.28721502 0.059496269
-0.097913869 -0.28729934 0.059462368
-0.098093502 -0.2873795 0.059451543
-0.098249972 -0.28745073 0.059432697
-0.098460466 -0.28754592 0.059411421
-0.098645091 -0.2876249 0.059423637
-0.098823234 -0.28769377 0.059485465
-0.09901081 -0.28778929 0.059393894
-0.099191979 -0.28787521 0.059348464
-0.099340245 -0.28793216 0.059402294
-0.099562258 -0.2880463 0.059286419
-0.09973073 -0.28812107 0.059279077
-0.099903643 -0.28819188 0.059312083
-0.10010556 -0.28828114 0.059305817
-0.10027687 -0.28835616 0.059305385
-0.10045844 -0.28844598 0.059234589
-0.10064194 -0.28852329 0.059254888
-0.10081142 -0.28860274 0.05921872
-0.10099456 -0.28868935 0.05917443
-0.10118432 -0.28876856 0.059200481
-0.10134399 -0.28884557 0.059151649
-0.10155538 -0.28892848 0.059216846
-0.10173124 -0.28901139 0.05917605
-0.10191259 -0.28909302 0.059160601
-0.10206276 -0.28915742 0.059169456
-0.10227804 -0.28925624 0.059137776
-0.10245983 -0.28934073 0.05910388
-0.10263995 -0.28941843 0.059111502
-0.10281817 -0.28948748 0.059172168
-0.10300103 -0.28957805 0.059100218
-0.10318195 -0.28966016 0.059080161
-0.10336241 -0.28974035 0.059071638
-0.1035428 -0.28982052 0.059063122
-0.10372009 -0.28990084 0.059044227
-0.10390116 -0.28998554 0.059006862
-0.10408217 -0.29007071 0.058966048
-0.10424965 -0.29014948 0.058928736
-0.10441957 -0.29022488 0.058921386
-0.10462175 -0.29030833 0.058955472
-0.10478908 -0.29038787 0.058912389
-0.10496932 -0.29047135 0.058880799
-0.10514273 -0.29055119 0.058853842
-0.10532575 -0.29063335 0.058839541
-0.10551845 -0.29071805 0.058836758
-0.10568427 -0.29078862 0.05885018
-0.10585085 -0.29086682 0.058814019
-0.1060177 -0.29094917 0.058750167
-0.106223 -0.291035 0.058777336
-0.10638905 -0.29111025 0.058759622
-0.10657836 -0.29119754 0.058729164
-0.10677029 -0.29127666 0.058762118
-0.10694965 -0.29136214 0.058714394
-0.10712154 -0.29142946 0.058768161
-0.10727753 -0.29150471 0.058720499
-0.10748325 -0.29160866 0.058625415
-0.10765526 -0.29168141 0.058642291
-0.10782063 -0.29174876 0.058676466
-0.10800265 -0.2918376 0.058613732
-0.10818454 -0.29191333 0.058639809
-0.10837617 -0.29201061 0.058548227
-0.10854485 -0.29207602 0.058605462
-0.10872007 -0.2921502 0.058622316
-0.10890506 -0.29223341 0.05860687
-0.10907307 -0.29231814 0.058530338
-0.10924456 -0.29239711 0.058503382
-0.10944311 -0.29247525 0.058562852
-0.10959129 -0.29254571 0.05852443
-0.10976257 -0.29262495 0.058495164
-0.10993376 -0.29270414 0.058465905
-0.1101108 -0.29279298 0.0583882
-0.11030921 -0.29287326 0.058432676
-0.1104833 -0.29295489 0.058395341
-0.11066164 -0.29302943 0.058419116
-0.11085875 -0.29312047 0.058386326
-0.11101975 -0.29319385 0.058366317
-0.11121089 -0.29327652 0.058372758
-0.11136264 -0.29334095 0.058386218
-0.11154463 -0.29343584 0.058281973
-0.11172243 -0.29351285 0.0582873
-0.1119094 -0.29359779 0.058266073
-0.11209358 -0.2936784 0.058265612
-0.1122707 -0.29375833 0.058249027
-0.11242647 -0.29382029 0.058291301
-0.11261975 -0.29390848 0.058266602
-0.11277343 -0.29397964 0.058239691
-0.11295571 -0.29406741 0.058185041
-0.11313257 -0.29414722 0.058168452
-0.11332274 -0.29423183 0.058158752
-0.1134885 -0.29429817 0.058201008
-0.11366314 -0.29437244 0.058215551
-0.11383642 -0.29446387 0.058109034
-0.11401072 -0.29452682 0.058199696
-0.11417264 -0.29459417 0.058223508
-0.11434332 -0.29470357 0.057986677
-0.11454448 -0.29478776 0.058012694
-0.11471778 -0.29485452 0.058074538
-0.11489689 -0.29494765 0.057973761
-0.11509336 -0.29503435 0.05796865
-0.11527903 -0.29510924 0.058012009
-0.11544647 -0.29518187 0.058016196
-0.11559945 -0.29525205 0.057993911
-0.11580677 -0.29534978 0.057946108
-0.11597444 -0.29542169 0.057956073
-0.11612639 -0.29549378 0.057917628
-0.11630568 -0.29557467 0.05790104
-0.11648851 -0.29564777 0.057947867
-0.11665095 -0.29573074 0.05786673
-0.11683583 -0.29581609 0.057836287
-0.11701087 -0.29588106 0.057915419
-0.11718336 -0.29596707 0.057843488
-0.1173645 -0.29604387 0.057860333
-0.11754368 -0.29613197 0.05779415
-0.11771427 -0.29619837 0.05785023
-0.11786624 -0.29628369 0.057721846
-0.11805661 -0.2963728 0.057682164
-0.11826031 -0.29645303 0.057742774
-0.1184084 -0.29652295 0.057707813
-0.11859992 -0.29660308 0.057732698
-0.11878131 -0.29668623 0.057706874
-0.11896275 -0.29676262 0.05772718
-0.11912902 -0.29683661 0.057718694
-0.11929812 -0.29691893 0.057661757
-0.11947939 -0.29700813 0.057594415
-0.11966118 -0.297084 0.057619333
-0.1198324 -0.29715678 0.057633899
-0.12001396 -0.29723915 0.057613838
-0.12017548 -0.29731342 0.057589218
-0.12035224 -0.29739624 0.057551876
-0.12053788 -0.29747871 0.057543337
-0.12072432 -0.29756576 0.057505965
-0.12087797 -0.29762745 0.057543639
-0.12106853 -0.29771477 0.057516638
-0.12124554 -0.29779685 0.057485055
-0.12140021 -0.29786286 0.057496205
-0.12158801 -0.29795322 0.057440378
-0.12176114 -0.29802397 0.057474542
-0.12194086 -0.29810789 0.057438344
-0.12212724 -0.29819441 0.057404436
-0.122302 -0.29826856 0.057420142
-0.12246218 -0.2983436 0.057386294
-0.12263752 -0.29842207 0.057374325
-0.12282174 -0.29850578 0.057353109
-0.12300324 -0.2985827 0.057369955
-0.12317283 -0.29866222 0.057333775
-0.12334246 -0.29874155 0.057298761
-0.12353818 -0.29882777 0.057294816
-0.1237 -0.29890081 0.057279408
-0.12386359 -0.29897669 0.057250172
-0.12403442 -0.29905468 0.057227835
-0.1241964 -0.29913628 0.057154782
-0.12440872 -0.29922062 0.057213057
-0.12460211 -0.29930884 0.057188358
-0.1247616 -0.29937953 0.057182189
-0.12494465 -0.29945967 0.057181731
-0.12511438 -0.29953432 0.057179004
-0.12528268 -0.29961428 0.057135917
-0.12545225 -0.29969311 0.057104357
-0.12562071 -0.29976872 0.057091244
-0.12582728 -0.29986238 0.057068817
-0.12599169 -0.29992929 0.057103001
-0.12616074 -0.30000451 0.057094503
-0.12634145 -0.3000904 0.057047926
-0.12650943 -0.30015871 0.057083257
-0.12670866 -0.3002539 0.057028554
-0.12687327 -0.30032849 0.057010844
-0.1270337 -0.30039859 0.057011601
-0.12722465 -0.30048084 0.057020344
-0.12739484 -0.30056262 0.056970332
-0.12756088 -0.30063263 0.05698837
-0.12774205 -0.30071786 0.056947559
-0.12792361 -0.30079922 0.056934409
-0.12809724 -0.3008751 0.056935132
-0.12826419 -0.30095866 0.056863222
-0.12844044 -0.30103636 0.056859314
-0.1286159 -0.30111453 0.056849655
-0.12879808 -0.3011921 0.056864191
-0.12896377 -0.30127615 0.056785356
-0.12914042 -0.3013503 0.056806825
-0.12929843 -0.30142862 0.056744158
-0.12947288 -0.30150738 0.056727573
-0.12964317 -0.30158192 0.056727152
-0.12983015 -0.30165705 0.056772809
-0.13001212 -0.30173501 0.056783885
-0.13018721 -0.30181676 0.056748848
-0.13036612 -0.30189645 0.056739174
-0.13055806 -0.3019788 0.056750223
-0.13074587 -0.30206645 0.056712855
-0.1309157 -0.30214149 0.056707814
-0.13106962 -0.30221835 0.056642853
-0.13124983 -0.30230048 0.05662049
-0.13143505 -0.30237415 0.05667077
-0.13160351 -0.30244994 0.05665651
-0.13179517 -0.30253571 0.056643341
-0.13197894 -0.30261922 0.056622129
-0.13215673 -0.3026996 0.056604378
-0.13232645 -0.30278069 0.05655783
-0.1325081 -0.30286512 0.056523934
-0.13266845 -0.30293873 0.056500465
-0.13283654 -0.3030147 0.056483906
-0.13302387 -0.30309385 0.056503035
-0.13319983 -0.30317783 0.056455318
-0.13334973 -0.30325851 0.056352314
-0.13354914 -0.30333838 0.056402553
-0.13371712 -0.30341718 0.056366377
-0.1338926 -0.30349299 0.056372862
-0.13408153 -0.30357453 0.056380462
-0.13425034 -0.30365032 0.056367356
-0.13442467 -0.30373478 0.056311566
-0.134599 -0.30380586 0.056346878
-0.134782 -0.30388448 0.056356791
-0.13495173 -0.30396792 0.056294095
-0.13513888 -0.3040399 0.056361668
-0.13531582 -0.30412599 0.05630241
-0.13549262 -0.3042095 0.056260459
-0.13566513 -0.30428419 0.056265794
-0.13585506 -0.30436581 0.056275696
-0.13601778 -0.30444637 0.056211859
-0.13619898 -0.30452842 0.056192949
-0.13638262 -0.3045997 0.056254763
-0.13656244 -0.30467978 0.056245089
-0.13672918 -0.30476397 0.056168564
-0.13690092 -0.30483916 0.056168132
-0.13707063 -0.3049199 0.05612389
-0.13725519 -0.30500105 0.056121122
-0.13743791 -0.30508038 0.056125276
-0.13760877 -0.30516076 0.056086794
-0.13777432 -0.30522835 0.056119822
-0.13798818 -0.30529916 0.056274965
-0.13815418 -0.30539992 0.05608312
-0.13829845 -0.30547816 0.055980127
-0.13849427 -0.30556118 0.055998087
-0.13866341 -0.30564201 0.055951536
-0.13883334 -0.3057203 0.055924594
-0.13899703 -0.3057979 0.055883817
-0.1391913 -0.30587924 0.055908699
-0.13937303 -0.30595696 0.055920936
-0.1395631 -0.30603275 0.05597119
-0.13973325 -0.30611113 0.055944245
-0.13991162 -0.30619431 0.055909202
-0.14008512 -0.30627415 0.055882245
-0.14028083 -0.30636004 0.055880606
-0.14045362 -0.30643788 0.055865183
-0.14062771 -0.30651766 0.05584053
-0.14079067 -0.30659986 0.055766311
-0.14095725 -0.30667904 0.055723228
-0.1411494 -0.30675507 0.055778101
-0.14134026 -0.30683574 0.05579723
-0.14148204 -0.30691999 0.055645805
-0.14166616 -0.30699569 0.055678792
-0.14184707 -0.30707425 0.055682942
-0.14203113 -0.30715433 0.055685941
-0.14222181 -0.30723324 0.0557166
-0.14240149 -0.30731428 0.055700012
-0.14259379 -0.30739307 0.055736434
-0.14277346 -0.30748039 0.055677168
-0.14293581 -0.30755842 0.055629477
-0.14312178 -0.30764458 0.055596732
-0.14328521 -0.30772239 0.055553645
-0.14347105 -0.3077985 0.055588927
-0.14366376 -0.30787766 0.055624202
-0.1438385 -0.30795974 0.055585705
-0.14400338 -0.30804732 0.055480346
-0.14419952 -0.30812612 0.055528298
-0.14436832 -0.30820712 0.055479441
-0.14453876 -0.30828005 0.055490538
-0.14470482 -0.30835953 0.055443998
-0.14485329 -0.30844536 0.055301785
-0.14503516 -0.30852449 0.055304792
-0.1452482 -0.30860525 0.055389591
-0.14545679 -0.30869251 0.055416752
-0.14562877 -0.3087751 0.055366736
-0.14580069 -0.30884817 0.055381291
-0.14597748 -0.30892828 0.055362403
-0.14616196 -0.30901125 0.055346947
-0.14632086 -0.30908981 0.055285431
-0.14650783 -0.30916882 0.055304561
-0.14668971 -0.30925402 0.055266056
-0.14685169 -0.30933037 0.055228747
-0.14707634 -0.30941284 0.055336587
-0.14724942 -0.30949908 0.055264652
-0.14742251 -0.30957437 0.055267677
-0.14759749 -0.30965862 0.055215351
-0.14779341 -0.30973899 0.055251755
-0.14795728 -0.30981529 0.055220209
-0.1481539 -0.30989936 0.055233561
-0.1483101 -0.30998179 0.055137448
-0.14849284 -0.31005827 0.055161212
-0.14868945 -0.31014249 0.055173405
-0.14886016 -0.31022367 0.055129152
-0.14904323 -0.31030381 0.055128697
-0.14920773 -0.31038025 0.055098299
-0.14939284 -0.31046385 0.05508054
-0.14957249 -0.31054962 0.055031657
-0.14974266 -0.31062394 0.055032387
-0.1499297 -0.31070924 0.055008851
-0.15010111 -0.31078529 0.055001501
-0.15029058 -0.31086707 0.055009108
-0.15047689 -0.31095424 0.054970581
-0.15065061 -0.31103367 0.054947086
-0.15083632 -0.31111246 0.05496392
-0.15101872 -0.31119657 0.054934632
-0.15120329 -0.31127721 0.054935321
-0.15137145 -0.31135708 0.054892238
-0.15156959 -0.31144217 0.054903269
-0.1517466 -0.31152001 0.05490052
-0.15189898 -0.31159738 0.054827482
-0.15207507 -0.31167534 0.054821279
-0.15226178 -0.31175944 0.054804668
-0.15245956 -0.31183827 0.054857221
-0.15263361 -0.31192464 0.054787595
-0.15280868 -0.31200281 0.054776773
-0.15300551 -0.31209001 0.05476936
-0.15318978 -0.31216797 0.054787353
-0.15337151 -0.31225416 0.054741926
-0.15354027 -0.31233108 0.054720744
-0.15371414 -0.3124111 0.054693788
-0.15391377 -0.31249532 0.054715194
-0.15408231 -0.31257552 0.05467096
-0.15426035 -0.31265873 0.054634765
-0.15445569 -0.31274477 0.054630816
-0.15460004 -0.31281763 0.054564718
-0.15482481 -0.31289861 0.054682937
-0.1550229 -0.31300041 0.054579798
-0.15518476 -0.31307617 0.054545961
-0.15535794 -0.31315032 0.054557059
-0.15555555 -0.31323668 0.054557715
-0.15572533 -0.31331712 0.054515772
-0.15588409 -0.31340218 0.05440928
-0.15606689 -0.31347647 0.054448031
-0.15627111 -0.31355998 0.054487884
-0.15645543 -0.31364658 0.054447062
-0.15666769 -0.31373787 0.054458063
-0.15683673 -0.31381693 0.054423042
-0.15702821 -0.3139067 0.054382201
-0.15718165 -0.31397524 0.05437259
-0.1573706 -0.31405458 0.054395184
-0.15756363 -0.31413555 0.054418918
-0.15777393 -0.31423017 0.054401092
-0.15794733 -0.31431693 0.054326855
-0.1581037 -0.31439015 0.054294173
-0.15830806 -0.31447303 0.054338641
-0.15847781 -0.31455243 0.054303616
-0.15868661 -0.31463996 0.054329619
-0.15887268 -0.31472853 0.054280713
-0.15908012 -0.31482056 0.054272123
-0.15924259 -0.31489846 0.054225594
-0.1594127 -0.31497514 0.054210175
-0.15959674 -0.31506231 0.054164734
-0.15976578 -0.31513616 0.054165468
-0.1599981 -0.31523636 0.054175265
-0.16016227 -0.31530875 0.054171395
-0.16030927 -0.31538343 0.054100681
-0.16052063 -0.31547177 0.054128982
-0.16071028 -0.31556359 0.054068539
-0.16088419 -0.31563652 0.054090016
-0.16108704 -0.31572756 0.054074522
-0.16128384 -0.31581557 0.054061338
-0.16147423 -0.31589082 0.054116216
-0.16162674 -0.31597283 0.054012053
-0.16183558 -0.31606156 0.054029971
-0.1620165 -0.31614214 0.054020297
-0.16223958 -0.31623864 0.054027811
-0.16239586 -0.31631669 0.053961691
-0.16256867 -0.31639287 0.053957794
-0.16275729 -0.31647953 0.053929649
-0.16294599 -0.31656486 0.053910721
-0.16311347 -0.31664497 0.053864177
-0.16331126 -0.31672952 0.053877518
-0.16344549 -0.31680235 0.053781465
-0.16362877 -0.3168821 0.053784467
-0.16385244 -0.31697783 0.053798899
-0.16409177 -0.31707194 0.053870957
-0.16425222 -0.31714916 0.053823274
