# .PCD v0.7 - Point Cloud Data file format
VERSION 0.7
FIELDS x y z
SIZE 4 4 4
TYPE F F F
COUNT 1 1 1
WIDTH 914
HEIGHT 1
VIEWPOINT 0 0 0 1 0 0 0
POINTS 914
DATA ascii
-0.34224495 -0.2740187 0.062935255
-0.3424907 -0.2739962 0.062876515
-0.34274063 -0.27397332 0.062816598
-0.34294403 -0.27394074 0.062869862
-0.34318012 -0.27391469 0.062845752
-0.34344777 -0.27389657 0.062735036
-0.34368116 -0.27387166 0.062705167
-0.34385386 -0.27383012 0.062851936
-0.34408766 -0.27380389 0.062831283
-0.34430957 -0.27377626 0.062831447
-0.34453455 -0.27374798 0.06283389
-0.34479004 -0.27372915 0.062739365
-0.34505251 -0.27371073 0.062635593
-0.34527165 -0.27368283 0.062640369
-0.34548616 -0.27366325 0.062588677
-0.34570822 -0.27362522 0.062664911
-0.34591085 -0.27360582 0.06262251
-0.34616181 -0.27357873 0.062592559
-0.34639302 -0.27354968 0.062594973
-0.34664002 -0.27352652 0.062539682
-0.34687299 -0.27350134 0.062512122
-0.3470965 -0.27347371 0.062511116
-0.34734085 -0.27345183 0.062448923
-0.34759337 -0.27343401 0.062349804
-0.34780312 -0.27340287 0.0623869
-0.34803104 -0.27337846 0.062358208
-0.34822065 -0.27334175 0.062454183
-0.3484773 -0.27332562 0.062338904
-0.34869114 -0.27329588 0.062362157
-0.34889004 -0.27326354 0.062417742
-0.34911287 -0.27323645 0.062413279
-0.34934556 -0.27321398 0.062366121
-0.34958425 -0.27319172 0.062312022
-0.34981215 -0.27316809 0.062277574
-0.3500438 -0.27314404 0.062243097
-0.35026354 -0.27311653 0.062244415
-0.35049057 -0.27309129 0.062222641
-0.35070926 -0.27306533 0.062213592
-0.35092291 -0.27303624 0.062232226
-0.3511405 -0.2730101 0.062225483
-0.35136485 -0.27298442 0.062209487
-0.35160759 -0.27296624 0.062121935
-0.35183173 -0.2729407 0.062104799
-0.35204265 -0.27291289 0.062116519
-0.35224986 -0.27288222 0.062152479
-0.35250029 -0.27286702 0.062036075
-0.35272709 -0.27284274 0.06200739
-0.35291564 -0.27280807 0.06208954
-0.35312408 -0.27277803 0.062119722
-0.35335875 -0.27275831 0.062050663
-0.35359979 -0.27273905 0.061972335
-0.35379642 -0.27270716 0.062026784
-0.35399288 -0.2726734 0.062095061
-0.35424662 -0.27265874 0.061971731
-0.35447371 -0.2726354 0.061936125
-0.35471338 -0.2726182 0.061843984
-0.35493752 -0.27259412 0.061816454
-0.35514089 -0.27256486 0.061845515
-0.35534915 -0.27253547 0.061871096
-0.3555752 -0.27251413 0.061821662
-0.35578418 -0.27248514 0.061843768
-0.35601068 -0.27246422 0.061790887
-0.35623226 -0.27243981 0.06176798
-0.35644904 -0.2724157 0.061747402
-0.3566587 -0.27238724 0.061764911
-0.35688913 -0.27236819 0.061694711
-0.35709783 -0.27233955 0.061714523
-0.35732186 -0.27231845 0.061665095
-0.35753509 -0.2722916 0.061667595
-0.35775295 -0.27226657 0.06165278
-0.35796842 -0.2722407 0.061646044
-0.35810602 -0.2722109 0.061738797
-0.35836178 -0.27220231 0.061569344
-0.35862944 -0.27217314 0.061539322
-0.35884443 -0.27214751 0.061531439
-0.35908228 -0.27213275 0.061423168
-0.3592771 -0.27209949 0.061489142
-0.35947454 -0.27206925 0.061530918
-0.35967883 -0.27203971 0.061561108
-0.35991701 -0.27202368 0.06146206
-0.36011803 -0.27199295 0.061503801
-0.3603394 -0.27197254 0.061452091
-0.3605459 -0.27194414 0.061471913
-0.36076477 -0.27192292 0.061428271
-0.36098751 -0.27190137 0.06138346
-0.36120206 -0.2718786 0.061354831
-0.36141935 -0.27185506 0.061329648
-0.36161727 -0.27182552 0.061365649
-0.36185297 -0.27180994 0.06126545
-0.36205062 -0.27178043 0.061301447
-0.36227316 -0.27175954 0.061252035
-0.36248296 -0.27173328 0.061253391
-0.36268303 -0.27170286 0.061293989
-0.36290985 -0.27168632 0.061208822
-0.36311781 -0.27165949 0.061215952
-0.36332491 -0.27163449 0.061210409
-0.36353678 -0.27160954 0.061200239
-0.36378905 -0.27160516 0.061003137
-0.36394781 -0.27155635 0.061215673
-0.36417252 -0.27153975 0.061132826
-0.36438534 -0.27151564 0.061115727
-0.36459076 -0.27148819 0.061129786
-0.36480144 -0.27146325 0.061120763
-0.3650198 -0.27144426 0.061060991
-0.36522746 -0.27141812 0.061063517
-0.36543387 -0.27139369 0.061054524
-0.36565092 -0.2713722 0.061014347
-0.36583969 -0.27133939 0.061082665
-0.36599523 -0.27131811 0.061096951
-0.36626995 -0.27129737 0.060998887
-0.36649027 -0.27127802 0.060940254
-0.36669073 -0.27125117 0.06095434
-0.36689985 -0.27122641 0.060945332
-0.36711878 -0.27120912 0.060872875
-0.36732668 -0.27118877 0.060832743
-0.36750862 -0.27115506 0.060913764
-0.36774689 -0.27113616 0.060835458
-0.3679527 -0.27111259 0.060820706
-0.36816621 -0.27109075 0.060786314
-0.36837387 -0.27106839 0.060761172
-0.36857322 -0.27103916 0.060793713
-0.36878365 -0.27101851 0.060753565
-0.3689906 -0.27099353 0.060748018
-0.36919579 -0.2709702 0.060732119
-0.36939692 -0.27094218 0.060754262
-0.36960578 -0.27092108 0.060718738
-0.36981773 -0.27089927 0.060685508
-0.37002075 -0.2708751 0.060677677
-0.37022987 -0.27085191 0.06065714
-0.37043935 -0.2708317 0.060614701
-0.37064591 -0.27080727 0.060605697
-0.37084532 -0.27078134 0.060614027
-0.37105799 -0.27076069 0.060571574
-0.37123108 -0.2707434 0.060540825
-0.37147036 -0.27071473 0.060532823
-0.37167299 -0.2706911 0.060521539
-0.37187514 -0.27066451 0.060532156
-0.37208295 -0.27064151 0.060511626
-0.37228584 -0.27061829 0.060496882
-0.37249398 -0.2705957 0.060472887
-0.37271535 -0.27058175 0.06037391
-0.37290198 -0.2705484 0.060447998
-0.37309316 -0.27051798 0.060496707
-0.37330922 -0.27050388 0.060403518
-0.37351081 -0.2704775 0.060412973
-0.37371957 -0.27045894 0.060359016
-0.37393397 -0.27044141 0.060292341
-0.37412429 -0.27041063 0.060344517
-0.37430394 -0.27039045 0.060328715
-0.37451896 -0.27037081 0.06027703
-0.3747178 -0.27034605 0.060277283
-0.37493923 -0.27031898 0.06027399
-0.37514797 -0.27029836 0.060235001
-0.37534577 -0.27027312 0.060239881
-0.37554514 -0.2702491 0.060234368
-0.37574482 -0.27022535 0.06022656
-0.37594968 -0.27020237 0.06020835
-0.37615597 -0.2701838 0.060156688
-0.3763566 -0.27015787 0.060163863
-0.37654695 -0.27013716 0.060142256
-0.37673399 -0.27011073 0.060165618
-0.37694874 -0.2700927 0.060102407
-0.37714469 -0.27006671 0.060114201
-0.37733066 -0.27004293 0.060119126
-0.37754148 -0.27002221 0.060078993
-0.37776524 -0.26999849 0.060049169
-0.37795991 -0.26998559 0.059966445
-0.37815642 -0.26995704 0.059996687
-0.37835813 -0.26993635 0.059964649
-0.37854299 -0.26990861 0.059999552
-0.37875986 -0.26988682 0.059961684
-0.37895802 -0.26986703 0.059926219
-0.37914541 -0.26984528 0.059914999
-0.37934297 -0.26982525 0.059881829
-0.37953979 -0.2697973 0.059907462
-0.37974989 -0.26977763 0.059860401
-0.37993887 -0.26975772 0.059834193
-0.38016748 -0.26972881 0.059837777
-0.38034445 -0.26970944 0.059818529
-0.38053176 -0.26968437 0.05983153
-0.38074565 -0.26965728 0.059835173
-0.38095614 -0.26963899 0.059777744
-0.38115552 -0.26961797 0.059750326
-0.38134798 -0.2695902 0.059778281
-0.38151285 -0.26956746 0.059794828
-0.38173085 -0.26954916 0.059730452
-0.38192797 -0.2695221 0.059749156
-0.38214403 -0.26950642 0.05966749
-0.38231909 -0.26948619 0.059656337
-0.38252029 -0.26945943 0.059669256
-0.38270506 -0.26943672 0.059667274
-0.38288268 -0.26941064 0.059696443
-0.38310263 -0.26940489 0.059538685
-0.3833161 -0.26937422 0.059568845
-0.38352007 -0.26935107 0.059552949
-0.38370988 -0.26933011 0.059533648
-0.38390118 -0.26931101 0.059499353
-0.38410094 -0.26927844 0.059556093
-0.38428029 -0.26925954 0.059531078
-0.38445058 -0.26923454 0.059559137
-0.38466367 -0.26921341 0.05952014
-0.38486549 -0.26918828 0.059520371
-0.38507739 -0.2691761 0.059416831
-0.38526857 -0.26914772 0.059450552
-0.38548502 -0.26912662 0.059408084
-0.38568339 -0.26910794 0.059364535
-0.38586849 -0.2690874 0.059346411
-0.38606265 -0.26906323 0.059346691
-0.38626352 -0.2690376 0.059351545
-0.38647166 -0.26901123 0.059355229
-0.38664922 -0.26898581 0.059379783
-0.386839 -0.26897842 0.059261352
-0.38706583 -0.2689513 0.05925341
-0.38726318 -0.26892674 0.059253674
-0.38743737 -0.26890236 0.059273638
-0.38763446 -0.2688835 0.059232406
-0.38782918 -0.26886114 0.059218854
-0.38801998 -0.26883882 0.059208777
-0.38821712 -0.26882073 0.059161779
-0.388405 -0.26879373 0.059188593
-0.38861731 -0.26876903 0.059176117
-0.38880318 -0.26875204 0.05913147
-0.38899243 -0.26872754 0.059138689
-0.38919288 -0.26870257 0.059138939
-0.38937682 -0.26868251 0.05911852
-0.3895613 -0.26866364 0.059088871
-0.38976318 -0.26864183 0.059064899
-0.38996398 -0.26861808 0.059055932
-0.39015523 -0.26859033 0.059085041
-0.39034784 -0.26857328 0.059034608
-0.39054587 -0.26855212 0.059009515
-0.39072484 -0.26852241 0.059064034
-0.39091748 -0.26850614 0.059007835
-0.39111659 -0.26848784 0.058960825
-0.3913089 -0.26847163 0.058904625
-0.39152554 -0.26844215 0.058923252
-0.39171639 -0.26842296 0.058890115
-0.39189985 -0.26839474 0.058929645
-0.39209852 -0.2683768 0.058880329
-0.39231381 -0.26835379 0.058852844
-0.392499 -0.26833028 0.058856629
-0.39267758 -0.26830912 0.058848906
-0.39287013 -0.26828545 0.058846883
-0.39306852 -0.26826835 0.058791816
-0.39325035 -0.26824632 0.058787536
-0.39344126 -0.26821783 0.058822412
-0.39364344 -0.26820213 0.05875349
-0.39383492 -0.2681756 0.058773376
-0.39403126 -0.26815304 0.058759816
-0.3942247 -0.2681337 0.058725517
-0.39441413 -0.26811343 0.058701612
-0.39459139 -0.26808882 0.058720402
-0.39480299 -0.26806974 0.058667578
-0.39499846 -0.26804495 0.058671311
-0.39519235 -0.26802948 0.058608189
-0.39538318 -0.26800019 0.058648832
-0.39556786 -0.26797625 0.058656074
-0.39575467 -0.26796341 0.058580302
-0.39595783 -0.26794174 0.058554024
-0.39614755 -0.26792663 0.058492079
-0.39633644 -0.26790768 0.058458954
-0.39652762 -0.26788026 0.058485754
-0.39672258 -0.26785377 0.058502167
-0.39691031 -0.26782677 0.058528986
-0.39710867 -0.26779768 0.058561526
-0.39730501 -0.26778236 0.058494933
-0.39750418 -0.26776105 0.058469836
-0.39769635 -0.26774248 0.058430929
-0.39788803 -0.26771927 0.058426604
-0.39807266 -0.26769751 0.058417704
-0.39825681 -0.26766905 0.058458377
-0.39846015 -0.26766348 0.058314525
-0.39865112 -0.26762787 0.058401272
-0.39884317 -0.2676183 0.058296662
-0.39903805 -0.26758823 0.058339585
-0.39922968 -0.26757178 0.058285698
-0.39942467 -0.26755208 0.058252543
-0.39962322 -0.26752105 0.058298916
-0.39981809 -0.26750624 0.05823002
-0.40000609 -0.26747605 0.058279902
-0.40019035 -0.26745641 0.058256011
-0.40038168 -0.26743495 0.058239017
-0.4005838 -0.26740807 0.05825194
-0.40078211 -0.267387 0.058225684
-0.40096277 -0.26736608 0.058214497
-0.40115398 -0.26734495 0.058195192
-0.40134794 -0.26733154 0.058117088
-0.40157121 -0.26730281 0.058124155
-0.40175155 -0.26728368 0.058100287
-0.40194312 -0.2672576 0.058116708
-0.4021304 -0.26723823 0.058088206
-0.4023177 -0.26721805 0.058065463
-0.40251195 -0.26719782 0.05803692
-0.40270269 -0.2671774 0.058013007
-0.40290764 -0.26715472 0.057992488
-0.40309793 -0.26713639 0.057953589
-0.4032926 -0.26711264 0.057950411
-0.40346244 -0.26709211 0.05794619
-0.40364468 -0.2670787 0.057878502
-0.40383348 -0.26704967 0.057919156
-0.40402982 -0.26701829 0.057970148
-0.40422663 -0.26698542 0.058031507
-0.40442783 -0.26696387 0.058006391
-0.40461379 -0.26696217 0.057849936
-0.4047977 -0.26694003 0.057844501
-0.40498355 -0.26692367 0.057795249
-0.40520158 -0.2668893 0.057848446
-0.40537971 -0.26686364 0.057874154
-0.40557098 -0.26685181 0.057786837
-0.40576443 -0.26682064 0.057838991
-0.4059568 -0.26680458 0.057781644
-0.4061422 -0.26678857 0.057730086
-0.40634194 -0.26677004 0.057684235
-0.40652916 -0.26674798 0.057675324
-0.40672395 -0.26672372 0.0576756
-0.40691173 -0.26670018 0.05767706
-0.40710932 -0.26667762 0.057662331
-0.40729433 -0.26665252 0.057677649
-0.40749231 -0.26663798 0.05760413
-0.40767786 -0.26661158 0.057628658
-0.40786621 -0.26658687 0.05763818
-0.40805474 -0.26656181 0.057650011
-0.40824533 -0.26654816 0.05757653
-0.40844947 -0.26650998 0.057670139
-0.40868905 -0.2664682 0.057757825
-0.40889248 -0.26644051 0.057775348
-0.40909508 -0.26640001 0.057887405
-0.40928128 -0.26636672 0.057961501
-0.40948895 -0.26633093 0.058034334
-0.40968537 -0.26629812 0.058095701
-0.40987927 -0.26625711 0.058219329
-0.41008562 -0.26621863 0.058312919
-0.41028944 -0.26617908 0.058416903
-0.41047603 -0.26614764 0.058477163
-0.41068804 -0.26610628 0.058586866
-0.41089046 -0.26607099 0.058660887
-0.41109189 -0.26603171 0.058764882
-0.41129786 -0.26599076 0.058876924
-0.41149929 -0.26595262 0.05897285
-0.41169617 -0.26592305 0.059009999
-0.4119007 -0.26588023 0.059137035
-0.41210678 -0.26584119 0.059235245
-0.41231066 -0.26580065 0.059346147
-0.41250864 -0.26576498 0.059427097
-0.4127087 -0.26572618 0.059528794
-0.41292363 -0.26568541 0.059631564
-0.3420524 -0.27404961 0.062884286
-0.34229785 -0.27402681 0.062827848
-0.34253126 -0.27400127 0.062802583
-0.34275237 -0.27397281 0.062809661
-0.34296969 -0.27394199 0.062837511
-0.34318274 -0.27391168 0.062865376
-0.34341228 -0.27388552 0.06284821
-0.34362459 -0.27385515 0.062877238
-0.3438578 -0.27382851 0.062860049
-0.34410423 -0.27380687 0.06279438
-0.34437498 -0.27379152 0.062660575
-0.34458262 -0.27376032 0.062700003
-0.34477979 -0.27372488 0.062779814
-0.34507614 -0.27371663 0.062570967
-0.34529683 -0.27368903 0.062572278
-0.34551036 -0.27365962 0.062593222
-0.34571844 -0.27362725 0.062640712
-0.34592968 -0.27359733 0.062667437
-0.34619227 -0.27357954 0.062559031
-0.34642243 -0.27355486 0.062530331
-0.34663385 -0.27352524 0.062554747
-0.34686595 -0.27350125 0.062519126
-0.34709504 -0.27347496 0.062503107
-0.34732816 -0.27345151 0.062462859
-0.3475678 -0.27342832 0.062414519
-0.34777278 -0.2733973 0.062455095
-0.34800547 -0.27337405 0.062413707
-0.34825617 -0.27335596 0.062318042
-0.34847632 -0.2733278 0.062323965
-0.34868068 -0.27329683 0.062364556
-0.34890321 -0.27326947 0.062362403
-0.34911042 -0.27323943 0.062393751
-0.34933341 -0.27321231 0.062389299
-0.34955898 -0.27318773 0.062364072
-0.34978279 -0.27316272 0.062343463
-0.35002068 -0.27314198 0.062278993
-0.35027272 -0.27312392 0.062182166
-0.35048485 -0.27309579 0.062195055
-0.35072309 -0.27307388 0.062138639
-0.35092968 -0.27304423 0.062167689
-0.35115156 -0.27301759 0.062160932
-0.35137916 -0.27299446 0.062123016
-0.35159439 -0.27296597 0.062135883
-0.3518146 -0.27294078 0.062119909
-0.35201979 -0.27290925 0.062163949
-0.35224861 -0.27288693 0.062119111
-0.35248473 -0.2728653 0.062062718
-0.35269195 -0.27283636 0.062086001
-0.35293284 -0.27281651 0.062012278
-0.353122 -0.27279073 0.062028725
-0.35332564 -0.27275372 0.062114283
-0.35355571 -0.27272889 0.062086735
-0.35380387 -0.27271193 0.061985321
-0.35401747 -0.2726855 0.06198436
-0.35425657 -0.27266586 0.061910648
-0.35446373 -0.27263567 0.061943159
-0.35468036 -0.27260873 0.06194333
-0.35490415 -0.27258608 0.061905432
-0.35513631 -0.27256462 0.061851364
-0.35536358 -0.27254346 0.061799616
-0.35558507 -0.2725186 0.06178017
-0.35579044 -0.27249002 0.061802313
-0.35601023 -0.27246475 0.06178749
-0.35625631 -0.27245072 0.061666481
-0.35645685 -0.27241883 0.061717466
-0.35667175 -0.27239397 0.061703816
-0.35692456 -0.27238101 0.061568946
-0.35712019 -0.27234751 0.06163609
-0.35731971 -0.27231541 0.061689384
-0.35753614 -0.27229148 0.061667658
-0.35775819 -0.27226779 0.061638985
-0.3579666 -0.27224106 0.061644971
-0.35819739 -0.27222088 0.061582826
-0.35839698 -0.27219099 0.061619978
-0.35861853 -0.27216753 0.061590165
-0.35883349 -0.27214363 0.061569598
-0.35905766 -0.27212143 0.061528243
-0.35927281 -0.27209783 0.061505377
-0.35948765 -0.2720722 0.061497491
-0.35970536 -0.27204779 0.061478063
-0.35991985 -0.27202219 0.061470188
-0.36012849 -0.27199638 0.061469249
-0.36033788 -0.27196893 0.061479844
-0.36055461 -0.27194652 0.061446585
-0.36077586 -0.27192405 0.061409846
-0.36099184 -0.27190161 0.061377756
-0.36120677 -0.27187675 0.061364103
-0.36141881 -0.27185288 0.06134586
-0.3616305 -0.27182686 0.061343759
-0.36184895 -0.2718038 0.061313957
-0.36206716 -0.27178076 0.061284155
-0.36227337 -0.27175477 0.061286684
-0.36248356 -0.27172846 0.061288048
-0.36269319 -0.27170411 0.061275579
-0.36291879 -0.27168471 0.061212309
-0.36313361 -0.27166289 0.061176762
-0.36334398 -0.27163702 0.061174657
-0.36354598 -0.27160966 0.061191052
-0.36375064 -0.27158135 0.06121204
-0.36397374 -0.27156371 0.061138403
-0.36418515 -0.27153865 0.061129387
-0.36440286 -0.27151883 0.061076526
-0.36461741 -0.27149546 0.061052501
-0.36478871 -0.27147442 0.061050579
-0.36498529 -0.27146083 0.060971305
-0.36525065 -0.27142787 0.06097126
-0.36544004 -0.27139056 0.061071873
-0.36560997 -0.27136448 0.061108001
-0.36587238 -0.27134874 0.060984619
-0.36607888 -0.27132446 0.060974464
-0.36628011 -0.27129531 0.061004691
-0.36649549 -0.27127561 0.060952991
-0.36671165 -0.27125409 0.06091398
-0.3669093 -0.27122569 0.06094192
-0.36712608 -0.27120474 0.060898285
-0.3673327 -0.27118108 0.060883522
-0.36754146 -0.27115619 0.060875669
-0.36774194 -0.27112949 0.060888603
-0.36796647 -0.2711131 0.060804587
-0.36816859 -0.27108747 0.060808286
-0.36838657 -0.27106792 0.060753126
-0.36858201 -0.27103886 0.060787991
-0.36879018 -0.27101421 0.060778979
-0.3690064 -0.2709941 0.060729593
-0.3692112 -0.27097034 0.060717143
-0.36941522 -0.27094367 0.060726598
-0.36962527 -0.27092308 0.060686469
-0.36983499 -0.2708998 0.060665924
-0.3700372 -0.27087495 0.060663857
-0.3702431 -0.27085233 0.060642183
-0.37045372 -0.27082992 0.060614724
-0.37066576 -0.27081108 0.060559578
-0.37086433 -0.27078182 0.060593277
-0.37107292 -0.27076122 0.060554296
-0.37127659 -0.27073509 0.060560305
-0.37147102 -0.27070612 0.060595162
-0.37167716 -0.27068159 0.060587324
-0.37188855 -0.27066317 0.060529884
-0.3720364 -0.27064142 0.06055459
-0.37229571 -0.27061424 0.060517684
-0.37249339 -0.27058473 0.060553685
-0.37269029 -0.27056891 0.060490549
-0.37285647 -0.27054772 0.060494408
-0.37312967 -0.27053016 0.060374431
-0.3733221 -0.27050036 0.060417388
-0.37353534 -0.27048442 0.06034033
-0.37374008 -0.27046004 0.060332496
-0.37394458 -0.27043852 0.060303912
-0.37414283 -0.27040991 0.060332999
-0.374336 -0.2703808 0.060370177
-0.37455139 -0.27036411 0.060296573
-0.37474981 -0.27033877 0.060301449
-0.37492943 -0.27031246 0.060330622
-0.37515828 -0.2702966 0.06023851
-0.37535709 -0.27026871 0.060261834
-0.37555426 -0.27024275 0.060272478
-0.3757686 -0.27022633 0.060197733
-0.37595156 -0.27020276 0.06020382
-0.37617305 -0.27018246 0.060150951
-0.37634218 -0.27016801 0.060102917
-0.37655261 -0.2701396 0.060119271
-0.37678459 -0.27012134 0.060042135
-0.3769604 -0.27009597 0.060067862
-0.37717658 -0.27006558 0.06009341
-0.37738025 -0.27004215 0.060079813
-0.3775807 -0.27001622 0.060086988
-0.37778935 -0.26999706 0.060037628
-0.37798864 -0.26998076 0.059975632
-0.37817517 -0.26995406 0.060001314
-0.37837622 -0.26993251 0.059976194
-0.37856552 -0.2699118 0.059955746
-0.37876785 -0.26988441 0.05997213
-0.37898585 -0.26985979 0.059953861
-0.37917975 -0.26983976 0.059924167
-0.37936643 -0.26981714 0.059919875
-0.37957099 -0.26979199 0.059917796
-0.37975785 -0.26976967 0.059911199
-0.37998 -0.26974946 0.059857167
-0.38017905 -0.2697272 0.05983898
-0.38038981 -0.26970446 0.05981382
-0.38057515 -0.26968893 0.059758801
-0.38076264 -0.26965991 0.059800617
-0.38096967 -0.2696299 0.059831969
-0.38116777 -0.26961121 0.059788428
-0.38137248 -0.26960751 0.05962956
-0.38156694 -0.26957336 0.059702475
-0.38175869 -0.2695446 0.059738506
-0.38197115 -0.26952463 0.059691437
-0.38216284 -0.26949587 0.059727468
-0.382375 -0.2694802 0.059649277
-0.38256803 -0.26946169 0.059609205
-0.38276091 -0.26943436 0.059633709
-0.38297081 -0.26941252 0.059602778
-0.38316458 -0.26939076 0.059585772
-0.38337785 -0.26936391 0.059588283
-0.38357526 -0.26934659 0.059535515
-0.38375795 -0.26932162 0.059551984
-0.38396281 -0.26929927 0.059529163
-0.38415349 -0.26927444 0.059537522
-0.38435444 -0.26925242 0.059515875
-0.38455468 -0.2692346 0.059464246
-0.38474971 -0.26921046 0.059463374
-0.38494593 -0.26918793 0.059449811
-0.38515234 -0.26916334 0.059441969
-0.38534895 -0.26914155 0.059422638
-0.38556209 -0.26911566 0.05941822
-0.38575283 -0.26909682 0.059382774
-0.38593283 -0.26907423 0.059384272
-0.38612321 -0.26904973 0.059390336
-0.38632837 -0.26902956 0.05935137
-0.38652912 -0.26900333 0.059360851
-0.38672832 -0.26898625 0.05930461
-0.38691574 -0.2689577 0.059342969
-0.38713148 -0.2689307 0.059344307
-0.38732541 -0.2689181 0.059260428
-0.38752156 -0.26889113 0.059279144
-0.38770345 -0.26887226 0.059251808
-0.38788286 -0.26884961 0.059254467
-0.38809451 -0.26883557 0.059164748
-0.38829502 -0.26881629 0.05912349
-0.3884919 -0.26878437 0.059177946
-0.38869834 -0.26876232 0.059151664
-0.3888886 -0.26873893 0.059149653
-0.3890833 -0.26871675 0.059134938
-0.38927665 -0.2686922 0.059138689
-0.38948151 -0.26867506 0.059077814
-0.38967535 -0.26865172 0.059072331
-0.38987669 -0.26862824 0.059061054
-0.39006948 -0.26860297 0.059070565
-0.39026096 -0.26858291 0.059043191
-0.3904531 -0.26856437 0.059004284
-0.39065203 -0.2685363 0.059028748
-0.39084572 -0.26852164 0.05895986
-0.39104745 -0.2685 0.058934748
-0.39123666 -0.2684758 0.058939658
-0.39142361 -0.26845521 0.058920376
-0.3916201 -0.26843059 0.058921803
-0.3918094 -0.26840672 0.058924407
-0.39200744 -0.26838616 0.058894694
-0.39219886 -0.26836815 0.05885233
-0.39239961 -0.26834539 0.058836449
-0.39259019 -0.26831535 0.058882862
-0.39279127 -0.26829362 0.058858901
-0.39297411 -0.26826218 0.058922637
-0.39317581 -0.2682541 0.058798373
-0.39336333 -0.26822555 0.058836736
-0.39356282 -0.26821175 0.058756284
-0.39375091 -0.26817256 0.058871888
-0.39394477 -0.26815268 0.058841035
-0.39413911 -0.26814836 0.058696058
-0.39433354 -0.26811802 0.058741301
-0.39453924 -0.26810268 0.058666587
-0.39474213 -0.26807663 0.058672592
-0.39492795 -0.26805601 0.058654465
-0.39512354 -0.26803023 0.058665123
-0.39531592 -0.26800644 0.058664251
-0.39552435 -0.26798996 0.058595303
-0.3957209 -0.26796961 0.058565587
-0.39591265 -0.26794335 0.058583178
-0.39609081 -0.26792228 0.058575459
-0.3962926 -0.26789054 0.058624137
-0.39648363 -0.26788253 0.058509137
-0.39667898 -0.26785615 0.058524404
-0.39687097 -0.26783147 0.058530457
-0.39706677 -0.26780835 0.058521509
-0.39726362 -0.26779488 0.058441073
-0.39745557 -0.26777068 0.058443669
-0.39764786 -0.2677502 0.058418594
-0.39784321 -0.26772431 0.0584304
-0.39803213 -0.26770803 0.058377676
-0.3982237 -0.26767898 0.058416009
-0.39841563 -0.26765507 0.058416307
-0.39860478 -0.26764905 0.058288634
-0.39879313 -0.26762986 0.058257811
-0.39898485 -0.26760581 0.05825926
-0.39917642 -0.26757234 0.05832988
-0.39938241 -0.26754007 0.058378529
-0.3995814 -0.26751626 0.058371868
-0.39978391 -0.26749372 0.058352523
-0.39997566 -0.26747459 0.058318224
-0.40017033 -0.2674723 0.058158241
-0.40035155 -0.26744387 0.05820125
-0.40053663 -0.2674112 0.058271892
-0.40073523 -0.26739091 0.058239877
-0.40092337 -0.26736858 0.058232114
-0.40110654 -0.26736438 0.058096401
-0.40130216 -0.26733452 0.058137022
-0.40150055 -0.26731327 0.058111928
-0.40170681 -0.26728335 0.05814328
-0.40189773 -0.26726621 0.058095153
-0.40207881 -0.2672427 0.058102414
-0.40230229 -0.2672157 0.058096796
-0.40247536 -0.26719981 0.058055669
-0.40266347 -0.26717606 0.058058288
-0.4028652 -0.26715413 0.058035474
-0.40305921 -0.26713657 0.057987332
-0.4032371 -0.2671116 0.05800844
-0.40342116 -0.26709104 0.057991475
-0.4036147 -0.26707482 0.057934113
-0.40381217 -0.26705575 0.057894029
-0.4040027 -0.26702052 0.057978489
-0.40418291 -0.26701668 0.057842791
-0.40439031 -0.26698378 0.057894889
-0.40458837 -0.26696149 0.057877861
-0.40478063 -0.26693502 0.057896599
-0.40496388 -0.26691678 0.057863489
-0.4051553 -0.26689357 0.057859175
-0.40534401 -0.26688018 0.057785694
-0.40553397 -0.26686174 0.057747956
-0.40573007 -0.26684538 0.057689421
-0.40589669 -0.26683581 0.057607979
-0.40608442 -0.26680201 0.057684373
-0.40628192 -0.26677018 0.057737678
-0.40647051 -0.26673484 0.057824455
-0.40668395 -0.26670718 0.057832718
-0.40687698 -0.26668948 0.057786889
-0.40706402 -0.26667863 0.057696126
-0.4072454 -0.26667356 0.057568491
-0.40742895 -0.26664391 0.057618394
-0.40762073 -0.26661089 0.057685554
-0.40781686 -0.26658443 0.057700817
-0.40800938 -0.26656708 0.057652682
-0.40819556 -0.26655683 0.057558455
-0.40837941 -0.26653552 0.05754726
-0.40857607 -0.26650786 0.057570584
-0.40877226 -0.26647383 0.057641186
-0.4089877 -0.2664423 0.057675965
-0.40921855 -0.26640663 0.0577268
-0.40941593 -0.26637134 0.057805471
-0.40962136 -0.26633361 0.057894476
-0.40982053 -0.26629558 0.057991575
-0.41002145 -0.26625445 0.058109425
-0.41019428 -0.26623011 0.058130555
-0.41038775 -0.26619148 0.058236908
-0.41061068 -0.2661483 0.058350045
-0.41080952 -0.26610696 0.058471363
-0.41102514 -0.26606625 0.058573004
-0.41121525 -0.26602998 0.05866554
-0.41141888 -0.26599988 0.058700368
-0.41162544 -0.26595888 0.058812421
-0.41183215 -0.26591817 0.058922179
-0.41203383 -0.26588091 0.059011206
-0.4122363 -0.26584277 0.059105981
-0.41242883 -0.26580492 0.05920773
-0.41262636 -0.26577038 0.059280634
-0.41284463 -0.26572952 0.059381112
-0.41305014 -0.26568815 0.05949663
-0.41325507 -0.26564828 0.059601776
-0.34195107 -0.27405205 0.062958367
-0.3421793 -0.27402353 0.062959626
-0.34241572 -0.27399856 0.062927395
-0.34265524 -0.27397445 0.062885933
-0.34288502 -0.27394807 0.062869884
-0.34311569 -0.27392051 0.062861905
-0.34338197 -0.27390334 0.062745377
-0.34357175 -0.27386585 0.062847123
-0.34383559 -0.27384835 0.062735207
-0.34403831 -0.27381572 0.062789626
-0.34425357 -0.27378625 0.0628094
-0.34451243 -0.2737664 0.062719412
-0.34472269 -0.27373582 0.062751889
-0.34495595 -0.27370965 0.062731214
-0.3452034 -0.27368882 0.062658578
-0.34543812 -0.27366328 0.062632129
-0.34567541 -0.27364007 0.062586069
-0.34588104 -0.27360865 0.06262894
-0.34612754 -0.27358812 0.062555157
-0.34634662 -0.2735588 0.062570289
-0.34657395 -0.27353337 0.062549643
-0.34680787 -0.27350822 0.062520891
-0.34703386 -0.27348265 0.062502556
-0.34727353 -0.27346089 0.062443804
-0.3474966 -0.27343473 0.062432393
-0.34772471 -0.27340841 0.062417511
-0.34794775 -0.27338243 0.062404953
-0.34814456 -0.2733475 0.062481306
-0.34837231 -0.27332297 0.062453739
-0.34861931 -0.27330235 0.062379956
-0.34884802 -0.27327833 0.062347759
-0.34907627 -0.27325264 0.06232826
-0.3492949 -0.2732259 0.062324956
-0.34951791 -0.27320054 0.062307782
-0.34975317 -0.27317888 0.062252499
-0.35001397 -0.27316317 0.062130224
-0.35021132 -0.27313057 0.062189285
-0.35043132 -0.27310303 0.06219057
-0.35063827 -0.27307335 0.062219605
-0.35085648 -0.27304542 0.062225517
-0.35107684 -0.27301991 0.062211819
-0.35132882 -0.27300248 0.062110335
-0.35153073 -0.27297148 0.062153235
-0.35175985 -0.27294901 0.062109515
-0.35199156 -0.2729257 0.062069241
-0.35219809 -0.27289638 0.06209597
-0.35244298 -0.27287745 0.062011804
-0.3526417 -0.27284577 0.062062785
-0.35288307 -0.27282602 0.061987877
-0.35309714 -0.2727994 0.061988048
-0.35330689 -0.27276966 0.062014759
-0.3535023 -0.27273887 0.062062286
-0.35373089 -0.2727136 0.062039331
-0.35395685 -0.27269119 0.061997931
-0.35419962 -0.27267268 0.061912633
-0.35440055 -0.27264214 0.061953228
-0.35463244 -0.27262026 0.061902568
-0.35485631 -0.27259761 0.061864637
-0.35508215 -0.27257395 0.061832465
-0.35529238 -0.27254686 0.061839581
-0.35550815 -0.27252173 0.061827052
-0.3557477 -0.27250317 0.061745226
-0.35594597 -0.27247027 0.061805431
-0.35616216 -0.27244559 0.061789446
-0.35639757 -0.27242595 0.061719172
-0.35660183 -0.27239722 0.061743602
-0.35681513 -0.27236989 0.061749548
-0.35704353 -0.27235001 0.061687369
-0.35725713 -0.27232295 0.061691009
-0.35748336 -0.27230257 0.061634615
-0.35769212 -0.2722739 0.061654415
-0.35790545 -0.27224892 0.061643049
-0.35812157 -0.27222314 0.061635144
-0.3583481 -0.27220336 0.061574135
-0.35856599 -0.27217844 0.061558142
-0.35877171 -0.27215096 0.06157219
-0.35898614 -0.27212492 0.061567739
-0.35920921 -0.27210426 0.061515972
-0.35941991 -0.27207693 0.061524227
-0.35963994 -0.27205336 0.061496701
-0.35984793 -0.27202511 0.061514195
-0.3600722 -0.27200544 0.061454348
-0.3602823 -0.2719782 0.061462607
-0.36049765 -0.27195519 0.061435096
-0.36071548 -0.27193123 0.061412185
-0.36093843 -0.27191156 0.061353505
-0.36114261 -0.27188221 0.061382547
-0.36135951 -0.27186027 0.061345801
-0.36156958 -0.27183351 0.061350591
-0.36177799 -0.27180821 0.061346181
-0.36199126 -0.27178293 0.061337128
-0.36222079 -0.27176684 0.061246131
-0.36243904 -0.27174395 0.061215144
-0.36264616 -0.2717185 0.061213035
-0.36284941 -0.27168927 0.061242085
-0.36306328 -0.27166691 0.061211117
-0.36327246 -0.27164042 0.061214767
-0.36341578 -0.27161071 0.061301745
-0.36367077 -0.2716071 0.061096467
-0.36392656 -0.27157563 0.061094139
-0.36418498 -0.27157208 0.060885385
-0.36434913 -0.27152762 0.061061054
-0.3645547 -0.27149999 0.061076261
-0.36475638 -0.27147284 0.061091479
-0.36495489 -0.27144197 0.061136693
-0.36518961 -0.27143061 0.061006457
-0.36539236 -0.27140191 0.061032049
-0.36560374 -0.27137974 0.061002247
-0.365812 -0.27135381 0.061002441
-0.36602014 -0.27132791 0.061002634
-0.366245 -0.27131036 0.060926653
-0.36645511 -0.27128801 0.060899161
-0.36665997 -0.27126077 0.060912054
-0.36686474 -0.27123591 0.060907658
-0.36707667 -0.2712124 0.060887076
-0.36728513 -0.27118963 0.06086421
-0.36749524 -0.27116537 0.060850553
-0.36769652 -0.27113906 0.060860015
-0.36790952 -0.2711165 0.060831353
-0.36811736 -0.27109379 0.060808491
-0.36832881 -0.27107066 0.060785614
-0.36853436 -0.27104443 0.060790427
-0.36874998 -0.27102628 0.060727164
-0.36895034 -0.27099741 0.060756229
-0.36916393 -0.27097589 0.060719498
-0.36937544 -0.27095589 0.06067355
-0.36958104 -0.27093014 0.060674913
-0.36977798 -0.27090216 0.060700528
-0.36999387 -0.2708824 0.060648795
-0.37020361 -0.2708593 0.060627073
-0.3704083 -0.27083334 0.060630742
-0.37061629 -0.27081206 0.060597505
-0.37082362 -0.27078784 0.060586169
-0.37102926 -0.27076539 0.060563318
-0.37122869 -0.27073663 0.060592376
-0.37141743 -0.27071771 0.060559221
-0.37159261 -0.27070156 0.060518056
-0.37184885 -0.2706694 0.060520343
-0.37205666 -0.27064607 0.06050209
-0.37226602 -0.2706238 0.060474604
-0.3724727 -0.27059999 0.06046097
-0.3726795 -0.27057916 0.060425423
-0.37288344 -0.27055377 0.060425635
-0.37308663 -0.27053085 0.060408555
-0.37329885 -0.27051106 0.060360305
-0.37349203 -0.27048466 0.060377859
-0.37367725 -0.27046174 0.060377013
-0.37389377 -0.27043641 0.060365632
-0.37410104 -0.27041975 0.060298961
-0.37429956 -0.27038825 0.060348783
-0.37451011 -0.27036205 0.060348965
-0.37472731 -0.27034673 0.060263783
-0.37493187 -0.27032268 0.06025362
-0.37512511 -0.27029374 0.060289636
-0.37533158 -0.27027121 0.06026677
-0.37554032 -0.2702536 0.060205847
-0.37572876 -0.27023077 0.060201526
-0.37592727 -0.27020589 0.060202915
-0.37611359 -0.2701816 0.060211286
-0.3763414 -0.27015957 0.060165264
-0.37654358 -0.27014104 0.060117055
-0.37675008 -0.27011612 0.0601115
-0.37695774 -0.27008554 0.060146287
-0.3771641 -0.27007407 0.060042709
-0.37733835 -0.27005079 0.060054585
-0.37755474 -0.27002403 0.060053602
-0.37776276 -0.27000085 0.060034186
-0.37794653 -0.26997513 0.060055256
-0.37817344 -0.26995385 0.060004622
-0.37837234 -0.26993746 0.059943743
-0.3785634 -0.2699146 0.059937105
-0.37876561 -0.26988342 0.059981145
-0.37896165 -0.26985776 0.059990626
-0.37915647 -0.26984206 0.059928607
-0.37937295 -0.26981622 0.059920698
-0.3795763 -0.26979738 0.059873641
-0.3797594 -0.26977536 0.059868179
-0.37995684 -0.26975521 0.059836138
-0.38016951 -0.26973018 0.059825927
-0.38036975 -0.26970905 0.059798487
-0.38056117 -0.2696797 0.059839126
-0.38076603 -0.26966318 0.059773602
-0.38095096 -0.26965153 0.059690885
-0.38116232 -0.26961371 0.059775244
-0.3813726 -0.26958692 0.059780035
-0.38158262 -0.26957229 0.059696048
-0.38177735 -0.26954648 0.059707843
-0.38196316 -0.26952413 0.059702374
-0.38216695 -0.26949939 0.059697971
-0.38238096 -0.26947704 0.059667002
-0.38257772 -0.26945364 0.059659187
-0.3827793 -0.26943123 0.059639804
-0.38295886 -0.26941583 0.059589393
-0.38315377 -0.2693862 0.059628859
-0.3833667 -0.2693679 0.059569072
-0.3835693 -0.26933795 0.059603885
-0.38377202 -0.26931748 0.059569512
-0.38396528 -0.26929545 0.059554785
-0.38415095 -0.26927882 0.059507802
-0.38435605 -0.26925692 0.059481494
-0.38454598 -0.26923612 0.059461016
-0.38476527 -0.26920742 0.05947154
-0.3849459 -0.26918507 0.059470706
-0.38514161 -0.26916182 0.059462883
-0.38533133 -0.2691412 0.059441257
-0.38553149 -0.26911882 0.059423044
-0.38573581 -0.26910222 0.059358679
-0.38591251 -0.26907501 0.059397072
-0.3861208 -0.26904246 0.059445709
-0.38633114 -0.26902938 0.059350178
-0.38652954 -0.26901084 0.059305441
-0.38672012 -0.26898682 0.059308026
-0.38691533 -0.26896393 0.059297908
-0.38711455 -0.26894134 0.059281994
-0.38731703 -0.26891187 0.059313357
-0.38750443 -0.26890132 0.05922024
-0.38769758 -0.26887572 0.059232041
-0.38789576 -0.268852 0.059225358
-0.38808137 -0.26883313 0.059194524
-0.38827398 -0.26881325 0.059164811
