# .PCD v0.7 - Point Cloud Data file format
VERSION 0.7
FIELDS x y z
SIZE 4 4 4
TYPE F F F
COUNT 1 1 1
WIDTH 1279
HEIGHT 1
VIEWPOINT 0 0 0 1 0 0 0
POINTS 1279
DATA ascii
-0.34328917 -0.16378775 0.048748694
-0.34347215 -0.16375643 0.048711192
-0.34367657 -0.1637166 0.048714008
-0.34387568 -0.16367956 0.048700657
-0.34407467 -0.16364141 0.048697732
-0.34427965 -0.16360871 0.048633423
-0.34448794 -0.16356353 0.048679009
-0.34469137 -0.16352691 0.048654053
-0.34487993 -0.16349301 0.048630383
-0.23945215 -0.18327765 0.054154076
-0.23968177 -0.18323836 0.054106914
-0.2399257 -0.18319942 0.054030716
-0.24017304 -0.18316095 0.053944066
-0.24041885 -0.18312126 0.053871319
-0.2406588 -0.18308347 0.053791676
-0.24091552 -0.18304519 0.05368644
-0.24116313 -0.18300965 0.053572036
-0.2413916 -0.18296982 0.053531826
-0.24160939 -0.18292893 0.053520635
-0.24183977 -0.18288949 0.05347348
-0.24206831 -0.18285114 0.053419389
-0.24229227 -0.18281117 0.053388476
-0.2425286 -0.1827727 0.053321604
-0.24276294 -0.18273412 0.053259369
-0.24299812 -0.18269573 0.053193647
-0.24323694 -0.1826579 0.053116336
-0.24346143 -0.18261971 0.053068072
-0.2436939 -0.18258135 0.053007007
-0.24393082 -0.18254364 0.052932024
-0.244159 -0.18250498 0.052881416
-0.2443869 -0.18246764 0.052819237
-0.24462149 -0.18243 0.052747745
-0.2448522 -0.18239197 0.052686695
-0.2450802 -0.18235373 0.052632608
-0.24531408 -0.1823176 0.052548405
-0.24554411 -0.18227984 0.052486207
-0.24577723 -0.1822426 0.052413564
-0.24601802 -0.18220651 0.052316569
-0.24623698 -0.18216889 0.052272975
-0.24645264 -0.18212965 0.05225024
-0.24668172 -0.18209232 0.052185737
-0.24690807 -0.18205601 0.052116632
-0.2471323 -0.18201825 0.052064896
-0.24735698 -0.18198064 0.052010849
-0.2475832 -0.18194336 0.051950991
-0.24780427 -0.18190545 0.051906236
-0.24802798 -0.18186803 0.051852189
-0.24824941 -0.18183169 0.051792383
-0.2484692 -0.1817939 0.051748782
-0.24868946 -0.18175626 0.051702868
-0.24891847 -0.18172008 0.051627953
-0.24913269 -0.18168174 0.051599443
-0.24935135 -0.18164417 0.051555861
-0.24956664 -0.18160748 0.051509991
-0.24978757 -0.18157049 0.051457129
-0.25000468 -0.18153296 0.051415868
-0.25022361 -0.18149585 0.051367648
-0.25044155 -0.18145865 0.051321756
-0.25065538 -0.18142089 0.051288627
-0.25086728 -0.18138425 0.051248565
-0.2510851 -0.18134734 0.051200353
-0.25132844 -0.18131213 0.051090613
-0.25153431 -0.18126655 0.051144317
-0.2519027 -0.18119133 0.051181536
-0.25213608 -0.18115205 0.051127404
-0.2526536 -0.18109839 0.050697096
-0.25278348 -0.18104498 0.050959695
-0.25300664 -0.18101415 0.050845504
-0.25322014 -0.18097745 0.050803121
-0.25342941 -0.18094006 0.050774656
-0.25364012 -0.18090302 0.050740391
-0.25385043 -0.18086456 0.050720017
-0.25406975 -0.18082936 0.050653294
-0.25427151 -0.1807923 0.050635301
-0.2544803 -0.18075526 0.050604522
-0.2546995 -0.18071745 0.050562087
-0.25488913 -0.18068111 0.050559249
-0.25510108 -0.18064494 0.050514571
-0.25532362 -0.18060812 0.050457064
-0.25551578 -0.18057103 0.050456509
-0.25571615 -0.18053275 0.050452422
-0.25592378 -0.18049605 0.0504205
-0.2561349 -0.18046018 0.050374668
-0.2563341 -0.18042336 0.050359018
-0.25653198 -0.18038331 0.050375771
-0.25672543 -0.18034534 0.05038099
-0.25692037 -0.18030623 0.050394304
-0.25709811 -0.18026331 0.050473709
-0.25727338 -0.18021825 0.050577417
-0.25741515 -0.18016703 0.050798278
-0.25656745 -0.17952153 0.058305569
-0.25666752 -0.17945352 0.058757
-0.25689247 -0.17941898 0.05867403
-0.2573525 -0.17925355 0.059383709
-0.25939783 -0.17923477 0.055890419
-0.25963342 -0.17919894 0.055800408
-0.25981849 -0.17914775 0.05594337
-0.2600832 -0.17910782 0.055839214
-0.260288 -0.1790709 0.055814266
-0.26047572 -0.17903106 0.055847298
-0.26069286 -0.17899241 0.055816457
-0.26090774 -0.1789532 0.05579488
-0.26110363 -0.17892487 0.055706374
-0.26129061 -0.17888317 0.055757932
-0.26153836 -0.17884661 0.055652775
-0.26173756 -0.1788068 0.055664893
-0.26194918 -0.17876522 0.055671103
-0.26213944 -0.17872277 0.055723794
-0.26230803 -0.17868672 0.055755839
-0.26254055 -0.17864984 0.055680893
-0.26276997 -0.1786273 0.055478726
-0.26293775 -0.17858742 0.055547807
-0.26318038 -0.17853513 0.055597708
-0.26336509 -0.17849873 0.055604167
-0.26358932 -0.1784637 0.055526987
-0.26380008 -0.17842242 0.055532057
-0.26398593 -0.17838854 0.055513054
-0.26416788 -0.17835341 0.055512596
-0.26441365 -0.17831038 0.055471085
-0.2645933 -0.17827657 0.055462547
-0.26482382 -0.17823447 0.05543967
-0.2650443 -0.17820105 0.055354428
-0.26522437 -0.17816155 0.055397935
-0.26541236 -0.17812489 0.055400901
-0.26563194 -0.1780874 0.05535499
-0.26581222 -0.1780501 0.055377677
-0.26598841 -0.17801546 0.05538306
-0.26622748 -0.17798343 0.055251371
-0.2664085 -0.17794026 0.055327278
-0.26664391 -0.1778966 0.055310145
-0.26683426 -0.17785911 0.05531656
-0.26701295 -0.17782786 0.055286042
-0.26724213 -0.17778851 0.05524005
-0.26743627 -0.17775054 0.055244111
-0.26764315 -0.17771338 0.055217985
-0.26782107 -0.17767553 0.055249956
-0.26804769 -0.17763332 0.055235222
-0.26823783 -0.17760061 0.055197664
-0.268426 -0.17756492 0.055191368
-0.26867619 -0.177533 0.055038761
-0.26887065 -0.17749111 0.055078685
-0.26904649 -0.1774503 0.055141907
-0.26925081 -0.17741735 0.055081092
-0.2694529 -0.17738123 0.055053838
-0.26966429 -0.17734233 0.055035777
-0.26986068 -0.17730616 0.055018984
-0.27007508 -0.17726405 0.055025186
-0.27026466 -0.17723207 0.054981858
-0.27047166 -0.17719388 0.054964975
-0.270693 -0.17715529 0.054925993
-0.27085978 -0.17712496 0.05490832
-0.27104366 -0.17708074 0.054988824
-0.2712599 -0.17704986 0.054887414
-0.27146894 -0.17701563 0.054830037
-0.2716628 -0.17697136 0.054893091
-0.27186531 -0.17693914 0.05482883
-0.27206397 -0.17690767 0.054764591
-0.2722567 -0.17686287 0.054834608
-0.27246076 -0.17683446 0.054732151
-0.27266437 -0.17680341 0.054655153
-0.27286842 -0.1767568 0.054721586
-0.27305847 -0.17671052 0.054810133
-0.27326328 -0.17667773 0.054747004
-0.27344507 -0.17663491 0.054818273
-0.27364528 -0.17660525 0.054734364
-0.27385259 -0.17657709 0.054623783
-0.27404755 -0.17653361 0.054677572
-0.27426162 -0.17649567 0.054645605
-0.27444485 -0.17645657 0.054679833
-0.27464783 -0.17642076 0.054647952
-0.27485672 -0.17638868 0.054570898
-0.27505574 -0.1763595 0.054484688
-0.27524474 -0.17632128 0.054500364
-0.27544424 -0.1762808 0.05451826
-0.27564773 -0.1762429 0.054504879
-0.27584994 -0.17620425 0.054500774
-0.27602047 -0.17616621 0.054547846
-0.27621841 -0.17613412 0.054490566
-0.27642941 -0.17610164 0.054413494
-0.27662259 -0.17606024 0.054451112
-0.27680755 -0.17602591 0.054437906
-0.27702904 -0.1759949 0.054328352
-0.27723363 -0.17595531 0.054328851
-0.27743483 -0.1759166 0.054327063
-0.27763611 -0.17587465 0.054355353
-0.27786824 -0.17583898 0.054269999
-0.27803338 -0.17580384 0.054299772
-0.27820581 -0.17576393 0.05436071
-0.278418 -0.1757341 0.054257028
-0.27861083 -0.17569625 0.054262251
-0.27881888 -0.17565998 0.054225706
-0.27899069 -0.17563042 0.054191791
-0.27918714 -0.17558478 0.054262914
-0.27938354 -0.17555012 0.054232255
-0.27960238 -0.17551227 0.054190978
-0.27979454 -0.17547418 0.054199688
-0.28000814 -0.17543972 0.054136477
-0.28018788 -0.17541797 0.05401573
-0.28038928 -0.17536889 0.054109961
-0.28058922 -0.1753303 0.054109342
-0.28078464 -0.1752997 0.05404282
-0.28095666 -0.17525502 0.054148883
-0.28113911 -0.17521194 0.054221302
-0.28135633 -0.1751906 0.054029651
-0.28153902 -0.17515209 0.05405926
-0.28174251 -0.17512193 0.053974167
-0.28193614 -0.1750817 0.054000206
-0.28213885 -0.1750467 0.053961389
-0.28233457 -0.1750088 0.053961966
-0.2825262 -0.17497568 0.053925559
-0.28271189 -0.17494072 0.053916968
-0.28292283 -0.17489664 0.05394749
-0.28312266 -0.17485896 0.053938776
-0.28330255 -0.1748271 0.053911731
-0.28349298 -0.17479321 0.053884592
-0.28368977 -0.17475711 0.053866647
-0.28389013 -0.17472568 0.053798933
-0.28409463 -0.17468409 0.053817935
-0.28428668 -0.17464752 0.053812757
-0.2844716 -0.17461781 0.053756744
-0.2846491 -0.17457819 0.053806074
-0.28485832 -0.17454892 0.053702407
-0.28505924 -0.17451401 0.053665921
-0.2852639 -0.17447302 0.053679146
-0.28544733 -0.17443013 0.053748082
-0.28563637 -0.17439564 0.05372905
-0.28582278 -0.1743634 0.053693853
-0.28602532 -0.1743318 0.053623796
-0.28621542 -0.17430621 0.053520307
-0.28641242 -0.17426607 0.053539388
-0.28660184 -0.17423326 0.053504154
-0.28679034 -0.17417791 0.053679474
-0.28697589 -0.17413786 0.053718314
-0.28717753 -0.17412801 0.053448141
-0.28737262 -0.17408437 0.053503104
-0.28756928 -0.17404355 0.053529114
-0.28775835 -0.17401092 0.053492732
-0.28795782 -0.17399238 0.053307023
-0.28814116 -0.17393142 0.053543709
-0.28834003 -0.1738953 0.053522274
-0.2885367 -0.1738632 0.053467318
-0.2887345 -0.17382503 0.053466715
-0.28892013 -0.17379455 0.053416483
-0.28911084 -0.17376773 0.053323399
-0.28931987 -0.17373002 0.053298406
-0.28950602 -0.17369172 0.053319886
-0.28969109 -0.17365025 0.053372622
-0.2898865 -0.1736169 0.053331546
-0.29007754 -0.17358191 0.053313661
-0.29026273 -0.17354029 0.053367548
-0.29045874 -0.17352243 0.053181864
-0.29066229 -0.1734935 0.0530852
-0.29084754 -0.17343865 0.053261705
-0.2910302 -0.17340079 0.053285535
-0.29123145 -0.1733789 0.053127579
-0.29142931 -0.17332751 0.053249605
-0.29161379 -0.173298 0.053192444
-0.29181477 -0.17327867 0.053011343
-0.29200464 -0.17322208 0.053195909
-0.29220706 -0.17319287 0.053103872
-0.29239413 -0.17316 0.053073294
-0.29258826 -0.17312665 0.053034551
-0.29278505 -0.17308693 0.053050153
-0.29297391 -0.17304112 0.053136401
-0.2931577 -0.17301238 0.053073458
-0.29335198 -0.17298262 0.053001165
-0.29354542 -0.17294528 0.05300061
-0.29373884 -0.17290746 0.053004675
-0.29392868 -0.17286944 0.053016867
-0.29411891 -0.17283846 0.052963126
-0.29430887 -0.17280416 0.052940615
-0.29450235 -0.17277057 0.052905347
-0.29469571 -0.17273612 0.052878186
-0.29488549 -0.17269313 0.052936651
-0.2950823 -0.172662 0.052872442
-0.29527569 -0.17262007 0.052914679
-0.29547232 -0.17258948 0.052845836
-0.29565838 -0.17255706 0.052812949
-0.29585177 -0.17251775 0.052830897
-0.29603103 -0.17248252 0.052836254
-0.29621655 -0.17245568 0.052752465
-0.29641345 -0.17241532 0.052773863
-0.29660305 -0.17237984 0.052762918
-0.2968024 -0.17234898 0.052691747
-0.29700589 -0.17231108 0.052678362
-0.29718551 -0.17227267 0.05271263
-0.29737091 -0.17224175 0.052667029
-0.29756713 -0.17220663 0.052640997
-0.29776344 -0.17217048 0.052624211
-0.29794362 -0.17212996 0.052676983
-0.29813266 -0.17209671 0.05264638
-0.29832566 -0.17206022 0.052638888
-0.29851043 -0.17203066 0.05258172
-0.29870677 -0.17199402 0.052569564
-0.29889598 -0.17195912 0.052554004
-0.29909247 -0.17192182 0.052547634
-0.29928491 -0.17188717 0.052523937
-0.2994749 -0.17184927 0.052534986
-0.29966778 -0.17181291 0.052526332
-0.29984736 -0.17177674 0.052539777
-0.30003917 -0.17175494 0.052398093
-0.30023512 -0.171719 0.052380152
-0.30042139 -0.1716722 0.052480303
-0.30060649 -0.17164931 0.052360665
-0.30079913 -0.17161325 0.052349705
-0.30098921 -0.17157519 0.052361894
-0.30118108 -0.17153242 0.052414566
-0.30137122 -0.17150334 0.052343465
-0.30155802 -0.17147401 0.052280493
-0.30175456 -0.17143621 0.05227875
-0.30193996 -0.17140204 0.052263215
-0.30214089 -0.17135379 0.052350514
-0.30233148 -0.17132273 0.052296765
-0.30251929 -0.17129783 0.052190982
-0.30269793 -0.17127857 0.052049424
-0.30290318 -0.17122848 0.052145928
-0.30308694 -0.17119077 0.052166276
-0.30327302 -0.17115498 0.052164622
-0.30347398 -0.17112143 0.052115407
-0.30367994 -0.17107758 0.052152913
-0.30386332 -0.17104106 0.052162856
-0.3040489 -0.17100649 0.052150793
-0.30423447 -0.1709719 0.052138742
-0.30442762 -0.17094086 0.052080341
-0.30462039 -0.1708988 0.052124903
-0.30480486 -0.17087753 0.051991388
-0.30500033 -0.17084193 0.051971145
-0.30518901 -0.17080177 0.052005332
-0.30538189 -0.1707653 0.051997833
-0.30558202 -0.17073241 0.051943999
-0.30576569 -0.17069571 0.051955093
-0.30596435 -0.17065999 0.051930189
-0.30615938 -0.17062509 0.051904164
-0.30633986 -0.17059362 0.051872484
-0.30652431 -0.17055589 0.051891673
-0.30671924 -0.1705164 0.051908456
-0.30691379 -0.17047761 0.051919453
-0.30711156 -0.1704478 0.051841341
-0.30728349 -0.17041984 0.051792383
-0.30747643 -0.170379 0.051825378
-0.30765826 -0.17034988 0.051769391
-0.30785242 -0.17031178 0.051774606
-0.30804506 -0.17027161 0.051801816
-0.30823565 -0.17023446 0.051804759
-0.30841759 -0.17020918 0.051712904
-0.30860779 -0.17017658 0.051674206
-0.30878854 -0.17015254 0.051573105
-0.30898276 -0.1701026 0.051688224
-0.30916688 -0.17007791 0.051587105
-0.30934945 -0.17004727 0.051543839
-0.30955088 -0.17000017 0.051619556
-0.30976039 -0.16995063 0.051703304
-0.3099516 -0.16991685 0.051673844
-0.31013024 -0.16989484 0.051557727
-0.3103385 -0.16984367 0.051658839
-0.31054831 -0.16979459 0.051737953
-0.31071514 -0.16978297 0.051546752
-0.31090757 -0.16974756 0.051530007
-0.311093 -0.16971351 0.051513325
-0.31127703 -0.16968112 0.051483929
-0.31146231 -0.16964385 0.051497314
-0.31165704 -0.16961263 0.051437743
-0.31185716 -0.16956864 0.051486872
-0.31204399 -0.16953969 0.051420432
-0.31223005 -0.16950503 0.051408365
-0.31241086 -0.16946976 0.05141139
-0.3126044 -0.16943651 0.051372655
-0.31280056 -0.16939728 0.051384792
-0.312989 -0.1693664 0.051333368
-0.31316867 -0.16933246 0.051325995
-0.31336272 -0.16929564 0.051319648
-0.31355196 -0.16926685 0.051247399
-0.3137432 -0.16922994 0.051246859
-0.31392723 -0.16919753 0.051217463
-0.31412426 -0.16915776 0.051233061
-0.31431878 -0.16911773 0.051255636
-0.31450212 -0.16908894 0.051193848
-0.31468913 -0.16905648 0.051159799
-0.31489155 -0.16901441 0.051186915
-0.3150866 -0.16897689 0.051185191
-0.31527257 -0.16894549 0.05114305
-0.31546274 -0.16890728 0.051156402
-0.31565273 -0.16887473 0.051117696
-0.31584394 -0.16883832 0.051112525
-0.31604901 -0.16879427 0.051153511
-0.3162359 -0.16876468 0.051092856
-0.31641167 -0.16874009 0.051005691
-0.31662419 -0.16868937 0.051095188
-0.3167941 -0.16866754 0.050993033
-0.316984 -0.16863251 0.050977465
-0.31717876 -0.16859567 0.050969955
-0.31738299 -0.16855289 0.051000535
-0.31755951 -0.16852741 0.050920304
-0.31774417 -0.16849713 0.050870068
-0.31794417 -0.16845579 0.050894912
-0.31815416 -0.16840343 0.051004101
-0.31833091 -0.16838489 0.050859079
-0.31851256 -0.16835482 0.050812349
-0.31871992 -0.16830745 0.050879922
-0.31891564 -0.1682678 0.050896697
-0.31909624 -0.16824567 0.050778247
-0.31927228 -0.16822028 0.05069802
-0.31948209 -0.16816895 0.050797965
-0.31968528 -0.16812786 0.050814666
-0.31987497 -0.16809575 0.050772499
-0.320077 -0.16805801 0.050760292
-0.32026058 -0.1680242 0.050744779
-0.32046258 -0.16798434 0.050752241
-0.32064509 -0.16795585 0.05068931
-0.32083124 -0.1679244 0.050647166
-0.32101026 -0.16789646 0.050585419
-0.32121345 -0.16785362 0.050618324
-0.32140025 -0.16782169 0.050579645
-0.32160565 -0.1677752 0.05064261
-0.32180363 -0.16773674 0.05064432
-0.32199863 -0.16770272 0.050610192
-0.32217064 -0.16767812 0.050530002
-0.32236615 -0.16764164 0.050517853
-0.32254273 -0.16761553 0.050443407
-0.32275778 -0.1675663 0.050514381
-0.32296237 -0.16752109 0.050566934
-0.32315066 -0.16749023 0.050515525
-0.32333151 -0.16746293 0.050444502
-0.32352582 -0.16742955 0.050405767
-0.32373583 -0.16737866 0.050501075
-0.32389522 -0.16736323 0.050358523
-0.32409638 -0.16732292 0.050371781
-0.32426018 -0.16730601 0.050234973
-0.32446733 -0.16726142 0.050277092
-0.32466257 -0.16722362 0.050277673
-0.32486457 -0.16718102 0.050310582
-0.32505026 -0.16715015 0.050263818
-0.32527328 -0.16709653 0.050361328
-0.32544434 -0.1670761 0.050244126
-0.32562914 -0.16704592 0.05019274
-0.32582954 -0.16700663 0.050197907
-0.32603535 -0.16696179 0.050244663
-0.32622874 -0.16692573 0.050232533
-0.32642519 -0.16688757 0.050234266
-0.32660991 -0.16685751 0.050181724
-0.32680789 -0.16682018 0.050173026
-0.32699749 -0.16678683 0.050142426
-0.32720229 -0.16674495 0.050163731
-0.32739875 -0.16670702 0.05016315
-0.32757866 -0.16668202 0.05007248
-0.32779324 -0.16663375 0.050135352
-0.32797635 -0.16660491 0.050074734
-0.32816789 -0.16657044 0.050051056
-0.32835326 -0.16654176 0.049984626
-0.32856518 -0.16649388 0.050048679
-0.32875991 -0.16645743 0.050037701
-0.32894418 -0.16642785 0.049981691
-0.3291364 -0.16639474 0.049944118
-0.32934293 -0.16635239 0.049966585
-0.32954827 -0.16631091 0.049983274
-0.32973126 -0.16628218 0.04992149
-0.32991561 -0.16625258 0.049865484
-0.33010948 -0.1662153 0.049863759
-0.3303009 -0.16618447 0.049806535
-0.33049831 -0.166145 0.049818661
-0.33071807 -0.16609474 0.049890745
-0.33092532 -0.16605088 0.049925935
-0.33108678 -0.1660389 0.049747497
-0.33129245 -0.1659961 0.049775749
-0.33149275 -0.16596144 0.049738113
-0.33171314 -0.16590969 0.049822923
-0.33188495 -0.16589111 0.049687199
-0.33209458 -0.16584307 0.049757067
-0.332297 -0.16580725 0.049726345
-0.33248642 -0.1657763 0.049673762
-0.33268288 -0.16573651 0.04969053
-0.33287603 -0.16570334 0.049651794
-0.33309248 -0.16566071 0.049659129
-0.33327901 -0.16563007 0.04960889
-0.33347449 -0.16559111 0.04961988
-0.33366209 -0.16555838 0.049586982
-0.33384874 -0.16552772 0.049536727
-0.33404762 -0.16548984 0.04953149
-0.33423483 -0.16546181 0.049455799
-0.33439979 -0.16543806 0.049380295
-0.33465481 -0.1653703 0.049551558
-0.33481228 -0.16535535 0.04940787
-0.33504307 -0.16529912 0.049515713
-0.3352423 -0.16526565 0.04946883
-0.33544514 -0.16523013 0.049434643
-0.33564708 -0.16519228 0.04942359
-0.33584481 -0.1651555 0.049410272
-0.33603331 -0.1651226 0.049377367
-0.33624035 -0.16508341 0.049369738
-0.33643848 -0.16504791 0.049343687
-0.3366397 -0.16501071 0.049328018
-0.33682674 -0.16497597 0.049314789
-0.33702511 -0.16493769 0.049314182
-0.33723387 -0.1649019 0.049271841
-0.33742636 -0.16486563 0.049263198
-0.33763808 -0.16482277 0.049280986
-0.3377921 -0.16480662 0.049154676
-0.33801192 -0.16476072 0.049186274
-0.3382214 -0.16471793 0.049207553
-0.3384161 -0.16468334 0.049179211
-0.33863887 -0.16463876 0.049193434
-0.33882892 -0.16460681 0.049148936
-0.33901146 -0.16457631 0.049104519
-0.3392401 -0.16452472 0.049173057
-0.33943614 -0.16448964 0.049147025
-0.33963424 -0.16445477 0.049115185
-0.33980867 -0.16443008 0.049031503
-0.34000778 -0.1643934 0.049014699
-0.34020522 -0.16435766 0.048992123
-0.34041417 -0.1643171 0.048993737
-0.34063029 -0.16427279 0.049017273
-0.34081984 -0.16423881 0.048992451
-0.34100524 -0.16420965 0.048930645
-0.34122628 -0.16416164 0.04897958
-0.34143209 -0.1641243 0.048956931
-0.34162039 -0.16409494 0.048891641
-0.34181842 -0.16405922 0.0488679
-0.342026 -0.16401729 0.048884571
-0.34222546 -0.1639834 0.048841156
-0.34240746 -0.16395365 0.048790943
-0.3426331 -0.16390499 0.048837531
-0.34282643 -0.16387193 0.048797645
-0.34306085 -0.16382509 0.048811749
-0.34326848 -0.1637909 0.048756704
-0.34345138 -0.16375957 0.048719209
-0.34365141 -0.16372198 0.048709337
-0.34385473 -0.16368274 0.048708696
-0.34405401 -0.1636444 0.048706926
-0.34425309 -0.16361347 0.048636895
-0.34446591 -0.16356717 0.048684761
-0.34467268 -0.16353002 0.048658624
-0.34486276 -0.16349533 0.048639581
-0.23959291 -0.18325631 0.05409972
-0.23983879 -0.18321636 0.054029338
-0.24007984 -0.18317723 0.053960167
-0.24033694 -0.18313749 0.053867713
-0.24057737 -0.18309972 0.053786971
-0.24083333 -0.18306133 0.053684115
-0.24108541 -0.18302506 0.053568579
-0.2413104 -0.18298364 0.053549275
-0.24153736 -0.18294372 0.05351261
-0.24176858 -0.18290436 0.05346318
-0.24199988 -0.1828651 0.053412594
-0.24222824 -0.1828244 0.05338053
-0.24245563 -0.1827849 0.053339235
-0.24269855 -0.18274727 0.05325269
-0.24293415 -0.18270893 0.053185876
-0.24317534 -0.18267015 0.053113222
-0.24340416 -0.18263124 0.05306381
-0.2436402 -0.18259206 0.05300393
-0.24387911 -0.18255459 0.052923199
-0.2441069 -0.18251587 0.052873798
-0.24433832 -0.18247771 0.052812804
-0.24457055 -0.18243852 0.052759893
-0.24480635 -0.18240115 0.052683827
-0.24503593 -0.18236309 0.052625153
-0.24527293 -0.18232611 0.052543286
-0.24550684 -0.18228759 0.052481107
-0.24573496 -0.1822497 0.052423611
-0.24598037 -0.1822142 0.052312754
-0.24620317 -0.18217583 0.052269176
-0.24642271 -0.18213585 0.052246459
-0.24665289 -0.18209867 0.052178532
-0.24688467 -0.18206057 0.052116368
-0.24710777 -0.18202263 0.052068166
-0.24733503 -0.18198541 0.052006051
-0.24756196 -0.18194823 0.051943932
-0.2477861 -0.18190947 0.051901504
-0.24801016 -0.18187211 0.051846348
-0.24823427 -0.18183486 0.051790044
-0.2484566 -0.18179744 0.051738374
-0.24867916 -0.18175888 0.05169712
-0.2489038 -0.18172202 0.051636174
-0.24912398 -0.18168329 0.051600724
-0.24934402 -0.18164594 0.051552542
-0.24956414 -0.18160871 0.051503211
-0.24978432 -0.18157159 0.051452726
-0.25000161 -0.18153277 0.051423073
-0.25022474 -0.18149634 0.051360998
-0.25044572 -0.18145831 0.051317435
-0.25066021 -0.18142067 0.051282033
-0.25087821 -0.18138236 0.051246598
-0.25109667 -0.18134557 0.051196117
-0.25134405 -0.18131244 0.051059801
-0.25154504 -0.18126467 0.051142491
-0.25192252 -0.18118969 0.051161189
-0.25219581 -0.18115196 0.051021174
-0.25267357 -0.18109408 0.050701264
-0.25280502 -0.18104236 0.050945334
-0.25302961 -0.18100901 0.050852004
-0.25324667 -0.18097299 0.050796911
-0.2534596 -0.18093489 0.050768465
-0.25366959 -0.18089774 0.050736569
-0.25388321 -0.18085851 0.050717361
-0.25409272 -0.18082431 0.050658867
-0.25430572 -0.18078658 0.050626948
-0.25451508 -0.18074967 0.050593905
-0.2547363 -0.18071085 0.050557282
-0.2549305 -0.180674 0.050550971
-0.25514111 -0.1806376 0.050510969
-0.25536388 -0.18060085 0.050452366
-0.25555998 -0.18056312 0.05045066
-0.25576121 -0.18052505 0.050443128
-0.25597119 -0.18048739 0.050415859
-0.25618127 -0.18045133 0.050373554
-0.25638777 -0.18041311 0.050357878
-0.25657943 -0.18037474 0.050370097
-0.25677589 -0.18033595 0.050377645
-0.25696683 -0.18029597 0.050406054
-0.25714943 -0.18025263 0.050480813
-0.25732106 -0.18020676 0.050598465
-0.2574648 -0.18015443 0.050826229
-0.25606918 -0.1795505 0.058930326
-0.25661704 -0.17950946 0.05832874
-0.25673327 -0.17944196 0.058746442
-0.25695896 -0.17940764 0.058660042
-0.25740302 -0.17923817 0.059435774
-0.25768965 -0.1791203 0.060015082
-0.25947055 -0.17922251 0.05587383
-0.25969493 -0.17918719 0.055799015
-0.25988832 -0.17913479 0.055938449
-0.2601507 -0.17909603 0.055827435
-0.26035303 -0.17905848 0.055812959
-0.26052994 -0.17902096 0.055843811
-0.26075372 -0.17898065 0.055816419
-0.26097161 -0.17894235 0.055780984
-0.26116079 -0.17891394 0.055705316
-0.2613565 -0.17887117 0.055751048
-0.26159984 -0.17883521 0.055648305
-0.26179522 -0.17879613 0.055660486
-0.26201171 -0.17875236 0.055678271
-0.26220292 -0.17871021 0.055726349
-0.26237124 -0.1786741 0.055759579
-0.26260883 -0.17863886 0.055660367
-0.26282665 -0.17861654 0.055476874
-0.26300016 -0.17857468 0.055554017
-0.26323995 -0.17852344 0.055599362
-0.26342627 -0.1784876 0.055597745
-0.26364946 -0.17845227 0.055525258
-0.26385665 -0.17841178 0.055529244
-0.26403776 -0.17837831 0.055514947
-0.26422381 -0.17834264 0.055512175
-0.2644774 -0.17829835 0.055468336
-0.26465279 -0.17826511 0.055462182
-0.26488459 -0.17822351 0.055432409
-0.26510009 -0.17819041 0.055353042
-0.26528245 -0.17814972 0.055403512
-0.26546872 -0.1781145 0.05539611
-0.26568729 -0.1780767 0.055354886
-0.26587212 -0.17803903 0.055372946
-0.26604956 -0.17800489 0.055371411
-0.26628304 -0.17797294 0.055249088
-0.26646316 -0.17792945 0.055329643
-0.26669499 -0.17788659 0.055311438
-0.26688743 -0.17784995 0.055306293
-0.26706475 -0.17781819 0.055282783
-0.26729196 -0.17777811 0.05524727
-0.26749119 -0.17774004 0.055243224
-0.26769471 -0.17770375 0.055214856
-0.26787582 -0.17766504 0.05524914
-0.26809564 -0.17762449 0.055231038
-0.26828408 -0.17759112 0.055202797
-0.26847363 -0.17755602 0.055188432
-0.26872712 -0.17752334 0.055037018
-0.26891807 -0.17748225 0.055075847
-0.26909286 -0.17744102 0.055144891
-0.26929691 -0.17740799 0.055085279
-0.26949817 -0.17737152 0.055062719
-0.2697041 -0.1773349 0.05503317
-0.2698985 -0.17729788 0.05502801
-0.27011609 -0.17725727 0.055014554
-0.27030736 -0.17722371 0.054982826
-0.27051121 -0.17718649 0.054962538
-0.27072445 -0.17714897 0.054928303
-0.27089864 -0.17711733 0.054909438
-0.27107975 -0.17707425 0.054984212
-0.27129498 -0.17704295 0.054888658
-0.27150121 -0.17700988 0.054825567
-0.27169394 -0.17696507 0.054895602
-0.27189517 -0.17693223 0.054839496
-0.27209446 -0.17690112 0.054770678
-0.27228421 -0.17685738 0.054836117
-0.27249479 -0.17682722 0.054738283
-0.2726883 -0.17679873 0.054655641
-0.27288815 -0.17675255 0.054725621
-0.27308002 -0.17670728 0.054801449
-0.27329051 -0.17667228 0.054748725
-0.27346864 -0.1766329 0.05479461
-0.2736645 -0.17660083 0.054740854
-0.2738719 -0.17657278 0.054629169
-0.27406517 -0.17653112 0.054669134
-0.27427602 -0.17649417 0.054633763
-0.27446467 -0.17645264 0.054680698
-0.27465379 -0.17642 0.054644365
-0.27486798 -0.1763854 0.054581203
-0.27506518 -0.17635806 0.054481175
-0.27524975 -0.17632006 0.0545027
-0.2754465 -0.17627785 0.054541476
-0.27565745 -0.17624176 0.054498002
-0.27585226 -0.17620441 0.054495156
-0.27602676 -0.17616597 0.054538757
-0.27621761 -0.17613225 0.054509334
-0.27643073 -0.17610124 0.054414958
-0.27662674 -0.17605866 0.054458365
-0.27680996 -0.17602317 0.05445908
-0.27702606 -0.17599481 0.054334603
-0.27722675 -0.17595571 0.054337483
-0.27742952 -0.17591819 0.054321848
-0.27763113 -0.17587654 0.054346696
-0.27785301 -0.17583996 0.0542881
-0.27802896 -0.17580624 0.054285411
-0.27819583 -0.17576554 0.05436378
-0.27839988 -0.17573638 0.054268312
-0.27859473 -0.17570014 0.054255057
-0.2788043 -0.17566158 0.054237045
-0.27897635 -0.17563222 0.054200854
-0.27916312 -0.17558956 0.054261684
-0.27936295 -0.17555411 0.054232199
-0.27957624 -0.17551532 0.054209523
-0.27977467 -0.17547889 0.054191612
-0.27997738 -0.17544252 0.054165564
-0.28016612 -0.17542104 0.05402628
-0.28036299 -0.17537582 0.05409281
-0.28056034 -0.17533486 0.054118857
-0.28075629 -0.17530477 0.054046597
-0.28093052 -0.17526639 0.054090202
-0.281095 -0.17521842 0.054240294
-0.28131941 -0.17519569 0.05404865
-0.28149787 -0.17515725 0.054085273
-0.28169528 -0.1751295 0.05398871
-0.28188601 -0.17509069 0.054006726
-0.28208596 -0.17505722 0.053958721
-0.28228459 -0.175018 0.053966254
-0.28247526 -0.17498381 0.053941458
-0.28266618 -0.17495008 0.053912044
-0.28286105 -0.17490673 0.053964719
-0.28306955 -0.17486949 0.053936299
-0.28324869 -0.17483677 0.053918555
-0.28343645 -0.17480464 0.053879909
-0.28362885 -0.17476825 0.053872459
-0.28382298 -0.17473415 0.053840697
-0.28403297 -0.17469962 0.053784512
-0.28421521 -0.17465559 0.053866215
-0.28440738 -0.17463008 0.053758126
-0.28458202 -0.17459212 0.0537971
-0.28478453 -0.17455915 0.053739816
-0.28498024 -0.17452824 0.053675663
-0.28519017 -0.1744891 0.053662278
-0.28537422 -0.17444733 0.053719662
-0.2855587 -0.17440598 0.053772427
-0.28574345 -0.17437729 0.053707212
-0.2859323 -0.17434919 0.053629227
-0.28613329 -0.17431539 0.05358237
-0.28632289 -0.17428927 0.053484723
-0.28652024 -0.17424993 0.053495735
-0.28670746 -0.17419958 0.053627126
-0.28688195 -0.17415392 0.053737804
-0.28708175 -0.17413306 0.053572983
-0.28727835 -0.17410697 0.053462546
-0.28747246 -0.17406139 0.053537205
-0.28766057 -0.17402682 0.053520538
-0.28785771 -0.17400312 0.053386971
-0.28805196 -0.17395753 0.053461615
-0.28823271 -0.17391564 0.053525977
-0.28843141 -0.17387941 0.053505749
-0.2886318 -0.17384735 0.05344386
-0.28881872 -0.17381077 0.053448029
-0.28900975 -0.17378461 0.05334805
-0.28920594 -0.17375286 0.053290825
-0.28939864 -0.17371204 0.053323854
-0.28958097 -0.17367372 0.053352341
-0.28977111 -0.17363603 0.053361099
-0.28996998 -0.17360201 0.053320047
-0.2901518 -0.1735618 0.053367049
-0.29034051 -0.17353173 0.053307585
-0.29053727 -0.1735172 0.053089574
-0.29073858 -0.1734675 0.053189613
-0.29091418 -0.17341749 0.053338453
-0.29110441 -0.17339501 0.053206101
-0.29130971 -0.17335999 0.053162679
-0.2914975 -0.17331277 0.053264
-0.29168507 -0.17329825 0.053062268
-0.29188478 -0.17325535 0.053102173
-0.29207364 -0.17321229 0.053162985
-0.29227623 -0.17318504 0.053052507
-0.29245883 -0.17314766 0.053071745
-0.29265293 -0.17311443 0.053031888
-0.29284519 -0.17306823 0.053115807
-0.29302838 -0.17303461 0.053099185
-0.2932193 -0.17300647 0.053017713
-0.29341635 -0.17296956 0.053006753
-0.29360983 -0.1729331 0.052998133
-0.29379955 -0.17289424 0.053018458
-0.29398611 -0.17286134 0.052989081
-0.29417261 -0.1728292 0.052952759
-0.29436603 -0.17279424 0.052930269
-0.29455945 -0.17276214 0.052881159
-0.29474914 -0.17271917 0.052939661
-0.29494244 -0.17268746 0.05288709
-0.29513574 -0.17264916 0.052895825
-0.29533604 -0.17261012 0.052898705
-0.29551509 -0.17258042 0.052853204
-0.29571858 -0.17254676 0.052800551
-0.29589811 -0.17250548 0.052861445
-0.29607683 -0.17247784 0.052797429
-0.29627281 -0.17244825 0.05272055
-0.2964665 -0.172405 0.052774392
-0.29665929 -0.17237128 0.052741483
-0.29685476 -0.17234328 0.052650727
-0.29705209 -0.17229946 0.052703381
-0.29723099 -0.17226617 0.052691419
-0.29741642 -0.17223448 0.052652791
-0.29762718 -0.17219307 0.052659065
-0.29780617 -0.17215888 0.052655194
-0.29798871 -0.17212389 0.052652456
-0.29817441 -0.1720899 0.052634649
-0.29837129 -0.17205079 0.052644502
-0.29855925 -0.17202187 0.052575782
-0.29875201 -0.17198591 0.052563697
-0.29894087 -0.17195219 0.052537769
-0.29914099 -0.17191344 0.052538346
-0.29932678 -0.17187858 0.052528642
-0.29951933 -0.17184329 0.052510772
-0.29970559 -0.17180657 0.052517258
-0.29988813 -0.17177145 0.052515674
-0.30007866 -0.17175351 0.052340511
-0.30027977 -0.17170087 0.052468315
-0.30045804 -0.17166868 0.05244711
-0.30064398 -0.17164302 0.052351803
-0.300841 -0.17160362 0.052363973
-0.30102709 -0.17156757 0.052364673
-0.30122629 -0.17152251 0.052425407
-0.3014082 -0.17149775 0.052328978
-0.30159858 -0.17146748 0.052268334
-0.30178854 -0.17142981 0.052277096
-0.30198076 -0.17139459 0.052259229
-0.30218145 -0.17134687 0.052341923
-0.30237192 -0.17131597 0.052287072
-0.30255252 -0.17129993 0.052111998
-0.30274391 -0.17126623 0.052081425
-0.30293897 -0.17121749 0.052183833
-0.30311975 -0.17118607 0.052151032
-0.3033185 -0.17114373 0.05218748
-0.30351493 -0.17111279 0.052122157
-0.3037211 -0.17106852 0.052163161
-0.30390009 -0.17103434 0.052159291
-0.30408829 -0.17099464 0.05219005
-0.30427083 -0.17097174 0.052075107
-0.3044776 -0.17092685 0.052120738
-0.3046546 -0.17089641 0.052085653
-0.30484682 -0.17087229 0.051964857
-0.30503452 -0.17083368 0.051986355
-0.30522892 -0.17079441 0.05200202
-0.30542281 -0.17076148 0.051959857
-0.30561528 -0.17072557 0.051947773
-0.30580169 -0.17068946 0.051948465
-0.30599999 -0.17065418 0.051920142
-0.30618739 -0.1706215 0.051887285
-0.30637628 -0.17058641 0.051874079
-0.3065604 -0.17054439 0.051933784
-0.30675402 -0.17051162 0.05189047
-0.30695608 -0.17047063 0.05190837
-0.30714175 -0.17044052 0.051854718
-0.30732039 -0.17041165 0.05180227
-0.3075116 -0.17037325 0.051815644
-0.30769768 -0.17034231 0.051768925
-0.30789363 -0.17030162 0.051794987
-0.3080835 -0.17026535 0.05179102
-0.30827433 -0.17022775 0.051797457
-0.30845362 -0.17020598 0.051677927
-0.30864722 -0.17016874 0.051676244
-0.30881855 -0.17014913 0.051550988
-0.30902267 -0.17009003 0.051733132
-0.30919927 -0.17007513 0.051554635
-0.30938503 -0.17004028 0.051544916
-0.30958816 -0.16999097 0.051638
-0.30980265 -0.169939 0.051735613
-0.30998376 -0.16991399 0.051642668
-0.31017175 -0.16988769 0.051549658
-0.31038025 -0.169829 0.051720187
-0.3105891 -0.16979182 0.051690612
-0.31075233 -0.16977724 0.051533051
-0.31094423 -0.16974245 0.05151172
-0.31112951 -0.16970506 0.051526308
-0.31130666 -0.16968058 0.051435709
-0.31151587 -0.1696326 0.051505603
-0.31169578 -0.16960485 0.051440425
-0.31189296 -0.16956419 0.051464155
-0.31207871 -0.16953306 0.05141975
-0.31226745 -0.16949862 0.051400762
-0.31244695 -0.16946471 0.051393416
-0.31264278 -0.16942891 0.051374376
-0.31284276 -0.1693887 0.051388822
-0.31302544 -0.16936079 0.051320154
-0.31321037 -0.16932434 0.051326651
-0.31340143 -0.16929057 0.051297233
-0.3136 -0.16925499 0.051271215
-0.31378132 -0.16922535 0.051221061
-0.31396949 -0.16918865 0.051224053
-0.31416985 -0.16914836 0.051238507
-0.31435958 -0.16911024 0.051251896
-0.31454715 -0.16908002 0.051195908
-0.31473303 -0.16904862 0.051153816
-0.31493795 -0.16900408 0.051199455
-0.31512982 -0.16896968 0.051174659
-0.31531328 -0.16893788 0.051140673
-0.31550401 -0.1689018 0.051133238
-0.31569642 -0.16886692 0.051111903
-0.31589106 -0.16882722 0.051131032
-0.31609228 -0.16878676 0.051145483
-0.31627688 -0.16875923 0.051069852
-0.31646344 -0.1687272 0.051032379
-0.31666461 -0.16868179 0.051093094
-0.31683955 -0.16865785 0.051001355
-0.31702805 -0.16862409 0.050976589
-0.31722575 -0.16858456 0.050988752
-0.31742409 -0.16854702 0.050981242
-0.31760466 -0.1685179 0.050927624
-0.31778672 -0.16848986 0.050861277
-0.31798851 -0.16844693 0.050897695
-0.31819797 -0.16839503 0.051003437
-0.31836569 -0.16838184 0.050825015
-0.31855828 -0.16834468 0.050824497
-0.3187649 -0.16829795 0.05088748
-0.31895697 -0.16826136 0.050882343
-0.31913614 -0.16824037 0.050755873
-0.31931749 -0.16821046 0.050708026
-0.31953284 -0.16815682 0.050819512
-0.31973094 -0.16811995 0.050806228
-0.31991899 -0.16808914 0.05075486
-0.32012632 -0.16804701 0.050773881
-0.32031244 -0.16801332 0.050752595
-0.32050863 -0.16797596 0.050747424
-0.32069096 -0.16794537 0.0507042
-0.32087237 -0.16791771 0.050635539
-0.32105359 -0.16788796 0.050586548
-0.32126057 -0.16784428 0.050620604
-0.32144395 -0.16781287 0.050583158
-0.32165545 -0.1677637 0.050659977
-0.32185209 -0.16772836 0.050635137
-0.32204223 -0.1676939 0.050613817
-0.32221246 -0.16767064 0.050524432
-0.32241195 -0.16763313 0.050514609
-0.32258859 -0.16760489 0.050459869
-0.32280099 -0.16755767 0.050517015
-0.32300314 -0.16751429 0.050556898
-0.32319161 -0.16748327 0.050506681
-0.32337305 -0.16745548 0.050439175
-0.32356957 -0.16742042 0.050412022
-0.32377502 -0.16737291 0.050484274
-0.32394135 -0.16735426 0.050359063
-0.3241345 -0.16731785 0.050350443
-0.32430169 -0.16729841 0.050231021
-0.3245123 -0.16725127 0.050290488
-0.32470185 -0.16721755 0.050263397
-0.32491291 -0.16717035 0.050322875
-0.32509089 -0.16714309 0.05025655
-0.32531753 -0.1670869 0.050371408
-0.32548004 -0.16707247 0.050213844
-0.32567161 -0.16703561 0.050212182
-0.32586199 -0.16700149 0.050187401
-0.32607362 -0.16695441 0.050244555
-0.32626593 -0.16691904 0.050227851
-0.32646573 -0.16688035 0.050228424
-0.32664916 -0.16685118 0.050170153
-0.32684702 -0.16681212 0.050177693
-0.32703528 -0.16677964 0.050141357
-0.32724032 -0.16673759 0.050163865
-0.32743412 -0.16670141 0.050151773
-0.32761791 -0.16667379 0.050078467
-0.32783142 -0.16662623 0.050136756
-0.328015 -0.16659702 0.050078489
-0.3282057 -0.16656309 0.050051387
-0.32838815 -0.16653459 0.049988508
-0.32860142 -0.16648583 0.050058361
-0.3287968 -0.16645062 0.050034691
-0.32898074 -0.16642122 0.049977571
-0.32917401 -0.16638741 0.049944662
-0.32938105 -0.16634472 0.049969472
-0.32958269 -0.16630392 0.049986232
-0.32976261 -0.16627717 0.049911801
-0.32994944 -0.16624759 0.049851187
-0.33015135 -0.16620512 0.049882978
-0.33033854 -0.16617697 0.04980848
-0.33053622 -0.16613732 0.049821809
-0.33075991 -0.1660862 0.049895041
-0.33096167 -0.16604576 0.049908333
-0.33112764 -0.16603091 0.049748432
-0.33133212 -0.16598883 0.049772099
-0.33153296 -0.16595381 0.049736805
-0.3317557 -0.16590062 0.04983088
-0.33191961 -0.16588528 0.049679089
-0.33213985 -0.16583382 0.049761623
-0.33233586 -0.16580035 0.049720585
-0.33253014 -0.16576797 0.049672633
-0.33272654 -0.16572818 0.049689442
-0.33291692 -0.16569668 0.049640357
-0.33313176 -0.16565347 0.049655851
-0.33332381 -0.16562103 0.049612544
-0.33351278 -0.16558442 0.049613219
-0.33370215 -0.16555211 0.049573403
-0.33388972 -0.16551939 0.049540542
-0.33409038 -0.16548191 0.04952839
-0.33427289 -0.16545515 0.04944931
-0.334445 -0.16542865 0.049386509
-0.33469716 -0.16536257 0.049547408
-0.33485743 -0.16534594 0.049414165
-0.33509356 -0.16528805 0.049527779
-0.33528695 -0.16525796 0.049460165
-0.33549023 -0.16522072 0.049441062
-0.33568776 -0.16518396 0.049427778
-0.33588383 -0.16514812 0.049408726
-0.33607635 -0.16511433 0.049376976
-0.33628741 -0.16507423 0.04937052
-0.33648151 -0.165041 0.049330659
-0.33668327 -0.16500206 0.049330071
-0.33687371 -0.16496679 0.049315691
-0.33707172 -0.1649287 0.04931397
-0.33728009 -0.16489311 0.049270529
-0.33747119 -0.16485623 0.049270023
-0.3376798 -0.16481508 0.049277466
-0.3378365 -0.16479741 0.049160443
-0.33805764 -0.16475213 0.049183965
-0.33826819 -0.16470739 0.049221467
-0.33846456 -0.16467322 0.049186215
-0.33868766 -0.16462843 0.049201634
-0.33887452 -0.16459823 0.049146809
-0.33905596 -0.16456832 0.049098957
-0.33928978 -0.16451523 0.049172111
-0.33948129 -0.16448125 0.049143851
-0.3396779 -0.16444717 0.049107444
-0.33985102 -0.16442184 0.049031917
-0.34005281 -0.16438502 0.049011659
-0.34025505 -0.16434799 0.048992552
-0.340464 -0.16430742 0.048994206
-0.34067926 -0.16426226 0.049027033
-0.34086776 -0.16423011 0.048987236
-0.34105533 -0.16419977 0.048932403
-0.34127903 -0.16415162 0.048977874
-0.34148481 -0.16411428 0.048955277
-0.34167078 -0.16408487 0.04889467
-0.34186688 -0.16405013 0.048865207
-0.34207937 -0.16400689 0.048885342
-0.34227502 -0.16397375 0.048842002
-0.34246078 -0.16394325 0.048791807
-0.34268606 -0.16389479 0.048837274
-0.34288353 -0.1638608 0.048798554
-0.34310642 -0.16381867 0.048789673
-0.34332171 -0.1637805 0.048757736
-0.34350803 -0.16374864 0.048719101
-0.34370765 -0.16371123 0.048708118
-0.34390673 -0.16367294 0.04870639
-0.34411323 -0.16363333 0.04870344
-0.3443082 -0.16360207 0.048643917
-0.34452367 -0.16355562 0.048688307
-0.34472418 -0.16352043 0.048655339
-0.34492046 -0.16348378 0.04864322
-0.23954675 -0.18326296 0.054120839
-0.23978809 -0.18322363 0.054052833
-0.24003032 -0.18318452 0.053981364
-0.24028441 -0.18314673 0.053876229
-0.24053061 -0.18310709 0.053802408
-0.24078208 -0.18306695 0.053723902
-0.24104644 -0.18303068 0.053586304
-0.24126959 -0.18299136 0.053550847
-0.24150001 -0.18295053 0.053516485
-0.24172986 -0.18291092 0.053471722
-0.24196622 -0.18287094 0.053418808
-0.24219213 -0.18283109 0.053383324
-0.2424209 -0.18279044 0.053350132
-0.24266209 -0.18275252 0.053269412
-0.24290113 -0.18271327 0.053204902
-0.24313909 -0.18267523 0.053131148
-0.24337736 -0.18263611 0.053066641
-0.24360612 -0.18259722 0.053017251
-0.24384806 -0.18255877 0.052939996
-0.24407852 -0.1825203 0.052883662
-0.24430864 -0.18248188 0.052827321
-0.2445396 -0.18244369 0.052767504
-0.24477842 -0.18240535 0.052694902
-0.24500866 -0.1823673 0.052635096
-0.24525021 -0.18232955 0.052552059
-0.24548049 -0.18229173 0.05248994
-0.24571356 -0.18225314 0.052430101
-0.24595807 -0.18221743 0.052322745
-0.24618769 -0.18217863 0.052271042
-0.24640094 -0.18213896 0.052256491
-0.24663678 -0.1821012 0.052183911
-0.2468642 -0.18206368 0.052124124
-0.24708793 -0.18202576 0.052074783
-0.24731584 -0.18198852 0.052011531
-0.247545 -0.1819503 0.051955197
-0.2477663 -0.18191233 0.051910505
-0.24799593 -0.18187439 0.051850699
-0.24821845 -0.18183681 0.051800214
-0.24844523 -0.18179868 0.051747382
-0.24866605 -0.18176106 0.05170038
-0.24889438 -0.18172337 0.051640585
-0.24911134 -0.18168537 0.051604025
-0.24933544 -0.18164724 0.051555842
-0.2495558 -0.18160996 0.051506527
-0.24977514 -0.18157263 0.051459536
-0.24998888 -0.1815345 0.051429946
-0.25021747 -0.1814975 0.051363207
-0.25043491 -0.18146016 0.051319707
-0.25065446 -0.18142192 0.051280811
-0.2508668 -0.18138392 0.051252395
-0.25109032 -0.18134654 0.05119843
-0.25133553 -0.18131159 0.051082965
-0.25155324 -0.18126659 0.051110025
-0.25171342 -0.18122268 0.05123011
-0.25191545 -0.18118879 0.05118211
-0.2521649 -0.1811509 0.051086284
-0.25245604 -0.18113318 0.05072866
-0.25266516 -0.18109407 0.050716463
-0.25280297 -0.18104199 0.050952423
-0.25302601 -0.18100968 0.050852187
-0.25324297 -0.18097356 0.050798278
-0.25345239 -0.18093613 0.05076988
-0.25366664 -0.18089828 0.050736815
-0.25388148 -0.18085919 0.050714158
-0.25409266 -0.1808238 0.050663769
-0.25430217 -0.18078673 0.050631899
-0.25451306 -0.18075003 0.05059424
-0.25473386 -0.18071105 0.050559957
-0.25492829 -0.18067414 0.050553676
-0.25514069 -0.18063802 0.050507899
-0.25536212 -0.1806009 0.050455108
-0.25555843 -0.18056314 0.050453421
-0.25576448 -0.18052448 0.050442412
-0.25597101 -0.1804875 0.050415196
-0.2561847 -0.18045063 0.050374042
-0.25638801 -0.18041313 0.05035726
-0.25658357 -0.18037401 0.050369471
-0.25677994 -0.1803351 0.050378196
-0.25697172 -0.18029523 0.050404321
-0.25714993 -0.18025233 0.05048262
-0.25732547 -0.18020572 0.050600264
-0.25746664 -0.18015423 0.050824631
-0.25607941 -0.17955026 0.058914296
-0.25663313 -0.17951044 0.058290683
-0.25674039 -0.17944068 0.058745533
-0.25696456 -0.1794059 0.058666117
-0.25741521 -0.17923602 0.05943384
-0.25770897 -0.17911977 0.059985422
-0.25948834 -0.17921968 0.055868264
-0.25971022 -0.17918359 0.055805057
-0.25991139 -0.17913142 0.05592826
-0.26016912 -0.17909306 0.055821955
-0.26036605 -0.17905568 0.055815637
-0.26055524 -0.17901616 0.055842943
-0.26078352 -0.17897524 0.055813234
-0.26099265 -0.17893973 0.055767477
-0.26118395 -0.17891005 0.055699915
-0.26139641 -0.17886481 0.055738583
-0.26162511 -0.17882991 0.055652179
-0.26181346 -0.1787923 0.055663291
-0.26203293 -0.17874746 0.055685714
-0.26222563 -0.17870565 0.055728018
-0.26239884 -0.17866908 0.055756614
-0.26264384 -0.17863417 0.055641159
-0.26284444 -0.17861204 0.055486739
-0.26302415 -0.17856823 0.055570811
-0.26326811 -0.17851818 0.055597641
-0.26345512 -0.17848246 0.055593733
-0.26368222 -0.17844637 0.055521227
-0.26388887 -0.17840561 0.055528712
-0.26406991 -0.17837203 0.055515595
-0.26425406 -0.17833561 0.055523276
-0.26450235 -0.17829333 0.055470254
-0.26468602 -0.17825887 0.055460587
-0.26492012 -0.17821793 0.055420406
-0.26512933 -0.17818455 0.055355005
-0.26531091 -0.1781455 0.055391617
-0.26550847 -0.17810811 0.055384148
-0.26571456 -0.17807184 0.055351153
-0.26590517 -0.17803204 0.055378441
-0.26608962 -0.1779983 0.055360664
-0.26631212 -0.17796634 0.055258125
-0.26649225 -0.17792271 0.055339877
-0.26673797 -0.17788081 0.055288032
-0.26691803 -0.17784354 0.055310778
-0.26710349 -0.17781273 0.055264086
-0.26732707 -0.17777109 0.055249445
-0.26752901 -0.17773399 0.055231526
-0.26773021 -0.17769665 0.05521708
-0.2679103 -0.17765738 0.055258341
-0.26813361 -0.17761816 0.055221725
-0.26832059 -0.17758182 0.055223607
-0.26851782 -0.17754985 0.055166386
-0.26877114 -0.17751472 0.055038135
-0.26895475 -0.1774749 0.055078201
-0.26913419 -0.17743327 0.055142608
-0.26934081 -0.17740126 0.055069122
-0.26954183 -0.17736457 0.05504889
-0.26974213 -0.17732766 0.055032149
-0.26994848 -0.17728883 0.055022284
-0.27015764 -0.17724897 0.055017024
-0.27035114 -0.17721635 0.054972567
-0.27055591 -0.17717946 0.054947682
-0.27076513 -0.17714232 0.05491697
-0.2709325 -0.17710975 0.054919004
-0.2711257 -0.17706497 0.054987922
-0.2713449 -0.17703551 0.054868054
-0.27154753 -0.17700054 0.054829307
-0.2717419 -0.1769564 0.054890111
-0.27194539 -0.1769246 0.05482012
-0.27213857 -0.1768928 0.054768726
-0.27233928 -0.17684683 0.054835267
-0.27253634 -0.17681991 0.054731775
-0.27273849 -0.17678799 0.054665271
-0.27294406 -0.17674208 0.054722518
-0.27312142 -0.17669673 0.054825101
-0.2733371 -0.17666447 0.054737654
-0.27351031 -0.17662217 0.054819468
-0.27372509 -0.17659244 0.054710045
-0.27392113 -0.17656332 0.054628558
-0.2741141 -0.17652135 0.054672014
-0.27432358 -0.17648341 0.05464825
-0.27451405 -0.17644277 0.054683633
-0.27470207 -0.17640935 0.05465658
-0.27492487 -0.17637695 0.054557502
-0.27511173 -0.17634898 0.054481868
-0.27530766 -0.17630905 0.054501016
-0.2755034 -0.17626902 0.05452133
-0.27570719 -0.17623119 0.054506853
-0.27590773 -0.17619435 0.054488953
-0.27607706 -0.17615542 0.054546498
-0.27627644 -0.17612417 0.054478854
-0.27648985 -0.17609009 0.054412246
-0.2766735 -0.17605151 0.054440759
-0.2768569 -0.17601599 0.054441497
-0.27707949 -0.17598563 0.054323923
-0.27728131 -0.17594717 0.054318719
-0.27747905 -0.17590913 0.054317031
-0.27768433 -0.17586665 0.054343037
-0.27790079 -0.17583261 0.054270629
-0.27807018 -0.17579716 0.054295778
-0.27824521 -0.17575562 0.054367162
-0.27845034 -0.17572714 0.054263614
-0.27864796 -0.17568937 0.054259613
-0.27885216 -0.17565344 0.054226637
-0.27902287 -0.17562285 0.054204352
-0.27921742 -0.17557907 0.054261684
-0.27941287 -0.17554346 0.054241505
-0.27963388 -0.17550729 0.054180618
-0.27982235 -0.17546967 0.054191731
-0.28003216 -0.17543553 0.054132096
-0.28021169 -0.17541346 0.05401488
-0.28040934 -0.17536472 0.054112673
-0.28061259 -0.17532499 0.054116715
-0.28080559 -0.17529596 0.054039881
-0.28097537 -0.17525308 0.054133289
-0.281149 -0.17520957 0.054225504
-0.28137028 -0.17518783 0.054030426
-0.28154513 -0.17514983 0.054069415
-0.28174534 -0.17512041 0.053983264
-0.28193963 -0.17508066 0.054003578
-0.28213549 -0.1750471 0.053963725
-0.28233531 -0.17500889 0.053959701
-0.2825222 -0.17497495 0.053939596
-0.28271198 -0.17493968 0.053926412
-0.28291541 -0.1748963 0.053964
-0.28312075 -0.17485991 0.053933322
-0.2832931 -0.17482875 0.05391334
-0.28348443 -0.17479569 0.053877003
-0.28367743 -0.17475981 0.053863782
-0.28387624 -0.17472616 0.053819276
-0.28408399 -0.17468844 0.053796683
-0.28426939 -0.17464828 0.053836744
-0.28445637 -0.17462105 0.053754173
-0.28462636 -0.17458197 0.053811714
-0.28483528 -0.17455201 0.053715069
-0.28503022 -0.17451975 0.053664815
-0.28523934 -0.17447914 0.053666495
-0.28541964 -0.17443734 0.053730898
-0.28560266 -0.17439951 0.053753629
-0.28578621 -0.17436869 0.053710412
-0.28598234 -0.17433919 0.053632386
