# .PCD v0.7 - Point Cloud Data file format
VERSION 0.7
FIELDS x y z
SIZE 4 4 4
TYPE F F F
COUNT 1 1 1
WIDTH 1253
HEIGHT 1
VIEWPOINT 0 0 0 1 0 0 0
POINTS 1253
DATA ascii
-0.30208543 -0.11096592 0.057769261
-0.30230621 -0.11084867 0.057898983
-0.30246612 -0.11076982 0.057951607
-0.30261862 -0.1106829 0.058081523
-0.30280319 -0.1106104 0.058016442
-0.30299854 -0.11054853 0.05784639
-0.30317175 -0.11046275 0.05790589
-0.30334324 -0.11040371 0.057788953
-0.30352384 -0.1103311 0.057736564
-0.30370411 -0.11025219 0.057728007
-0.30391386 -0.11015934 0.057725146
-0.30407128 -0.11009482 0.057687819
-0.30426139 -0.11001544 0.057652708
-0.30443832 -0.10993294 0.057678767
-0.30458254 -0.10986802 0.057684142
-0.3047955 -0.10978103 0.057631664
-0.3049525 -0.10972586 0.057532068
-0.30516595 -0.10961373 0.057649128
-0.30534613 -0.10953759 0.057622124
-0.30553269 -0.10946079 0.057580106
-0.30570689 -0.10937577 0.057631537
-0.30586138 -0.10930154 0.057669181
-0.3060413 -0.10922907 0.057617947
-0.3062115 -0.10915802 0.057586361
-0.30642378 -0.10907423 0.057514284
-0.30660355 -0.10900029 0.057473436
-0.30678421 -0.10891715 0.057492554
-0.30696502 -0.10883308 0.05751745
-0.30714124 -0.10876241 0.057465076
-0.30732155 -0.10868333 0.057457671
-0.30748853 -0.10861134 0.057442237
-0.30767798 -0.10853294 0.057402518
-0.30784807 -0.10846077 0.057378989
-0.30800763 -0.10839716 0.057328969
-0.30818868 -0.10831299 0.057353854
-0.30838326 -0.10822111 0.05739025
-0.30854785 -0.10814561 0.057405945
-0.30873838 -0.10807742 0.057293572
-0.30893245 -0.10798916 0.057306886
-0.30909526 -0.10790766 0.057368733
-0.30928198 -0.10781232 0.057452418
-0.30947062 -0.10775176 0.057293914
-0.30962485 -0.10769764 0.057195466
-0.30979902 -0.10760636 0.057289571
-0.31000334 -0.10752627 0.057216369
-0.31018043 -0.10744877 0.057207819
-0.31034464 -0.10737615 0.057205077
-0.31050533 -0.10730612 0.057195418
-0.31068534 -0.10722885 0.057176486
-0.3108815 -0.10714544 0.057150584
-0.31106248 -0.10706452 0.05715356
-0.31124339 -0.10698415 0.057153076
-0.31142634 -0.10690676 0.057126064
-0.31159708 -0.10683191 0.057118684
-0.31178629 -0.10675278 0.057084724
-0.31197891 -0.1066621 0.057118811
-0.3121483 -0.10659193 0.057083759
-0.31233668 -0.10651536 0.057034809
-0.3125025 -0.10644728 0.056996308
-0.3126727 -0.10637438 0.056977406
-0.31286612 -0.10629065 0.056961894
-0.31301674 -0.10623425 0.056889981
-0.31321913 -0.10614061 0.05691481
-0.31339097 -0.10605492 0.056977782
-0.31359181 -0.10596637 0.056972627
-0.31376565 -0.10589135 0.056957174
-0.313923 -0.10582364 0.056941755
-0.31411141 -0.10573909 0.056947019
-0.31427103 -0.10566545 0.056965049
-0.31446826 -0.10559393 0.056854952
-0.31466699 -0.10550412 0.056864798
-0.31483841 -0.1054422 0.056767467
-0.31499434 -0.10537122 0.05677858
-0.31516647 -0.10527389 0.056919977
-0.31535885 -0.10519367 0.056883708
-0.31555441 -0.10513155 0.056714807
-0.31571978 -0.10504502 0.056803167
-0.31590268 -0.10496799 0.056773841
-0.3160924 -0.1048876 0.056746811
-0.31625625 -0.10480548 0.056809794
-0.3164528 -0.10472782 0.056743532
-0.31662667 -0.10465923 0.056684248
-0.31677824 -0.10459884 0.056636561
-0.31692502 -0.10455449 0.05649431
-0.31711304 -0.10447179 0.056488041
-0.31731927 -0.10436729 0.056575138
-0.31751683 -0.10427594 0.056598827
-0.31769174 -0.10420486 0.056553375
-0.31787428 -0.10411798 0.056592099
-0.31804886 -0.10403176 0.056650449
-0.31823647 -0.1039457 0.056668401
-0.3184309 -0.10387696 0.056547936
-0.3186093 -0.10380907 0.056470186
-0.31876084 -0.10374343 0.056458253
-0.31895542 -0.10365392 0.056478485
-0.31913298 -0.10357283 0.056493003
-0.31929523 -0.1035016 0.056486808
-0.31949127 -0.10342892 0.056388251
-0.3196606 -0.1033586 0.056354348
-0.31983384 -0.10327179 0.056420773
-0.32004026 -0.10317992 0.05642138
-0.32021514 -0.10310882 0.056375928
-0.32041004 -0.10302427 0.056361564
-0.32057133 -0.10295516 0.056343835
-0.32075045 -0.10287219 0.056366418
-0.32093146 -0.10280347 0.056286361
-0.32108271 -0.10274322 0.056238666
-0.32130682 -0.10264263 0.056244992
-0.32147956 -0.10257098 0.056209929
-0.32166469 -0.10248245 0.056252103
-0.32182974 -0.10241557 0.056207839
-0.32196087 -0.10238886 0.055992968
-0.32214418 -0.10229943 0.056046687
-0.32237431 -0.10218141 0.056153324
-0.32257065 -0.1020952 0.05614588
-0.32273579 -0.10202421 0.056129292
-0.32291308 -0.10194154 0.056155339
-0.32310769 -0.10186219 0.056106381
-0.32330096 -0.10177735 0.056098938
-0.32348546 -0.10169504 0.056100756
-0.32364964 -0.10162955 0.056049574
-0.32383129 -0.10153697 0.056129813
-0.32400718 -0.1014646 0.056090131
-0.32419538 -0.10138793 0.056042343
-0.324366 -0.10131993 0.055988833
-0.32455713 -0.10122807 0.056035601
-0.324743 -0.10114786 0.056018956
-0.32492653 -0.10106767 0.05600924
-0.32512182 -0.10098413 0.055986807
-0.32530013 -0.10090829 0.055963263
-0.3254835 -0.10082513 0.055974301
-0.32562762 -0.10077195 0.055900108
-0.32578376 -0.10071819 0.055793587
-0.32594427 -0.10065129 0.055763166
-0.32617274 -0.10053367 0.05587212
-0.32636008 -0.10044857 0.055884302
-0.32654241 -0.10037723 0.055818077
-0.32673663 -0.10028263 0.055874072
-0.32691205 -0.10021453 0.055806708
-0.32712114 -0.10011875 0.055825755
-0.32728261 -0.10005091 0.055798791
-0.32746464 -0.099976815 0.055752181
-0.32764041 -0.099901952 0.055729792
-0.32782757 -0.09981472 0.055756971
-0.32800651 -0.099738792 0.055732276
-0.32816571 -0.099671111 0.055711083
-0.32834113 -0.099599957 0.05566448
-0.32853845 -0.099502623 0.055729691
-0.32874137 -0.099416018 0.055704929
-0.32892141 -0.099338919 0.055684838
-0.32910103 -0.099259451 0.055682052
-0.32929936 -0.099173203 0.055668838
-0.32947588 -0.099106655 0.055587627
-0.32963249 -0.099045552 0.05552955
-0.32980928 -0.098972768 0.05548986
-0.33000517 -0.098864198 0.055635806
-0.33020377 -0.098786481 0.055563767
-0.33039588 -0.098705709 0.055532109
-0.33055237 -0.098644823 0.055472873
-0.33072114 -0.098576799 0.055425137
-0.33093169 -0.098475792 0.055475321
-0.33110398 -0.098408908 0.055409122
-0.33130041 -0.098314859 0.055454727
-0.33147711 -0.098237202 0.055448487
-0.33166629 -0.098155014 0.055435289
-0.33184204 -0.098089308 0.055350631
-0.33202019 -0.098012701 0.055332858
-0.33220237 -0.097931251 0.055335831
-0.33241102 -0.097833633 0.055368714
-0.33258915 -0.097770266 0.055260979
-0.33276546 -0.097690918 0.055267431
-0.33295149 -0.097605221 0.055287682
-0.33313423 -0.097528592 0.055256061
-0.33332929 -0.097434983 0.055302817
-0.33351591 -0.097359024 0.055255033
-0.33370316 -0.09727481 0.055261448
-0.33390677 -0.09718655 0.05524591
-0.33408034 -0.097113505 0.055217773
-0.33425796 -0.097025946 0.055276111
-0.33442965 -0.096962549 0.055187996
-0.33461779 -0.096885078 0.055145975
-0.33482841 -0.096789122 0.055161562
-0.33498099 -0.096733034 0.055081576
-0.33519968 -0.096625693 0.055150189
-0.3353681 -0.096561208 0.055079386
-0.33554247 -0.096482903 0.055084676
-0.33574218 -0.096395016 0.055078372
-0.33594754 -0.096303269 0.055081293
-0.33612174 -0.096227743 0.055068135
-0.33629575 -0.096159413 0.055006541
-0.33651623 -0.096058063 0.05502902
-0.33668828 -0.095987387 0.054989349
-0.33686581 -0.095910728 0.054973874
-0.33704638 -0.095833033 0.054956093
-0.33722156 -0.095761321 0.054914106
-0.33742538 -0.095665172 0.054951623
-0.33762243 -0.095583215 0.054913033
-0.33779833 -0.095510826 0.054873355
-0.33798501 -0.095424667 0.054894768
-0.33818582 -0.095336631 0.054886151
-0.33838814 -0.095247082 0.054883301
-0.33854249 -0.095189191 0.05481023
-0.33872211 -0.095110923 0.054799374
-0.33893648 -0.095004477 0.054874912
-0.33912066 -0.094932318 0.054808684
-0.33927542 -0.094878316 0.054707933
-0.33949471 -0.0947714 0.05477193
-0.33969024 -0.094687402 0.054751799
-0.33986884 -0.094610587 0.054734021
-0.34004846 -0.094539106 0.054677032
-0.34025651 -0.094440222 0.05472029
-0.34042454 -0.094374552 0.054658726
-0.34062982 -0.094278768 0.05468931
-0.34082139 -0.094197221 0.054664578
-0.34101805 -0.09411256 0.054645602
-0.34121808 -0.094024532 0.054639298
-0.34140116 -0.093945742 0.054621499
-0.34157488 -0.093874499 0.054580674
-0.3417457 -0.093802162 0.054555994
-0.34196144 -0.093702577 0.054580793
-0.34215322 -0.093621269 0.054553755
-0.34235129 -0.093537688 0.054523237
-0.34253666 -0.093460917 0.05448468
-0.34271985 -0.093378522 0.05449111
-0.34290016 -0.093302995 0.054459482
-0.34312466 -0.093201213 0.054472722
-0.34328279 -0.093143836 0.054384645
-0.34349978 -0.093034215 0.054474019
-0.34367794 -0.092964888 0.054406658
-0.34387821 -0.092879646 0.054380745
-0.34406841 -0.092796661 0.054369859
-0.34425533 -0.092718877 0.054333609
-0.34445834 -0.092623599 0.054367658
-0.34463346 -0.092551723 0.054326821
-0.34482226 -0.092468522 0.05432171
-0.34501061 -0.092391454 0.054276221
-0.3451876 -0.092316039 0.054253839
-0.25725967 -0.13351205 0.040003892
-0.25747612 -0.13343319 0.039885625
-0.25768086 -0.13335495 0.039798528
-0.25788161 -0.13327831 0.039712589
-0.2580753 -0.13320075 0.039654359
-0.25827843 -0.1331217 0.039577652
-0.25846449 -0.13304465 0.039539054
-0.25864956 -0.13296904 0.039493531
-0.25883067 -0.13289233 0.039467633
-0.25900868 -0.13281578 0.039449818
-0.25918245 -0.13273941 0.039443549
-0.25936645 -0.13266021 0.039425708
-0.25953636 -0.13258542 0.039420608
-0.25969806 -0.1325095 0.039447818
-0.25986248 -0.13243493 0.03945772
-0.2600292 -0.13235764 0.039479159
-0.26019856 -0.13228172 0.039483275
-0.26035365 -0.13220468 0.039538193
-0.26050836 -0.13212901 0.039585032
-0.26066262 -0.13205335 0.039633024
-0.26080915 -0.13197637 0.039713342
-0.26095462 -0.13189937 0.03979712
-0.26110005 -0.13182373 0.039871663
-0.26124567 -0.13174666 0.039955445
-0.26138481 -0.13166957 0.04005884
-0.26152745 -0.13159382 0.040142629
-0.26166397 -0.13151942 0.040235657
-0.26180783 -0.13144076 0.040335584
-0.26194531 -0.13136628 0.040426303
-0.26208827 -0.1312875 0.040529702
-0.26222205 -0.13121144 0.04064234
-0.26235488 -0.1311353 0.04075845
-0.26248121 -0.13105899 0.040895335
-0.26261079 -0.13097972 0.0410426
-0.26273575 -0.13090317 0.04118526
-0.26285937 -0.13082501 0.041342918
-0.26297414 -0.13074653 0.041529436
-0.26308441 -0.13067074 0.041711345
-0.26319411 -0.13059181 0.041916329
-0.25888032 -0.12962896 0.061506506
-0.25907928 -0.12954074 0.061504785
-0.25927898 -0.1294544 0.061488058
-0.25947213 -0.1293696 0.061480574
-0.2596482 -0.12928578 0.061518133
-0.2598604 -0.12920034 0.061457541
-0.26006681 -0.12910932 0.061452329
-0.26026148 -0.12902132 0.061462142
-0.2604683 -0.12894316 0.061368123
-0.26067254 -0.12884682 0.061405584
-0.26085711 -0.12876569 0.061399288
-0.26103416 -0.12869143 0.061368793
-0.26121101 -0.12861541 0.061350979
-0.26143128 -0.12852043 0.061330728
-0.26165265 -0.1284238 0.061318554
-0.26186275 -0.12833385 0.061294876
-0.26206845 -0.12824552 0.061273523
-0.2622833 -0.12815991 0.061206006
-0.26246125 -0.12807322 0.061257388
-0.26267752 -0.12798798 0.061182942
-0.2628521 -0.12791246 0.061168596
-0.26304862 -0.12781617 0.061229162
-0.26325324 -0.12773594 0.061155908
-0.26341715 -0.12765771 0.061192341
-0.26359719 -0.12758298 0.061156064
-0.26383272 -0.12748885 0.061083876
-0.26401615 -0.12740889 0.06107296
-0.26422849 -0.12732236 0.061019287
-0.26438892 -0.12724008 0.061093796
-0.26460624 -0.12715624 0.061006665
-0.26479855 -0.12707369 0.060986497
-0.26501057 -0.12697968 0.060984731
-0.26517728 -0.12690018 0.061021149
-0.26536733 -0.12681559 0.061021753
-0.26556176 -0.12673159 0.061005041
-0.26576418 -0.12664266 0.060997531
-0.26594123 -0.12656061 0.061020091
-0.26616046 -0.12647204 0.060959481
-0.26637095 -0.1263804 0.060946181
-0.26654819 -0.1263047 0.06092491
-0.26671156 -0.12622094 0.061000563
-0.26700222 -0.12612675 0.060762122
-0.2671749 -0.12604241 0.06081352
-0.26733729 -0.12597111 0.060807284
-0.26754448 -0.12588584 0.06076055
-0.26773518 -0.1257918 0.060823433
-0.26793125 -0.12570283 0.060835551
-0.26809329 -0.12563169 0.060829319
-0.26826331 -0.12555768 0.060818441
-0.26848891 -0.1254739 0.060705915
-0.26866013 -0.12538953 0.060761936
-0.26890492 -0.12528791 0.060712777
-0.26909459 -0.12520908 0.060675316
-0.26927665 -0.12513991 0.060595211
-0.26948586 -0.12504525 0.060606144
-0.26964772 -0.12497251 0.060611434
-0.26986682 -0.12488212 0.06056352
-0.27005884 -0.12479766 0.060557187
-0.27022308 -0.12472333 0.060565937
-0.27040619 -0.12464166 0.060567722
-0.27061281 -0.12455139 0.06055674
-0.27079675 -0.12448137 0.060476616
-0.27097672 -0.124397 0.060506098
-0.27114469 -0.12431 0.060589798
-0.27134871 -0.12423328 0.060494628
-0.27155906 -0.12415356 0.060400598
-0.27174252 -0.1240702 0.060412753
-0.27195099 -0.12397402 0.060436372
-0.27214029 -0.12389449 0.060404681
-0.27234203 -0.12380861 0.060378723
-0.27250916 -0.12373096 0.060401313
-0.27271187 -0.12364073 0.060401879
-0.2729229 -0.1235575 0.060329758
-0.27308857 -0.12348203 0.060341962
-0.2732895 -0.12339888 0.060299851
-0.27347794 -0.12331007 0.060333915
-0.27367583 -0.12322877 0.060288355
-0.27386072 -0.12314647 0.060288973
-0.27403077 -0.12306752 0.060311548
-0.27423036 -0.122987 0.060255602
-0.27441975 -0.1229037 0.060249291
-0.2746006 -0.12282302 0.060251079
-0.27479848 -0.12273732 0.060235508
-0.27497208 -0.12266988 0.060169257
-0.27515015 -0.122586 0.060201038
-0.27534536 -0.12250489 0.060162418
-0.27555367 -0.1224125 0.060160656
-0.27571428 -0.12233877 0.060176335
-0.27592346 -0.12225993 0.060079999
-0.27609617 -0.12217184 0.060156778
-0.27627197 -0.1221007 0.060108982
-0.27647102 -0.12202159 0.060044967
-0.27666217 -0.1219399 0.060022496
-0.2768572 -0.12185428 0.060015008
-0.27703089 -0.12178016 0.059993748
-0.27724624 -0.12168839 0.059966594
-0.27739841 -0.12161757 0.05998807
-0.27761358 -0.12153147 0.059922852
-0.27780581 -0.12145082 0.059890006
-0.27798095 -0.12137777 0.059857205
-0.27815515 -0.12129597 0.05988669
-0.27834272 -0.12121093 0.059897676
-0.27854526 -0.12112622 0.05986134
-0.27873209 -0.12104677 0.059836574
-0.27890652 -0.1209681 0.059844144
-0.27909476 -0.1208865 0.05982976
-0.27923688 -0.12080589 0.059948139
-0.27938378 -0.12073606 0.059978865
-0.27962136 -0.12064934 0.059850149
-0.27983832 -0.12056583 0.059761859
-0.28003061 -0.12048651 0.059719786
-0.28021148 -0.12040515 0.059726179
-0.28039303 -0.1203272 0.059707195
-0.28058457 -0.12024483 0.059688196
-0.28076652 -0.12016416 0.059686512
-0.28093314 -0.12010116 0.059611056
-0.28112704 -0.12001079 0.059639331
-0.28130731 -0.11992951 0.059646878
-0.28151095 -0.11984413 0.059611693
-0.28167751 -0.11976556 0.059642345
-0.2818563 -0.11969664 0.059570312
-0.28203425 -0.11961436 0.059591718
-0.28220996 -0.1195441 0.05953816
-0.28239909 -0.11945805 0.059551448
-0.28257576 -0.11939194 0.059466738
-0.28277105 -0.1192994 0.059505388
-0.28296548 -0.11921999 0.059457541
-0.28314415 -0.11913841 0.05947201
-0.28330261 -0.11906224 0.059510767
-0.28348926 -0.11897848 0.05951599
-0.28367776 -0.11890645 0.059435867
-0.28387171 -0.11882383 0.059411079
-0.28405628 -0.11875337 0.059332114
-0.2842361 -0.11866568 0.059384651
-0.28440809 -0.1185874 0.059396841
-0.28459799 -0.11850253 0.059399754
-0.28476679 -0.11842959 0.059385419
-0.2849443 -0.11835514 0.059354916
-0.28514537 -0.11826682 0.059347417
-0.28532994 -0.11818992 0.059312284
-0.28551579 -0.11811023 0.059292138
-0.28571287 -0.11802709 0.059261575
-0.28588173 -0.11795478 0.059242636
-0.28607109 -0.11787014 0.059245549
-0.28623644 -0.11779533 0.059254289
-0.28642762 -0.11771617 0.059214525
-0.28661281 -0.11763661 0.05919553
-0.28678861 -0.11756614 0.059143119
-0.28699201 -0.1174807 0.059109077
-0.28718993 -0.11739516 0.059092358
-0.2873475 -0.11732701 0.059079219
-0.28752643 -0.11724701 0.059082158
-0.28771752 -0.1171645 0.059065457
-0.28791067 -0.11708394 0.059029147
-0.28809008 -0.11700898 0.058996327
-0.28825402 -0.11692021 0.059104271
-0.28844354 -0.11685009 0.059007995
-0.28861248 -0.11677029 0.059039801
-0.28879425 -0.1166887 0.059045043
-0.28901067 -0.11660323 0.058971748
-0.28916824 -0.11652645 0.059017427
-0.28931677 -0.11645485 0.05905506
-0.28951299 -0.11638805 0.058916081
-0.28971079 -0.11629898 0.058923587
-0.28989348 -0.11622375 0.058882691
-0.29006848 -0.1161455 0.058885641
-0.2902309 -0.11606368 0.058950916
-0.29043141 -0.11599309 0.058824617
-0.290602 -0.11591526 0.058837958
-0.29079586 -0.11582728 0.058850087
-0.29098892 -0.1157544 0.058761872
-0.2911545 -0.11568151 0.058756776
-0.29131618 -0.11561494 0.058720555
-0.29150602 -0.1155223 0.05877652
-0.29168972 -0.11544425 0.058751766
-0.29187736 -0.11537141 0.058679707
-0.29205164 -0.11528718 0.058725342
-0.29224655 -0.11520687 0.058682103
-0.2924374 -0.11512125 0.058687322
-0.29259786 -0.11505386 0.058660321
-0.29277378 -0.1149779 0.058644816
-0.29295331 -0.11489476 0.058667369
-0.29314291 -0.11481375 0.058644906
-0.29332176 -0.11473599 0.058632858
-0.2935032 -0.11465573 0.058630027
-0.29368308 -0.11457972 0.058602966
-0.29386705 -0.11449696 0.058609355
-0.29403692 -0.1144254 0.058582336
-0.29421774 -0.11435135 0.058539137
-0.29440406 -0.1142657 0.058558211
-0.29457965 -0.11419735 0.058491956
-0.29477495 -0.11411314 0.05847409
-0.29494175 -0.11403681 0.0584886
-0.29512909 -0.11396072 0.058439616
-0.2953099 -0.11388022 0.058440246
-0.29547462 -0.11379975 0.058489367
-0.29565153 -0.11372744 0.058446176
-0.29583624 -0.11364674 0.058436416
-0.29601741 -0.11356709 0.058430128
-0.29620689 -0.11348834 0.058392659
-0.29639527 -0.11340737 0.058373667
-0.29657337 -0.11332994 0.05836162
-0.29676414 -0.11325487 0.058295321
-0.29695377 -0.11316808 0.058312066
-0.29713681 -0.11308404 0.058329992
-0.29729348 -0.11301138 0.05835031
-0.29747552 -0.11294476 0.05825289
-0.29765078 -0.1128708 0.058225855
-0.2978301 -0.11278707 0.058253016
-0.29800367 -0.11270843 0.058262892
-0.29817253 -0.11263816 0.05823011
-0.29834723 -0.11257463 0.05813387
-0.29852581 -0.1124885 0.058179498
-0.29869899 -0.11240868 0.058198594
-0.29888374 -0.11233017 0.058173843
-0.29906029 -0.11224902 0.058191787
-0.29924181 -0.11217245 0.058163576
-0.29942551 -0.1120905 0.058165349
-0.2996299 -0.1120036 0.058138229
-0.29982448 -0.11192174 0.058106527
-0.30000928 -0.11184473 0.05807139
-0.30018798 -0.11175669 0.058129698
-0.30036703 -0.1116868 0.058063433
-0.30054548 -0.11159667 0.058136735
-0.30072391 -0.11152419 0.05809008
-0.300901 -0.11146469 0.057959232
-0.30108362 -0.11137728 0.058001384
-0.30124375 -0.11130223 0.05802745
-0.30141699 -0.11122086 0.058056936
-0.30158377 -0.11114236 0.05808644
-0.30174974 -0.11108338 0.057985611
-0.30193612 -0.11102331 0.057830516
-0.30212054 -0.11094969 0.057773471
-0.30233461 -0.11083271 0.057921637
-0.30248791 -0.11075528 0.057984624
-0.30264777 -0.11067357 0.058056828
-0.30285257 -0.11059871 0.05794666
-0.30303064 -0.11053299 0.057855029
-0.30319405 -0.11045089 0.057919145
-0.30337566 -0.11039227 0.057768673
-0.30356932 -0.11031217 0.057727747
-0.30373651 -0.11023841 0.057723805
-0.30394304 -0.11014851 0.057710517
-0.30411041 -0.110084 0.057643134
-0.30428404 -0.11000177 0.057677239
-0.30445778 -0.1099251 0.057673268
-0.30461186 -0.1098558 0.057678591
-0.30483463 -0.10976785 0.057602976
-0.30500168 -0.10969975 0.057560973
-0.30519867 -0.10960069 0.057638831
-0.30537552 -0.10952789 0.057599097
-0.30556241 -0.10944556 0.057593953
-0.30573007 -0.1093636 0.057644214
-0.30588183 -0.10928329 0.057731435
-0.30607393 -0.10921983 0.05758208
-0.30625755 -0.10913961 0.057572328
-0.30645338 -0.10906363 0.05749679
-0.30663037 -0.10898619 0.057488203
-0.30681443 -0.10890103 0.057510741
-0.30699453 -0.10882425 0.057488304
-0.30717099 -0.10875179 0.057447426
-0.30734196 -0.10867295 0.057466533
-0.30751488 -0.10860342 0.057416435
-0.30770805 -0.10852049 0.05739627
-0.30786809 -0.10845431 0.057362363
-0.3080444 -0.10838123 0.057326093
-0.30822217 -0.10829886 0.057348646
-0.30842346 -0.10820368 0.057387281
-0.30858746 -0.10813183 0.057379879
-0.3087754 -0.10806123 0.057291679
-0.30895656 -0.10797787 0.057310767
-0.30912977 -0.10788955 0.057387546
-0.30930674 -0.10779855 0.057471223
-0.30950019 -0.10774365 0.057259597
-0.30965927 -0.10768095 0.057204925
-0.30983305 -0.1075917 0.057286315
-0.31003711 -0.10751293 0.057204984
-0.31021473 -0.10743333 0.057209082
-0.31036878 -0.1073666 0.057197101
-0.31053501 -0.10729783 0.057162017
-0.31072271 -0.10721343 0.057168394
-0.31091237 -0.10713273 0.057143629
-0.31110585 -0.10704865 0.057130378
-0.31126782 -0.10697414 0.057147212
-0.31145096 -0.10689635 0.057122454
-0.31163087 -0.10681963 0.057100028
-0.31183109 -0.10673239 0.057087906
-0.31201056 -0.10664774 0.057120834
-0.31218264 -0.10657824 0.057073049
-0.31236744 -0.10650411 0.057018302
-0.31253767 -0.1064312 0.056999359
-0.31270707 -0.10636087 0.056965418
-0.31290007 -0.10627851 0.056941792
-0.31304097 -0.10622609 0.056872178
-0.31325534 -0.10612203 0.056931533
-0.31341928 -0.10604326 0.056971431
-0.31362599 -0.10595398 0.056953534
-0.31379771 -0.10587718 0.0569565
-0.31395361 -0.10581352 0.056917973
-0.31413573 -0.10572378 0.056977432
-0.31430236 -0.10565367 0.056950413
-0.31450668 -0.10557799 0.056847174
-0.314702 -0.10549003 0.05685468
-0.31486645 -0.10543207 0.056751553
-0.31503159 -0.10535175 0.056798361
-0.31520039 -0.10526286 0.056892451
-0.31540012 -0.10518447 0.056821518
-0.31559199 -0.10511178 0.056735609
-0.31575239 -0.10503085 0.056800894
-0.31594071 -0.1049538 0.056755364
-0.31612292 -0.10487235 0.056758296
-0.31629202 -0.10479061 0.056802787
-0.31649834 -0.10470895 0.056734137
-0.31666857 -0.10463671 0.056710575
-0.31681585 -0.10458588 0.056610957
-0.31695992 -0.10454173 0.056475595
-0.31715509 -0.10444941 0.056513093
-0.31736803 -0.10434752 0.056562066
-0.31755477 -0.10425709 0.056612276
-0.31773323 -0.10418952 0.056532182
-0.31790823 -0.10410228 0.056596264
-0.31808823 -0.10401569 0.056640726
-0.31827691 -0.10393271 0.056634415
-0.31846958 -0.10386239 0.056530051
-0.31864491 -0.10379552 0.056454569
-0.31880185 -0.10372445 0.056463338
-0.31899548 -0.10363689 0.056473158
-0.31917289 -0.10355622 0.056485333
-0.31933412 -0.10348696 0.056468725
-0.31953636 -0.10340746 0.056397773
-0.31970114 -0.10334104 0.056351159
-0.31987631 -0.10325541 0.056403711
-0.32009155 -0.10315675 0.05642385
-0.32025683 -0.103094 0.056350708
-0.32045549 -0.10300727 0.056339752
-0.32061779 -0.10293194 0.056361195
-0.32078791 -0.10286061 0.056331865
-0.32097661 -0.10278712 0.056260966
-0.3211275 -0.10272755 0.056209784
-0.32134938 -0.1026266 0.056225289
-0.32154009 -0.10254121 0.056229349
-0.3217161 -0.10245996 0.0562496
-0.32187924 -0.1023963 0.05618915
-0.32199714 -0.10238344 0.055920072
-0.32219252 -0.10227816 0.056045219
-0.32242656 -0.1021579 0.056155264
-0.32261932 -0.10207361 0.056145485
-0.32277757 -0.10200603 0.056126565
-0.32297528 -0.10191786 0.056128308
-0.32316893 -0.10183623 0.056097753
-0.32335916 -0.10174866 0.056117967
-0.32353196 -0.10167734 0.056080557
-0.32369527 -0.10160953 0.05604779
-0.32388324 -0.10151465 0.056124523
-0.32407337 -0.1014351 0.056090519
-0.32425478 -0.10136163 0.05604155
-0.32443139 -0.10129183 0.055982217
-0.32462776 -0.10119577 0.056041628
-0.32479835 -0.1011244 0.056011148
-0.32497251 -0.1010477 0.056006029
-0.32517564 -0.10096306 0.055967383
-0.32536137 -0.10087986 0.055971455
-0.32553646 -0.10080548 0.055947881
-0.32568008 -0.10074963 0.05589325
-0.32583216 -0.10070515 0.055735953
-0.32602167 -0.10060992 0.055810373
-0.32624182 -0.10050109 0.055884704
-0.32642466 -0.10042581 0.055843808
-0.32661098 -0.10034557 0.055825971
-0.32679558 -0.10026136 0.055840433
-0.32697904 -0.10018528 0.05580299
-0.32717934 -0.10009546 0.055808172
-0.32734916 -0.1000256 0.055769619
-0.32753527 -0.09994597 0.055748321
-0.32771316 -0.099868305 0.055738576
-0.32789636 -0.09978658 0.055740356
-0.32807273 -0.099714167 0.055699475
-0.32823139 -0.099644184 0.055695549
-0.32841408 -0.09956336 0.055692714
-0.32861143 -0.099463128 0.055777498
-0.32880071 -0.099391766 0.055690441
-0.328991 -0.099310115 0.055670284
-0.32916588 -0.099231072 0.055679005
-0.3293677 -0.099143274 0.055665731
-0.32953367 -0.099084631 0.0555626
-0.32970253 -0.099019289 0.055496372
-0.32989988 -0.09892872 0.055515409
-0.33007771 -0.098829195 0.055654448
-0.33027864 -0.098757066 0.055537373
-0.33046401 -0.098679297 0.055505697
-0.33061856 -0.09861809 0.055454504
-0.33079821 -0.098542027 0.055428606
-0.33101255 -0.098441876 0.055461437
-0.33118042 -0.098372385 0.055426348
-0.33137459 -0.098283917 0.055440784
-0.33155012 -0.09820509 0.055446032
-0.33173186 -0.098129444 0.055410907
-0.3319115 -0.098061673 0.055328496
-0.33210659 -0.09797246 0.05534523
-0.33228856 -0.097893998 0.055328563
-0.33248895 -0.097801246 0.055353351
-0.33266056 -0.097735338 0.0552825
-0.33283865 -0.097659104 0.055262376
-0.33302572 -0.097574815 0.055269904
-0.33321089 -0.097495444 0.055249758
-0.33340925 -0.097400531 0.055295326
-0.33358192 -0.097333491 0.055229079
-0.33379254 -0.097234488 0.055265378
-0.33397645 -0.097156852 0.055237159
-0.33415365 -0.097079664 0.055226274
-0.3343302 -0.096993417 0.055278823
-0.33450234 -0.096932054 0.055175662
-0.33470258 -0.096848011 0.055141643
-0.33489546 -0.096765205 0.055121467
-0.33506316 -0.096691877 0.055112917
-0.33526388 -0.096602723 0.055112332
-0.33543503 -0.096532784 0.055070315
-0.3356204 -0.096446879 0.055094
-0.33581775 -0.096361749 0.055076122
-0.33601233 -0.096272752 0.055092864
-0.33619022 -0.096200168 0.055048522
-0.33637136 -0.096126311 0.05500301
-0.33657977 -0.096031524 0.055017404
-0.33674401 -0.095967203 0.054958105
-0.33692396 -0.095883355 0.054984108
-0.33710247 -0.095812529 0.054925919
-0.33728784 -0.095727466 0.054943837
-0.33748129 -0.095642723 0.054935202
-0.33767635 -0.09556523 0.05487236
-0.3378557 -0.095482498 0.054892603
-0.33804411 -0.09540116 0.05487591
-0.33826011 -0.095303506 0.054886814
-0.33842397 -0.095237672 0.054839052
-0.33857918 -0.095176682 0.054784387
-0.33878225 -0.095080018 0.054827634
-0.33898392 -0.094985001 0.05486396
-0.3391566 -0.09492287 0.054764267
-0.33933666 -0.094848633 0.054724526
-0.33955008 -0.09474586 0.054778118
-0.33973235 -0.094669461 0.054746449
-0.33991146 -0.094594307 0.054715946
-0.34009159 -0.094520211 0.054675054
-0.34029213 -0.094425015 0.054715998
-0.34046426 -0.094355159 0.054670513
-0.34066334 -0.094267905 0.054661863
-0.34085816 -0.094183043 0.05464977
-0.34105724 -0.09409596 0.054639962
-0.34124589 -0.094015554 0.054616347
-0.34144026 -0.09392529 0.054642305
-0.34160015 -0.093864106 0.054574955
-0.34178084 -0.093785867 0.054560591
-0.341993 -0.093691945 0.054557662
-0.34217623 -0.093615294 0.054524839
-0.34238368 -0.093524322 0.054516166
-0.34255105 -0.093455739 0.054476462
-0.34274128 -0.093372241 0.054469001
-0.34293228 -0.093288071 0.054463834
-0.3431527 -0.093192339 0.054448195
-0.34331372 -0.093128271 0.054396976
-0.34351975 -0.093027592 0.054458663
-0.34369293 -0.092963204 0.054372814
-0.34389398 -0.092873372 0.054375693
-0.34409007 -0.092786595 0.054372821
-0.34427381 -0.092710063 0.05433768
-0.34446591 -0.092623524 0.054345202
-0.3446469 -0.092546009 0.05432507
-0.34482738 -0.092472784 0.054277264
-0.34502289 -0.092386939 0.054269772
-0.34521499 -0.09230075 0.054274976
-0.25741625 -0.13345741 0.039902028
-0.25761923 -0.13338046 0.039811466
-0.25782296 -0.13330233 0.039726667
-0.25801805 -0.13322465 0.039664965
-0.25822467 -0.13314541 0.039579004
-0.25840884 -0.13306834 0.039546158
-0.25859603 -0.13299128 0.039504077
-0.25877768 -0.1329145 0.039477017
-0.25896358 -0.13283768 0.039437249
-0.2591379 -0.13276125 0.039429802
-0.25931478 -0.13268217 0.039432731
-0.25948599 -0.1326073 0.039424151
-0.25965303 -0.13253123 0.039436333
-0.25982195 -0.13245517 0.03944274
-0.25998715 -0.13237786 0.039468773
-0.26015031 -0.132302 0.039491352
-0.26031142 -0.13222483 0.039528918
-0.2604627 -0.13214915 0.039586134
-0.26062375 -0.132072 0.0396237
-0.26076844 -0.13199501 0.039709762
-0.26091397 -0.13191797 0.03979351
-0.2610603 -0.13184227 0.039865732
-0.26120445 -0.13176517 0.039954092
-0.26134756 -0.13168804 0.040045924
-0.26148999 -0.13161086 0.04014007
-0.26162976 -0.13153502 0.040233061
-0.26177332 -0.13145633 0.040334105
-0.26191467 -0.13138182 0.04041326
-0.26205847 -0.13130303 0.040514316
-0.26218858 -0.1312269 0.040638469
-0.26232427 -0.13114932 0.0407557
-0.26245219 -0.131073 0.040887937
-0.26258254 -0.13099371 0.041032851
-0.26270297 -0.1309185 0.041180111
-0.26282945 -0.13083892 0.04133888
-0.26294428 -0.13076042 0.041525356
-0.26305708 -0.13068317 0.041709531
-0.26317191 -0.13060434 0.041898318
-0.25886109 -0.12963979 0.061490953
-0.25905621 -0.12955312 0.061490364
-0.25925478 -0.12946491 0.061489772
-0.25945479 -0.1293786 0.061471876
-0.25963026 -0.12929471 0.06151171
-0.25983453 -0.12921058 0.061466113
-0.26003176 -0.12912618 0.061443616
-0.26023859 -0.12903158 0.061461445
-0.26046047 -0.12894523 0.061377749
-0.26065224 -0.12885715 0.061396774
-0.26083693 -0.12877595 0.06139046
-0.26101992 -0.12869839 0.061364543
-0.26119527 -0.12862407 0.061339799
-0.26141304 -0.12852885 0.061328758
-0.26163322 -0.12843391 0.061308496
-0.26185483 -0.1283392 0.06128246
-0.26205221 -0.12825389 0.061265722
-0.26226005 -0.12816952 0.061210901
-0.2624436 -0.12808138 0.061255321
-0.26265773 -0.12799777 0.061176263
-0.26284307 -0.12791747 0.061161861
-0.26303038 -0.1278241 0.061230503
-0.26324421 -0.12773894 0.061162971
-0.26340103 -0.1276657 0.061186716
-0.26358739 -0.12759157 0.061127346
-0.26381588 -0.12749666 0.061081678
-0.26400232 -0.12741503 0.06107305
-0.26421881 -0.12732886 0.061004359
-0.26437455 -0.12724799 0.061083458
-0.26459259 -0.12716417 0.060994014
-0.2647855 -0.12707967 0.060985364
-0.26499906 -0.12698378 0.060991637
-0.26516706 -0.12690438 0.061023429
-0.26534313 -0.126826 0.061024055
-0.26554915 -0.12673737 0.06100383
-0.26574293 -0.12665331 0.06098941
-0.26592919 -0.12656836 0.061003841
-0.26614675 -0.12647952 0.060950145
-0.26634273 -0.12638991 0.060966849
-0.26653033 -0.12631148 0.060932849
-0.26669347 -0.12622969 0.060995787
-0.26697776 -0.1261324 0.060797725
-0.26716578 -0.12604819 0.060801774
-0.26733169 -0.12597737 0.060781673
-0.2675333 -0.12589119 0.060758002
-0.26770967 -0.12580115 0.060837045
-0.26791021 -0.1257107 0.060845681
-0.26808059 -0.12563874 0.06081979
-0.26825756 -0.12556368 0.060795039
-0.26847938 -0.12547922 0.060698658
-0.26864773 -0.12539646 0.060752358
-0.26889235 -0.12529254 0.060719334
-0.26908448 -0.12521192 0.060686465
-0.26927632 -0.1251401 0.060594786
-0.26947495 -0.12504999 0.060606867
-0.26963103 -0.12497829 0.060622551
-0.26986921 -0.12488045 0.060567632
-0.27005416 -0.12479896 0.060562462
-0.27021182 -0.12472773 0.060570061
-0.27039105 -0.12464744 0.060574144
-0.27060151 -0.12455563 0.060561977
-0.27078462 -0.12448311 0.060501456
-0.27097386 -0.12439836 0.060505509
-0.27113014 -0.12431791 0.060579993
-0.2713404 -0.1242379 0.060488261
-0.2715528 -0.12415626 0.060401134
-0.27173865 -0.12407337 0.060402878
-0.27193806 -0.12397969 0.060436875
-0.27213931 -0.12389351 0.060414366
-0.27233326 -0.12381277 0.060376875
-0.27250615 -0.1237341 0.060389042
-0.27270824 -0.12364364 0.06039305
-0.27291888 -0.12356025 0.060323223
-0.27308047 -0.12348609 0.060338885
-0.27328318 -0.12340333 0.060288683
-0.2734648 -0.12331264 0.060356189
-0.27366856 -0.12323281 0.060282916
-0.27385673 -0.12314888 0.060284667
-0.27401495 -0.12307401 0.060315318
-0.27422124 -0.12299033 0.060260504
-0.27441078 -0.12290698 0.060254171
-0.27459446 -0.12282453 0.060259391
-0.27479064 -0.12274077 0.060235739
-0.27496207 -0.12267005 0.060198311
-0.27514252 -0.12258936 0.060201228
-0.2753385 -0.12250842 0.060159124
-0.2755422 -0.12241707 0.060164288
-0.27570105 -0.12234532 0.060171884
-0.27592474 -0.12225799 0.060089327
-0.27609292 -0.12217361 0.060154565
-0.27627033 -0.12210294 0.06009867
-0.27646032 -0.122026 0.060047358
-0.27665901 -0.12194146 0.060021397
-0.27684733 -0.12185881 0.060013905
-0.27703345 -0.12177818 0.059999507
-0.27724108 -0.12168898 0.059978131
-0.27739307 -0.12162078 0.059982289
-0.27761248 -0.12153061 0.059932046
-0.27780029 -0.12145379 0.0598865
-0.27797788 -0.12137879 0.059859447
-0.27814522 -0.12129988 0.059890077
-0.27834266 -0.12121012 0.059903324
-0.27853355 -0.12112923 0.059876226
-0.27873185 -0.12104572 0.059844501
-0.27889761 -0.12097207 0.059844002
-0.27908799 -0.12088835 0.059837658
-0.27921975 -0.12080912 0.059977956
-0.27938339 -0.1207405 0.059949785
-0.27961403 -0.12065364 0.059842996
-0.27983055 -0.12056983 0.059758164
-0.28002346 -0.1204877 0.059733368
-0.28020278 -0.12040855 0.059729375
-0.28038836 -0.12032933 0.059706904
-0.28058001 -0.1202469 0.059687879
-0.28076315 -0.12016672 0.059679255
-0.28093323 -0.12010219 0.059603781
-0.28112632 -0.12001133 0.0596378
-0.28130159 -0.11993381 0.059634976
-0.28150848 -0.11984359 0.059622817
-0.28167287 -0.119767 0.059646539
-0.28185496 -0.11969646 0.059575647
-0.282033 -0.11961414 0.059597023
-0.28220597 -0.1195456 0.059539992
-0.28239736 -0.11945736 0.059561335
-0.28257585 -0.11939215 0.05946508
-0.28277496 -0.11929827 0.059501383
-0.28296128 -0.11922092 0.059463922
-0.28313988 -0.11913921 0.059479531
-0.28330147 -0.11906131 0.059520565
-0.28348911 -0.11898152 0.059495784
-0.2836802 -0.11890748 0.059421401
-0.28387934 -0.11882088 0.059408125
-0.28405938 -0.11875463 0.059314169
-0.28424045 -0.11866402 0.059382826
-0.28441012 -0.11858779 0.059388086
-0.28459752 -0.11850116 0.059410587
-0.28477079 -0.1184274 0.059388153
-0.28495112 -0.11835475 0.059336871
-0.28515005 -0.11826485 0.059346654
-0.28533834 -0.11818663 0.059309185
-0.28552139 -0.1181087 0.059285574
-0.28571409 -0.11802616 0.059264228
-0.28588507 -0.11795139 0.059255645
-0.28607586 -0.11786765 0.059248153
-0.28624156 -0.11779302 0.059254579
-0.28643063 -0.11771614 0.059205569
-0.28662497 -0.11763135 0.059194613
-0.28679976 -0.11755997 0.059151422
-0.28700089 -0.11747672 0.0591093
-0.28719768 -0.11739014 0.059102938
-0.28736335 -0.11732011 0.059078231
-0.28754252 -0.11724018 0.059079997
-0.28772718 -0.11716069 0.059062138
-0.28792056 -0.1170802 0.059024662
-0.28810173 -0.11700227 0.059006818
-0.28825903 -0.11691628 0.059115902
-0.2884559 -0.11684375 0.059013836
-0.28862423 -0.1167632 0.059052527
-0.28880888 -0.11668421 0.059031218
-0.28902301 -0.11659639 0.058980986
-0.28917772 -0.11652138 0.059023198
-0.28932846 -0.11645187 0.059040044
-0.28952441 -0.11638467 0.058904525
-0.28972378 -0.11629219 0.058930449
-0.2899068 -0.11621717 0.058887228
-0.29007906 -0.11614081 0.058885567
-0.29024222 -0.11605968 0.05894389
-0.29044813 -0.11598466 0.058831409
-0.29061928 -0.11590727 0.058840118
-0.29080951 -0.11582021 0.058856845
-0.29100329 -0.11574803 0.058761701
-0.29116577 -0.1156767 0.058755443
-0.29132867 -0.11561146 0.058706526
-0.29151607 -0.11551566 0.058791295
-0.29170129 -0.11543931 0.058750384
-0.29188746 -0.11536441 0.058696773
-0.29206264 -0.11528116 0.05873315
-0.29226077 -0.11519907 0.058692191
-0.29244751 -0.11511358 0.058708936
-0.29260933 -0.11504795 0.058665775
-0.29278538 -0.11497195 0.058650255
-0.29296538 -0.11488927 0.058668166
-0.29315457 -0.11480744 0.05865261
-0.29333317 -0.11472911 0.058645159
-0.29351547 -0.11464998 0.058631919
-0.29369235 -0.11457565 0.058602564
-0.29387948 -0.114491 0.058612384
-0.29404935 -0.11441925 0.058586504
-0.29422978 -0.11434436 0.058550209
-0.29441646 -0.11425906 0.058565795
-0.29459232 -0.11419094 0.05849722
-0.29479086 -0.11410494 0.058481637
-0.29495415 -0.11402936 0.058501907
-0.29514098 -0.11395212 0.058462135
-0.2953226 -0.1138728 0.058452368
-0.29548818 -0.11379381 0.058488771
-0.29566553 -0.11372215 0.058439806
-0.29585013 -0.11364099 0.058433488
-0.29602766 -0.11356178 0.058435254
-0.2962172 -0.11348284 0.058398947
-0.29640567 -0.11340182 0.058379918
-0.29658729 -0.11332317 0.058365531
-0.29678139 -0.11324645 0.058300376
-0.29696801 -0.1131615 0.058313653
-0.29714772 -0.11307845 0.058335021
-0.29730466 -0.11300617 0.058351852
-0.29748631 -0.11293821 0.058264822
-0.29766205 -0.11286522 0.058229689
-0.29784116 -0.11278056 0.058263756
-0.29801193 -0.11270437 0.058265544
-0.29818422 -0.11263274 0.058231585
-0.29835892 -0.11256888 0.058137652
-0.29853776 -0.11248315 0.058179788
-0.29871079 -0.11240254 0.058204636
-0.29889566 -0.11232398 0.058179863
-0.29906923 -0.11224484 0.058193177
-0.29925081 -0.11216808 0.058166109
-0.29943475 -0.11208653 0.05816441
-0.29963589 -0.1120009 0.058138434
-0.29983023 -0.11191745 0.058118246
-0.30001828 -0.11183833 0.058087695
-0.30019686 -0.11174899 0.058155198
-0.3003765 -0.11168123 0.058072779
-0.30055481 -0.1115898 0.058155276
-0.30073306 -0.11151554 0.058121301
-0.30091438 -0.11145923 0.057955846
-0.3010934 -0.11137071 0.058016431
-0.30125996 -0.11129113 0.058053993
-0.30142707 -0.11121452 0.058069631
-0.30159408 -0.11113693 0.058092199
-0.30175707 -0.11108097 0.057979841
-0.30194667 -0.11101811 0.057833962
-0.30213138 -0.11094606 0.057765372
-0.30234209 -0.11082855 0.05792734
-0.30249229 -0.11075351 0.057983402
-0.302652 -0.11066882 0.058076337
-0.3028436 -0.11059744 0.057982348
-0.30303541 -0.11053224 0.057845689
-0.30319884 -0.11044928 0.057915546
-0.30338055 -0.11039028 0.057767391
-0.30357099 -0.1103106 0.057733379
-0.30373836 -0.11023879 0.057715576
-0.30395153 -0.11014376 0.057717241
-0.3041124 -0.11008195 0.057651028
-0.30428615 -0.11000188 0.057670109
-0.30446327 -0.10992116 0.057683423
-0.30461088 -0.10985847 0.057663374
-0.30483389 -0.10976432 0.057629257
-0.30499762 -0.10970277 0.057552651
-0.30518827 -0.10960332 0.057652406
-0.30537188 -0.109526 0.057623032
-0.30555555 -0.1094461 0.057610948
-0.30571994 -0.10936747 0.057648506
-0.30587825 -0.10928596 0.057724152
-0.30606756 -0.10921847 0.05761056
-0.30623776 -0.10914931 0.057566229
-0.30644381 -0.10906608 0.057509106
-0.30662403 -0.10898907 0.057487804
-0.3068015 -0.10890786 0.057503417
-0.30698228 -0.1088255 0.05751672
-0.30715871 -0.10875461 0.057465442
-0.30732936 -0.10867929 0.057461474
-0.30749956 -0.10860758 0.057434436
-0.3076928 -0.10852513 0.057410792
-0.30785954 -0.10845581 0.057378005
-0.30802241 -0.10839143 0.057323311
-0.30820018 -0.10830957 0.057342377
-0.30839819 -0.10821635 0.057377543
-0.30855975 -0.10814153 0.057397816
-0.30875373 -0.10807163 0.05728652
-0.30893523 -0.10798693 0.057313655
-0.30910474 -0.10790263 0.057374265
-0.30927861 -0.10781233 0.057462543
-0.30947068 -0.10775042 0.057302825
-0.30963132 -0.10769483 0.05719509
-0.30979839 -0.10760941 0.057270706
-0.31000042 -0.10752695 0.057220507
-0.31018436 -0.10744609 0.057214189
-0.31034181 -0.10737766 0.057203338
-0.31049863 -0.1073119 0.05717634
-0.31068563 -0.10723051 0.057164244
-0.3108727 -0.10714912 0.057152152
-0.3110539 -0.10706794 0.05715622
-0.31123409 -0.10699061 0.057137229
-0.31141174 -0.10691202 0.05713439
-0.31158885 -0.10683555 0.057118874
-0.31177509 -0.10675722 0.057088323
-0.31196776 -0.10666688 0.057120044
-0.31213397 -0.10659831 0.057083789
-0.312323 -0.10652009 0.057044014
-0.31248897 -0.10645196 0.057005454
-0.31266198 -0.10637952 0.056974959
-0.31284907 -0.10629825 0.056961708
-0.31300005 -0.1062412 0.056893211
-0.31320226 -0.10614848 0.05691221
-0.31336674 -0.10606828 0.056960154
-0.31356898 -0.10597607 0.056975696
-0.31374964 -0.10589785 0.056961313
-0.3138901 -0.10583884 0.056937825
-0.31408453 -0.10575332 0.056931481
-0.31424072 -0.10567442 0.056995597
-0.31444031 -0.10560443 0.056868132
-0.31463543 -0.10551723 0.056871008
-0.31481156 -0.10545069 0.056790911
-0.31496865 -0.10538396 0.056769677
-0.31513315 -0.10529222 0.056896038
-0.31531253 -0.105211 0.056905881
-0.31552085 -0.10514458 0.056727663
-0.31568748 -0.10506175 0.056787126
-0.3158572 -0.10499075 0.056756638
-0.31604391 -0.10491137 0.056731854
-0.31621569 -0.10482352 0.056809761
-0.31640765 -0.10474452 0.056766517
-0.31658739 -0.10467502 0.056695633
-0.31675079 -0.10460633 0.056668617
-0.31688809 -0.10457145 0.0564906
-0.31706116 -0.10449865 0.056462403
-0.31727448 -0.1043903 0.056554027
-0.31747332 -0.10429655 0.056590341
-0.31764492 -0.10422166 0.056580599
-0.31782052 -0.10414399 0.056577764
-0.31799799 -0.10405736 0.056630276
-0.31818089 -0.10397051 0.056667782
-0.31837937 -0.10389912 0.056553017
-0.31856349 -0.10382529 0.056498259
-0.3187125 -0.10376488 0.056458607
-0.31890747 -0.10367487 0.056481086
-0.31907609 -0.10360132 0.056471355
-0.31923938 -0.10352828 0.056474321
-0.31944042 -0.10345116 0.056390692
-0.31960231 -0.10338552 0.056347534
-0.3197794 -0.10330108 0.056386217
-0.319978 -0.1032098 0.056406375
-0.32015169 -0.10313655 0.056379326
-0.32034612 -0.10305305 0.05635915
-0.3205238 -0.10297718 0.056337856
-0.32069266 -0.10289487 0.056386936
-0.32087243 -0.10282857 0.056294139
-0.32103133 -0.10276815 0.056224465
-0.32124224 -0.1026692 0.05625958
-0.32141563 -0.10260082 0.056200251
-0.32160422 -0.10251077 0.056242354
-0.32177281 -0.10243808 0.056226857
-0.32192597 -0.10239125 0.056082241
-0.32207525 -0.10233833 0.055990685
-0.32229796 -0.1022165 0.056145709
-0.32249624 -0.10212721 0.056153186
-0.32268161 -0.10204724 0.056136481
-0.32283485 -0.10197611 0.056156777
-0.32304609 -0.10188974 0.056105405
-0.32323733 -0.10180444 0.056107134
-0.32341981 -0.10172167 0.056118123
-0.32358587 -0.10165723 0.056054194
-0.32375875 -0.10157467 0.056092888
-0.32393599 -0.10149661 0.056087747
-0.32412365 -0.10141732 0.056059502
-0.32430944 -0.10134088 0.056017425
-0.32447773 -0.10126578 0.056019228
-0.32467794 -0.10117479 0.056032468
-0.32485121 -0.10109951 0.056020424
-0.32503498 -0.10101924 0.056010637
-0.32522908 -0.10094116 0.055954706
-0.32541621 -0.1008526 0.05599105
-0.32556438 -0.10080051 0.055897184
-0.32571903 -0.10073555 0.055871349
-0.32587063 -0.10069177 0.055710599
-0.32609639 -0.10056807 0.055869065
-0.32628575 -0.10048022 0.055893876
-0.32647395 -0.1004073 0.055820651
-0.32666045 -0.10031715 0.05586968
-0.32684314 -0.10024549 0.055804554
-0.32704988 -0.10014991 0.055829309
-0.32721642 -0.10008153 0.055790745
-0.3273958 -0.10000812 0.055747539
-0.32757422 -0.09992969 0.055741236
-0.32774878 -0.099850461 0.055752248
-0.32794005 -0.099767186 0.055740144
-0.32809508 -0.099708319 0.055671636
-0.32827306 -0.099630781 0.055660717
-0.32846043 -0.099540755 0.055706289
-0.32865489 -0.099444523 0.055772595
-0.32883719 -0.099373549 0.055704005
-0.32902566 -0.099294402 0.055672307
-0.32920575 -0.099217452 0.055651005
-0.32940471 -0.099133477 0.055620428
-0.32956472 -0.099073924 0.055541523
-0.32974648 -0.099000648 0.055490233
-0.32993874 -0.098899633 0.055595763
-0.33011824 -0.098818019 0.055607907
-0.33031332 -0.098744929 0.055515062
-0.3304877 -0.09867271 0.055478785
-0.33065218 -0.098607451 0.055425245
-0.33085132 -0.098512545 0.05546847
-0.33103567 -0.098436236 0.055429857
-0.33122495 -0.098348416 0.055454664
-0.33140561 -0.098271385 0.055432212
-0.33159113 -0.098185755 0.055453569
-0.33176771 -0.098119169 0.055372316
-0.33194607 -0.098047741 0.055318728
-0.33213463 -0.097961254 0.055336617
-0.33233389 -0.097869851 0.055355623
-0.33251897 -0.097793072 0.055318158
-0.33270055 -0.097715273 0.055298015
-0.33287376 -0.097642399 0.055269819
-0.3330619 -0.097559497 0.055264637
-0.33325657 -0.097468942 0.055291735
-0.33345005 -0.097385034 0.055277318
-0.33361524 -0.097319275 0.055224925
-0.33383107 -0.097219333 0.055251949
-0.33401072 -0.097144276 0.055219118
-0.33418477 -0.097063392 0.055242814
-0.33435908 -0.096989676 0.055216923
-0.33454701 -0.096915014 0.055156391
-0.33474845 -0.096824855 0.0551604
-0.33492485 -0.09675616 0.055094134
-0.33510581 -0.096665412 0.055163939
-0.33530161 -0.096589118 0.055090699
-0.3354699 -0.096520126 0.055050984
-0.3356638 -0.096431784 0.055065397
-0.3358722 -0.096339032 0.05506593
-0.33605209 -0.09625487 0.055094216
-0.33621854 -0.096192807 0.055012994
-0.33643249 -0.096098766 0.055005431
-0.33661827 -0.096017592 0.054995641
-0.33679101 -0.095946282 0.054958221
-0.33696955 -0.095864087 0.054977298
-0.33714882 -0.095794804 0.054906406
-0.33735019 -0.095696852 0.05496347
-0.33754709 -0.095612943 0.054938652
-0.33772245 -0.095545724 0.054865479
-0.33790085 -0.095461898 0.054896083
-0.3380881 -0.095384151 0.05485861
-0.33831179 -0.095278315 0.054901771
-0.33847195 -0.095218703 0.054822862
-0.33863756 -0.095151067 0.054782003
-0.33884493 -0.095049962 0.054842509
-0.33903277 -0.094967529 0.054835021
-0.33920321 -0.094909951 0.054711118
-0.33941543 -0.094808392 0.054760065
-0.33961403 -0.094719142 0.054766394
-0.33978799 -0.094647288 0.054728966
-0.33997381 -0.094571531 0.054682285
-0.34016129 -0.0944857 0.054699019
-0.34035897 -0.094395675 0.054713413
-0.34053326 -0.09432368 0.054675985
-0.34073019 -0.094238728 0.054658096
-0.34093109 -0.094151855 0.054641347
-0.34112826 -0.094062738 0.054651134
-0.34131676 -0.093982555 0.054626353
-0.34150186 -0.093899816 0.054629259
-0.34166655 -0.09383785 0.054552652
-0.34185988 -0.093750961 0.054558992
-0.34206545 -0.093659803 0.054557219
-0.34225744 -0.093578406 0.054530121
-0.34246346 -0.093490951 0.054501832
-0.34262782 -0.093421496 0.054477118
-0.34280908 -0.093341142 0.054475415
-0.34301886 -0.093246259 0.054486319
-0.34322897 -0.09316089 0.054431491
-0.34341705 -0.093075976 0.054440156
-0.34359303 -0.09299729 0.054443087
-0.34377781 -0.092923522 0.05438602
-0.34398043 -0.092834175 0.054380801
-0.34417552 -0.092750393 0.05436061
-0.34435672 -0.092672609 0.054341614
-0.34454715 -0.092589706 0.054329515
-0.34473637 -0.092504293 0.054338165
-0.34491739 -0.092434391 0.054266125
-0.34510395 -0.092353553 0.054251727
-0.34530604 -0.092261568 0.054266118
