# .PCD v0.7 - Point Cloud Data file format
VERSION 0.7
FIELDS x y z
SIZE 4 4 4
TYPE F F F
COUNT 1 1 1
WIDTH 1165
HEIGHT 1
VIEWPOINT 0 0 0 1 0 0 0
POINTS 1165
DATA ascii
-0.10312404 -0.3431266 0.051792793
-0.10327217 -0.34323266 0.051702928
-0.10343088 -0.34333441 0.051688079
-0.10359 -0.34343794 0.051662829
-0.10376347 -0.34354275 0.051690623
-0.10394337 -0.34364992 0.051729932
-0.10409705 -0.34375641 0.051660821
-0.10427277 -0.34386501 0.051672436
-0.10442615 -0.34396979 0.051613722
-0.10459678 -0.344073 0.05164038
-0.10476797 -0.34418291 0.05162314
-0.10493377 -0.34429234 0.051586293
-0.10509937 -0.34440011 0.051559851
-0.10524262 -0.34450057 0.051487342
-0.10543209 -0.34460935 0.051556617
-0.10558949 -0.34471467 0.051511738
-0.1057791 -0.34482694 0.051557917
-0.10592248 -0.34493065 0.051463466
-0.10609218 -0.34503746 0.051461246
-0.10627691 -0.34514937 0.051488977
-0.10644151 -0.34525886 0.05144636
-0.10657126 -0.34535605 0.051338129
-0.10675053 -0.34546265 0.051378593
-0.10692987 -0.34556776 0.051429454
-0.10710514 -0.34568346 0.051390246
-0.10727338 -0.34578887 0.051391512
-0.10743926 -0.34589866 0.051352348
-0.10758258 -0.34599915 0.051279839
-0.10774258 -0.34609887 0.051284619
-0.10795838 -0.3462173 0.05140109
-0.10811937 -0.34632656 0.051344644
-0.10827965 -0.3464357 0.051285889
-0.10844478 -0.34654403 0.051253673
-0.10859869 -0.34664765 0.051205352
-0.10877024 -0.34675393 0.05121468
-0.10893023 -0.34686002 0.051175565
-0.10911261 -0.34697261 0.05118829
-0.10927097 -0.34707701 0.051153801
-0.10944034 -0.34718767 0.051123865
-0.10960855 -0.34729218 0.051130906
-0.10977201 -0.34740046 0.05109176
-0.10994752 -0.34750926 0.051101062
-0.11012049 -0.34762064 0.051081508
-0.11029418 -0.34772778 0.051094286
-0.11046855 -0.34783801 0.051088572
-0.11062193 -0.34794182 0.05103679
-0.11078712 -0.34805202 0.05099187
-0.11093164 -0.34814993 0.050942451
-0.11113491 -0.34826973 0.050995473
-0.11129948 -0.34837705 0.05096788
-0.11148682 -0.34848988 0.051000211
-0.11165391 -0.34860346 0.050940253
-0.11179228 -0.34870321 0.050851606
-0.11197697 -0.34881574 0.050874714
-0.11213757 -0.3489182 0.050863318
-0.11232282 -0.34902954 0.050896812
-0.11248108 -0.34913591 0.050848465
-0.11264729 -0.34924239 0.050833568
-0.11285762 -0.3493616 0.050921191
-0.11300956 -0.34947103 0.05082437
-0.11317143 -0.3495768 0.050795641
-0.11335611 -0.3496885 0.050824523
-0.11351173 -0.34979588 0.050757714
-0.11369543 -0.34991166 0.050754257
-0.11386693 -0.35001674 0.050771665
-0.11399415 -0.3501184 0.050621871
-0.11419223 -0.35023311 0.050687626
-0.11439118 -0.35035226 0.050726816
-0.1145184 -0.350447 0.050624371
-0.11469232 -0.35055968 0.050600182
-0.11487965 -0.3506752 0.050614037
-0.11505175 -0.35078487 0.050602559
-0.1152081 -0.35088581 0.050583106
-0.11539061 -0.35100186 0.050572723
-0.11557122 -0.35111621 0.05056582
-0.11572082 -0.35122114 0.050489813
-0.11588657 -0.35132429 0.050495703
-0.11604607 -0.3514328 0.050438114
-0.11624289 -0.35154957 0.050484248
-0.11643172 -0.35166335 0.050516561
-0.11657411 -0.35176545 0.050429046
-0.11676772 -0.35188308 0.050455559
-0.1169398 -0.3519946 0.050431382
-0.11712532 -0.35210529 0.050470658
-0.11730673 -0.35221645 0.050489157
-0.1174233 -0.35231394 0.050322101
-0.11760169 -0.35242704 0.050314058
-0.11778992 -0.35254383 0.050323278
-0.11794758 -0.35264829 0.050285332
-0.1181205 -0.35275897 0.050270393
-0.11831497 -0.35287613 0.050303824
-0.11848083 -0.35298523 0.050269298
-0.11867573 -0.35310268 0.050302725
-0.11882221 -0.35320717 0.050216343
-0.11901921 -0.35332525 0.050254386
-0.11919141 -0.35343483 0.050244067
-0.11936265 -0.35354546 0.050222211
-0.028081194 -0.29498094 0.059033323
-0.02828832 -0.29511869 0.058980033
-0.028498426 -0.29526249 0.058897853
-0.028682306 -0.29537165 0.058940604
-0.028872054 -0.29549038 0.058942877
-0.029068358 -0.29561746 0.058916233
-0.029253706 -0.29573092 0.058935873
-0.029469624 -0.29588073 0.058837481
-0.029664643 -0.29600665 0.058813147
-0.029855832 -0.29612562 0.058820039
-0.030042041 -0.29624063 0.058832727
-0.030255992 -0.29639107 0.058721643
-0.03044229 -0.29650646 0.058732029
-0.030641478 -0.29663619 0.058699589
-0.030841786 -0.2967698 0.058645193
-0.031025667 -0.29688016 0.05867986
-0.031224463 -0.29701215 0.058630086
-0.031425245 -0.29714692 0.058569916
-0.031606432 -0.29725641 0.058598816
-0.031779792 -0.29735339 0.058679756
-0.031982649 -0.29749131 0.058606856
-0.032184444 -0.29762569 0.058553606
-0.032376356 -0.29774967 0.058529299
-0.032561291 -0.29786217 0.058553554
-0.032758076 -0.29799527 0.058487631
-0.032940134 -0.29810178 0.058540788
-0.033149451 -0.29824948 0.058428567
-0.033342041 -0.29837269 0.058412343
-0.033519667 -0.29847842 0.058451667
-0.033722498 -0.29861566 0.05838339
-0.033899169 -0.29872027 0.058426186
-0.034090634 -0.29884499 0.05839495
-0.034287177 -0.29897675 0.058337107
-0.034471501 -0.29908955 0.058356754
-0.034658216 -0.29920822 0.058346346
-0.034859482 -0.29934448 0.058278069
-0.035044651 -0.29946133 0.05827345
-0.035231061 -0.29957747 0.058279209
-0.035425473 -0.29970741 0.058224857
-0.035601825 -0.29980981 0.058281511
-0.035798658 -0.29994345 0.058212116
-0.03598747 -0.30006343 0.058201693
-0.036175456 -0.3001824 0.058194745
-0.036363285 -0.30030128 0.058187783
-0.036556736 -0.30043095 0.058131129
-0.036744595 -0.30055016 0.058121864
-0.036938399 -0.30068073 0.058060579
-0.037125025 -0.30079851 0.058055937
-0.037314355 -0.30092305 0.058016628
-0.037498772 -0.30103794 0.058022402
-0.037684701 -0.30115512 0.05801893
-0.037873745 -0.30127695 0.057996951
-0.038058415 -0.30139536 0.057979621
-0.038246069 -0.30151546 0.057963423
-0.038433187 -0.30163777 0.057929911
-0.038617507 -0.30175611 0.057911422
-0.038802844 -0.30187327 0.05790564
-0.038988814 -0.30199149 0.057895239
-0.039132722 -0.30206728 0.057994843
-0.039384898 -0.30226463 0.057726391
-0.039552528 -0.30235869 0.057802752
-0.039728485 -0.30246237 0.05784902
-0.039916899 -0.30258802 0.057798155
-0.040106721 -0.30271304 0.057757687
-0.040292427 -0.30283496 0.057720713
-0.040467247 -0.30293724 0.057771601
-0.040652622 -0.30305895 0.057734635
-0.040836938 -0.30317613 0.05772423
-0.041022655 -0.30329874 0.057682641
-0.041209128 -0.30341962 0.057656053
-0.041387785 -0.30352837 0.057679195
-0.041576944 -0.30365381 0.05763296
-0.041759044 -0.30377144 0.057609864
-0.041948445 -0.30389771 0.057558998
-0.042123996 -0.30400515 0.057577543
-0.042307358 -0.30412206 0.05756484
-0.042487275 -0.30423683 0.057552163
-0.042676724 -0.30436397 0.05749552
-0.042862918 -0.30448601 0.057459697
-0.043036535 -0.30458754 0.057510599
-0.043219618 -0.30470815 0.057471327
-0.043391343 -0.30480665 0.057534952
-0.043572366 -0.3049241 0.057508394
-0.043757141 -0.30504459 0.057477206
-0.043948874 -0.30518058 0.057369713
-0.044128474 -0.30529279 0.057373211
-0.044309981 -0.30540836 0.057361685
-0.044494897 -0.30552995 0.057323556
-0.044667792 -0.30563456 0.0573502
-0.044849955 -0.30575174 0.057330564
-0.045028389 -0.30586621 0.057313278
-0.045217082 -0.30599523 0.057240468
-0.045392066 -0.306104 0.05724746
-0.045571826 -0.30621767 0.057241723
-0.045754213 -0.30633613 0.057214007
-0.045933411 -0.30644909 0.057210572
-0.046111237 -0.30656356 0.05719097
-0.04628893 -0.30667403 0.057197943
-0.046475016 -0.30680007 0.057134401
-0.046649966 -0.30690581 0.057162181
-0.046825588 -0.30701685 0.057156458
-0.047004074 -0.30712932 0.057153035
-0.047189385 -0.30725488 0.057089485
-0.047366913 -0.30736595 0.057091847
-0.04754556 -0.30748343 0.057054907
-0.047727775 -0.30760384 0.057013333
-0.047909021 -0.30772263 0.056978695
-0.048083991 -0.30782938 0.056999557
-0.048259087 -0.30794075 0.056989208
-0.048434179 -0.30804792 0.05700776
-0.048617188 -0.308171 0.056951154
-0.048795968 -0.30828589 0.056932703
-0.04897356 -0.30840304 0.056893468
-0.049147286 -0.30850801 0.05692127
-0.049325526 -0.30862692 0.056872778
-0.049505375 -0.30874482 0.056838155
-0.049678169 -0.3088482 0.056872882
-0.049855478 -0.30896115 0.056861386
-0.050033279 -0.30908012 0.056810591
-0.050209537 -0.30919123 0.056807179
-0.050387204 -0.30931044 0.056754075
-0.05055964 -0.30941358 0.056788802
-0.050740823 -0.30953604 0.056728758
-0.050911102 -0.30963969 0.056750789
-0.051085055 -0.30974647 0.056767032
-0.051262036 -0.30986544 0.056712776
-0.051439159 -0.30997977 0.056690883
-0.051616747 -0.3100954 0.056662045
-0.051793091 -0.31020841 0.056645915
-0.051966228 -0.31031957 0.056628659
-0.052143671 -0.31043565 0.056596357
-0.052318119 -0.31054476 0.056598723
-0.052493803 -0.31065702 0.056584917
-0.052668672 -0.31077331 0.056539923
-0.052840915 -0.3108775 0.056566574
-0.053014968 -0.31099227 0.056528512
-0.053190883 -0.31110603 0.056505464
-0.053364411 -0.31121391 0.056512464
-0.053540945 -0.31132972 0.056477852
-0.053713582 -0.3114419 0.056451358
-0.053887501 -0.31155136 0.056449115
-0.054059803 -0.31166318 0.056423776
-0.054233935 -0.31177363 0.056415748
-0.054409541 -0.31188837 0.056384619
-0.054581836 -0.31199411 0.056400858
-0.054754805 -0.31210887 0.056358188
-0.054928452 -0.31221884 0.056351326
-0.055101138 -0.31233341 0.056308649
-0.055274494 -0.31244302 0.056302954
-0.05544363 -0.31254765 0.056313448
-0.055617042 -0.3126578 0.056304276
-0.055791661 -0.31277192 0.05627314
-0.055963326 -0.31287709 0.056290548
-0.05613517 -0.31299096 0.056249037
-0.056307226 -0.31309775 0.056257196
-0.056476042 -0.31320232 0.056266543
-0.056651264 -0.31332001 0.056213461
-0.056821845 -0.31343108 0.056185819
-0.05699366 -0.3135379 0.05619283
-0.057166498 -0.31365761 0.056115501
-0.057335537 -0.31375492 0.056175664
-0.057507508 -0.31387243 0.056109898
-0.057682548 -0.31399235 0.056040645
-0.057845704 -0.3140974 0.056022294
-0.058026269 -0.31420937 0.056031562
-0.058195245 -0.31431723 0.056018941
-0.058367781 -0.31442919 0.055993609
-0.058535166 -0.31453103 0.056015663
-0.058709584 -0.31465173 0.055938318
-0.058880202 -0.31476837 0.05587256
-0.05904964 -0.3148683 0.055916552
-0.059220627 -0.31497526 0.055918951
-0.059386551 -0.31507111 0.055975672
-0.059557457 -0.31517783 0.055979222
-0.059731178 -0.31529912 0.055894956
-0.059899554 -0.31540781 0.055874258
-0.060070083 -0.31551379 0.055881277
-0.060240842 -0.31562126 0.055879053
-0.060414705 -0.31574702 0.05576475
-0.060581431 -0.31584826 0.055787966
-0.060748041 -0.31594875 0.055815801
-0.060916826 -0.31606326 0.055756979
-0.06109345 -0.31617492 0.055751257
-0.061260223 -0.31627721 0.055767544
-0.061421368 -0.31637982 0.055757292
-0.061585702 -0.31648561 0.055738933
-0.061744455 -0.31659311 0.055684794
-0.061939836 -0.31672129 0.055646598
-0.062105469 -0.31681529 0.055714883
-0.062275887 -0.31692693 0.055682622
-0.062445927 -0.31703579 0.055667695
-0.06258522 -0.31712738 0.055639096
-0.062755808 -0.31724483 0.055567555
-0.062953234 -0.31737027 0.05555708
-0.063122943 -0.31747976 0.055536374
-0.063282788 -0.3175745 0.055574656
-0.063458517 -0.31768695 0.055559687
-0.06362851 -0.31780708 0.055467363
-0.063788638 -0.31791073 0.055445567
-0.063945562 -0.31801105 0.055433027
-0.064129986 -0.31812423 0.055450357
-0.064302035 -0.31822395 0.055507042
-0.064443462 -0.31831047 0.055522334
-0.064612567 -0.3184312 0.055421919
-0.064790681 -0.31855088 0.055367664
-0.064947382 -0.31863993 0.055431373
-0.06511306 -0.31875011 0.055388749
-0.065302625 -0.31889212 0.055230439
-0.065459743 -0.31896999 0.055372715
-0.065621622 -0.31908688 0.055267721
-0.065799348 -0.31919891 0.055264302
-0.065980583 -0.31930521 0.055315159
-0.066139713 -0.31940824 0.055293366
-0.06631393 -0.31952262 0.05525877
-0.066482194 -0.31963003 0.055246163
-0.066635348 -0.3197251 0.05525329
-0.066815704 -0.31984064 0.055237144
-0.066983961 -0.31994656 0.055234931
-0.067151606 -0.32005712 0.055198066
-0.06731645 -0.32016289 0.055182014
-0.067483 -0.32027951 0.055098955
-0.067626365 -0.32037112 0.055087656
-0.067795441 -0.3204698 0.055138581
-0.06796325 -0.32057643 0.05512945
-0.068149395 -0.32069427 0.055122502
-0.068287283 -0.32079607 0.055017665
-0.068442985 -0.32089323 0.055021312
-0.068615742 -0.32099119 0.055093013
-0.068775393 -0.32110229 0.055018082
-0.068956241 -0.32121122 0.055049293
-0.069137946 -0.32133147 0.055006564
-0.069287151 -0.32142591 0.055001009
-0.069444612 -0.32152942 0.05496883
-0.069646306 -0.3216666 0.054895937
-0.069806278 -0.32176024 0.054942302
-0.069976978 -0.32187912 0.054861516
-0.070137575 -0.32198274 0.054842029
-0.070305526 -0.32208592 0.054857157
-0.070451468 -0.32217798 0.054853924
-0.070637681 -0.32229266 0.054868937
-0.070809722 -0.32240549 0.054835506
-0.07097353 -0.32250977 0.054825239
-0.07113082 -0.3226113 0.054805774
-0.071297221 -0.32271841 0.054787397
-0.071445823 -0.3228128 0.054779544
-0.071617551 -0.32292524 0.054747276
-0.071796156 -0.32303935 0.054733448
-0.071949154 -0.32313213 0.054755598
-0.072090492 -0.32321623 0.054787055
-0.072267108 -0.3233518 0.054617278
-0.072459161 -0.32346997 0.054633409
-0.072609998 -0.32356712 0.054616284
-0.072766289 -0.3236692 0.054588743
-0.072947361 -0.32377744 0.054625727
-0.07311967 -0.32388723 0.05461425
-0.073287904 -0.32398942 0.054637454
-0.073447436 -0.32410753 0.054513998
-0.073617041 -0.3241998 0.054611139
-0.073780119 -0.32431105 0.054550044
-0.073942132 -0.32441673 0.054522455
-0.074113309 -0.32451403 0.054591849
-0.074271604 -0.32462564 0.05450768
-0.074434653 -0.324736 0.054452363
-0.074602082 -0.3248328 0.054509073
-0.098701596 -0.34033081 0.051934402
-0.098892681 -0.34043744 0.052025631
-0.099064663 -0.34054399 0.052034944
-0.099195406 -0.34062919 0.052013338
-0.099386558 -0.3407456 0.052037556
-0.099539295 -0.3408463 0.052004244
-0.099694759 -0.34094149 0.052020602
-0.099871948 -0.34104845 0.052049533
-0.10002033 -0.34115097 0.051985063
-0.10018646 -0.34125218 0.052005969
-0.10035289 -0.34136081 0.051977202
-0.10053625 -0.34146643 0.052041907
-0.10072032 -0.34157586 0.052083503
-0.10086548 -0.34168193 0.051980928
-0.10103915 -0.34178919 0.051992543
-0.10119927 -0.34189588 0.051949952
-0.10136114 -0.34200266 0.051914282
-0.10152494 -0.34211132 0.051873971
-0.10168634 -0.34221274 0.051872965
-0.10185716 -0.34232008 0.051871892
-0.1020399 -0.34243527 0.051868439
-0.1021999 -0.34253851 0.051848955
-0.10234604 -0.34263909 0.051787965
-0.10251532 -0.34274128 0.051815793
-0.10268784 -0.34285071 0.051807776
-0.1028666 -0.34296235 0.051811278
-0.10302572 -0.34306741 0.051775623
-0.1031885 -0.34317106 0.051765356
-0.10335762 -0.34328038 0.0517435
-0.10351866 -0.34338394 0.051726323
-0.10366704 -0.3434881 0.051650308
-0.1038475 -0.34359682 0.051681519
-0.10399901 -0.34369791 0.051640134
-0.10418065 -0.34380853 0.051663257
-0.10434323 -0.34391406 0.051639132
-0.10452863 -0.34402519 0.05167494
-0.10467632 -0.34413096 0.051585067
-0.10482476 -0.34423181 0.051532146
-0.10500462 -0.34433761 0.051580697
-0.10516795 -0.34444663 0.051535774
-0.10534358 -0.34455213 0.05156818
-0.10552599 -0.3446666 0.051568184
-0.10567206 -0.34477052 0.051484101
-0.10584859 -0.34487793 0.051507246
-0.10601178 -0.34498703 0.051461171
-0.10617416 -0.34509125 0.051445138
-0.10634373 -0.34519801 0.051442917
-0.10649654 -0.34530428 0.051371489
-0.10667537 -0.3454091 0.051422365
-0.10684987 -0.34551978 0.051414333
-0.10700452 -0.3456232 0.051370617
-0.10718029 -0.34573567 0.05135566
-0.10733952 -0.34584129 0.05131653
-0.1075117 -0.34594712 0.051331632
-0.10768168 -0.34605429 0.05132826
-0.10785459 -0.34616345 0.051323708
-0.10800579 -0.34626958 0.051246509
-0.10817491 -0.34637368 0.051260468
-0.10833617 -0.34647974 0.051227115
-0.10851679 -0.34659171 0.051236384
-0.10868101 -0.34669676 0.051222641
-0.10886366 -0.3468107 0.051227272
-0.10902557 -0.346917 0.051195066
-0.10917611 -0.34702307 0.051115572
-0.1093649 -0.34713212 0.051180243
-0.1095266 -0.34723994 0.051136483
-0.10970423 -0.3473489 0.05115385
-0.1098659 -0.34745973 0.051089302
-0.11002643 -0.34756449 0.051061727
-0.11020386 -0.34767061 0.051097579
-0.11037139 -0.34778398 0.051041082
-0.11052001 -0.3478868 0.050975457
-0.11072205 -0.34800315 0.051046968
-0.1108879 -0.34811193 0.051014736
-0.11105976 -0.34822178 0.051000956
-0.11120777 -0.34832457 0.050933026
-0.11138436 -0.34843099 0.050963111
-0.11155915 -0.34854436 0.050937753
-0.11173306 -0.34865332 0.050938971
-0.11188781 -0.34875882 0.050881393
-0.1120572 -0.3488656 0.050878026
-0.11221467 -0.34897164 0.050828524
-0.11240216 -0.34908473 0.05085969
-0.11254755 -0.34918571 0.050792925
-0.11274883 -0.34930161 0.050864451
-0.11291227 -0.3494117 0.050812595
-0.11311571 -0.34952962 0.050879478
-0.11327514 -0.34964043 0.050805707
-0.11342964 -0.34974188 0.050774701
-0.11359232 -0.34984916 0.050739024
-0.11376892 -0.34996065 0.050734449
-0.11393451 -0.3500686 0.050706845
-0.11409461 -0.35017544 0.050663091
-0.11423993 -0.35027653 0.050595179
-0.11446859 -0.35040304 0.050711587
-0.11463183 -0.35051203 0.050666668
-0.11479916 -0.35062325 0.05062402
-0.11498713 -0.35073885 0.050640173
-0.11514772 -0.35084599 0.050596431
-0.11531363 -0.35095027 0.050595388
-0.11548948 -0.35105807 0.05061277
-0.11566502 -0.35117126 0.050592035
-0.11582792 -0.3512817 0.050535556
-0.11595304 -0.3513785 0.050409999
-0.11616552 -0.35150126 0.050482616
-0.11634564 -0.3516143 0.050482634
-0.116497 -0.35171562 0.050438948
-0.11664774 -0.3518208 0.050366372
-0.11683968 -0.35193402 0.050416
-0.1170316 -0.35205126 0.050437909
-0.11719386 -0.35216045 0.050387215
-0.11735043 -0.35226575 0.050338868
-0.11754129 -0.35237643 0.050401211
-0.11768817 -0.35248473 0.050290544
-0.11786161 -0.35259408 0.05028715
-0.11804622 -0.35270739 0.050304476
-0.11821739 -0.35281631 0.050294165
-0.11840205 -0.35293236 0.050293002
-0.11854339 -0.35303548 0.050193924
-0.11872749 -0.35314763 0.050217025
-0.1188926 -0.35325527 0.050189428
-0.11906703 -0.35336775 0.050168689
-0.11924466 -0.35348105 0.050156023
-0.027954467 -0.29492724 0.05885604
-0.028133679 -0.29503262 0.058904596
-0.028323509 -0.29514906 0.058923032
-0.028528269 -0.29528633 0.058862805
-0.028713107 -0.29539678 0.058900923
-0.028904893 -0.29551813 0.058893941
-0.029089779 -0.29562876 0.058930896
-0.029307179 -0.29578257 0.058811665
-0.029497825 -0.2959007 0.058822013
-0.02968188 -0.29601282 0.05884511
-0.029929359 -0.2962032 0.058604352
-0.030098464 -0.29629669 0.058691099
-0.030302621 -0.29643255 0.05863782
-0.030476701 -0.29653016 0.058717608
-0.030676801 -0.29666114 0.058680516
-0.030869052 -0.29678446 0.058661971
-0.031061526 -0.29690593 0.058657289
-0.031251095 -0.29702607 0.058649153
-0.031462077 -0.2971718 0.058557685
-0.031646907 -0.29728609 0.05856923
-0.031831849 -0.2973983 0.058595791
-0.03199343 -0.29748231 0.058714941
-0.032197963 -0.2976203 0.058648944
-0.032391157 -0.29776022 0.058520608
-0.032626703 -0.29792288 0.058418591
-0.032826193 -0.29805735 0.058354937
-0.032978516 -0.29812935 0.058516897
-0.033180147 -0.29826447 0.058457844
-0.033360817 -0.29837179 0.058499452
-0.033547673 -0.29848987 0.058493651
-0.033765461 -0.29864728 0.058351301
-0.0339543 -0.29876596 0.058350109
-0.034155723 -0.2989018 0.058285274
-0.034326464 -0.29899865 0.058355838
-0.034525134 -0.2991311 0.058302581
-0.034726694 -0.29927021 0.058215797
-0.034910519 -0.29938272 0.058235444
-0.03508997 -0.29948926 0.058277059
-0.035274949 -0.29960349 0.058289759
-0.035464603 -0.29972687 0.058259673
-0.035658982 -0.29985443 0.058221467
-0.035842281 -0.29996929 0.058222618
-0.036015566 -0.30006757 0.058294315
-0.036239218 -0.30023673 0.058096468
-0.036407206 -0.30033576 0.058140468
-0.036591046 -0.30044389 0.058190148
-0.036802188 -0.30059627 0.05805362
-0.036986105 -0.30071285 0.058045514
-0.037166972 -0.30082247 0.058072109
-0.037365209 -0.30095714 0.058001518
-0.037548684 -0.30107078 0.058011927
-0.037735641 -0.30119231 0.057983007
-0.037919253 -0.30130634 0.057991087
-0.038111016 -0.30143243 0.057951745
-0.038294934 -0.30154717 0.057956357
-0.038481731 -0.30166909 0.057923976
-0.038656063 -0.30177563 0.057943672
-0.038856886 -0.30191007 0.057885785
-0.039038826 -0.3020224 0.057898499
-0.039228354 -0.30214906 0.057845302
-0.039406549 -0.30225602 0.057878844
-0.039607015 -0.30239663 0.057777043
-0.039784946 -0.30250341 0.05781059
-0.039973769 -0.30262983 0.05775623
-0.040153351 -0.30273929 0.057778206
-0.040331751 -0.30285007 0.057786327
-0.040520918 -0.30297452 0.057746992
-0.04071806 -0.30311152 0.057655618
-0.040898383 -0.30322266 0.057669498
-0.04107878 -0.303334 0.057682224
-0.041262656 -0.30345091 0.057671815
-0.041438643 -0.30355865 0.057690345
-0.041624706 -0.30367929 0.057663746
-0.041815814 -0.30380812 0.057602458
-0.042002842 -0.30393073 0.057566613
-0.042173501 -0.30403039 0.057617523
-0.042366855 -0.30416352 0.057536572
-0.042551123 -0.30428219 0.057515763
-0.042733539 -0.304398 0.057506524
-0.042905729 -0.30450049 0.057544719
-0.043093517 -0.30462539 0.057496157
-0.043274872 -0.30473989 0.057491541
-0.043458365 -0.30485806 0.057470739
-0.043635033 -0.30496842 0.057474248
-0.043822683 -0.30509391 0.057421058
-0.044000775 -0.30520347 0.057436109
-0.044188015 -0.30532873 0.057382926
-0.044368494 -0.30544618 0.057354052
-0.04455477 -0.30557385 0.057280082
-0.044723496 -0.30566776 0.057362206
-0.044908293 -0.30578962 0.057321757
-0.045088686 -0.305904 0.057313681
-0.045232929 -0.30597696 0.057434089
-0.045431364 -0.30616817 0.056976415
-0.045639656 -0.30626929 0.057179622
-0.045810059 -0.30636641 0.057246711
-0.045993626 -0.30648735 0.05720742
-0.046177279 -0.30661252 0.057139248
-0.046320364 -0.30670667 0.057109453
-0.046522595 -0.30682331 0.057179809
-0.04670886 -0.3069461 0.057139348
-0.046888288 -0.30706036 0.057127811
-0.047076993 -0.30719227 0.057035331
-0.047241777 -0.30728334 0.057119802
-0.047427952 -0.30741096 0.057045821
-0.047603838 -0.30752334 0.057031997
-0.047769643 -0.30762485 0.057049442
-0.047955632 -0.30774441 0.057029773
-0.048136402 -0.30786258 0.056997433
-0.048309401 -0.30796993 0.057005584
-0.048487395 -0.30808297 0.056996368
-0.048661813 -0.30819345 0.056989491
-0.048842244 -0.3083117 0.056954835
-0.049019761 -0.30842882 0.056915581
-0.049193911 -0.30853471 0.056938745
-0.049375985 -0.30865705 0.056883287
-0.049554475 -0.30877227 0.056861356
-0.049710967 -0.30886033 0.056930855
-0.049906127 -0.3089968 0.056834869
-0.050079335 -0.30910614 0.056830309
-0.050257523 -0.30922151 0.056806065
-0.050433673 -0.30933759 0.056767981
-0.050611436 -0.30945247 0.056744903
-0.050782043 -0.30955684 0.056763459
-0.050956007 -0.30966365 0.056779698
-0.051123545 -0.30976641 0.05679597
-0.051308163 -0.30989236 0.056726627
-0.051482536 -0.31000581 0.056698941
-0.051664229 -0.3101311 0.056621537
-0.05183392 -0.31023422 0.056644723
-0.052009575 -0.31034595 0.056634367
-0.0521807 -0.31045264 0.056639068
-0.052354082 -0.31055924 0.05665414
-0.052529454 -0.31067654 0.056604508
-0.052702069 -0.31078738 0.056587234
-0.052878629 -0.31090236 0.056558385
-0.053052381 -0.31101054 0.056564223
-0.053227372 -0.31112811 0.056511112
-0.05340489 -0.3112464 0.056463778
-0.053575151 -0.31135237 0.056469627
-0.053748511 -0.31146032 0.056475468
-0.053918891 -0.31156689 0.05647786
-0.054093339 -0.31167802 0.056466348
-0.05425581 -0.3117899 0.056398306
-0.054441981 -0.31190705 0.056395978
-0.054612301 -0.31201428 0.056393739
-0.054789174 -0.31213334 0.056338318
-0.054962561 -0.31224987 0.056285217
-0.055130914 -0.31234491 0.056358099
-0.055303626 -0.31246001 0.056311946
-0.05547557 -0.31256571 0.056327038
-0.055647582 -0.31267935 0.056287818
-0.055820141 -0.31278729 0.056290187
-0.055987358 -0.31288648 0.056329578
-0.056163616 -0.31300652 0.056264915
-0.056333318 -0.31311402 0.05625806
-0.056507081 -0.31322673 0.056232698
-0.056677341 -0.31333661 0.056211978
-0.056849897 -0.3134459 0.056205105
-0.057020765 -0.31355849 0.056168206
-0.057190515 -0.31366751 0.056150954
-0.05735933 -0.31377345 0.05615104
-0.057533771 -0.31389081 0.056096785
-0.057702124 -0.3139956 0.056102648
-0.057876013 -0.31411177 0.056054175
-0.058046088 -0.31422389 0.05601728
-0.058216229 -0.31432608 0.056048557
-0.058386482 -0.31443965 0.056002419
-0.058558054 -0.31454813 0.055996701
-0.0587263 -0.31465405 0.055994492
-0.058897547 -0.31476167 0.055993408
-0.059067257 -0.31487471 0.055948421
-0.059236676 -0.31497446 0.055993576
-0.059381783 -0.31506109 0.056023858
-0.059577733 -0.31519771 0.055930167
-0.059746005 -0.31530565 0.055914085
-0.059916455 -0.31541109 0.055924565
-0.060085766 -0.31552538 0.055869184
-0.060256965 -0.31563568 0.055849612
-0.060426153 -0.31575093 0.055787303
-0.060592826 -0.31585196 0.055811666
-0.060759347 -0.31595206 0.055841811
-0.06092542 -0.31606737 0.055765659
-0.061100371 -0.31618708 0.055697523
-0.061270066 -0.31629086 0.055716097
-0.06143669 -0.3163929 0.055733539
-0.061605044 -0.31648624 0.055817977
-0.061773669 -0.31660432 0.055733711
-0.061945125 -0.31672403 0.055650592
-0.062110849 -0.31681925 0.055710778
-0.062281597 -0.31693479 0.05565308
-0.062439241 -0.31703624 0.055635899
-0.062614545 -0.31714034 0.055676401
-0.062781952 -0.31725514 0.055609472
-0.06295187 -0.31736645 0.055577204
-0.063105248 -0.31745291 0.0556444
-0.063284829 -0.31757909 0.055551983
-0.063444696 -0.31767482 0.055583328
-0.063623704 -0.31779626 0.055520952
-0.063790068 -0.31790584 0.055485234
-0.063956261 -0.31801382 0.05545992
-0.064125307 -0.31811789 0.055473872
-0.064266615 -0.31820112 0.055511102
-0.06442336 -0.31829575 0.055536695
-0.064620093 -0.31843337 0.055439539
-0.064782836 -0.31853986 0.055409618
-0.064933419 -0.31862319 0.055486087
-0.065102205 -0.31873399 0.055452667
-0.065282919 -0.31886035 0.055363711
-0.065451629 -0.31896538 0.055369567
-0.065629534 -0.31907597 0.055376541
-0.065791443 -0.31918836 0.055302709
-0.065948069 -0.31928053 0.055344481
-0.066104375 -0.31937826 0.055346962
-0.066253603 -0.31948367 0.055266283
-0.06645228 -0.31961206 0.055240758
-0.066613466 -0.31972429 0.055164635
-0.066780232 -0.31981242 0.055277973
-0.066954501 -0.31992313 0.055268787
-0.067106947 -0.3200233 0.055237781
-0.067260653 -0.32011315 0.055283021
-0.067442559 -0.3202396 0.055198673
-0.067625396 -0.32035822 0.055172097
-0.067781977 -0.32045123 0.055208087
-0.0679546 -0.32056949 0.05513997
-0.068118654 -0.32067761 0.055104267
-0.068268761 -0.32076859 0.055126436
-0.068428271 -0.32088163 0.055037599
-0.068620816 -0.32100028 0.055052564
-0.06879402 -0.3211123 0.055029511
-0.06895826 -0.32121739 0.055015758
-0.069119267 -0.3213211 0.054997407
-0.069268025 -0.32141709 0.054979138
-0.069451429 -0.32152951 0.054997623
-0.069614492 -0.3216382 0.054953832
-0.069767416 -0.32173145 0.054972518
-0.069935828 -0.3218334 0.054998029
-0.070125259 -0.32196188 0.054932121
-0.070291139 -0.32206023 0.054971509
-0.070456415 -0.32217202 0.054916158
-0.070620552 -0.32227567 0.054911651
-0.070786342 -0.32237446 0.054947581
-0.070937715 -0.32247213 0.054929294
-0.071080223 -0.32258356 0.05477817
-0.071274944 -0.32269517 0.054850895
-0.071449198 -0.32281107 0.054805882
-0.071604095 -0.32290858 0.054803748
-0.071749508 -0.32301041 0.054731183
-0.071892776 -0.32309875 0.054741837
-0.072067998 -0.3232114 0.054723389
-0.07223697 -0.32331187 0.054761618
-0.072390966 -0.32341942 0.054686684
-0.072566032 -0.32354021 0.054611623
-0.072733201 -0.32364425 0.054617502
-0.072924055 -0.32376471 0.05461283
-0.073084563 -0.32387382 0.054555193
-0.073253408 -0.32397455 0.054591104
-0.073417984 -0.32407579 0.054605082
-0.07357242 -0.32418057 0.054550949
-0.073721401 -0.32427302 0.054558095
-0.07389579 -0.32437873 0.054583564
-0.074086793 -0.32449862 0.05458352
-0.074237347 -0.32459542 0.054567546
-0.074384756 -0.3246904 0.054550435
-0.074550696 -0.3247962 0.054538984
-0.0747177 -0.32491326 0.054454729
-0.074890353 -0.32502159 0.054454796
-0.075039491 -0.32510743 0.054508168
-0.075213976 -0.32523796 0.054363776
-0.075375333 -0.32533127 0.054418221
-0.075533636 -0.32541695 0.054511968
-0.075708859 -0.32554558 0.054383755
-0.075883754 -0.32565668 0.054374561
-0.076054767 -0.32577831 0.054276414
-0.076205678 -0.32587364 0.054271996
-0.076361075 -0.32595798 0.054362293
-0.07653176 -0.32605752 0.054414369
-0.076707788 -0.32617807 0.054345082
-0.07684198 -0.32627115 0.054284144
-0.07700973 -0.32636884 0.054336239
-0.077171132 -0.32647362 0.05431211
-0.077363998 -0.32660627 0.054232311
-0.077528454 -0.32672277 0.054141141
-0.07769791 -0.32682386 0.05417705
-0.077863291 -0.32692426 0.054200266
-0.078035206 -0.32702321 0.054261576
-0.07818222 -0.32710785 0.054313798
-0.078327179 -0.32720888 0.054244712
-0.07850688 -0.32732922 0.054192729
-0.078655094 -0.32743618 0.054097041
-0.078803509 -0.32753348 0.054068368
-0.078954428 -0.32764667 0.053941466
-0.079142027 -0.32775497 0.054006148
-0.079308681 -0.32785448 0.054040913
-0.079477988 -0.32796073 0.054040998
-0.07963305 -0.32805246 0.054079302
-0.079774015 -0.3281683 0.053891212
-0.07996852 -0.32828027 0.053960476
-0.080132477 -0.32838213 0.053967528
-0.080301128 -0.32848054 0.054018453
-0.080452412 -0.32857949 0.053990919
-0.080618635 -0.328688 0.053962141
-0.080807917 -0.32879633 0.054033741
-0.08094763 -0.32888329 0.054038629
-0.081105173 -0.32899374 0.05395906
-0.08126229 -0.32910427 0.053877182
-0.081414796 -0.3291944 0.053915508
-0.081589058 -0.32930139 0.053931739
-0.081736073 -0.32941413 0.053790983
-0.081890725 -0.32952935 0.053666364
-0.082063049 -0.32964101 0.053642165
-0.082224675 -0.32974055 0.05365501
-0.082391083 -0.32983738 0.053707112
-0.082534492 -0.32995108 0.053544436
-0.082711101 -0.33004946 0.053629983
-0.082881622 -0.33015138 0.053664725
-0.083049789 -0.3302547 0.053679843
-0.08322195 -0.330356 0.053726129
-0.083397359 -0.33043846 0.053915679
-0.083545938 -0.33054531 0.053822298
-0.083707601 -0.33065566 0.053761192
-0.083879441 -0.33077443 0.053686149
-0.084037237 -0.330883 0.053620439
-0.084195159 -0.33099473 0.053533938
-0.084385462 -0.33111766 0.053509615
-0.084547356 -0.33121756 0.053521305
-0.084685832 -0.33131164 0.053471901
-0.084844105 -0.33140993 0.053478986
-0.085033022 -0.33152077 0.053532101
-0.085195929 -0.33162042 0.053549562
-0.085362568 -0.33172178 0.053571619
-0.085523807 -0.33182228 0.053576373
-0.085683152 -0.33192661 0.053546477
-0.085842133 -0.33203107 0.053514268
-0.085996531 -0.33213419 0.053471692
-0.086156107 -0.33223832 0.05344411
-0.086332239 -0.33235744 0.053385224
-0.086485334 -0.33245784 0.05335537
-0.086640202 -0.33256057 0.053317409
-0.086809799 -0.33266413 0.053337131
-0.086964436 -0.332764 0.05331767
-0.087120667 -0.33286622 0.053288944
-0.087286673 -0.3329739 0.053264786
-0.087439723 -0.33308557 0.053157512
-0.08761254 -0.3331883 0.05319687
-0.087778881 -0.33328745 0.053232785
-0.087935701 -0.33339778 0.053150907
-0.088101223 -0.33349726 0.053181063
-0.088252313 -0.33358985 0.053196285
-0.088424437 -0.33369043 0.053247191
-0.088612571 -0.33378965 0.05337657
-0.088788889 -0.33390298 0.053358126
-0.088931993 -0.33403265 0.053084519
-0.089078121 -0.33413458 0.053014264
-0.089229569 -0.33423513 0.052976333
-0.089369245 -0.33433318 0.05290496
-0.089532256 -0.33443362 0.052917793
-0.089719735 -0.33453897 0.053002123
-0.089896508 -0.3346366 0.053093441
-0.090071023 -0.33474255 0.05311776
-0.09023618 -0.33485055 0.053087827
-0.090380773 -0.33496517 0.052923985
-0.090526275 -0.33506182 0.052887242
-0.090697683 -0.33516347 0.052927755
-0.090871789 -0.33526969 0.052948613
-0.091049299 -0.33538276 0.05293709
-0.091204487 -0.33548754 0.052886423
-0.091366798 -0.33559105 0.052874994
-0.091518879 -0.33569387 0.052824352
-0.091699831 -0.3358064 0.052831296
-0.091868907 -0.3359113 0.052839465
-0.09203656 -0.33601886 0.052823387
-0.092213809 -0.33612975 0.052825727
-0.092368871 -0.33623442 0.052775059
-0.092501186 -0.33632818 0.052701425
-0.0926411 -0.33642319 0.052652009
-0.092823356 -0.33652425 0.052743305
-0.092998363 -0.33663559 0.052732948
-0.093149029 -0.33673617 0.052691549
-0.093301579 -0.33683875 0.052644368
-0.093465157 -0.33693784 0.052668758
-0.093625784 -0.33704183 0.052646935
-0.09380129 -0.33714876 0.052668937
-0.093970731 -0.33726081 0.052629732
-0.094130725 -0.33736488 0.052604459
-0.094308577 -0.33747396 0.052621819
-0.094449811 -0.33757097 0.052564304
-0.094635837 -0.33768165 0.05260589
-0.094784826 -0.33778235 0.052556407
-0.0949568 -0.33788991 0.052558791
-0.095116548 -0.33799839 0.052502312
-0.095295399 -0.33810556 0.052537002
-0.095460638 -0.3382158 0.052492045
-0.09560097 -0.33831275 0.052431069
-0.095745571 -0.33840734 0.052404743
-0.095932826 -0.33851221 0.052491378
-0.096107394 -0.33862409 0.052475244
-0.096274927 -0.33873427 0.052440681
-0.096426398 -0.33883685 0.052388884
-0.096587159 -0.33893704 0.052393638
-0.096752673 -0.33904931 0.05233597
-0.096922487 -0.33915737 0.052325651
-0.097087257 -0.33925959 0.052333858
-0.097244821 -0.33936602 0.05228202
-0.097410232 -0.33946827 0.052292526
-0.097580925 -0.33958042 0.052257933
-0.097738221 -0.33967894 0.052259255
-0.097886108 -0.33977762 0.052219026
-0.098051466 -0.33987615 0.05225496
-0.098221719 -0.33998448 0.052244633
-0.098386675 -0.34008899 0.052237816
-0.098532461 -0.34019154 0.052161787
-0.098710917 -0.34029999 0.052186083
-0.0988812 -0.34041038 0.052161895
-0.099034801 -0.34051296 0.05211933
-0.099203587 -0.3406271 0.052062795
-0.099388145 -0.340734 0.052124023
-0.09953016 -0.34083638 0.052032996
-0.099683121 -0.34093335 0.052026242
-0.099856883 -0.34103835 0.052054033
-0.10003304 -0.34114906 0.052052926
-0.10019748 -0.34125206 0.052054197
-0.10034442 -0.34135449 0.051983934
-0.10051152 -0.34145766 0.051995583
-0.10067404 -0.34156433 0.051963363
-0.10084298 -0.3416695 0.051969223
-0.10100615 -0.34177625 0.051939301
-0.10117187 -0.34187955 0.051944036
-0.10133228 -0.34198979 0.051878311
-0.10148533 -0.3420907 0.051844988
-0.10165065 -0.3421976 0.051823147
-0.10183967 -0.34231302 0.051845063
-0.102001 -0.34241626 0.051831327
-0.1021594 -0.34251934 0.051806066
-0.10233516 -0.34262711 0.051823437
-0.10248232 -0.34273121 0.05174277
-0.10265802 -0.34284079 0.051747445
-0.10280662 -0.34294495 0.051672548
-0.10296144 -0.3430461 0.051644996
-0.10313049 -0.34315184 0.051647395
-0.10331507 -0.34326059 0.051695909
-0.10350202 -0.34336799 0.051764056
-0.10365849 -0.34347624 0.051694892
-0.10380553 -0.34358364 0.051591121
-0.10397816 -0.34369162 0.051593501
-0.10415595 -0.34379846 0.051625881
-0.10432472 -0.34390622 0.051613264
-0.10448335 -0.34401464 0.051552173
-0.10466248 -0.34412184 0.051588014
-0.10480408 -0.34422362 0.0514993
-0.1049942 -0.34433535 0.051551253
-0.10515247 -0.34444544 0.051477447
-0.10531525 -0.3445462 0.05148682
-0.10547455 -0.34464666 0.051483504
-0.10563748 -0.3447524 0.051459365
-0.10584511 -0.34486336 0.051592089
-0.10599086 -0.34497046 0.05148486
-0.10612934 -0.34507498 0.051363811
-0.10631007 -0.34518301 0.051400803
-0.10645379 -0.34528494 0.051320165
-0.10662995 -0.34539095 0.051351395
-0.10681978 -0.34550351 0.051396422
-0.10699192 -0.34561387 0.051380306
-0.10716724 -0.34571999 0.051406935
-0.10729025 -0.34581921 0.051255945
-0.10747939 -0.3459273 0.051328696
-0.10763597 -0.34603411 0.051269934
-0.10781249 -0.34614217 0.051288452
-0.10796452 -0.34624529 0.051235497
-0.10814853 -0.34635302 0.051288642
-0.1083122 -0.34645942 0.051263347
-0.10847317 -0.3465685 0.051208012
-0.10862181 -0.34666964 0.051153928
-0.10880536 -0.34677911 0.0511932
-0.10899583 -0.34689423 0.051223204
-0.10915168 -0.34700111 0.051160969
-0.10930403 -0.34710291 0.051118407
-0.10947382 -0.34721199 0.051101156
-0.10963273 -0.34731486 0.051079355
-0.10982604 -0.3474308 0.051116265
-0.10997839 -0.34753716 0.051042497
-0.11016244 -0.34764725 0.051079467
-0.11031273 -0.3477518 0.051009186
-0.11048657 -0.34785888 0.051023107
-0.11066252 -0.34796926 0.051023152
-0.11082766 -0.34807643 0.050998997
-0.11098558 -0.34818089 0.05096218
-0.11114994 -0.3482894 0.050925314
-0.11130105 -0.34839413 0.050857339
-0.11148269 -0.3485029 0.050893165
-0.11165024 -0.34861207 0.050865531
-0.11182846 -0.34872034 0.050889827
-0.11199397 -0.34882638 0.050874915
-0.11216235 -0.34893724 0.050839186
-0.11232834 -0.34904629 0.050805781
-0.11249961 -0.34915492 0.05079776
-0.11267729 -0.34926623 0.050798949
-0.11284404 -0.34937271 0.050786342
-0.11298878 -0.34947497 0.050708003
-0.11318284 -0.34959102 0.050747216
-0.113341 -0.34969732 0.050698839
-0.11352938 -0.34980965 0.050739247
-0.11366016 -0.34991053 0.050610159
-0.11385544 -0.35002297 0.050679419
-0.11403201 -0.35013175 0.050693318
-0.11418699 -0.35023892 0.050625317
-0.11438301 -0.35035318 0.050685324
-0.1145466 -0.35046491 0.050623044
-0.11471205 -0.35057023 0.050612759
-0.11489624 -0.35068363 0.050627764
-0.11506724 -0.35079294 0.05061397
-0.11522048 -0.35089985 0.050540205
-0.11540794 -0.35101143 0.050581772
-0.11556491 -0.35112184 0.050499894
-0.11573632 -0.35123008 0.050495349
-0.11591609 -0.35134017 0.050513849
-0.11608204 -0.351446 0.050502397
-0.11623634 -0.35155323 0.050430939
-0.11642177 -0.35166875 0.050436698
-0.11658942 -0.35178033 0.050392888
-0.11673062 -0.3518807 0.050312258
-0.11692593 -0.35199466 0.05037111
-0.11711247 -0.35210937 0.050387263
-0.11728313 -0.35222051 0.05035961
-0.11746237 -0.35233366 0.05035501
-0.11762941 -0.35244402 0.050316982
-0.11780007 -0.35255396 0.050297409
-0.11798371 -0.352667 0.05031243
-0.11814317 -0.3527731 0.050270975
-0.11830771 -0.35288173 0.050234117
-0.11847524 -0.35298854 0.050222658
-0.11862585 -0.35309511 0.050139658
-0.11883026 -0.35321349 0.050207697
-0.11900477 -0.35332215 0.050213531
-0.11916588 -0.35343266 0.05014896
-0.027969044 -0.29490349 0.059081942
-0.0281149 -0.29499766 0.059063673
-0.028365087 -0.29517376 0.058932669
-0.028585758 -0.29531562 0.058909304
-0.028783087 -0.29544166 0.058894183
-0.028974771 -0.29556298 0.05888718
-0.029171668 -0.29568872 0.058872063
-0.029368043 -0.29581618 0.058843076
-0.029571336 -0.29595253 0.058782853
-0.029748954 -0.29605657 0.058833726
-0.029943421 -0.2961798 0.058825552
-0.03013524 -0.29630202 0.058812767
-0.030334782 -0.29643196 0.058780298
-0.03051196 -0.29653573 0.05883117
-0.030727386 -0.29668865 0.058709621
-0.030913468 -0.29680407 0.058718838
-0.031108309 -0.29693088 0.058687553
-0.031308971 -0.29706541 0.0586285
-0.031504799 -0.29719386 0.058590274
-0.031680625 -0.29729646 0.05864346
-0.03186686 -0.29741263 0.058648057
-0.032057889 -0.29753521 0.058629498
-0.032251425 -0.29765886 0.058614403
-0.032446925 -0.29778761 0.058572717
-0.032647502 -0.29792327 0.05850558
-0.032833286 -0.29803953 0.058507856
-0.033034019 -0.29817578 0.058437251
-0.033235867 -0.29831374 0.058359697
-0.033419807 -0.298428 0.058367766
-0.033594429 -0.2985298 0.058420967
-0.03378066 -0.29864484 0.058433648
-0.033972424 -0.29876989 0.058401227
-0.034144506 -0.29886842 0.058465991
-0.034334537 -0.29899138 0.05844051
-0.034534879 -0.29912859 0.058361817
-0.034726694 -0.29925436 0.058324777
-0.03490404 -0.29936039 0.058360621
-0.035105348 -0.29949954 0.058272675
-0.035296705 -0.29962519 0.058234487
-0.035474736 -0.29973254 0.058264546
-0.035667021 -0.29985976 0.05821941
-0.035854224 -0.2999801 0.058199726
-0.036039077 -0.30009729 0.058191624
-0.036233913 -0.30022866 0.058129139
-0.036421329 -0.30034712 0.058123313
-0.036603492 -0.3004609 0.058126774
-0.036773648 -0.30055773 0.058195025
-0.036960673 -0.30067864 0.058170728
-0.037176989 -0.30084169 0.057983313
-0.037351787 -0.30094549 0.058023795
-0.037526555 -0.30104926 0.058064278
-0.037713166 -0.30117023 0.058037668
-0.037894081 -0.30128309 0.058042299
-0.038083155 -0.30140796 0.057999488
-0.0382732 -0.30153447 0.057949752
-0.038452625 -0.30164555 0.05796016
-0.038640056 -0.30176857 0.057923149
-0.038812526 -0.30186954 0.057972889
-0.039003711 -0.30199844 0.05791159
-0.03918843 -0.30211791 0.057887293
-0.039373029 -0.30223441 0.057882659
-0.039543629 -0.30233288 0.057941653
-0.039735116 -0.302463 0.057873409
-0.039895404 -0.30254588 0.057994872
-0.040094767 -0.30268833 0.057875745
-0.040290378 -0.30282539 0.057777427
-0.040468302 -0.30293554 0.057787858
-0.040648144 -0.30304873 0.057785556
-0.040840194 -0.30318102 0.057704601
-0.040979017 -0.30326456 0.057729132
-0.041200113 -0.30340856 0.057693064
-0.041384656 -0.30352977 0.057656072
-0.04154937 -0.30362925 0.057682745
-0.041739497 -0.30375007 0.057672299
-0.041911524 -0.30386138 0.05764924
-0.04208222 -0.30396748 0.05765624
-0.04229375 -0.30411354 0.057564765
-0.042451307 -0.30422485 0.057479411
-0.042651981 -0.30434069 0.057548612
-0.042834722 -0.30446041 0.057513945
-0.043019898 -0.30458435 0.057460763
-0.043187123 -0.30468896 0.057463169
-0.043363854 -0.30479243 0.057514034
-0.043552283 -0.30491894 0.057457376
-0.043732703 -0.30503568 0.057433106
-0.043912947 -0.30515233 0.057408851
-0.044091757 -0.30526319 0.057418119
-0.044277627 -0.30538976 0.057349913
-0.044450574 -0.3054944 0.057376545
-0.04463923 -0.30562627 0.05728405
-0.044809971 -0.30572733 0.057325721
-0.044987313 -0.30583996 0.057316504
-0.045158423 -0.30594179 0.057354696
-0.045340732 -0.30606341 0.057305008
-0.045519739 -0.30617946 0.057279598
-0.04569497 -0.3062889 0.057283103
-0.045875121 -0.30640733 0.057246134
-0.04604999 -0.30652025 0.057224222
-0.046234868 -0.30664 0.057198778
-0.046412259 -0.30675399 0.057180315
-0.046587706 -0.30686459 0.057176888
-0.046763174 -0.30697536 0.057172298
-0.046936505 -0.30708227 0.057185061
-0.047118347 -0.30720532 0.057123818
-0.047293711 -0.30731636 0.057116926
-0.047475792 -0.30744037 0.0570499
-0.047651768 -0.30755299 0.057034917
-0.047821298 -0.30765331 0.057076585
-0.048002303 -0.30777597 0.057014197
-0.048176251 -0.30788511 0.057014242
-0.048354201 -0.30799797 0.057006173
-0.048527464 -0.30810601 0.057010841
-0.048703447 -0.30821964 0.056988925
-0.048864249 -0.3083207 0.0569879
-0.049053553 -0.3084437 0.056958959
-0.049231604 -0.30856216 0.056912765
-0.049404431 -0.3086701 0.056916282
-0.049577415 -0.30877846 0.056917489
-0.049760476 -0.30890346 0.056848146
-0.049931169 -0.30900735 0.056870177
-0.050109744 -0.30912817 0.056810103
-0.050280921 -0.3092334 0.056825191
-0.050451942 -0.30933833 0.056841433
-0.050632522 -0.30946934 0.056720108
-0.050771058 -0.30954325 0.056809358
-0.05096497 -0.30967405 0.056746878
-0.051151991 -0.30978975 0.056758389
-0.051326897 -0.30990419 0.056726083
-0.051499426 -0.31001347 0.056719214
-0.051662207 -0.31010565 0.056787502
-0.05179958 -0.31019822 0.056743871
-0.052014235 -0.31034675 0.056648903
-0.052179828 -0.31046262 0.056566969
-0.052365102 -0.31056407 0.056668632
-0.052548289 -0.31069466 0.05656115
-0.052723661 -0.31081247 0.056508038
-0.052889362 -0.3109065 0.056576308
-0.05306128 -0.31101605 0.056564815
-0.053232759 -0.3111186 0.056599546
-0.053409874 -0.31124187 0.056516372
-0.053579498 -0.31134611 0.056531467
-0.053751007 -0.3114554 0.056519985
-0.053928949 -0.31157565 0.056461066
-0.054099306 -0.31168237 0.056462288
-0.05427127 -0.31179363 0.056439243
-0.054442167 -0.31190223 0.056430068
