# .PCD v0.7 - Point Cloud Data file format
VERSION 0.7
FIELDS x y z
SIZE 4 4 4
TYPE F F F
COUNT 1 1 1
WIDTH 1240
HEIGHT 1
VIEWPOINT 0 0 0 1 0 0 0
POINTS 1240
DATA ascii
-0.31241488 -0.10661518 0.056956671
-0.31258929 -0.10654542 0.056904249
-0.31276622 -0.10646793 0.056896813
-0.31294262 -0.10639203 0.056880139
-0.31311938 -0.10632326 0.056813888
-0.31328863 -0.10624393 0.056842215
-0.31344864 -0.10617531 0.056825589
-0.31363982 -0.10608149 0.056886148
-0.31382564 -0.10600277 0.056860223
-0.31398004 -0.10594206 0.056806721
-0.31414771 -0.10586054 0.056854662
-0.31431931 -0.1057905 0.056812637
-0.31452811 -0.10570175 0.056785487
-0.31471178 -0.10562161 0.056775719
-0.31489524 -0.10554885 0.056716356
-0.31504652 -0.10548207 0.056713611
-0.31520444 -0.10540573 0.056755811
-0.31539407 -0.10531802 0.056779463
-0.31559891 -0.10523901 0.056698129
-0.31574845 -0.10517655 0.056671169
-0.31593728 -0.10509717 0.056640618
-0.31611472 -0.10501353 0.056673538
-0.31628561 -0.10493889 0.056664959
-0.31647041 -0.10485095 0.056704774
-0.31664681 -0.10478184 0.056641974
-0.31682947 -0.10471604 0.056537643
-0.31695819 -0.10469285 0.056306619
-0.31716093 -0.10458899 0.056400578
-0.31736165 -0.10448992 0.056468029
-0.31755418 -0.10439211 0.056551643
-0.31773299 -0.10432295 0.05648192
-0.31789601 -0.10424891 0.056492969
-0.31806082 -0.10417663 0.056486718
-0.31824017 -0.10409077 0.056528848
-0.31843072 -0.10401352 0.056478702
-0.31862402 -0.10393079 0.056457363
-0.31879374 -0.10386414 0.056398049
-0.31896526 -0.10378414 0.056424059
-0.31913191 -0.10371359 0.056400508
-0.31929007 -0.10365426 0.056326225
-0.31950489 -0.10355504 0.056352116
-0.31967929 -0.10348885 0.056275487
-0.31983167 -0.1034214 0.056273885
-0.32001925 -0.10332647 0.056352906
-0.32020274 -0.10325285 0.05629931
-0.32038444 -0.1031734 0.056290697
-0.3205615 -0.1030979 0.056269415
-0.32073426 -0.10302125 0.056268897
-0.32093406 -0.10294074 0.056212954
-0.32108796 -0.10288398 0.056134075
-0.32129604 -0.10278063 0.056208421
-0.32147002 -0.10271055 0.05615947
-0.32163393 -0.10264088 0.056138225
-0.32180059 -0.10256658 0.056140043
-0.32196218 -0.1025171 0.055988483
-0.32211775 -0.10246113 0.055899225
-0.32233393 -0.10234147 0.056060039
-0.32252529 -0.10225486 0.056070998
-0.32271028 -0.10217091 0.056083139
-0.3228685 -0.10210291 0.056067675
-0.32305443 -0.10202532 0.056033686
-0.32326239 -0.10192813 0.056066509
-0.3234334 -0.10185531 0.056045245
-0.32360384 -0.10178714 0.055993997
-0.32377023 -0.10171044 0.056013115
-0.32394436 -0.10163656 0.055989534
-0.32413393 -0.10155362 0.055980898
-0.32430813 -0.10147616 0.055981532
-0.32449916 -0.10139479 0.055957902
-0.32468149 -0.10131236 0.055967741
-0.32484758 -0.10124376 0.055932648
-0.32503769 -0.10116042 0.055925172
-0.32522041 -0.1010846 0.05588888
-0.32540151 -0.10099407 0.055957533
-0.32556641 -0.10094091 0.055820964
-0.32570496 -0.10089198 0.055735219
-0.32586679 -0.10083951 0.055603273
-0.32608461 -0.10071335 0.05580328
-0.3262639 -0.100636 0.055787757
-0.32646185 -0.1005519 0.055761799
-0.32663521 -0.10047327 0.055772822
-0.32682037 -0.10039434 0.055750359
-0.327012 -0.10030966 0.055747487
-0.32718766 -0.10023765 0.055706605
-0.32736707 -0.10016364 0.055668015
-0.3275497 -0.10008209 0.055670936
-0.32771674 -0.1000095 0.055660058
-0.32789376 -0.099932648 0.055648003
-0.32806242 -0.09987019 0.055563312
-0.32823539 -0.099792756 0.055567421
-0.32841137 -0.099711455 0.055588804
-0.3285926 -0.099626303 0.055620562
-0.32878026 -0.09954761 0.055588864
-0.32897699 -0.099459961 0.055590585
-0.3291449 -0.099392585 0.055541653
-0.32934481 -0.099298127 0.055580277
-0.32950997 -0.099237211 0.055495597
-0.32968706 -0.099166602 0.055440873
-0.32986936 -0.099080801 0.055473771
-0.33002785 -0.099014215 0.055447932
-0.33023298 -0.098924883 0.055435795
-0.33042359 -0.098842852 0.055417933
-0.33058327 -0.098783195 0.055341348
-0.33076853 -0.098696917 0.055368468
-0.33097038 -0.098603792 0.055392094
-0.33114049 -0.098533913 0.05535353
-0.33132449 -0.098449551 0.055371441
-0.33148873 -0.098381586 0.055337511
-0.33167168 -0.098309405 0.055275843
-0.3318626 -0.098230124 0.055238377
-0.3320511 -0.09814325 0.055259723
-0.33223116 -0.098066747 0.055236135
-0.33240846 -0.097980611 0.055286348
-0.33259854 -0.097900003 0.055260409
-0.33276731 -0.097834617 0.055195332
-0.33295584 -0.09774825 0.055213217
-0.33313516 -0.097672924 0.055183865
-0.33332515 -0.097582519 0.055224814
-0.33350062 -0.097516872 0.055141255
-0.33368403 -0.097429372 0.055182237
-0.33387664 -0.097343743 0.055182811
-0.33405021 -0.097275376 0.055123486
-0.33421195 -0.097205989 0.055106863
-0.33440647 -0.097123235 0.055082068
-0.33460003 -0.097039208 0.055068813
-0.33479881 -0.096949317 0.055079754
-0.33493936 -0.096899509 0.054993995
-0.33515429 -0.096793793 0.055063702
-0.33533129 -0.096721694 0.055019364
-0.33549306 -0.096655004 0.054984279
-0.33567932 -0.096574903 0.054966427
-0.33588159 -0.096483968 0.0549739
-0.33605316 -0.096413434 0.054935344
-0.33625779 -0.096324667 0.054920889
-0.33644408 -0.096242525 0.054916885
-0.33662647 -0.096167013 0.054879434
-0.33680308 -0.096088819 0.054877765
-0.33697963 -0.096013024 0.054859944
-0.33716211 -0.095933072 0.054852478
-0.33734491 -0.095850602 0.054861166
-0.33755314 -0.095762968 0.05482826
-0.33771834 -0.095695257 0.054789707
-0.33789563 -0.09561456 0.054803021
-0.33808506 -0.095536262 0.05476325
-0.33828175 -0.095441528 0.054813407
-0.33844849 -0.095378906 0.054735653
-0.33862719 -0.095303513 0.0547086
-0.33881894 -0.095214367 0.054735705
-0.3389976 -0.095139161 0.054707497
-0.33920866 -0.095049068 0.054682653
-0.33939436 -0.094964474 0.0546971
-0.33958369 -0.094882488 0.054682698
-0.339755 -0.094813094 0.054637216
-0.33995849 -0.094729081 0.054593936
-0.34013611 -0.094644837 0.054630317
-0.34032649 -0.094562054 0.054618225
-0.34050703 -0.094483301 0.054608464
-0.34070528 -0.094394669 0.05461248
-0.34089434 -0.094315529 0.05457963
-0.34107113 -0.094242841 0.054539897
-0.34126595 -0.094157927 0.05452894
-0.34145802 -0.094071858 0.054534145
-0.34162024 -0.09401004 0.054464467
-0.34182531 -0.093914986 0.054491542
-0.34200668 -0.093839936 0.054454096
-0.34220132 -0.093753561 0.054453522
-0.34241346 -0.093661644 0.054437898
-0.3425909 -0.093584776 0.054424692
-0.342758 -0.093518272 0.054372292
-0.34296465 -0.093424194 0.05438783
-0.34317321 -0.093334205 0.054369915
-0.34336171 -0.093240902 0.054435089
-0.34352571 -0.093177624 0.054370016
-0.34371117 -0.093106687 0.054292206
-0.3439078 -0.093019098 0.054293927
-0.34411207 -0.092927955 0.054296784
-0.34428841 -0.092854619 0.054262813
-0.34447521 -0.092774957 0.054240353
-0.3446728 -0.092683055 0.054268599
-0.34485501 -0.092613555 0.054190788
-0.34503698 -0.092533156 0.054187942
-0.25740942 -0.13356248 0.039841883
-0.25761363 -0.13348459 0.039754815
-0.25781021 -0.13340974 0.039670076
-0.25800633 -0.13333373 0.039594565
-0.25820202 -0.13325657 0.039528273
-0.25838599 -0.13318121 0.039485071
-0.25856724 -0.13310604 0.039448801
-0.25874498 -0.13303107 0.03942176
-0.2589274 -0.13295606 0.039380871
-0.25909981 -0.13288006 0.039376915
-0.25927365 -0.13280277 0.039377552
-0.2594378 -0.13272975 0.039378226
-0.25960976 -0.13265395 0.039374262
-0.25977129 -0.1325811 0.039381858
-0.25993264 -0.13250561 0.039407909
-0.26008764 -0.13243158 0.039443191
-0.26025242 -0.13235609 0.039458849
-0.26040021 -0.13228221 0.039514903
-0.26055548 -0.13220687 0.039558262
-0.26070142 -0.13213025 0.039638542
-0.26084426 -0.132055 0.039718829
-0.26098675 -0.13198109 0.03979104
-0.26112702 -0.13190579 0.0398794
-0.26126814 -0.13183182 0.039956234
-0.26140678 -0.13175504 0.040059593
-0.26154584 -0.13167961 0.040152565
-0.26168618 -0.13160412 0.040242083
-0.26182532 -0.13153 0.040325839
-0.26196471 -0.13145442 0.040418822
-0.26209244 -0.13138011 0.040538345
-0.262225 -0.13130434 0.040653255
-0.26235327 -0.13122843 0.040782001
-0.2624799 -0.13115242 0.040916517
-0.26260304 -0.13107625 0.041062579
-0.26272038 -0.13100129 0.041217875
-0.26283988 -0.13092335 0.041387007
-0.26295075 -0.13084652 0.041574605
-0.26306838 -0.13076822 0.041751806
-0.26317066 -0.13069233 0.04195904
-0.25886726 -0.12973614 0.061460555
-0.25906366 -0.12965001 0.061453067
-0.25927061 -0.12956446 0.061409801
-0.25947315 -0.12947883 0.061380379
-0.25962567 -0.12940133 0.061446808
-0.25984737 -0.12931329 0.061375819
-0.26005775 -0.12922299 0.061354455
-0.26021728 -0.12914237 0.061420862
-0.26044878 -0.12905169 0.06133832
-0.2606228 -0.12897022 0.061366636
-0.26082474 -0.12889063 0.061298016
-0.26098686 -0.12881395 0.061329819
-0.2612032 -0.12873559 0.061209284
-0.26142257 -0.12863925 0.061201721
-0.26163226 -0.12854046 0.061240312
-0.26183164 -0.12845571 0.061214358
-0.26202628 -0.1283707 0.061204568
-0.26222205 -0.12828587 0.061190158
-0.26241127 -0.12820056 0.061198831
-0.26262113 -0.1281171 0.061132498
-0.26282239 -0.12803492 0.061083481
-0.26298448 -0.12794925 0.061176397
-0.26319766 -0.12786265 0.061121576
-0.26334119 -0.12779047 0.061178803
-0.26355112 -0.12771717 0.0610433
-0.26379108 -0.12761441 0.061017234
-0.2639513 -0.12754214 0.061024833
-0.26417741 -0.12744978 0.060969979
-0.26432788 -0.12737656 0.061013352
-0.26454717 -0.12728757 0.060956217
-0.26472861 -0.12721011 0.060934931
-0.26493603 -0.12711605 0.060948156
-0.26510075 -0.12703872 0.060976498
-0.26528654 -0.12695999 0.060950592
-0.26550239 -0.12687117 0.060902685
-0.26570511 -0.12678681 0.060864046
-0.26587266 -0.12670603 0.06090736
-0.26608709 -0.12661937 0.060849089
-0.26625013 -0.1265299 0.060965054
-0.26646245 -0.12644722 0.060886037
-0.26662713 -0.12637228 0.060898233
-0.26688763 -0.12626602 0.060834065
-0.26708883 -0.12618217 0.060796581
-0.26727095 -0.12611423 0.060708415
-0.26747987 -0.1260256 0.060680136
-0.26763365 -0.12594092 0.060791519
-0.26780975 -0.12585974 0.060811758
-0.26799762 -0.12578264 0.060768545
-0.26819548 -0.1257052 0.060697637
-0.26841682 -0.12561698 0.060628973
-0.26859251 -0.12553817 0.060634211
-0.26878837 -0.12544143 0.060700517
-0.26900199 -0.12535004 0.060676828
-0.26921266 -0.1252691 0.060590893
-0.26939943 -0.12518826 0.06057651
-0.26956001 -0.12511787 0.060570277
-0.26978776 -0.12502527 0.060511958
-0.26998267 -0.12493744 0.060520612
-0.27013868 -0.12486634 0.060532834
-0.27033585 -0.12478802 0.060470007
-0.27051795 -0.12469773 0.060534026
-0.2707144 -0.12462173 0.060457364
-0.27089414 -0.12454233 0.060454529
-0.27106288 -0.12445829 0.06051629
-0.2712658 -0.12438181 0.060423467
-0.27148408 -0.1242975 0.060337506
-0.27166992 -0.12421521 0.060335815
-0.27185336 -0.12412076 0.060424052
-0.272064 -0.12403272 0.060386539
-0.2722708 -0.1239486 0.060334049
-0.27243865 -0.12387633 0.060318567
-0.27263749 -0.1237881 0.060317986
-0.27284276 -0.12370159 0.060286257
-0.27302858 -0.12362219 0.06026496
-0.27321666 -0.12354347 0.060232125
-0.27338681 -0.12345764 0.06030196
-0.27359295 -0.12337176 0.060263302
-0.27379057 -0.12329103 0.060215451
-0.27395135 -0.12321495 0.060247261
-0.27413043 -0.12314158 0.060205236
-0.27434063 -0.12304984 0.060194243
-0.27452543 -0.12296834 0.060190242
-0.27471608 -0.12288104 0.060208131
-0.2748996 -0.12280944 0.060140721
-0.27507597 -0.12272813 0.060160954
-0.27527907 -0.12265004 0.060078505
-0.27546361 -0.12256629 0.060090646
-0.27563471 -0.12248343 0.06013741
-0.27585423 -0.12240331 0.060019173
-0.27601969 -0.12232395 0.060059033
-0.2762 -0.12224955 0.060020462
-0.27640593 -0.12216275 0.05998873
-0.27659199 -0.12208257 0.05997204
-0.27678934 -0.12199568 0.059966855
-0.27697474 -0.12192087 0.05991558
-0.27716666 -0.12182672 0.059976116
-0.27734441 -0.1217548 0.059928335
-0.27754378 -0.12167175 0.059890859
-0.27773809 -0.1215869 0.059881061
-0.27792835 -0.1215118 0.059817091
-0.27810118 -0.12143003 0.059851177
-0.27827749 -0.12135248 0.059846047
-0.27848312 -0.12126683 0.05980739
-0.27865884 -0.12118632 0.059824176
-0.27885449 -0.12110543 0.05978325
-0.27902946 -0.12102762 0.059783883
-0.27917066 -0.12094717 0.059904527
-0.27931938 -0.12087864 0.059921384
-0.2795423 -0.12080702 0.059735112
-0.27976799 -0.12070721 0.059732143
-0.27996248 -0.12062651 0.05969353
-0.28015548 -0.12054223 0.059683736
-0.28033924 -0.12046594 0.059647463
-0.28052533 -0.12038473 0.059637692
-0.28070369 -0.12030609 0.059633717
-0.28090259 -0.12022818 0.059562795
-0.28108376 -0.12014797 0.059561111
-0.28126007 -0.12006854 0.059568666
-0.28144798 -0.1199855 0.059565805
-0.2816228 -0.11990539 0.059582591
-0.2818014 -0.11983377 0.059530191
-0.28197873 -0.11975509 0.05952967
-0.28214595 -0.11968088 0.059529174
-0.28234339 -0.11960007 0.059482474
-0.2825267 -0.1195216 0.059462346
-0.28272793 -0.11942977 0.059479047
-0.28290442 -0.11935773 0.059435874
-0.28307995 -0.11928187 0.059421524
-0.28325352 -0.11920147 0.05944407
-0.28343058 -0.11912664 0.059418194
-0.28362042 -0.11904918 0.059371516
-0.28380817 -0.11896706 0.059362896
-0.28399917 -0.11888349 0.059354268
-0.28419051 -0.11880741 0.059293754
-0.28436729 -0.11872575 0.05931513
-0.28454164 -0.11865348 0.059280038
-0.28471655 -0.11857061 0.059315264
-0.28488544 -0.11849855 0.05929517
-0.28507358 -0.118421 0.059254266
-0.28526345 -0.11833726 0.05925025
-0.28545856 -0.11825729 0.05920472
-0.28564322 -0.11817383 0.059214547
-0.28583246 -0.11809376 0.059187476
-0.28599486 -0.11801746 0.059215821
-0.28618327 -0.11793692 0.05919452
-0.28635556 -0.11786421 0.059168652
-0.28655452 -0.11777998 0.059140399
-0.28673187 -0.11770333 0.059126042
-0.28692099 -0.11762382 0.059095509
-0.28711674 -0.11754154 0.059063807
-0.28729528 -0.11746198 0.059065592
-0.2874707 -0.11739261 0.059007436
-0.2876524 -0.11731164 0.059009209
-0.28783345 -0.11723012 0.059016742
-0.28803331 -0.11714771 0.058973506
-0.28820255 -0.11707347 0.058967236
-0.28835928 -0.1169968 0.0590152
-0.28855851 -0.11690959 0.059006549
-0.2887148 -0.11684617 0.058965735
-0.28892234 -0.11676256 0.058907483
-0.28909481 -0.11667773 0.058963466
-0.28926405 -0.11660857 0.058922619
-0.28943193 -0.1165478 0.058828741
-0.2896308 -0.11645125 0.05888465
-0.28981259 -0.1163711 0.058880661
-0.28999171 -0.11629807 0.058836319
-0.29016337 -0.11622223 0.058833517
-0.29033732 -0.11614895 0.058806486
-0.29053488 -0.1160662 0.058772471
-0.29072139 -0.11598141 0.058785766
-0.29090139 -0.11589967 0.058797911
-0.29109085 -0.11582375 0.058742017
-0.29125038 -0.11576635 0.058650471
-0.29142487 -0.11568911 0.058648802
-0.2915957 -0.11560176 0.058726706
-0.29178742 -0.11552382 0.058677725
-0.29196823 -0.11544342 0.05867834
-0.29214293 -0.11536657 0.058673218
-0.2923412 -0.1152803 0.058661111
-0.29250619 -0.11520217 0.058694057
-0.29267958 -0.11514185 0.05858057
-0.29285663 -0.11506261 0.058584653
-0.29303688 -0.11498179 0.058589891
-0.29322067 -0.11489989 0.058591656
-0.29339391 -0.11482132 0.058602683
-0.29358202 -0.11474617 0.058545634
-0.29375514 -0.11467426 0.058511689
-0.29393372 -0.11459096 0.058538839
-0.29410818 -0.11451456 0.058531407
-0.29429525 -0.11443851 0.058483593
-0.29446766 -0.11435878 0.058504991
-0.2946527 -0.11428685 0.058435276
-0.29485133 -0.11419549 0.058456592
-0.29500973 -0.11412741 0.058441143
-0.29517755 -0.1140543 0.058431432
-0.29535833 -0.11397511 0.058423981
-0.29553133 -0.11389647 0.058436155
-0.29571053 -0.11383052 0.058343403
-0.29588988 -0.11374874 0.058357857
-0.29606611 -0.11366867 0.058370031
-0.29625046 -0.11358909 0.058354493
-0.2964381 -0.1135082 0.058337808
-0.29661596 -0.11343198 0.058318835
-0.29682326 -0.11335204 0.058236375
-0.2969918 -0.11327234 0.058269311
-0.29716766 -0.11319143 0.058288395
-0.29732302 -0.1131269 0.058257967
-0.29750821 -0.11305049 0.058218218
-0.2976869 -0.11297747 0.058175042
-0.29786807 -0.1128903 0.058220629
-0.29803845 -0.11281522 0.058216669
-0.29820034 -0.11274864 0.058180455
-0.2983835 -0.11267889 0.058101512
-0.29855716 -0.11260302 0.058092933
-0.29872188 -0.11252196 0.058146641
-0.29890546 -0.11244202 0.058135726
-0.29907924 -0.11236645 0.058124837
-0.29925972 -0.11228873 0.058108173
-0.29943669 -0.11221157 0.058098428
-0.29963288 -0.11212418 0.058100156
-0.2998389 -0.11203258 0.058100708
-0.30001932 -0.11195507 0.058082879
-0.30018389 -0.11187036 0.058161959
-0.30037338 -0.11180204 0.058054179
-0.30054751 -0.11171088 0.058148202
-0.30072743 -0.11163054 0.058151141
-0.30090976 -0.11158404 0.057916563
-0.30108365 -0.1114901 0.058030188
-0.30123577 -0.11141159 0.058104679
-0.30139354 -0.1113465 0.058070786
-0.30157092 -0.11127304 0.058034524
-0.30174357 -0.11121678 0.057895668
-0.30192566 -0.11115615 0.057757936
-0.30212912 -0.11107486 0.057696238
-0.30230641 -0.11097297 0.057853661
-0.30245927 -0.11089683 0.057909712
-0.30262265 -0.11082265 0.057920761
-0.30280283 -0.11074676 0.057892565
-0.3030135 -0.11067447 0.057747826
-0.30317315 -0.1105955 0.057802696
-0.30335689 -0.11052804 0.057706468
-0.30355975 -0.11044498 0.057658605
-0.30372971 -0.11037245 0.057638504
-0.30391902 -0.11028235 0.057679459
-0.30408907 -0.11021537 0.057621311
-0.30425245 -0.1101488 0.057580478
-0.30441904 -0.11007048 0.057609972
-0.3045823 -0.11000973 0.057529934
-0.30478495 -0.10990946 0.057599667
-0.30496767 -0.10984077 0.057514969
-0.30513144 -0.10975437 0.057607882
-0.30532095 -0.10967249 0.057592332
-0.30551043 -0.10959078 0.057575643
-0.30567729 -0.10951471 0.057588983
-0.30584115 -0.10943623 0.0576277
-0.30599403 -0.10938026 0.057546552
-0.30618277 -0.10930822 0.057466447
-0.30639544 -0.10921147 0.057481967
-0.30657175 -0.10913596 0.057463005
-0.30675182 -0.10905385 0.057477456
-0.30692974 -0.10896372 0.057553027
-0.30710426 -0.10890408 0.057431459
-0.30728066 -0.1088275 0.057419412
-0.30744737 -0.10875437 0.057413165
-0.30763629 -0.10867614 0.057374567
-0.30780908 -0.1086032 0.057348687
-0.3079809 -0.10853645 0.057283621
-0.30816382 -0.10845665 0.057273865
-0.30833071 -0.10838208 0.05727683
-0.30849838 -0.10830346 0.057305165
-0.3086957 -0.10822759 0.05722503
-0.30887631 -0.10814441 0.057245258
-0.30904502 -0.10806107 0.057302404
-0.30920738 -0.10798056 0.057359576
-0.30936882 -0.10790502 0.057385623
-0.30957809 -0.10784182 0.057183247
-0.30973795 -0.10777326 0.057166643
-0.30991584 -0.10769027 0.057193786
-0.31010827 -0.1076081 0.057171319
-0.31027272 -0.10753275 0.057186976
-0.31044179 -0.10746265 0.057153042
-0.3106097 -0.10739697 0.057092603
-0.31079856 -0.10730604 0.057140466
-0.31097874 -0.1072266 0.057136483
-0.31117672 -0.10714536 0.057090938
-0.31133136 -0.10707523 0.057100862
-0.31151703 -0.10699673 0.057073798
-0.31170243 -0.10691921 0.057040978
-0.31189391 -0.10683087 0.057063475
-0.31206065 -0.10675874 0.057050295
-0.31224549 -0.106683 0.057007104
-0.3124229 -0.10661276 0.056948937
-0.31258854 -0.10654383 0.056917321
-0.3127591 -0.10646848 0.056914508
-0.3129482 -0.10638797 0.056890905
-0.31311199 -0.10632445 0.05682816
-0.31330544 -0.10623133 0.056877166
-0.31347132 -0.10615382 0.056903206
-0.31367227 -0.10606363 0.056909531
-0.31383595 -0.10599271 0.056897521
-0.31399453 -0.1059281 0.05685785
-0.31417131 -0.10583695 0.056943811
-0.31433818 -0.10577223 0.056879908
-0.31454131 -0.10569108 0.05681821
-0.31472793 -0.1056103 0.056803826
-0.31490296 -0.10554501 0.05671915
-0.31505629 -0.10547309 0.056745213
-0.31522974 -0.1053851 0.056819648
-0.31542876 -0.10530069 0.056792542
-0.31561729 -0.10522839 0.056714747
-0.31576756 -0.10515799 0.056739666
-0.31596246 -0.10507693 0.056702204
-0.31613642 -0.10499517 0.056732826
-0.31630677 -0.10492179 0.056717336
-0.31650457 -0.10483436 0.056714449
-0.31668118 -0.10475887 0.056694336
-0.31685069 -0.1047045 0.056552023
-0.31697914 -0.10468175 0.05631876
-0.31717587 -0.10457955 0.056419641
-0.31739044 -0.10447314 0.056495108
-0.31757179 -0.10438234 0.056564901
-0.31775686 -0.1043109 0.056491721
-0.31791207 -0.10423695 0.056525853
-0.31809247 -0.10415402 0.056544922
-0.31827658 -0.10406892 0.056567442
-0.31847736 -0.10399171 0.056486148
-0.31866151 -0.10391677 0.0564395
-0.31883022 -0.103847 0.056404416
-0.31900582 -0.103764 0.056438483
-0.31917843 -0.1036869 0.056441441
-0.31933337 -0.10362883 0.056368347
-0.31953883 -0.10353766 0.056367744
-0.31970972 -0.10347319 0.056290008
-0.31988245 -0.10339147 0.05632408
-0.32008052 -0.10329579 0.056376532
-0.32025975 -0.10322523 0.056314904
-0.32045665 -0.10314092 0.056293577
-0.32061324 -0.10307077 0.056297727
-0.32079279 -0.10299957 0.056239557
-0.32099044 -0.1029183 0.056195166
-0.3211416 -0.10285768 0.05615091
-0.32135537 -0.10275723 0.056188334
-0.3215321 -0.10268237 0.056163605
-0.32170671 -0.10260285 0.056176923
-0.3218748 -0.1025303 0.056162596
-0.32200557 -0.10251568 0.055867068
-0.32218835 -0.10241865 0.055974901
-0.32240948 -0.10230289 0.056094158
-0.32261062 -0.10221229 0.056102794
-0.32277831 -0.10214058 0.056083858
-0.32296312 -0.10205707 0.056093689
-0.32314771 -0.1019816 0.056049336
-0.32334641 -0.10188767 0.056087956
-0.32351542 -0.10181792 0.056051724
-0.32368657 -0.1017486 0.056006249
-0.32385987 -0.10166119 0.056077223
-0.32404229 -0.10158923 0.056015585
-0.32422474 -0.10150997 0.056003522
-0.32441968 -0.10142974 0.05596029
-0.32460654 -0.10134038 0.056003548
-0.32477063 -0.10127469 0.055954646
-0.32495126 -0.10119489 0.055951815
-0.32514966 -0.10110974 0.055931631
-0.32533228 -0.10103057 0.05591841
-0.32552221 -0.10094426 0.055931695
-0.32564688 -0.10091217 0.055773377
-0.32582691 -0.10084347 0.055696763
-0.3259922 -0.10076929 0.055702038
-0.32620734 -0.10065382 0.055837445
-0.32639271 -0.10057767 0.055795401
-0.32658324 -0.10049754 0.055764865
-0.32676867 -0.10040848 0.055810437
-0.32695505 -0.10033425 0.055752244
-0.32714319 -0.10024806 0.055770144
-0.32731754 -0.10017781 0.055721212
-0.32749584 -0.10010531 0.055675715
-0.32767886 -0.10002325 0.055680946
-0.3278487 -0.099949919 0.055666622
-0.32802144 -0.099875815 0.055648819
-0.32818705 -0.099811323 0.055587228
-0.32837301 -0.099728636 0.055587828
-0.32855886 -0.099640235 0.055627644
-0.3287535 -0.099555224 0.055617847
-0.3289398 -0.09946952 0.055638049
-0.32911783 -0.099397637 0.055589106
-0.32931671 -0.099307358 0.055602357
-0.3294948 -0.099238329 0.055533811
-0.32966328 -0.099173069 0.055468757
-0.32984698 -0.099093929 0.055452082
-0.33001134 -0.099016935 0.055479266
-0.33022404 -0.098923564 0.055471726
-0.33041331 -0.098840438 0.055465408
-0.33057469 -0.098781377 0.055379614
-0.33075279 -0.09870404 0.055367563
-0.33095664 -0.098605618 0.055421159
-0.33113393 -0.098534927 0.055366453
-0.33132219 -0.098445289 0.055407397
-0.33149236 -0.098375373 0.055368856
-0.33167684 -0.098298602 0.055333726
-0.33186185 -0.098226517 0.055265166
-0.33204472 -0.098143846 0.055275001
-0.33223242 -0.09806326 0.055256009
-0.3324174 -0.097973049 0.055310808
-0.33260137 -0.09789972 0.05525377
-0.33277413 -0.097829506 0.05520945
-0.33296126 -0.097744785 0.055220436
-0.33314371 -0.097668231 0.055189922
-0.33333364 -0.097577855 0.055230863
-0.33351648 -0.097503513 0.055184219
-0.33369997 -0.097420901 0.055191744
-0.33390176 -0.097329497 0.055203836
-0.33407459 -0.097261965 0.055141076
-0.33423758 -0.097188622 0.05514751
-0.33442876 -0.097109735 0.055106606
-0.33462477 -0.097025305 0.055088729
-0.33482519 -0.096933484 0.055107743
-0.33498466 -0.096874088 0.055030037
-0.33517545 -0.096781455 0.055083659
-0.33536869 -0.096702829 0.055034675
-0.33552402 -0.096638657 0.055001929
-0.33571571 -0.096554786 0.054993298
-0.33591872 -0.096463017 0.055004239
-0.33608884 -0.096391775 0.05497491
-0.3362785 -0.096312702 0.054939769
-0.33647564 -0.096225396 0.054938041
-0.33666405 -0.096145518 0.054912116
-0.33684152 -0.096068636 0.054898921
-0.33701795 -0.095990688 0.05489609
-0.33720082 -0.095914796 0.054859821
-0.33738944 -0.09582822 0.054878868
-0.33758718 -0.09574303 0.054860994
-0.33776441 -0.095671177 0.054814354
-0.33794355 -0.095588461 0.054835733
-0.33813971 -0.095505148 0.054809801
-0.33833188 -0.095413104 0.054855354
-0.33849636 -0.095355041 0.054753415
-0.33867612 -0.095278487 0.054730974
-0.33886686 -0.09518826 0.054768465
-0.33905602 -0.095108405 0.054740243
-0.33924708 -0.095032945 0.054676272
-0.33943987 -0.094942987 0.054705679
-0.33963352 -0.094858587 0.054694735
-0.33980176 -0.094788179 0.054665424
-0.33999828 -0.094709285 0.054608352
-0.34018496 -0.094619848 0.054652773
-0.34036481 -0.094543755 0.054626875
-0.34054944 -0.094462864 0.054619413
-0.3407526 -0.094371185 0.054629192
-0.34093636 -0.094295412 0.054589458
-0.34112164 -0.094216079 0.054569315
-0.34131056 -0.094135135 0.054549158
-0.34150201 -0.094049677 0.054552063
-0.34165865 -0.093989506 0.05448819
-0.34186521 -0.093892932 0.054521017
-0.34204209 -0.093820378 0.054480143
-0.34224615 -0.093730509 0.054474939
-0.34245104 -0.093643829 0.054445513
-0.34263569 -0.093561731 0.054446127
-0.34279302 -0.093499042 0.054397244
-0.34300506 -0.093401559 0.054419681
-0.34320164 -0.093321458 0.054370675
-0.34339353 -0.093224779 0.054448515
-0.3435505 -0.093166485 0.054370806
-0.34374544 -0.09308812 0.0543149
-0.34393722 -0.09300337 0.054312028
-0.34413669 -0.092916906 0.054297607
-0.34431219 -0.092838682 0.054299399
-0.34450224 -0.092757754 0.054275781
-0.34468746 -0.092675894 0.054272939
-0.34486997 -0.092606112 0.054196306
-0.34505087 -0.092526682 0.054190017
-0.25728819 -0.13360468 0.039921116
-0.25749356 -0.13352795 0.039822567
-0.2576955 -0.13345021 0.039741322
-0.25789139 -0.13337414 0.039667021
-0.25808927 -0.13329683 0.039595004
-0.25828683 -0.13321966 0.039522998
-0.25846606 -0.13314319 0.039501756
-0.25864884 -0.13306803 0.03946092
-0.25882843 -0.1329917 0.03943738
-0.25900587 -0.13291687 0.039410379
-0.25917977 -0.13283953 0.039411053
-0.2593531 -0.13276228 0.039412893
-0.25952399 -0.13268781 0.0394032
-0.25968191 -0.13261366 0.039430439
-0.25985289 -0.13253796 0.039428826
-0.26001421 -0.13246247 0.039454896
-0.26017785 -0.13238698 0.039474051
-0.26032999 -0.13231167 0.039526656
-0.26048684 -0.13223357 0.039583873
-0.26063818 -0.13215965 0.039629571
-0.26078302 -0.13208301 0.039713323
-0.26092628 -0.13200773 0.039792478
-0.26106885 -0.13193244 0.039873935
-0.26121268 -0.13185708 0.039951932
-0.26135319 -0.13178031 0.040049527
-0.26149184 -0.1317049 0.04014368
-0.26163489 -0.13162804 0.04023435
-0.26177037 -0.13155249 0.040338889
-0.26191223 -0.13147835 0.040414579
-0.26205033 -0.1314013 0.040521409
-0.26218057 -0.13132554 0.040643252
-0.26231453 -0.1312483 0.040763926
-0.26243851 -0.13117227 0.040906526
-0.26256603 -0.13109618 0.041038744
-0.26268753 -0.13101991 0.041190576
-0.26280913 -0.13094203 0.041352786
-0.26292378 -0.13086388 0.041538063
-0.26303488 -0.13078694 0.041725662
-0.26314914 -0.13070844 0.0419144
-0.2588343 -0.12974773 0.061481386
-0.25903243 -0.12966166 0.061468169
-0.25922799 -0.12957557 0.061463017
-0.25943246 -0.12948821 0.06143941
-0.25960022 -0.12940615 0.061490826
-0.25979382 -0.12932549 0.061454564
-0.26000172 -0.12923679 0.061429787
-0.26019898 -0.12914756 0.061440781
-0.26041716 -0.12906329 0.061354883
-0.26061732 -0.1289726 0.06136702
-0.26078016 -0.12890138 0.061359659
-0.2609764 -0.12881784 0.061334915
-0.26115602 -0.12874424 0.061292935
-0.2613689 -0.12864739 0.061308492
-0.26159737 -0.12855178 0.061268672
-0.26180807 -0.1284605 0.061253112
-0.26200402 -0.12837557 0.061238743
-0.26221302 -0.12828994 0.061189763
-0.2623781 -0.12820636 0.061259631
-0.26260403 -0.1281205 0.061161034
-0.26279375 -0.12804106 0.061128244
-0.26297835 -0.12794796 0.061203815
-0.26318848 -0.12786487 0.061134078
-0.26334497 -0.12779205 0.061156712
-0.26351681 -0.12771884 0.061135497
-0.26375613 -0.12762366 0.061059915
-0.26394892 -0.12753931 0.06105132
-0.26414773 -0.12745954 0.060993142
-0.26431474 -0.12737645 0.061053779
-0.26451966 -0.12729366 0.060997896
-0.26472065 -0.12721056 0.060955845
-0.26492685 -0.12711637 0.06097373
-0.26508427 -0.12703617 0.06104362
-0.26528826 -0.12695767 0.060961217
-0.2654801 -0.12686984 0.060979135
-0.26568401 -0.12678359 0.060949761
-0.2658478 -0.12670429 0.060994275
-0.26607955 -0.12661587 0.060895666
-0.26623124 -0.12653296 0.061001301
-0.26646164 -0.12644462 0.060906146
-0.26662722 -0.12636571 0.06094259
-0.2668896 -0.1262659 0.060828906
-0.26708296 -0.12618297 0.060808778
-0.26726776 -0.1261113 0.060737953
-0.26745325 -0.12603155 0.060720168
-0.26764485 -0.12593397 0.060804941
-0.26778796 -0.12586012 0.060874872
-0.26799873 -0.12577406 0.060823582
-0.26819488 -0.12570056 0.060730826
-0.26840377 -0.12561449 0.060685296
-0.26858139 -0.12553601 0.060682502
-0.26878002 -0.12543973 0.060737304
-0.26900658 -0.12534852 0.060673282
-0.26920703 -0.12527007 0.060601264
-0.26940149 -0.12518412 0.060598433
-0.26956204 -0.12511373 0.06059223
-0.26975733 -0.12503248 0.060554802
-0.2699804 -0.12493469 0.060546137
-0.27014437 -0.12486074 0.060553756
-0.27032167 -0.12478732 0.060517538
-0.2705178 -0.12469318 0.060565419
-0.2707139 -0.12461937 0.060474966
-0.27088848 -0.12453885 0.06049525
-0.27106503 -0.12445424 0.06053742
-0.27125302 -0.12437674 0.060496558
-0.27146012 -0.12429908 0.060399164
-0.27166337 -0.12421381 0.060365181
-0.27184328 -0.12411854 0.060469594
-0.2720589 -0.12403168 0.060409058
-0.27225634 -0.12395 0.06036818
-0.27242541 -0.12387565 0.06036311
-0.27262229 -0.12379168 0.06033951
-0.27283564 -0.12370005 0.060318187
-0.27303049 -0.12361817 0.060286529
-0.2731964 -0.12354572 0.060278013
-0.27340049 -0.12345194 0.060299352
-0.27358395 -0.12336969 0.060304619
-0.27378345 -0.12328947 0.060247589
-0.27395386 -0.12321114 0.060265578
-0.27411374 -0.1231373 0.060284734
-0.27433255 -0.123048 0.060231108
-0.27451673 -0.12296881 0.060213327
-0.27470779 -0.12288166 0.060228936
-0.27489811 -0.12280703 0.060161564
-0.27506632 -0.12272578 0.060206056
-0.27526376 -0.12265105 0.060117908
-0.2754496 -0.12257028 0.060105875
-0.27563971 -0.12247795 0.060159542
-0.27583909 -0.12240694 0.060040262
-0.27601504 -0.12232054 0.060096264
-0.27619249 -0.12224519 0.060072735
-0.27639621 -0.12216293 0.060016841
-0.2765812 -0.12208237 0.06000597
-0.27677536 -0.12199706 0.059999671
-0.27696034 -0.12192208 0.059950761
-0.27715921 -0.12182774 0.059991717
-0.27733806 -0.12175347 0.059956647
-0.27752116 -0.12167814 0.059915803
-0.27772453 -0.1215884 0.059911791
-0.27791151 -0.12151763 0.059828278
-0.27809066 -0.12143272 0.059864685
-0.27826774 -0.12135549 0.059854977
-0.2784676 -0.12127037 0.059830226
-0.27863416 -0.12119475 0.059841301
-0.27883735 -0.12110832 0.059815384
-0.27901727 -0.12102967 0.059806831
-0.27918115 -0.12095305 0.059832893
-0.27930933 -0.12087277 0.05999162
-0.27950922 -0.12080882 0.059822775
-0.27973869 -0.12071361 0.059777193
-0.27995211 -0.12062941 0.059705146
-0.28013763 -0.12054776 0.059700027
-0.2803072 -0.12047404 0.059689194
-0.28050539 -0.12038931 0.059666753
-0.28068578 -0.12031164 0.059650127
-0.2808775 -0.12023334 0.059603494
-0.28105375 -0.12015699 0.059590332
-0.28124276 -0.12007126 0.059602499
-0.28142786 -0.11998997 0.059596226
-0.28161713 -0.11990445 0.059606083
-0.28177497 -0.11983814 0.059580296
-0.28195825 -0.11975935 0.059562504
-0.2821314 -0.11968505 0.059544742
-0.2823258 -0.11960591 0.059495803
-0.2825059 -0.11952566 0.059497613
-0.28270429 -0.11943897 0.059487849
-0.28289026 -0.11936221 0.059448153
-0.28306347 -0.119285 0.059449993
-0.28324169 -0.1192039 0.059463337
-0.28340611 -0.11913195 0.059455976
-0.283602 -0.11905113 0.05941394
-0.28379199 -0.11897037 0.059389211
-0.28397998 -0.11888848 0.059378326
-0.28417143 -0.11881607 0.059292499
-0.28434429 -0.11873191 0.059342757
-0.28450674 -0.11865914 0.059346922
-0.28469896 -0.118573 0.059352163
-0.2848683 -0.11849751 0.059354015
-0.28506097 -0.11842303 0.059278551
-0.28524426 -0.11833848 0.059299961
-0.28543606 -0.11825997 0.059254479
-0.28562552 -0.11817607 0.05925281
-0.28580815 -0.11809894 0.059225794
-0.28597513 -0.11802212 0.059243795
-0.28616711 -0.11794031 0.05922021
-0.28633574 -0.1178648 0.05922436
-0.28653228 -0.11778674 0.059161581
-0.28671679 -0.11770758 0.059142634
-0.28689554 -0.11763216 0.05911563
-0.28709379 -0.11754774 0.05909089
-0.28728411 -0.11746532 0.059076533
-0.28745183 -0.11739802 0.059027664
-0.28762868 -0.11731717 0.059043322
-0.28781989 -0.11723147 0.059048567
-0.28801313 -0.11715639 0.058975413
-0.28817689 -0.11708169 0.058988802
-0.28833979 -0.1169972 0.059071351
-0.28854468 -0.11691526 0.059009701
-0.28869548 -0.11684666 0.059020817
-0.2889052 -0.11676511 0.058941856
-0.28908947 -0.11667775 0.0589794
-0.28924301 -0.11661199 0.058962848
-0.28941849 -0.11654446 0.058892053
-0.28961244 -0.11645737 0.058898441
-0.28980082 -0.1163743 0.058894467
-0.28998217 -0.11629874 0.05886054
-0.29014602 -0.11622451 0.058870468
-0.29031974 -0.11615098 0.058845788
-0.29051468 -0.1160704 0.058804914
-0.29070893 -0.11598404 0.05880554
-0.29088202 -0.11590485 0.058821201
-0.2910693 -0.11583175 0.058752686
-0.2912274 -0.11577261 0.058677316
-0.29140154 -0.11569499 0.058679156
-0.29158017 -0.11560623 0.058743227
-0.29177254 -0.11552918 0.058686219
-0.29195246 -0.11544764 0.058697253
-0.29212677 -0.1153703 0.058696777
-0.29232284 -0.11528701 0.058670882
-0.29249558 -0.11520765 0.058688853
-0.29266709 -0.11514476 0.058598481
-0.29284012 -0.11506595 0.05861184
-0.29302657 -0.11498168 0.058621708
-0.29320726 -0.11490151 0.058621217
-0.29338074 -0.11482333 0.058628812
-0.29356503 -0.11474884 0.058578737
-0.29374096 -0.11467467 0.058551744
-0.29392356 -0.1145911 0.058568548
-0.29409498 -0.11451656 0.058557704
-0.29427481 -0.11444236 0.058519173
-0.29445395 -0.11435998 0.058538273
-0.29463547 -0.11428908 0.058472082
-0.29483962 -0.11420036 0.058458839
-0.2949968 -0.1141301 0.058461871
-0.29516876 -0.11405719 0.058438353
-0.29534864 -0.11397635 0.058444783
-0.29551807 -0.11389863 0.058461599
-0.29570109 -0.11383232 0.058359668
-0.2958796 -0.11374887 0.058387998
-0.2960597 -0.11366862 0.058389816
-0.29624775 -0.11358856 0.058366247
-0.29642791 -0.11350861 0.058365755
-0.29660293 -0.11343484 0.058338769
-0.29681355 -0.11335359 0.058255203
-0.29698533 -0.11327244 0.058288157
-0.29716691 -0.11318661 0.058323395
-0.29731235 -0.11312614 0.058295336
-0.29750559 -0.11305091 0.058223337
-0.29767987 -0.11297628 0.058204427
-0.29785869 -0.11289319 0.058229297
-0.29802832 -0.11281606 0.058241516
-0.29819027 -0.11274978 0.058203034
-0.2983743 -0.1126827 0.05810339
-0.29854992 -0.11260121 0.05812712
-0.29871836 -0.11252036 0.058168165
-0.29890254 -0.11244253 0.058141157
-0.2990793 -0.11236461 0.058137216
-0.2992565 -0.1122885 0.058119439
-0.29943982 -0.11220784 0.058114331
-0.29963335 -0.11212467 0.058095358
-0.29983574 -0.11203316 0.058106333
-0.30001956 -0.11195482 0.058083929
-0.30019107 -0.11186955 0.058145713
-0.30037346 -0.11180167 0.058056459
-0.30055088 -0.11170938 0.05814819
-0.30072787 -0.11163254 0.058136187
-0.30090976 -0.11158386 0.057917822
-0.30108336 -0.11148851 0.058041841
-0.30123937 -0.11141285 0.058085218
-0.30140021 -0.11134537 0.058058273
-0.30157688 -0.11126714 0.05805663
-0.30174315 -0.11121523 0.057907481
-0.30193174 -0.11115171 0.05776979
-0.30213183 -0.11107124 0.05771276
-0.30231869 -0.11096305 0.057884008
-0.3024748 -0.11088514 0.057942379
-0.30263174 -0.11081516 0.057944253
-0.30280879 -0.11074319 0.057898808
-0.30301294 -0.11067414 0.057751857
-0.30317238 -0.11059254 0.0578252
-0.30335617 -0.11052657 0.05771865
-0.30354911 -0.11044587 0.057684697
-0.30373544 -0.11036827 0.057649605
-0.30392471 -0.11027851 0.057688281
-0.30409145 -0.11021164 0.057639409
-0.30426133 -0.11014117 0.057605524
-0.30442789 -0.1100654 0.057617746
-0.30458137 -0.11000526 0.057563156
-0.30479378 -0.10990406 0.05760983
-0.30497971 -0.1098329 0.057532098
-0.30513695 -0.10974924 0.057626188
-0.30532965 -0.10966694 0.057603762
-0.30552238 -0.10958362 0.057588253
-0.30569249 -0.10950541 0.057606243
-0.30585325 -0.10942578 0.057662278
-0.30601269 -0.10936672 0.057582311
-0.30619121 -0.1093036 0.057472307
-0.30640715 -0.10920524 0.057489015
-0.30658326 -0.10913133 0.057459719
-0.30675691 -0.10905054 0.057484604
-0.30693796 -0.10895969 0.057555579
-0.30711597 -0.10889646 0.057447895
-0.30728883 -0.10882349 0.057422064
-0.30745894 -0.1087475 0.057425052
-0.30764762 -0.10867072 0.057377279
-0.30781704 -0.1085996 0.057349149
-0.30798864 -0.10853396 0.057277218
-0.30816862 -0.10845325 0.057282485
-0.30833924 -0.10837431 0.057303928
-0.30850288 -0.10830136 0.057305783
-0.30870697 -0.10822114 0.057234909
-0.30888444 -0.10813832 0.057262093
-0.30904654 -0.10805825 0.057316985
-0.30921891 -0.10797227 0.057381067
-0.30938628 -0.10789681 0.057388686
-0.30958894 -0.10783654 0.057186406
-0.30974585 -0.10776776 0.057180215
-0.30992657 -0.10768502 0.057197012
-0.310119 -0.10760268 0.057175737
-0.31028351 -0.10752697 0.057193734
-0.31044921 -0.10745852 0.057158697
-0.31062031 -0.10739159 0.057097141
-0.31080621 -0.10730078 0.057153117
-0.31098309 -0.10722281 0.057149179
-0.31118408 -0.1071409 0.057099059
-0.31134158 -0.10707068 0.057100944
-0.31152421 -0.10699268 0.057079695
-0.31170347 -0.10691652 0.057056144
-0.31190127 -0.10682587 0.057075206
-0.31205821 -0.10675792 0.057063255
-0.31225297 -0.10667743 0.05702237
-0.3124302 -0.10660759 0.056961946
-0.31260249 -0.10653555 0.056931511
-0.31276605 -0.10646433 0.056921843
-0.31295511 -0.10638382 0.056898277
-0.31311229 -0.10632323 0.056835599
-0.31329939 -0.10623224 0.056889266
-0.31347489 -0.10615095 0.056911845
-0.31367871 -0.10606034 0.056912448
-0.31383622 -0.10599114 0.0569074
-0.313995 -0.10592593 0.056871239
-0.31417257 -0.10583255 0.056969889
-0.31434828 -0.1057661 0.056891024
-0.31454512 -0.10568707 0.056834005
-0.31473821 -0.10560359 0.056818493
-0.31490603 -0.10554267 0.056725811
-0.3150636 -0.10546682 0.056765735
-0.3152329 -0.10538237 0.056828674
-0.31543145 -0.10529902 0.056795858
-0.31562394 -0.1052236 0.05672732
-0.31577355 -0.10515466 0.056744199
-0.31596857 -0.10507321 0.056709092
-0.3161391 -0.10499313 0.056738593
-0.31631044 -0.10491744 0.056735817
-0.31650773 -0.10483108 0.056727212
-0.31668314 -0.10475815 0.056693312
-0.3168506 -0.10470249 0.056566056
-0.31698129 -0.10467483 0.056359351
-0.31717587 -0.10457713 0.056436062
-0.31739333 -0.10447012 0.056506932
-0.31757143 -0.10438058 0.056577925
-0.31774953 -0.10431273 0.056501351
-0.31791472 -0.10423417 0.056536637
-0.31809133 -0.1041536 0.056551151
-0.3182793 -0.10406596 0.056579456
-0.31848013 -0.10398854 0.056499369
-0.31866369 -0.10391472 0.056446996
-0.31882995 -0.10384466 0.056421183
-0.31900895 -0.10375997 0.056456432
-0.3191801 -0.10368554 0.056445591
-0.31934068 -0.10362157 0.056395587
-0.31954053 -0.10353611 0.056373142
-0.31970844 -0.10347246 0.056298908
-0.31987926 -0.10338953 0.056346849
-0.32008049 -0.10329261 0.056398176
-0.32026315 -0.10322037 0.056337737
-0.32045352 -0.10313877 0.056317624
-0.32061848 -0.10306693 0.056307949
-0.3207905 -0.10299585 0.056271747
-0.32098699 -0.10291663 0.056217037
-0.32112682 -0.10286695 0.056132499
-0.32135144 -0.10275626 0.056206819
-0.32152799 -0.10268164 0.056180976
-0.32169911 -0.10260384 0.056193195
-0.32186827 -0.10252945 0.056188121
-0.32200333 -0.10250765 0.055928387
-0.322182 -0.10242143 0.055975169
-0.32240754 -0.10230236 0.056103658
-0.32260585 -0.10221232 0.05611695
-0.32278007 -0.1021379 0.056096882
-0.32295784 -0.10205783 0.056104466
-0.32313994 -0.10198244 0.056067087
-0.3233403 -0.10188964 0.056093045
-0.32351229 -0.10181518 0.056079902
-0.32368416 -0.10174841 0.056014877
-0.32385391 -0.10166273 0.05608473
-0.32402673 -0.10159452 0.05602663
-0.3242144 -0.10151447 0.056004215
-0.32440862 -0.10143166 0.055980623
-0.32458794 -0.10134649 0.056018177
-0.32476065 -0.10127495 0.055983126
-0.3249433 -0.10119559 0.055971101
-0.32513255 -0.10111348 0.05595791
-0.32531604 -0.10103646 0.055927433
-0.3255116 -0.10094527 0.055956878
-0.32564247 -0.10090754 0.055818189
-0.32581043 -0.10084283 0.055750873
-0.32596305 -0.1007868 0.055670917
-0.32619736 -0.10065706 0.055845499
-0.32637379 -0.10058047 0.055833496
-0.32656273 -0.10050578 0.055770729
-0.32674578 -0.10041676 0.055823255
-0.32693884 -0.10033956 0.055765092
-0.32713073 -0.10024814 0.055807218
-0.32729781 -0.10018162 0.055754889
-0.32747614 -0.10011216 0.055688705
-0.32766694 -0.10002561 0.055700868
-0.32782984 -0.099955536 0.055685431
-0.32801583 -0.099872656 0.055687234
-0.32816866 -0.099816196 0.055609584
-0.32835644 -0.099734053 0.055601008
-0.32853508 -0.099649191 0.055638552
-0.32872811 -0.099560305 0.055659935
-0.32891008 -0.099480242 0.055654831
-0.32909524 -0.099404857 0.055608217
-0.32928133 -0.099322453 0.055606548
-0.3294853 -0.099237196 0.055570267
-0.32964197 -0.099178515 0.055496059
-0.32982323 -0.099102497 0.055465598
-0.33000416 -0.099007122 0.055567697
-0.33019149 -0.098931953 0.055513009
-0.33038381 -0.098850518 0.055485975
-0.33055696 -0.098782152 0.05542786
-0.3307209 -0.098717026 0.055375539
-0.3309283 -0.098616868 0.055430308
-0.33110958 -0.098543882 0.055379096
-0.3312971 -0.098455071 0.055416625
-0.33146811 -0.098384112 0.055382729
-0.33165801 -0.098297976 0.055394892
-0.33183801 -0.098232001 0.055299874
-0.33201015 -0.098159671 0.055271752
-0.33220267 -0.098073229 0.055278141
-0.33239427 -0.097982779 0.0553145
-0.33258542 -0.097903386 0.055277094
-0.33276129 -0.097829401 0.055248946
-0.33294043 -0.09775161 0.055236936
-0.33312625 -0.09767101 0.055223744
-0.33330742 -0.09758842 0.055238243
-0.33350402 -0.097502872 0.055226181
-0.33367676 -0.097432822 0.055180751
-0.3338905 -0.097332396 0.055218209
-0.33406195 -0.097263932 0.055165865
-0.33422908 -0.097188242 0.055175789
-0.33440956 -0.097111888 0.055149935
-0.33459952 -0.097034372 0.055103309
-0.33480898 -0.096937023 0.055132709
-0.33497605 -0.0968761 0.055042338
-0.33515126 -0.096789196 0.055104114
-0.33535063 -0.096710734 0.055035558
-0.33552143 -0.096638493 0.055010885
-0.33570421 -0.096557558 0.055009238
-0.33590934 -0.096465677 0.055014443
-0.33609197 -0.096382774 0.055026628
-0.33625695 -0.096319571 0.054958161
-0.3364639 -0.096228234 0.054954149
-0.33665743 -0.096142702 0.05495131
-0.33682996 -0.096071221 0.054916255
-0.3370055 -0.095991969 0.054925002
-0.33718786 -0.095918849 0.054871481
-0.337383 -0.095825128 0.054919362
-0.33757913 -0.095743857 0.054879636
-0.33776411 -0.095670253 0.054821499
-0.33793625 -0.095590644 0.05484293
-0.33812726 -0.095508426 0.054825116
-0.33833599 -0.095409527 0.054867204
-0.33850205 -0.095349737 0.054772228
-0.33866394 -0.095285699 0.054718751
-0.33885974 -0.095192209 0.054763176
-0.33906144 -0.095101178 0.054773007
-0.33923712 -0.095037617 0.054674543
-0.33944049 -0.094940767 0.054718949
-0.33963427 -0.094854094 0.054723024
-0.33980578 -0.094784424 0.05467876
-0.33999982 -0.09470392 0.054640185
-0.34017587 -0.094625466 0.054642014
-0.34037915 -0.09453135 0.054667976
-0.34054837 -0.094464228 0.054613333
-0.34075558 -0.094370417 0.054625448
-0.34094715 -0.094286591 0.054616857
-0.34113771 -0.094205931 0.05458983
-0.3413263 -0.094125293 0.054568566
-0.34151626 -0.094039299 0.054579578
-0.34167993 -0.093975991 0.054515727
-0.34187162 -0.093890429 0.05451867
-0.34206218 -0.093808077 0.054503165
-0.3422578 -0.093724661 0.054479573
-0.34246814 -0.093632504 0.05447093
-0.34263644 -0.09356273 0.054437049
-0.34280944 -0.093488336 0.054420434
-0.34301883 -0.093395419 0.054419868
-0.34322342 -0.093307339 0.054400869
-0.34340987 -0.093223765 0.054406118
-0.34358513 -0.093145475 0.054409098
-0.34376958 -0.093075491 0.054327913
-0.34396583 -0.092988238 0.054328524
-0.34416369 -0.092903323 0.054308392
-0.34434307 -0.092823215 0.054311361
-0.3445363 -0.092739165 0.05429931
-0.34472057 -0.092660099 0.054280363
-0.34490401 -0.092587523 0.054219924
-0.34508845 -0.092508376 0.054200977
-0.25732592 -0.13358703 0.039927151
-0.25753701 -0.13350743 0.039830919
-0.25773987 -0.13342962 0.039747391
-0.25794032 -0.13335201 0.039669629
-0.25813752 -0.13327467 0.03959994
-0.2583344 -0.13319747 0.039530262
-0.25851223 -0.1331223 0.039504442
-0.25870025 -0.13304427 0.039467067
-0.25888082 -0.13296787 0.039441235
-0.25906035 -0.1328916 0.039417714
-0.25923601 -0.13281415 0.039413799
-0.25940949 -0.13273683 0.039415654
-0.25957888 -0.13266233 0.039410606
-0.25973976 -0.1325867 0.039439015
-0.25990969 -0.13251096 0.039440881
-0.26007277 -0.13243537 0.039462358
-0.26023495 -0.13235983 0.039486159
-0.26038885 -0.13228306 0.039543405
-0.26054627 -0.13220762 0.039581038
-0.26069781 -0.13213086 0.03964521
-0.26084322 -0.13205414 0.039727837
-0.26098946 -0.13197736 0.039808165
-0.26113108 -0.13190198 0.039893113
-0.26127985 -0.13182375 0.039975733
-0.26141858 -0.13174829 0.040069915
-0.26155707 -0.13167275 0.040165246
-0.26169792 -0.13159719 0.040253654
-0.26183712 -0.13152017 0.04035705
-0.26198158 -0.13144454 0.040435076
-0.26211616 -0.13136736 0.040553477
-0.26224887 -0.13129151 0.040668417
-0.26237845 -0.13121553 0.04079375
-0.26250616 -0.131138 0.040935222
-0.2626332 -0.13106179 0.041069776
-0.26275238 -0.13098533 0.041229725
-0.26287353 -0.13090733 0.041394275
-0.26298386 -0.13083041 0.041584212
-0.26310447 -0.13075061 0.041762594
-0.2632083 -0.13067317 0.04197561
