# .PCD v0.7 - Point Cloud Data file format
VERSION 0.7
FIELDS x y z
SIZE 4 4 4
TYPE F F F
COUNT 1 1 1
WIDTH 1295
HEIGHT 1
VIEWPOINT 0 0 0 1 0 0 0
POINTS 1295
DATA ascii
-0.15101579 -0.25982159 0.058018088
-0.15120788 -0.25985777 0.058041863
-0.15141521 -0.25990912 0.057977945
-0.15158944 -0.25994956 0.057944093
-0.15180624 -0.25999051 0.057970114
-0.15200222 -0.26003191 0.057961583
-0.15218166 -0.26007167 0.057940401
-0.15239096 -0.26011488 0.057938762
-0.15259121 -0.26015431 0.057950981
-0.15279448 -0.26020578 0.057880163
-0.15299086 -0.26024839 0.05786356
-0.15318277 -0.26028517 0.057882719
-0.15338115 -0.26033071 0.057847656
-0.15357485 -0.26037008 0.057850666
-0.15377371 -0.2604124 0.057839815
-0.15397246 -0.26045898 0.057797842
-0.15416561 -0.2604979 0.05780315
-0.15436745 -0.26054922 0.057731178
-0.15456322 -0.26059216 0.057711113
-0.1547512 -0.26062402 0.057760268
-0.15495089 -0.26066843 0.057735588
-0.1551466 -0.26071167 0.057713218
-0.15534121 -0.26075345 0.057700079
-0.15554117 -0.26080343 0.057635024
-0.15572985 -0.26083654 0.057676099
-0.15592687 -0.26088244 0.057636432
-0.15612435 -0.26092449 0.057625592
-0.15631297 -0.26096249 0.057630911
-0.15651689 -0.26101503 0.057553176
-0.15670799 -0.26105228 0.057567719
-0.15690748 -0.26109821 0.057531502
-0.15709484 -0.26112947 0.057584114
-0.15727267 -0.26117599 0.057511043
-0.15748386 -0.26122117 0.05749787
-0.15767956 -0.26126143 0.057497416
-0.15787402 -0.26130506 0.05747043
-0.15805256 -0.26133752 0.057501152
-0.15822951 -0.26137263 0.05750997
-0.15844576 -0.26144463 0.057308789
-0.15864435 -0.26148534 0.057309479
-0.15880729 -0.26150683 0.057396747
-0.15903567 -0.261556 0.057380069
-0.15922895 -0.26159275 0.057401534
-0.15941212 -0.26162836 0.0574161
-0.1595778 -0.26166701 0.057382271
-0.15979296 -0.26172853 0.05725605
-0.15998456 -0.26176238 0.057295978
-0.16019869 -0.26180977 0.057271261
-0.16036746 -0.26183593 0.057333142
-0.16055721 -0.26188603 0.057251967
-0.16077067 -0.26193261 0.057231862
-0.16097432 -0.26198605 0.057147197
-0.1611477 -0.2620225 0.057141028
-0.16131464 -0.26205176 0.057177551
-0.16150537 -0.26209131 0.057174798
-0.16170648 -0.26212507 0.057229687
-0.16190176 -0.26216793 0.057209626
-0.1621162 -0.26222628 0.057105325
-0.1622856 -0.26225367 0.057159137
-0.1624534 -0.26228502 0.057181805
-0.16268399 -0.26234463 0.057092473
-0.16286466 -0.26240173 0.056946732
-0.16305238 -0.26242611 0.057050094
-0.163249 -0.2624746 0.056990817
-0.16344711 -0.26250935 0.057034176
-0.16361436 -0.2625491 0.056994572
-0.16382788 -0.26259065 0.057011377
-0.16403216 -0.2626341 0.057000522
-0.16420661 -0.26265621 0.057100449
-0.16436814 -0.26269954 0.057026267
-0.16457538 -0.26276401 0.056866631
-0.16478038 -0.26280001 0.05691113
-0.16498381 -0.26285338 0.056826465
-0.16517775 -0.26288536 0.05688367
-0.16534466 -0.26291496 0.05691788
-0.16552888 -0.26295981 0.056866709
-0.16573098 -0.26301038 0.0568005
-0.1659566 -0.2630628 0.05675615
-0.16614507 -0.26308528 0.056874502
-0.16630006 -0.26312095 0.056846462
-0.16648962 -0.26316231 0.056828715
-0.16667469 -0.26321444 0.05672564
-0.16685221 -0.26324716 0.056752905
-0.16704808 -0.26330516 0.05662328
-0.16724613 -0.2633405 0.056662031
-0.167445 -0.26338014 0.056670792
-0.16765098 -0.26342204 0.05667378
-0.16783926 -0.26345888 0.056687169
-0.16801864 -0.26350415 0.056625634
-0.16823046 -0.26354027 0.056679342
-0.16841272 -0.2635833 0.05663855
-0.16860485 -0.2636247 0.056624267
-0.16877587 -0.26366067 0.056618098
-0.16895391 -0.26369888 0.056606151
-0.16915707 -0.26375014 0.056536481
-0.16935243 -0.26379269 0.056518722
-0.16952641 -0.26382563 0.056539077
-0.16972576 -0.26387787 0.056456733
-0.16991717 -0.26391581 0.056466669
-0.17012249 -0.26395646 0.056477726
-0.17031741 -0.26399544 0.056485336
-0.17049161 -0.26403618 0.056449175
-0.17070374 -0.26407269 0.056500584
-0.1708848 -0.26411751 0.056444801
-0.17107964 -0.26417103 0.056346323
-0.17124648 -0.26420644 0.056337852
-0.17144825 -0.26423845 0.056406584
-0.17164634 -0.26428285 0.056379601
-0.17181647 -0.2643232 0.05633999
-0.17203502 -0.26437575 0.056284118
-0.17220549 -0.26440558 0.056321777
-0.172371 -0.2644591 0.056179535
-0.17258996 -0.26449969 0.056211323
-0.17277433 -0.26453254 0.056247797
-0.17295182 -0.26456416 0.056283139
-0.1731486 -0.26461554 0.056203101
-0.17335372 -0.26465425 0.056227997
-0.17352296 -0.26469553 0.056180321
-0.17369579 -0.26473582 0.05614531
-0.173898 -0.26476982 0.056200195
-0.17408811 -0.26481351 0.056166314
-0.17428525 -0.26485738 0.05614163
-0.17447974 -0.2648955 0.056155011
-0.17464925 -0.26493257 0.056138478
-0.17480758 -0.26497129 0.05609313
-0.17499384 -0.2650142 0.056059249
-0.17519774 -0.26504189 0.056162566
-0.17538136 -0.26509643 0.056039892
-0.17559224 -0.26512635 0.056137435
-0.1757471 -0.26517797 0.055992909
-0.17595026 -0.26522452 0.055957831
-0.1761414 -0.26526096 0.055978153
-0.17635144 -0.26530859 0.055945367
-0.17653292 -0.26534054 0.055984162
-0.17673948 -0.2653873 0.055952534
-0.17692272 -0.26542577 0.055946343
-0.17710464 -0.26546842 0.05590786
-0.17729419 -0.26550993 0.055888966
-0.17746682 -0.26554671 0.055879332
-0.17766705 -0.2655893 0.055868488
-0.17785001 -0.26562819 0.055858836
-0.17804778 -0.26566729 0.055869903
-0.1782254 -0.26571029 0.055822209
-0.17840183 -0.26574659 0.055821799
-0.17859574 -0.26578599 0.055824809
-0.17877375 -0.26582751 0.055788636
-0.17897391 -0.2658698 0.055780102
-0.17914303 -0.26591405 0.055710502
-0.17933449 -0.26595026 0.055733122
-0.17951824 -0.26597872 0.05580074
-0.17969923 -0.26602149 0.055759951
-0.17987311 -0.26607087 0.055660367
-0.18006034 -0.2661081 0.055669151
-0.18025661 -0.26615021 0.055656008
-0.18045786 -0.26619002 0.055667076
-0.1806632 -0.26623669 0.055634301
-0.1808259 -0.26627678 0.055585485
-0.1810035 -0.26631758 0.055553932
-0.1811987 -0.26635441 0.055577703
-0.18140528 -0.26639849 0.055565681
-0.18158327 -0.26643842 0.055541046
-0.18176612 -0.26647666 0.055536006
-0.18194993 -0.26651967 0.05549752
-0.18214203 -0.26655555 0.055523597
-0.18231967 -0.2665897 0.055540487
-0.18249877 -0.26663381 0.055487014
-0.18267727 -0.2666786 0.055427779
-0.18286136 -0.26671487 0.055438891
-0.18307382 -0.26675588 0.055457994
-0.18323918 -0.26679653 0.055409171
-0.18340309 -0.26684466 0.055303842
-0.18360515 -0.26687798 0.055363338
-0.18379268 -0.26690975 0.055412494
-0.18396336 -0.26695892 0.055309452
-0.18415876 -0.26699626 0.055329755
-0.18434845 -0.26704115 0.055286646
-0.18454453 -0.26707262 0.055350773
-0.1847131 -0.26711866 0.055267338
-0.18492945 -0.26716521 0.055251844
-0.1851044 -0.26719329 0.055309098
-0.18525374 -0.26724741 0.055138063
-0.18544035 -0.26729053 0.055103026
-0.18565151 -0.26731926 0.055209797
-0.18581614 -0.26736894 0.055094078
-0.18602967 -0.26740465 0.055153552
-0.18620734 -0.26742125 0.055298459
-0.18641235 -0.2674759 0.055206861
-0.18658489 -0.26751202 0.055201847
-0.18675795 -0.2675432 0.055233743
-0.18696052 -0.26760432 0.055091415
-0.18712725 -0.26764634 0.055034518
-0.18731107 -0.26768354 0.055038698
-0.18750794 -0.26772022 0.055065915
-0.18767983 -0.26776111 0.055025149
-0.1878739 -0.26779661 0.055056989
-0.18807688 -0.26784387 0.055016156
-0.18825343 -0.2678802 0.055015743
-0.18842477 -0.26791748 0.05500035
-0.18862227 -0.26796189 0.054972209
-0.18879704 -0.26799989 0.054956809
-0.18899083 -0.26803991 0.054955199
-0.18918107 -0.26808316 0.054924779
-0.189356 -0.26812103 0.054910526
-0.18953697 -0.26816109 0.054889344
-0.18972412 -0.26820323 0.054862387
-0.18991634 -0.26824102 0.054874618
-0.19009414 -0.26828375 0.054829232
-0.19028355 -0.26832399 0.054819565
-0.19047545 -0.26836219 0.054828335
-0.19066253 -0.26840082 0.054826751
-0.19085348 -0.26843646 0.054852832
-0.19105007 -0.26848495 0.054793548
-0.19122936 -0.26852295 0.054785069
-0.19141483 -0.26855618 0.054820381
-0.19159734 -0.26859182 0.054833796
-0.19179168 -0.26864523 0.054735318
-0.19197553 -0.2686832 0.054733735
-0.1921491 -0.26872224 0.05470911
-0.19233122 -0.26876473 0.054671779
-0.19252299 -0.26880673 0.054652877
-0.19271941 -0.26884538 0.054665107
-0.19290793 -0.26888967 0.0546243
-0.19308969 -0.26892611 0.054630801
-0.1932718 -0.26896548 0.054616533
-0.19344224 -0.26900971 0.054549247
-0.19363591 -0.26904431 0.05458685
-0.19382891 -0.2690886 0.054552957
-0.1940012 -0.26912546 0.054542176
-0.19418332 -0.26917082 0.054484088
-0.1943868 -0.26921123 0.05449399
-0.19457024 -0.26925278 0.054465882
-0.19476689 -0.26929179 0.054475803
-0.19494998 -0.26933357 0.054445397
-0.19513227 -0.26937294 0.054431129
-0.19532193 -0.26941353 0.054419152
-0.19551244 -0.26945081 0.054432549
-0.19569525 -0.26949 0.054420587
-0.19588643 -0.26952979 0.054416686
-0.19607586 -0.26957619 0.054362036
-0.19625254 -0.26961347 0.054354705
-0.19641624 -0.26965553 0.054293197
-0.19662373 -0.26969695 0.054301947
-0.19680624 -0.26973638 0.054287679
-0.19699232 -0.26977384 0.054293007
-0.1971868 -0.26981732 0.054267183
-0.19735663 -0.26985589 0.05424026
-0.19754678 -0.26989391 0.054247897
-0.19773954 -0.26993576 0.054231293
-0.19792739 -0.26998025 0.054188188
-0.19812126 -0.27002156 0.054177359
-0.1983071 -0.27006197 0.054160774
-0.19849497 -0.27009889 0.054173023
-0.19867696 -0.27013883 0.05415415
-0.19888444 -0.27018088 0.05415827
-0.19906132 -0.27021852 0.054148637
-0.19925506 -0.27026013 0.054135501
-0.19942835 -0.27030444 0.054071669
-0.19962358 -0.2703405 0.054101195
-0.19980958 -0.27038351 0.054066163
-0.19999275 -0.27042305 0.054051895
-0.2001757 -0.27046749 0.054001875
-0.20035839 -0.27051201 0.053950705
-0.20055874 -0.2705507 0.05396869
-0.2007457 -0.27059326 0.053938266
-0.20092419 -0.27063504 0.053900953
-0.20113991 -0.27066928 0.053974256
-0.2013166 -0.27070737 0.053961154
-0.20149532 -0.27075139 0.053907685
-0.20167424 -0.27079532 0.053855374
-0.20187549 -0.27083403 0.053874511
-0.20206496 -0.2708801 0.053822175
-0.20223729 -0.27092236 0.053772181
-0.20239873 -0.27096474 0.05370491
-0.2026031 -0.27099791 0.053769019
-0.20281179 -0.27102944 0.053851567
-0.20299289 -0.27107033 0.053824618
-0.20318452 -0.2711091 0.053828791
-0.20338719 -0.27114779 0.053850222
-0.20357031 -0.27119651 0.053769067
-0.20374484 -0.27123794 0.053728297
-0.20394698 -0.27127698 0.053746279
-0.20413995 -0.27131969 0.053723916
-0.20431566 -0.27136278 0.053672764
-0.20452227 -0.27140653 0.053663053
-0.2047058 -0.27144668 0.053645324
-0.20489921 -0.27148312 0.053669099
-0.20509243 -0.27152792 0.053631738
-0.20527752 -0.27156758 0.053619772
-0.20546883 -0.27160296 0.053648163
-0.20563659 -0.271649 0.05356358
-0.20579515 -0.27170029 0.053427123
-0.2059941 -0.27173504 0.053471636
-0.20623593 -0.27176073 0.053646371
-0.20643035 -0.27181321 0.053554811
-0.20661086 -0.27186063 0.053479422
-0.20679781 -0.27189797 0.053487059
-0.20700201 -0.27194503 0.053449679
-0.20716521 -0.27198854 0.053376645
-0.20736909 -0.27202225 0.053436134
-0.2075796 -0.2720654 0.053436801
-0.20776176 -0.27210841 0.053396009
-0.20794363 -0.27214581 0.053395588
-0.20814852 -0.27218714 0.053400878
-0.20833433 -0.2722328 0.053346232
-0.20853135 -0.272273 0.053348083
-0.20871238 -0.27231088 0.053343046
-0.20889097 -0.27235141 0.05331495
-0.20908001 -0.27239424 0.053285681
-0.20929135 -0.27243391 0.053312868
-0.20941541 -0.27248931 0.053094611
-0.20961933 -0.27252033 0.053173702
-0.20988122 -0.27255049 0.053346083
-0.21006219 -0.27260494 0.053219959
-0.21025549 -0.27264848 0.053191826
-0.21042141 -0.2726858 0.053168371
-0.21062733 -0.27273461 0.053120613
-0.2108155 -0.27277616 0.053099409
-0.21100375 -0.27281773 0.053078219
-0.21119362 -0.27285537 0.053088158
-0.21140325 -0.27289626 0.053103812
-0.2116003 -0.27293727 0.053099893
-0.21178532 -0.27297992 0.053066015
-0.21198656 -0.27301812 0.053088609
-0.21217194 -0.27306417 0.053030513
-0.21237619 -0.27310002 0.053075016
-0.21257502 -0.27315101 0.053000741
-0.21277054 -0.27318934 0.053014122
-0.21293512 -0.27322903 0.052971065
-0.2131442 -0.27327237 0.052968275
-0.21332122 -0.27331224 0.052942485
-0.21352668 -0.27334991 0.052975457
-0.2137448 -0.27339113 0.053001478
-0.21392225 -0.27343935 0.052915718
-0.21412697 -0.27347907 0.052932534
-0.21432891 -0.27352613 0.052891701
-0.21448754 -0.27356255 0.05286365
-0.2146942 -0.27360365 0.052873556
-0.21489172 -0.27365187 0.052817728
-0.21507867 -0.27368969 0.052821912
-0.21525936 -0.27373064 0.052793816
-0.21546598 -0.27377677 0.052766807
-0.2156813 -0.27381775 0.052790523
-0.215883 -0.27385876 0.05279351
-0.21603963 -0.27390376 0.05269973
-0.21624224 -0.27394307 0.052716553
-0.21644357 -0.27398431 0.052717242
-0.21663509 -0.27402624 0.052698344
-0.216837 -0.27406904 0.052688643
-0.21703389 -0.27411142 0.052674338
-0.21723336 -0.27415639 0.05264505
-0.21744314 -0.27420381 0.052613415
-0.21760154 -0.27424225 0.052570377
-0.21782345 -0.27427951 0.052630976
-0.2180014 -0.27432308 0.05257982
-0.21821178 -0.27436444 0.052593172
-0.21840332 -0.27440825 0.052560434
-0.21859631 -0.27445334 0.052520767
-0.21880019 -0.27449921 0.052491456
-0.21898071 -0.27453634 0.052491043
-0.21919683 -0.27458584 0.05245363
-0.21938208 -0.27462363 0.052455503
-0.21954881 -0.27466363 0.052413601
-0.21977203 -0.2747089 0.052417696
-0.21997972 -0.27475432 0.052397601
-0.22017199 -0.27479243 0.052407533
-0.22036234 -0.27483538 0.052379407
-0.22055115 -0.27487865 0.05234668
-0.22076996 -0.27492505 0.052335784
-0.2209556 -0.27496609 0.052314602
-0.22114937 -0.27500278 0.052337207
-0.22133495 -0.27504823 0.052283727
-0.22154067 -0.27509007 0.052286707
-0.2217297 -0.27513781 0.052221686
-0.221939 -0.27517483 0.052265022
-0.22215971 -0.27522135 0.052256435
-0.22234237 -0.27526459 0.052214481
-0.22255766 -0.27530652 0.052231282
-0.22273006 -0.27535018 0.05217091
-0.22292757 -0.27539381 0.052148536
-0.22315139 -0.27543589 0.052176852
-0.22335586 -0.27547431 0.052202895
-0.22354528 -0.27551392 0.05219784
-0.22372404 -0.27555668 0.052153599
-0.22393814 -0.27560341 0.052133501
-0.22415514 -0.27564836 0.052130681
-0.22432269 -0.27569437 0.052046105
-0.22453938 -0.27573672 0.052061744
-0.22472122 -0.27578187 0.052004807
-0.22494619 -0.27582306 0.052041188
-0.22514288 -0.27586195 0.052052267
-0.22531484 -0.27590871 0.05196882
-0.22552782 -0.27595329 0.051962562
-0.22573167 -0.27599126 0.051990919
-0.22593518 -0.27604008 0.051939696
-0.22611248 -0.27608207 0.051898919
-0.1322902 -0.26002777 0.02847809
-0.132493 -0.26008227 0.028384157
-0.13268955 -0.26013443 0.028298322
-0.13287996 -0.26018149 0.028240174
-0.13307039 -0.26022872 0.028180877
-0.13325682 -0.26027358 0.028133126
-0.13344464 -0.26031804 0.028089991
-0.13362327 -0.26035953 0.028054949
-0.13380012 -0.2603986 0.028034907
-0.13397998 -0.26043972 0.028004469
-0.13415888 -0.26048031 0.027976353
-0.1343319 -0.26051858 0.027956313
-0.1345039 -0.26055491 0.027948979
-0.13467538 -0.26059097 0.027942788
-0.13484281 -0.26062447 0.027949303
-0.13501398 -0.26066047 0.027943116
-0.13518287 -0.26069504 0.027943857
-0.13534391 -0.26072311 0.027980372
-0.13550596 -0.2607547 0.027992671
-0.13567171 -0.26078737 0.028002642
-0.135827 -0.26081315 0.028047249
-0.13598436 -0.26084027 0.028084934
-0.13614234 -0.26086786 0.028120307
-0.1362928 -0.26089042 0.028181072
-0.13644871 -0.26091665 0.02822338
-0.13660157 -0.26094082 0.028276064
-0.13674861 -0.26095808 0.0283703
-0.13689788 -0.26097977 0.028435688
-0.13703892 -0.26099581 0.028529931
-0.13718137 -0.26101276 0.028619554
-0.13733609 -0.26103809 0.028666472
-0.13747303 -0.26104966 0.028787259
-0.13760868 -0.26106173 0.028902281
-0.13774517 -0.2610743 0.029014992
-0.13788342 -0.26108801 0.029121939
-0.13801707 -0.26109841 0.029246192
-0.1381534 -0.26110905 0.029372752
-0.13828683 -0.2611191 0.029499315
-0.13842738 -0.26113251 0.029612016
-0.13856249 -0.26114354 0.029733956
-0.13869624 -0.26115349 0.02986167
-0.13882186 -0.26115748 0.030020557
-0.1389423 -0.26115441 0.030223288
-0.13311315 -0.25597519 0.059258193
-0.13333932 -0.25602961 0.059199959
-0.13354447 -0.25607055 0.059208687
-0.13375817 -0.25611797 0.059182793
-0.13396017 -0.25615668 0.059203058
-0.13416719 -0.25619927 0.059202552
-0.13438146 -0.25624746 0.059172034
-0.13459632 -0.25629625 0.05913806
-0.13481487 -0.25634798 0.059087925
-0.1350297 -0.25639486 0.059067786
-0.13524523 -0.25644457 0.059028044
-0.13544504 -0.25648218 0.059052929
-0.13565576 -0.25652838 0.05903165
-0.13586298 -0.25656974 0.059040371
-0.13606599 -0.25661007 0.059050255
-0.13628532 -0.25666341 0.058989745
-0.1365065 -0.2567184 0.058919989
-0.13670817 -0.25675797 0.058933333
-0.13690603 -0.25679457 0.058962848
-0.13711998 -0.2568419 0.058938101
-0.13733488 -0.25689244 0.058891427
-0.13754383 -0.25693825 0.058870152
-0.1377492 -0.25698128 0.058863886
-0.13795596 -0.25702554 0.058850694
-0.13816306 -0.25707021 0.058835194
-0.13837147 -0.2571137 0.058830064
-0.13858125 -0.25716081 0.05880072
-0.13878056 -0.25719929 0.05881869
-0.13899221 -0.25724819 0.058778942
-0.13917372 -0.25727177 0.058878861
-0.13930997 -0.25728586 0.058980044
-0.13962826 -0.25739437 0.058665499
-0.13982369 -0.25742996 0.058698475
-0.14002848 -0.25747368 0.058686439
-0.1402355 -0.25751942 0.058662862
-0.14043638 -0.25755996 0.058668144
-0.14064494 -0.25760728 0.058635328
-0.14084646 -0.25764602 0.058654442
-0.14105698 -0.25769535 0.058610104
-0.14126357 -0.25774133 0.058584213
-0.14148721 -0.25780267 0.058471777
-0.14166908 -0.25782678 0.058568232
-0.14187762 -0.25787491 0.058529653
-0.14208639 -0.25792339 0.058488771
-0.14229046 -0.25796774 0.058470972
-0.14249185 -0.25800708 0.058485478
-0.14268921 -0.25804546 0.058501132
-0.14289659 -0.25809318 0.058463715
-0.1430857 -0.25812402 0.058522083
-0.14329839 -0.25817695 0.058454663
-0.14351998 -0.25823849 0.058337618
-0.14370668 -0.25826725 0.058407515
-0.14391986 -0.25832123 0.058333173
-0.14412656 -0.25836644 0.058313057
-0.14431649 -0.25839838 0.058364503
-0.14451885 -0.25844237 0.058346707
-0.14473088 -0.25849596 0.058273517
-0.14492491 -0.25853208 0.058300726
-0.14512798 -0.25857717 0.058276009
-0.14530067 -0.25859797 0.058382854
-0.1454962 -0.25866777 0.058166675
-0.1457359 -0.25870901 0.05822492
-0.14593498 -0.25875059 0.058219817
-0.14613861 -0.2587969 0.058187023
-0.1463459 -0.25884712 0.05813114
-0.14654644 -0.2588906 0.058114506
-0.14674416 -0.25893125 0.058114026
-0.14694187 -0.25896892 0.058135457
-0.14714068 -0.25901708 0.05808191
-0.14733669 -0.25906247 0.058044512
-0.14754358 -0.25910076 0.058075149
-0.1477451 -0.259146 0.058046974
-0.14794683 -0.2591916 0.058016494
-0.14814122 -0.25922936 0.058032166
-0.14834619 -0.2592788 0.0579786
-0.14855373 -0.25933132 0.057906572
-0.14874789 -0.25936586 0.057945319
-0.14894481 -0.25940683 0.057941381
-0.14914094 -0.25944704 0.057942055
-0.14933929 -0.2594932 0.057902351
-0.1495536 -0.25955105 0.057801463
-0.14973494 -0.25957459 0.057901382
-0.14993924 -0.2596212 0.05786743
-0.15011707 -0.25965098 0.0579166
-0.15032634 -0.25970018 0.057871103
-0.15053628 -0.25975397 0.057793297
-0.15072374 -0.25978824 0.057823986
-0.15092692 -0.25983432 0.057792339
-0.15112963 -0.25987998 0.057763014
-0.15132561 -0.25992122 0.057755608
-0.15152486 -0.25996664 0.057722822
-0.15171833 -0.260005 0.057732731
-0.15191908 -0.26005262 0.057686102
-0.15211533 -0.26009473 0.057672929
-0.15227935 -0.26012278 0.057714056
-0.15250428 -0.26017472 0.057671975
-0.15270108 -0.26021394 0.057680726
-0.15288986 -0.26025468 0.057666421
-0.15308687 -0.26029837 0.05764287
-0.15327938 -0.26033211 0.057685081
-0.15349093 -0.26038748 0.057598043
-0.15368585 -0.26042885 0.057588343
-0.15388122 -0.26047093 0.057574023
-0.15407449 -0.26051021 0.057577014
-0.15426676 -0.26054817 0.057588074
-0.1544677 -0.26059851 0.057521831
-0.15466388 -0.26063791 0.057528272
-0.15484375 -0.26067603 0.05751976
-0.15504844 -0.26072809 0.057446588
-0.15525518 -0.2607744 0.057418402
-0.15545571 -0.26082546 0.057346392
-0.15564533 -0.26086035 0.057375915
-0.15582708 -0.26088792 0.057446998
-0.15599278 -0.26090968 0.057536568
-0.15622051 -0.26097488 0.057402194
-0.15642019 -0.26102084 0.057365946
-0.15660547 -0.26106384 0.057329737
-0.15681137 -0.26111034 0.057299241
-0.15700649 -0.2611495 0.057305686
-0.15720262 -0.26121628 0.057112567
-0.15738229 -0.26126668 0.057014078
-0.15756498 -0.26128557 0.057149753
-0.1577483 -0.26132122 0.057164297
-0.15795478 -0.26134819 0.057276834
-0.15810902 -0.26137123 0.057339899
-0.15835975 -0.26144859 0.057151269
-0.1585286 -0.26148111 0.057166997
-0.15873328 -0.26152161 0.057178039
-0.15894051 -0.26156694 0.057157919
-0.15912114 -0.26160994 0.057114802
-0.15930009 -0.26164389 0.057135124
-0.15952241 -0.26170069 0.057053827
-0.15969464 -0.2617279 0.057113402
-0.15989637 -0.26177588 0.05706561
-0.1600728 -0.26181152 0.057069793
-0.16028599 -0.26185745 0.057054278
-0.16045955 -0.26189393 0.057048082
-0.16066779 -0.26193646 0.057049882
-0.16086216 -0.26198369 0.056996346
-0.16105832 -0.26203528 0.056913968
-0.16124378 -0.26206329 0.056987338
-0.16140911 -0.26208907 0.05704692
-0.16162677 -0.26214668 0.05695295
-0.16181113 -0.26218697 0.056935199
-0.16200826 -0.26222718 0.056937017
-0.16220193 -0.26227495 0.056878872
-0.16238682 -0.26230916 0.056906097
-0.16257861 -0.26235273 0.056875639
-0.16275945 -0.26239341 0.056849819
-0.16292638 -0.26242316 0.056882869
-0.16310641 -0.26246193 0.056869738
-0.16329953 -0.26251018 0.056806974
-0.16347322 -0.26255003 0.056776553
-0.16365546 -0.26258656 0.056783032
-0.16385452 -0.26263431 0.056732949
-0.16405797 -0.262676 0.056733605
-0.16425101 -0.26271603 0.056730825
-0.16443637 -0.26276317 0.056664612
-0.16462715 -0.26280716 0.05662955
-0.16482018 -0.26284796 0.056621
-0.1650131 -0.26287705 0.056697816
-0.16518265 -0.26291668 0.056662798
-0.16536218 -0.26294458 0.056728106
-0.16557913 -0.26301387 0.056547619
-0.16577028 -0.26304862 0.056580607
-0.16595589 -0.26310134 0.056474034
-0.16616043 -0.26313677 0.056521975
-0.16635214 -0.263174 0.056537658
-0.16654095 -0.26321331 0.056533739
-0.16671515 -0.26324674 0.056550615
-0.16690837 -0.26329157 0.056513224
-0.16711362 -0.26332983 0.05654157
-0.16727835 -0.2633667 0.056519248
-0.16746013 -0.26342466 0.056368846
-0.16766721 -0.26345477 0.056459468
-0.1678351 -0.26349184 0.056440599
-0.16803844 -0.26354063 0.056389347
-0.16822311 -0.26357797 0.056393512
-0.16841495 -0.26361838 0.056386113
-0.16860601 -0.26365277 0.056421414
-0.16880943 -0.26370585 0.056339018
-0.16900174 -0.26375267 0.056285486
-0.16919623 -0.26378793 0.056319613
-0.16937025 -0.26382309 0.056323804
-0.16956903 -0.26386872 0.056288708
-0.16973266 -0.26390365 0.056279078
-0.16991369 -0.26394296 0.056263644
-0.17011215 -0.26398739 0.056236628
-0.1703034 -0.26402721 0.056232695
-0.17050505 -0.26406807 0.056236815
-0.17068924 -0.26410279 0.056259442
-0.17084216 -0.26412997 0.056290209
-0.17101607 -0.26418108 0.056177888
-0.17122452 -0.26422378 0.05617854
-0.17142938 -0.26427147 0.056137659
-0.17162372 -0.26431572 0.056106046
-0.17181809 -0.26435649 0.056099795
-0.17200208 -0.26439369 0.05610396
-0.17218587 -0.26443419 0.056083899
-0.17234544 -0.26446781 0.056077749
-0.17252211 -0.26450795 0.05604963
-0.17274088 -0.26455009 0.056069858
-0.17292786 -0.26459235 0.056041714
-0.17312062 -0.26464623 0.055937432
-0.17330009 -0.26468962 0.055889688
-0.17350161 -0.26472601 0.055926118
-0.17368576 -0.26475978 0.055955656
-0.1738728 -0.26479888 0.055950586
-0.1740427 -0.26483288 0.055957094
-0.17420276 -0.26486152 0.055987842
-0.1744009 -0.26491952 0.055861622
-0.17460239 -0.26495719 0.055888817
-0.17479233 -0.26499894 0.055868741
-0.17497559 -0.26503789 0.05585907
-0.17515476 -0.26507887 0.055828635
-0.17535524 -0.26512137 0.055818919
-0.17554407 -0.265167 0.055768855
-0.17571251 -0.26520625 0.055734996
-0.17589295 -0.26522657 0.05585682
-0.17610417 -0.26528347 0.05575826
-0.17627367 -0.26531833 0.055757843
-0.1764618 -0.26536494 0.05569971
-0.17664084 -0.26540446 0.055679664
-0.17683481 -0.26544309 0.055688411
-0.17699997 -0.26547974 0.055668399
-0.17718281 -0.26551864 0.055658728
-0.1773811 -0.26556638 0.05560749
-0.17758173 -0.265607 0.05561161
-0.17775112 -0.26564169 0.055612352
-0.17795672 -0.26568905 0.055574927
-0.17813243 -0.26572663 0.055564117
-0.17830472 -0.26576331 0.055554476
-0.1784846 -0.26579034 0.055626702
-0.17868063 -0.26584238 0.055540867
-0.17888433 -0.26588458 0.055538062
-0.17906654 -0.26592427 0.055521466
-0.17922528 -0.26596579 0.055456482
-0.17944065 -0.2660071 0.055477869
-0.17962424 -0.26604357 0.055486642
-0.17978624 -0.2660777 0.055480488
-0.17998588 -0.26612034 0.055468462
-0.18017232 -0.26616645 0.055411477
-0.18035731 -0.26620767 0.055387966
-0.18055832 -0.26624742 0.055399001
-0.18072522 -0.26627937 0.055415899
-0.18090381 -0.26631817 0.055400468
-0.1811084 -0.26636547 0.0553619
-0.18128289 -0.26640451 0.055338405
-0.18147239 -0.2664443 0.055332169
-0.18164833 -0.26648727 0.055282138
-0.18183738 -0.26653409 0.055224001
-0.18203229 -0.26657116 0.055245444
-0.18220435 -0.26660132 0.055283088
-0.18237269 -0.26664355 0.055227309
-0.18256909 -0.26669058 0.055178374
-0.18275386 -0.26672542 0.055201001
-0.18293083 -0.2667661 0.055169422
-0.18311799 -0.26679194 0.055261247
-0.18328975 -0.2668401 0.055167384
-0.18349405 -0.26688117 0.055173807
-0.18367592 -0.26691493 0.055199899
-0.18386377 -0.2669515 0.055214431
-0.18404455 -0.26700816 0.055072106
-0.18422481 -0.26704413 0.05507974
-0.18441291 -0.26708549 0.055059671
-0.18460368 -0.26712349 0.055068433
-0.18480827 -0.26716936 0.055040244
-0.18500891 -0.26721504 0.055007454
-0.18517776 -0.26725516 0.054967828
-0.18535328 -0.26729205 0.054961625
-0.18552168 -0.26733255 0.054918543
-0.18571153 -0.26736227 0.054986134
-0.18590261 -0.26740015 0.054996047
-0.18610981 -0.2674475 0.054960929
-0.18629652 -0.26748577 0.054961629
-0.18645436 -0.26753309 0.054852806
-0.18666375 -0.26756459 0.054936506
-0.18684682 -0.26761112 0.054871459
-0.18701798 -0.26765266 0.0548249
-0.18718727 -0.26769176 0.054793339
-0.18738565 -0.2677308 0.054805543
-0.1875785 -0.26776716 0.054829299
-0.18777078 -0.2678124 0.054787304
-0.18795985 -0.26785254 0.054777618
-0.188126 -0.26789054 0.054749526
-0.18830949 -0.26792401 0.054780222
-0.18850456 -0.26797044 0.0547336
-0.18870443 -0.2680046 0.054783873
-0.18888824 -0.26804969 0.054730352
-0.18907438 -0.26809257 0.054696448
-0.18926175 -0.26811543 0.054810189
-0.18945387 -0.26814198 0.054904308
-0.18964045 -0.26821801 0.054629311
-0.18981394 -0.26825324 0.054632355
-0.19001563 -0.2682974 0.054612249
-0.1901865 -0.26833129 0.054621056
-0.19036873 -0.26837367 0.054584853
-0.19055209 -0.26840806 0.054608624
-0.19073258 -0.26845184 0.054559737
-0.19093682 -0.26849398 0.054558083
-0.19112873 -0.26853901 0.054517247
-0.19130409 -0.26857981 0.054482214
-0.19147334 -0.26861179 0.054502562
-0.19167508 -0.26865929 0.054458231
-0.19186825 -0.26869664 0.054475069
-0.19205697 -0.26873738 0.054460764
-0.19225334 -0.26877901 0.054451048
-0.19242214 -0.26881486 0.054442562
-0.1925924 -0.26885605 0.054397155
-0.19278394 -0.26889798 0.054378234
-0.19297031 -0.26893726 0.054370858
-0.19315241 -0.26897329 0.054380793
-0.19334127 -0.26901403 0.054366488
-0.19354175 -0.26906222 0.054315243
-0.19371216 -0.26910013 0.054294057
-0.19388989 -0.26913619 0.05429709
-0.19407602 -0.26917875 0.054265495
-0.19426745 -0.26921198 0.054310009
-0.19444805 -0.26925814 0.054243822
-0.19462617 -0.26930285 0.054184556
-0.19482677 -0.2693392 0.05421982
-0.19502403 -0.26937202 0.054275863
-0.19522864 -0.26942328 0.054208454
-0.19540204 -0.26946512 0.054163046
-0.19556938 -0.26949653 0.054184549
-0.19575372 -0.26952907 0.054223321
-0.19595224 -0.26957828 0.054161698
-0.1961329 -0.2696186 0.054138184
-0.19630677 -0.26966828 0.054036248
-0.19650266 -0.26970258 0.054079603
-0.19669747 -0.26974297 0.054076821
-0.19688495 -0.26978484 0.054052144
-0.197063 -0.269824 0.054033246
-0.19724922 -0.26986656 0.054001655
-0.19743057 -0.26990655 0.053981602
-0.19762795 -0.26994574 0.0539915
-0.19782215 -0.2699841 0.054002553
-0.1980035 -0.27002931 0.053944439
-0.19818845 -0.27007005 0.053924378
-0.19838616 -0.27010423 0.053971186
-0.19857621 -0.27014995 0.053922277
-0.19875674 -0.27018803 0.053914912
-0.19894193 -0.2702263 0.053913303
-0.1991296 -0.27027074 0.05387016
-0.19932097 -0.27031091 0.053863928
-0.19950153 -0.27034423 0.053891174
-0.1996955 -0.2703881 0.05386186
-0.19988735 -0.27043056 0.053839471
-0.20006637 -0.27047196 0.053805586
-0.20025057 -0.27051097 0.053797062
-0.20043826 -0.27055305 0.053771224
-0.20062956 -0.27059349 0.053762682
-0.2008139 -0.27063948 0.053703401
-0.20100848 -0.2706762 0.053727154
-0.20120431 -0.27071473 0.053739354
-0.20138611 -0.27075955 0.053684697
-0.20157449 -0.27079466 0.053710766
-0.20176375 -0.27082047 0.053806052
-0.2019463 -0.27087179 0.053705245
-0.20213364 -0.27091649 0.053659804
-0.20231292 -0.27095795 0.053625908
-0.20249946 -0.27100074 0.053593155
-0.20268343 -0.27104682 0.053532723
-0.20286152 -0.2710844 0.053525366
-0.20305735 -0.27112341 0.05353412
-0.20327105 -0.27116388 0.053558972
-0.20344839 -0.27121046 0.053484708
-0.20362215 -0.27124354 0.053503897
-0.20382467 -0.2712844 0.053509172
-0.20401809 -0.27133098 0.053459093
-0.20419803 -0.2713702 0.053442504
-0.20440164 -0.27141288 0.053436242
-0.20456572 -0.27145612 0.053366624
-0.20476477 -0.27148819 0.053430732
-0.20495586 -0.27152956 0.053415272
-0.20515352 -0.27157259 0.053397488
-0.2053162 -0.27161634 0.053322107
-0.20550543 -0.27165034 0.053357407
-0.20572115 -0.27169299 0.053369567
-0.20589942 -0.27174309 0.053271081
-0.20607305 -0.27178088 0.053255666
-0.20625085 -0.27181917 0.053242542
-0.20648059 -0.27185124 0.053352721
-0.20667358 -0.27189428 0.053328019
-0.20684706 -0.27194008 0.05325377
-0.20702976 -0.27198273 0.053216405
-0.2072234 -0.2720159 0.053264383
-0.20742695 -0.27206126 0.053238515
-0.2076288 -0.27210718 0.053205721
-0.20781168 -0.27214417 0.053209886
-0.20800383 -0.27218577 0.053194415
-0.20818025 -0.27222869 0.053145543
-0.20836741 -0.27227193 0.053110477
-0.20856221 -0.27231088 0.053118072
-0.20875844 -0.27234763 0.053144127
-0.20893967 -0.27239281 0.053086005
-0.209149 -0.27243665 0.053079724
-0.20932603 -0.27248129 0.053019311
-0.20953409 -0.27252012 0.053047638
-0.20971538 -0.2725617 0.053016048
-0.20991126 -0.27260071 0.053024799
-0.21010046 -0.2726382 0.053034719
-0.21026503 -0.27268296 0.052954722
-0.2104872 -0.27271807 0.053031471
-0.21067467 -0.27276865 0.052943338
-0.21086538 -0.2728112 0.05291865
-0.21104929 -0.27285218 0.052895132
-0.21122964 -0.27289072 0.05288431
-0.21142446 -0.27293396 0.052860763
-0.21159807 -0.2729744 0.052825734
-0.21180549 -0.2730177 0.052820608
-0.21200421 -0.27305827 0.052822433
-0.21216734 -0.27310163 0.052750509
-0.21239875 -0.27314717 0.052764937
-0.21257564 -0.27318686 0.052740287
-0.21278019 -0.27322105 0.052797467
-0.2130089 -0.27327093 0.052776139
-0.21318308 -0.27331483 0.052716885
-0.21337071 -0.27335024 0.052739494
-0.21356663 -0.2733953 0.052704416
-0.21375971 -0.27343613 0.052695859
-0.21395408 -0.2734783 0.052679241
-0.21413964 -0.27351615 0.052681092
-0.2143472 -0.27356011 0.052671358
-0.21452576 -0.27360791 0.052590176
-0.21470541 -0.27364409 0.052595504
-0.21491724 -0.27368876 0.052586906
-0.21510775 -0.27372891 0.05257953
-0.21529955 -0.27377197 0.052552529
-0.215491 -0.273812 0.052547447
-0.21570441 -0.27385494 0.05255384
-0.21589759 -0.27389625 0.052541837
-0.21610473 -0.27394235 0.052515946
-0.21628422 -0.27398369 0.052483212
-0.21647292 -0.27402458 0.05246776
-0.21665698 -0.27406496 0.052448846
-0.2168594 -0.27410913 0.0524299
-0.21705122 -0.27415252 0.052400589
-0.21724905 -0.27419007 0.052423175
-0.21743432 -0.27423498 0.052373119
-0.21762714 -0.27427366 0.052379571
-0.21782732 -0.27432007 0.052341022
-0.21800728 -0.2743631 0.052296735
-0.21821022 -0.27439836 0.05234354
-0.21841781 -0.27444485 0.052315354
-0.21861407 -0.27448618 0.052307948
-0.21880208 -0.27453369 0.05224289
-0.21899104 -0.27456909 0.052267805
-0.21921934 -0.27461463 0.052277632
-0.21938807 -0.27466008 0.052198775
-0.21957065 -0.27469543 0.052214481
-0.21980488 -0.27473855 0.052250825
-0.21997739 -0.27478477 0.05217196
-0.22019674 -0.27482942 0.052174881
-0.22039062 -0.27487311 0.052146729
-0.22058305 -0.27491853 0.052103572
-0.22079352 -0.27495486 0.052153818
-0.22098322 -0.27499801 0.052123364
-0.22117966 -0.27504426 0.052080195
-0.22134399 -0.27508485 0.052030195
-0.22155651 -0.27512255 0.052073505
-0.22175899 -0.27516928 0.052036099
-0.22195996 -0.27520919 0.05204599
-0.22214866 -0.2752499 0.052031685
-0.2223568 -0.27529997 0.051978122
-0.22256733 -0.27534264 0.051982217
-0.22275043 -0.27538586 0.051941395
-0.22294992 -0.2754291 0.051924761
-0.22314207 -0.27547082 0.051908139
-0.22334203 -0.27551132 0.051912263
-0.22352922 -0.27555537 0.05187143
-0.22372609 -0.27560061 0.051836349
-0.22394937 -0.27563751 0.051901545
-0.22411811 -0.27568188 0.05183078
-0.22434548 -0.27572516 0.051855594
-0.22453067 -0.27577242 0.051788233
-0.22475412 -0.27581918 0.051781926
-0.22493656 -0.27585608 0.051786095
-0.22511691 -0.27589065 0.051804107
-0.22533986 -0.27594709 0.051726278
-0.22558296 -0.27598983 0.051778749
-0.22574286 -0.2760303 0.051722988
-0.22594535 -0.27607384 0.05170865
-0.22615892 -0.27611983 0.05169313
-0.13185133 -0.25994706 0.028409423
-0.13205016 -0.26000014 0.028320063
-0.13224569 -0.26005 0.028249174
-0.1324399 -0.26009786 0.028190978
-0.13263227 -0.26014471 0.028137393
-0.13281497 -0.26018831 0.028093074
-0.13300671 -0.26023504 0.0280395
-0.1331885 -0.2602756 0.028015949
-0.13337004 -0.2603161 0.027992394
-0.13354528 -0.26035407 0.027978087
-0.13371885 -0.26039103 0.027968401
-0.13390121 -0.26043233 0.027940227
-0.13407826 -0.26047036 0.027928224
-0.13424727 -0.26050463 0.027931236
-0.1344175 -0.2605384 0.027940013
-0.13458554 -0.26057217 0.02794534
-0.13475296 -0.2606028 0.027972583
-0.13492073 -0.26063654 0.027977906
-0.13508236 -0.26066488 0.028013241
-0.13524188 -0.26069468 0.028034745
-0.1354062 -0.26072484 0.028060844
-0.13556555 -0.26075178 0.028103102
-0.13572454 -0.26077849 0.02814652
-0.1358749 -0.26080087 0.028208418
-0.13602701 -0.26082298 0.028274929
-0.13617674 -0.26084492 0.028339138
-0.13633148 -0.26086584 0.02841834
-0.1364776 -0.2608853 0.028495243
-0.13662021 -0.26090086 0.028595231
-0.13676284 -0.26091787 0.028684841
-0.13691017 -0.26093504 0.028780207
-0.13705385 -0.26095113 0.028877892
-0.13719437 -0.26096502 0.028987113
-0.13733062 -0.26097739 0.029100966
-0.13747215 -0.26099178 0.029207883
-0.13760456 -0.26100129 0.029336739
-0.13774088 -0.26101035 0.029474825
-0.13787343 -0.26101974 0.029604832
-0.13800673 -0.26102644 0.029755611
-0.13813406 -0.2610319 0.029906405
-0.13826323 -0.26103538 0.0300745
-0.13837391 -0.26102397 0.030323396
-0.13846861 -0.26100406 0.030610412
-0.13251372 -0.25587919 0.059060484
-0.1327413 -0.25593442 0.05899873
-0.13295703 -0.255981 0.058982007
-0.13316634 -0.25602502 0.058974542
-0.13338809 -0.25607634 0.058932416
-0.13360164 -0.25612372 0.058906473
-0.13381593 -0.25616971 0.058892064
-0.13402101 -0.25621095 0.058898441
-0.13424389 -0.25626156 0.058863245
-0.13444467 -0.2562997 0.058885783
-0.1346729 -0.25635678 0.05881134
-0.13487279 -0.25639442 0.058836199
-0.13508286 -0.25643778 0.058834489
-0.13530828 -0.25649318 0.058768131
-0.13550635 -0.25652742 0.058814909
-0.13572004 -0.25657615 0.058779739
-0.13592233 -0.25661379 0.058808036
-0.13615298 -0.25667611 0.058698989
-0.13637431 -0.2567291 0.058644172
-0.13658652 -0.25677496 0.058627468
-0.13680758 -0.25682801 0.058571499
-0.13700099 -0.25686133 0.058618292
-0.1372124 -0.25690687 0.058602735
-0.13741496 -0.25694537 0.05862527
-0.13762526 -0.25699022 0.058613181
-0.13783056 -0.25703341 0.058605708
-0.13805591 -0.25709084 0.058524363
-0.13825454 -0.25713342 0.058511149
-0.1384508 -0.25716242 0.058593694
-0.13864061 -0.2571907 0.058671635
-0.13891508 -0.25728989 0.058359422
-0.13909978 -0.2573165 0.058441997
-0.13929349 -0.25734827 0.05850032
-0.13950434 -0.25739703 0.058460541
-0.13971116 -0.25744003 0.058456536
-0.13988349 -0.25746822 0.058509149
-0.14007774 -0.25752512 0.058385186
-0.1403511 -0.2575891 0.058327936
-0.14055575 -0.25763071 0.058330856
-0.14075844 -0.2576732 0.058324553
-0.14095791 -0.25771046 0.05835171
-0.14117011 -0.25776154 0.058296926
-0.14136425 -0.25779673 0.058331028
-0.14157888 -0.25784516 0.058299311
-0.1417889 -0.25789216 0.058271069
-0.14200157 -0.25794429 0.058209352
-0.14224237 -0.25801963 0.058020677
-0.14241499 -0.25803566 0.058162116
-0.1426193 -0.25807801 0.058159269
-0.14282458 -0.25812134 0.058150653
-0.14304192 -0.25817603 0.058077391
-0.14322945 -0.25820574 0.0581415
-0.14342526 -0.25824049 0.058181368
-0.14363509 -0.25829124 0.058125429
-0.14384158 -0.25833625 0.05810643
-0.14401785 -0.25836635 0.058150955
-0.14424783 -0.25842297 0.058082279
-0.14445449 -0.25847137 0.058039047
-0.14466605 -0.25852183 0.057987731
-0.14486019 -0.2585583 0.058012594
-0.14505735 -0.2585949 0.058040917
-0.14526489 -0.2586447 0.057988446
-0.14546439 -0.25868669 0.057981003
-0.14566734 -0.25873226 0.057952777
-0.14587454 -0.25877932 0.057919927
-0.14606833 -0.25881585 0.057943642
-0.14627194 -0.25885946 0.05793041
-0.14647731 -0.25890803 0.057883721
-0.14666919 -0.25895196 0.057850912
-0.1468727 -0.25898668 0.057902288
-0.14706151 -0.2590276 0.057886794
-0.14727402 -0.25907812 0.057836615
-0.14748548 -0.25913712 0.057723001
-0.14767422 -0.25916582 0.057796333
-0.14786628 -0.25920439 0.057802744
-0.1480798 -0.25925669 0.057741039
-0.14829578 -0.25930873 0.057685096
-0.14849035 -0.25934717 0.057696112
-0.14867572 -0.25937214 0.057791382
-0.14888641 -0.25942862 0.057695068
-0.14908971 -0.25947377 0.057670303
-0.14928769 -0.25951642 0.057655934
-0.1494868 -0.25955704 0.057657719
-0.14968671 -0.25960213 0.057628348
-0.14987573 -0.25964165 0.057623234
-0.15007469 -0.25967893 0.057649232
-0.15027472 -0.25972104 0.057641789
-0.1504707 -0.25976199 0.057636656
-0.15066326 -0.25980967 0.057577312
-0.15087721 -0.2598581 0.057544436
-0.15108405 -0.25990903 0.057482749
-0.15124571 -0.2599453 0.057460397
-0.15145636 -0.25999767 0.057394091
-0.15162209 -0.26002431 0.057447869
-0.15184356 -0.26006797 0.057461124
-0.15205909 -0.26011562 0.057436332
-0.15224117 -0.26014772 0.057475075
-0.1524557 -0.26020214 0.057399519
-0.15265696 -0.26024354 0.057398982
-0.15284446 -0.2602829 0.057392716
-0.15304039 -0.26032147 0.057404891
-0.15322919 -0.2603668 0.057357095
-0.15342522 -0.26040158 0.057396948
-0.15364741 -0.26046786 0.057246391
-0.15384097 -0.26050371 0.057274714
-0.15402636 -0.2605409 0.057281144
-0.15423287 -0.26059067 0.057227533
-0.154423 -0.26062614 0.057253569
-0.15461969 -0.26067102 0.05722075
-0.1548115 -0.26070464 0.057262924
-0.15499809 -0.26073954 0.057287805
-0.15520167 -0.26079044 0.057221506
-0.15538333 -0.26082733 0.057224486
-0.15560195 -0.2608875 0.057113159
-0.15579164 -0.26092288 0.057139196
-0.15598276 -0.26096046 0.057151377
-0.15618221 -0.26101586 0.05704587
-0.1563694 -0.26104757 0.057094984
-0.15653664 -0.26108688 0.05705877
-0.15676475 -0.26113951 0.057016641
-0.15694833 -0.26117048 0.057065755
-0.15712869 -0.26122165 0.056962606
-0.15731078 -0.26125026 0.057026729
-0.15750135 -0.26128772 0.057038914
-0.15773253 -0.26134127 0.056994468
-0.1579155 -0.2613821 0.056970913
-0.15811086 -0.2614283 0.056926548
-0.15831 -0.26147038 0.056917947
-0.15850323 -0.26151329 0.056894366
-0.15870246 -0.26155585 0.056882303
-0.15889357 -0.26159516 0.0568818
-0.15908366 -0.26163268 0.056892827
-0.15928349 -0.26168281 0.056826539
-0.15946446 -0.26172131 0.056816831
-0.15965942 -0.2617625 0.056808241
-0.15985242 -0.26180634 0.056777738
-0.16005217 -0.26185122 0.056749523
-0.16023996 -0.26188478 0.056785937
-0.16042122 -0.26192462 0.056767005
-0.16060555 -0.26197109 0.056704216
-0.16078888 -0.26200894 0.05670258
-0.16097161 -0.26204559 0.056709018
-0.16117442 -0.26209855 0.056626573
-0.16137853 -0.26213324 0.056679096
-0.16154748 -0.26217544 0.056624435
-0.16172303 -0.26222596 0.056518987
-0.16194692 -0.26226205 0.056591071
-0.1621545 -0.26230523 0.056587067
-0.16231012 -0.26232347 0.05668702
-0.16252291 -0.26238814 0.056534167
-0.16271275 -0.26242781 0.05652906
-0.16289845 -0.26246524 0.056534328
-0.16309288 -0.26250887 0.056507282
-0.16326088 -0.26253346 0.056579523
-0.16345277 -0.26258859 0.056464795
-0.16362274 -0.2626093 0.056568183
-0.16382046 -0.26267308 0.056399219
-0.16402951 -0.26270312 0.056493267
-0.16423561 -0.26275405 0.056430422
-0.16441764 -0.26279151 0.056429945
-0.16460468 -0.26283473 0.056394838
-0.1648147 -0.26287824 0.056391977
-0.16498458 -0.26290831 0.056427289
-0.16516849 -0.26295292 0.056377199
-0.16534191 -0.26298386 0.056411341
-0.16556413 -0.2630367 0.05635884
-0.16573426 -0.26308072 0.056292638
-0.16592997 -0.2631216 0.056287505
-0.1661219 -0.26316077 0.0562893
-0.16631523 -0.26320624 0.05624726
-0.16651234 -0.2632392 0.056302115
-0.16670972 -0.26328883 0.056235835
-0.16691011 -0.26333779 0.056178771
-0.16709018 -0.26336896 0.056220986
-0.1672896 -0.26341397 0.056191608
-0.16747831 -0.26345578 0.056169197
-0.16766658 -0.26349562 0.056160621
-0.16785105 -0.26353294 0.056164745
-0.16803174 -0.26356757 0.056182727
-0.16821139 -0.26361895 0.056077268
-0.16840476 -0.26364794 0.056155208
-0.16861072 -0.26369539 0.056117747
-0.16877557 -0.26374102 0.056031931
-0.16895282 -0.26377699 0.056034934
-0.16915108 -0.26381904 0.056025174
-0.16935623 -0.26386252 0.05601541
-0.16952622 -0.26389417 0.056039184
-0.16970697 -0.26393214 0.056032941
-0.16991255 -0.26398486 0.055956244
-0.17009638 -0.26401919 0.055981144
-0.17029096 -0.26406288 0.055954091
-0.17047851 -0.26410493 0.055928223
-0.17067279 -0.26414332 0.055939239
-0.17084281 -0.26417735 0.055945709
-0.17104407 -0.26422697 0.055885192
-0.17123477 -0.26427096 0.055850081
-0.17142552 -0.26430559 0.055883028
-0.17160225 -0.26434529 0.055858329
-0.17178921 -0.26439023 0.055810537
-0.17197272 -0.26443082 0.055789288
-0.17214604 -0.26446441 0.055803828
-0.17237109 -0.26451263 0.055789381
-0.17256454 -0.26455921 0.055739265
-0.17274809 -0.26459634 0.0557434
-0.17292081 -0.26463598 0.055712942
-0.17310436 -0.26467249 0.055721685
-0.17329091 -0.26471403 0.055698119
-0.17348891 -0.26474828 0.055744898
-0.17367133 -0.26479369 0.055686731
-0.17384741 -0.26483262 0.055666652
-0.17402039 -0.26486787 0.055668503
-0.1742173 -0.26490998 0.055656448
-0.17441522 -0.26496667 0.055539396
-0.17461966 -0.26500556 0.055561934
-0.17481007 -0.26504284 0.055575266
-0.17499976 -0.26508391 0.055559773
-0.17517605 -0.26511985 0.055561617
-0.17536283 -0.26515749 0.055566885
-0.17554829 -0.2652007 0.055529486
-0.17574959 -0.26523817 0.055557787
-0.17593363 -0.26528648 0.055481162
-0.1760928 -0.26531795 0.055489969
-0.17630231 -0.26536548 0.055457115
-0.17648046 -0.26539451 0.055512011
-0.17665736 -0.26544055 0.055441171
-0.17684002 -0.26547924 0.055432614
-0.17701463 -0.26552007 0.055396393
-0.17722337 -0.26555765 0.055435065
-0.17742363 -0.26560959 0.055356085
-0.17761372 -0.26564774 0.055362504
-0.17778599 -0.26568398 0.055356283
-0.1779744 -0.26572669 0.055326942
-0.17817299 -0.26577181 0.055295266
-0.17833114 -0.26580578 0.055284463
-0.17854011 -0.26585257 0.055256229
-0.17872041 -0.26588711 0.055274211
-0.17889766 -0.26592895 0.055234514
-0.1791054 -0.26596963 0.055248961
-0.17927732 -0.26600626 0.055239271
-0.17947677 -0.2660405 0.055288356
-0.17965588 -0.26608604 0.055224426
-0.17984954 -0.26613253 0.055175468
-0.18003523 -0.26617184 0.055166904
-0.1801987 -0.2662099 0.055134159
-0.18038763 -0.26625019 0.055123284
-0.18056282 -0.26629478 0.055060517
-0.18076193 -0.26633018 0.055100374
-0.18094824 -0.26636821 0.055102184
-0.18112993 -0.26640764 0.055086706
-0.1813062 -0.26644975 0.055043552
-0.18147866 -0.26649156 0.054996949
-0.18168309 -0.26651856 0.055106007
-0.18188581 -0.26656803 0.055048946
-0.18207766 -0.26660973 0.055032283
-0.18225046 -0.26663229 0.055126425
-0.18241197 -0.26669082 0.054941416
-0.18262601 -0.26673421 0.054945461
-0.18281959 -0.2667731 0.054951869
-0.18300408 -0.26680234 0.055014838
-0.18318699 -0.2668398 0.055015504
-0.18335924 -0.2668868 0.054930829
-0.18354844 -0.26693189 0.054885343
-0.18374515 -0.26697204 0.054887127
-0.18391205 -0.26700956 0.054863609
-0.18406521 -0.26705989 0.054725919
-0.18428525 -0.26709026 0.054833785
-0.18444446 -0.26713237 0.054765292
-0.1846433 -0.26717484 0.054753229
-0.18484081 -0.26721895 0.054727327
-0.18504085 -0.26725504 0.054763719
-0.18521725 -0.26729545 0.054733254
-0.18539447 -0.26732999 0.054746635
-0.18559046 -0.26737586 0.054705739
-0.18577872 -0.26741648 0.054691397
-0.18597686 -0.26745978 0.054672409
-0.18614928 -0.26749983 0.054638501
-0.18632221 -0.26753476 0.054642655
-0.18652622 -0.2675761 0.054646727
-0.18672034 -0.26762363 0.05459084
-0.1868839 -0.26765981 0.054571953
-0.18708807 -0.26770103 0.054577172
-0.18728377 -0.26773828 0.054598574
-0.18746728 -0.2677795 0.054572716
-0.1876318 -0.26782301 0.054501899
-0.18782212 -0.26786152 0.054506015
-0.18801649 -0.26790026 0.054514732
-0.18816642 -0.26794139 0.054439344
-0.18836577 -0.26797938 0.054460734
-0.18859221 -0.2680198 0.054505128
-0.18876304 -0.26805317 0.054517366
-0.18894655 -0.26810202 0.054436132
-0.18912259 -0.26813459 0.054462202
-0.18930632 -0.26817176 0.054466326
-0.18949664 -0.26822183 0.054386213
-0.18967009 -0.26826414 0.054337308
-0.18985875 -0.26830801 0.054299891
-0.1900481 -0.2683405 0.054346692
-0.1902414 -0.26838055 0.054343872
-0.19041568 -0.268415 0.054353788
-0.19060875 -0.26845536 0.054348662
-0.1907877 -0.2684966 0.054315887
-0.19098906 -0.26853389 0.054345351
-0.19118106 -0.26857182 0.054356385
-0.19136225 -0.26861811 0.054290142
-0.19154756 -0.2686578 0.054278117
-0.19174328 -0.26869965 0.054266065
-0.1919 -0.26874092 0.054199886
-0.19210118 -0.26878199 0.054201666
-0.19228686 -0.26882145 0.05419194
-0.19247326 -0.26886043 0.05418684
-0.19264205 -0.26890558 0.054110244
-0.19283624 -0.26894537 0.054110892
-0.19302061 -0.26899201 0.054046951
-0.19320925 -0.26902637 0.054078747
-0.19340768 -0.26906341 0.054105919
-0.19358924 -0.26909363 0.054157346
-0.19377047 -0.26913631 0.05411765
-0.19395931 -0.2691859 0.0540387
-0.19416387 -0.26922813 0.054037005
-0.1943358 -0.26927078 0.053983483
-0.19454166 -0.26930934 0.054010626
-0.19472528 -0.26935327 0.05396514
-0.19490221 -0.26938984 0.053963527
-0.19508962 -0.26943141 0.053941108
-0.19526526 -0.26947165 0.053910643
-0.19543388 -0.26951331 0.053859439
-0.19564137 -0.26955122 0.053893495
-0.1958368 -0.26959366 0.053876832
-0.19601077 -0.26963213 0.05385676
-0.19619131 -0.26967227 0.05383436
