# .PCD v0.7 - Point Cloud Data file format
VERSION 0.7
FIELDS x y z
SIZE 4 4 4
TYPE F F F
COUNT 1 1 1
WIDTH 1301
HEIGHT 1
VIEWPOINT 0 0 0 1 0 0 0
POINTS 1301
DATA ascii
-0.26694512 -0.26214904 0.062171191
-0.26714498 -0.26211703 0.062225617
-0.26734293 -0.26208621 0.062273122
-0.26757348 -0.26206458 0.062222436
-0.26780015 -0.2620436 0.062170617
-0.26802811 -0.26202136 0.06212686
-0.26822692 -0.26199105 0.062169753
-0.26845708 -0.26196977 0.062116761
-0.26868567 -0.26194996 0.062054545
-0.2688798 -0.26191634 0.062126294
-0.26910204 -0.26189449 0.062084883
-0.26932663 -0.26187173 0.062048059
-0.26954097 -0.26184541 0.062047042
-0.26975092 -0.26181763 0.062061056
-0.26995915 -0.26179114 0.062066983
-0.27016985 -0.26176372 0.062077522
-0.27039683 -0.26174423 0.062014163
-0.27062324 -0.2617228 0.061965805
-0.27082452 -0.26169407 0.061994843
-0.27105299 -0.26167363 0.061937246
-0.27123791 -0.26163882 0.062026344
-0.2714709 -0.26162031 0.061950274
-0.27168453 -0.26159453 0.061945803
-0.27190378 -0.26157105 0.061919391
-0.27211684 -0.26154721 0.061901074
-0.27234265 -0.2615265 0.061848111
-0.27255228 -0.26150152 0.061841346
-0.27277157 -0.26147848 0.061811477
-0.27297524 -0.2614513 0.061826665
-0.27320066 -0.26143095 0.061771382
-0.27339667 -0.26140082 0.061815441
-0.27362168 -0.26138049 0.061760172
-0.27383381 -0.2613571 0.061739556
-0.27406141 -0.26134017 0.061656587
-0.27423343 -0.26131269 0.061703064
-0.27442974 -0.26129124 0.061682526
-0.27467862 -0.26126707 0.061634064
-0.27490211 -0.26123852 0.061641075
-0.27510303 -0.26121092 0.061662041
-0.27530324 -0.26118091 0.061701469
-0.27550682 -0.2611545 0.061710894
-0.27575201 -0.26114428 0.061562084
-0.27596453 -0.26112208 0.061532244
-0.2761749 -0.26109686 0.061526641
-0.27637702 -0.26107019 0.061539527
-0.27659523 -0.2610487 0.061499275
-0.27681482 -0.26103011 0.061435953
-0.27701709 -0.26100156 0.061462685
-0.27722454 -0.26097766 0.061450161
-0.27745327 -0.26096153 0.061360266
-0.2776556 -0.26093546 0.06136854
-0.27784607 -0.26090384 0.06142877
-0.2780537 -0.26088035 0.061412796
-0.27826834 -0.26085806 0.061381795
-0.27847844 -0.26083598 0.06135311
-0.27869266 -0.26081371 0.061322115
-0.27889025 -0.26078573 0.06134887
-0.27910492 -0.26076388 0.061314404
-0.27931833 -0.26074392 0.061267257
-0.27952561 -0.26071861 0.061265118
-0.27972877 -0.26069367 0.061264157
-0.27992642 -0.26066601 0.061288603
-0.28014836 -0.26065087 0.061197586
-0.28035051 -0.26062325 0.06121739
-0.28055531 -0.26059952 0.061206043
-0.28075853 -0.26058963 0.0610932
-0.28096664 -0.26056299 0.061100289
-0.28117952 -0.2605291 0.061156955
-0.28136036 -0.26049277 0.061261065
-0.28159371 -0.26048493 0.061105404
-0.2817935 -0.26045901 0.061114844
-0.28201142 -0.26044065 0.061051521
-0.28220755 -0.26041284 0.06107828
-0.28242797 -0.26039618 0.06099996
-0.28262684 -0.26037005 0.061011702
-0.28282741 -0.26034495 0.06101422
-0.28303811 -0.26032579 0.060963623
-0.28324482 -0.2603018 0.060952265
-0.28344396 -0.26027611 0.060960546
-0.28364521 -0.26024908 0.0609769
-0.28386381 -0.26023513 0.060880132
-0.2840611 -0.26020858 0.060896508
-0.28426269 -0.26018196 0.060909398
-0.28445169 -0.26015037 0.060970791
-0.28462476 -0.2601254 0.06099765
-0.2848998 -0.26012814 0.06072529
-0.28507861 -0.26009035 0.060842093
-0.28528121 -0.26006469 0.06084691
-0.2854948 -0.26004905 0.060767461
-0.28568277 -0.26001695 0.060833476
-0.28589737 -0.26000226 0.060745955
-0.28610507 -0.25998032 0.06071844
-0.2863034 -0.2599552 0.060723275
-0.28650337 -0.25992832 0.060739629
-0.28670311 -0.25990427 0.060735226
-0.28691083 -0.25988576 0.060682334
-0.28711471 -0.25986478 0.060651384
-0.28730965 -0.25983462 0.060696606
-0.28751442 -0.25981447 0.060658727
-0.28772083 -0.25979254 0.060632374
-0.28792286 -0.25977069 0.060609505
-0.28812823 -0.25975138 0.060564701
-0.28831926 -0.25972173 0.06060994
-0.28852913 -0.2597028 0.060558189
-0.2887333 -0.25968301 0.060518011
-0.2889424 -0.25966385 0.060468577
-0.28913829 -0.2596381 0.060480341
-0.28934184 -0.25961497 0.060465537
-0.28949639 -0.25959009 0.060508639
-0.289718 -0.25956133 0.060519122
-0.2899276 -0.25953653 0.060511213
-0.29014239 -0.25952277 0.060416773
-0.29034486 -0.25950271 0.060380057
-0.29054672 -0.25947887 0.060372185
-0.29074371 -0.25945452 0.060372412
-0.2909483 -0.25943315 0.060343757
-0.29115149 -0.25941426 0.060297806
-0.29134944 -0.25939104 0.060288798
-0.29148978 -0.25936124 0.060381569
-0.29171482 -0.25933996 0.060333207
-0.29194608 -0.25932074 0.060264062
-0.29214838 -0.25929809 0.060246967
-0.29233119 -0.25927657 0.060239181
-0.29254845 -0.2592527 0.060217384
-0.29271114 -0.25922418 0.060280062
-0.29291549 -0.25920764 0.060215659
-0.29312629 -0.25919357 0.060126998
-0.29330078 -0.25916064 0.060211532
-0.29354131 -0.25914013 0.060143493
-0.29373425 -0.25910914 0.060196787
-0.29393721 -0.25909215 0.060137004
-0.29412895 -0.25906411 0.060169552
-0.29428497 -0.25904509 0.060167659
-0.29452172 -0.25903001 0.060062729
-0.29473618 -0.25900897 0.060022503
-0.29494184 -0.25899166 0.059962705
-0.2951349 -0.25896531 0.059981391
-0.29533792 -0.25894549 0.05994238
-0.29553518 -0.25892395 0.059921831
-0.29571724 -0.25888994 0.060007486
-0.29591483 -0.25886428 0.060016926
-0.29611617 -0.25884297 0.0599906
-0.29631007 -0.25881779 0.060000066
-0.29651359 -0.25879931 0.059950665
-0.29668781 -0.25877932 0.059939459
-0.29689103 -0.2587609 0.059890054
-0.29711202 -0.2587451 0.059804805
-0.29730526 -0.25870973 0.059890404
-0.29749781 -0.25868332 0.059910253
-0.29769692 -0.25866026 0.059898928
-0.29786724 -0.25864092 0.05988659
-0.29804254 -0.25862297 0.059859231
-0.29827878 -0.25861865 0.059674717
-0.29849556 -0.25858304 0.059740603
-0.29869506 -0.25856677 0.059678521
-0.29888898 -0.25853738 0.05971913
-0.29905951 -0.25851348 0.059740238
-0.29927298 -0.25848976 0.059720773
-0.2994664 -0.25846526 0.059725624
-0.29965875 -0.25845096 0.05965551
-0.29987189 -0.25842726 0.059636042
-0.3000719 -0.25840738 0.059600502
-0.30026206 -0.25837812 0.059643429
-0.30045748 -0.25835103 0.059665583
-0.3006537 -0.2583316 0.059630051
-0.30085522 -0.25831494 0.059569113
-0.30104676 -0.25828803 0.059593588
-0.30123872 -0.25826848 0.059562691
-0.30140692 -0.25824085 0.059613805
-0.30162254 -0.25823689 0.05944553
-0.30182877 -0.25820926 0.059461858
-0.30202824 -0.25817591 0.059526667
-0.30221188 -0.25815585 0.059507333
-0.30238658 -0.25814092 0.05945807
-0.30261591 -0.25811401 0.059447758
-0.30278924 -0.25808093 0.059534606
-0.30296409 -0.25807485 0.059419587
-0.30316928 -0.25804514 0.059452064
-0.30337664 -0.25802854 0.059385337
-0.30358383 -0.25801212 0.059317462
-0.30379114 -0.25798762 0.059309565
-0.30398157 -0.25795865 0.059350185
-0.30417913 -0.25793797 0.059322726
-0.30438459 -0.25791848 0.059279073
-0.30457011 -0.25789616 0.059274733
-0.30477405 -0.2578733 0.05925763
-0.30496883 -0.25784582 0.059283234
-0.30516595 -0.2578249 0.059258077
-0.30535692 -0.25779709 0.05928947
-0.30555502 -0.25777945 0.059238937
-0.3057498 -0.25776362 0.059178039
-0.30593559 -0.25774315 0.05915986
-0.30613393 -0.25771537 0.059184298
-0.30633348 -0.25769165 0.059177585
-0.30651498 -0.25766936 0.059176732
-0.30669528 -0.2576564 0.059107825
-0.30686659 -0.25763771 0.059089713
-0.30707672 -0.2576282 0.058967609
-0.30729234 -0.25759691 0.059002347
-0.30748424 -0.25757337 0.059001438
-0.30765453 -0.25755122 0.059009865
-0.30784899 -0.25752237 0.059045859
-0.30806836 -0.25750926 0.058942158
-0.30823568 -0.2574909 0.058925226
-0.30844742 -0.25747827 0.05882502
-0.3086417 -0.25744897 0.058864474
-0.30881935 -0.25742859 0.058853254
-0.30902058 -0.25739658 0.058906525
-0.30920869 -0.25737348 0.058905631
-0.30941811 -0.25734791 0.058903486
-0.30962846 -0.25733063 0.058839057
-0.30982363 -0.25730729 0.058833521
-0.31002241 -0.25728413 0.058823351
-0.31022465 -0.25725994 0.058817782
-0.31040969 -0.25724593 0.058752313
-0.31060436 -0.2572169 0.058789454
-0.31079575 -0.25719121 0.058804702
-0.31099808 -0.25717074 0.05877145
-0.3111895 -0.25714585 0.058780931
-0.31138465 -0.25712794 0.058735013
-0.31156901 -0.25710872 0.058708776
-0.3117604 -0.25709128 0.05866288
-0.31196594 -0.25706029 0.058704592
-0.31216079 -0.25704151 0.058665607
-0.31234142 -0.25702244 0.058641687
-0.31250429 -0.25700554 0.058617845
-0.31268498 -0.25698212 0.058626223
-0.31288427 -0.25694072 0.058751002
-0.31311697 -0.25693235 0.058599953
-0.31327987 -0.25691283 0.058595728
-0.31347525 -0.25688216 0.058644395
-0.31369439 -0.25686115 0.058599528
-0.31387866 -0.25683808 0.058602121
-0.3140758 -0.25682473 0.058520447
-0.31428373 -0.25680715 0.058460638
-0.31444779 -0.25677767 0.058529079
-0.31462973 -0.25677103 0.058411717
-0.31482023 -0.25672823 0.058555
-0.31503126 -0.25671181 0.058483638
-0.31519601 -0.25670153 0.058409035
-0.31540054 -0.25668061 0.058376931
-0.31559131 -0.25665903 0.05836219
-0.31579357 -0.2566314 0.058381997
-0.31599548 -0.25660601 0.058385655
-0.31617832 -0.25658932 0.058342107
-0.31637001 -0.25656331 0.05835966
-0.31657466 -0.25654095 0.058337927
-0.31678259 -0.25651917 0.058309268
-0.3169601 -0.25650904 0.058221918
-0.31717369 -0.25647798 0.058256663
-0.31736895 -0.25645185 0.058271892
-0.31754526 -0.25643253 0.058253758
-0.31774086 -0.25640556 0.058274746
-0.31794059 -0.25638771 0.058224212
-0.31813419 -0.25637856 0.058114864
-0.31831557 -0.25635335 0.058135923
-0.31851444 -0.25632691 0.058149986
-0.31871173 -0.25630534 0.058129445
-0.31889984 -0.25629061 0.058066268
-0.31907666 -0.25626922 0.058063127
-0.3192549 -0.25624394 0.058087651
-0.3194721 -0.25621399 0.058110856
-0.31968686 -0.25619075 0.058086764
-0.31986776 -0.25616777 0.058091681
-0.3200734 -0.25614205 0.058094166
-0.32025692 -0.25612107 0.058081765
-0.32044625 -0.25610232 0.058047429
-0.32063186 -0.25608435 0.058010794
-0.32083976 -0.25606117 0.057992503
-0.32102764 -0.25603017 0.058050442
-0.32122529 -0.25602254 0.057926089
-0.32140866 -0.25600174 0.057912532
-0.32157797 -0.25597522 0.057954416
-0.32175469 -0.25596142 0.057894748
-0.32196823 -0.25593334 0.057907581
-0.32215142 -0.25590619 0.057941321
-0.32235566 -0.25587711 0.057970345
-0.322552 -0.25585067 0.057986729
-0.32273781 -0.25579974 0.058194622
-0.32292184 -0.25581643 0.057901923
-0.32311383 -0.25579211 0.057906788
-0.32330766 -0.2557888 0.057753611
-0.32351205 -0.25574785 0.057870299
-0.32368436 -0.25573525 0.057806045
-0.32388094 -0.25572619 0.057693236
-0.32407799 -0.25569874 0.057716522
-0.32426888 -0.25567639 0.057707548
-0.32449156 -0.25564486 0.057737645
-0.3246865 -0.25563228 0.057652522
-0.32486576 -0.25561818 0.057592846
-0.32505047 -0.25558463 0.057672717
-0.32525778 -0.25555718 0.057686727
-0.32543066 -0.25554278 0.057635158
-0.32561544 -0.25553516 0.057522401
-0.32580167 -0.255505 0.057575732
-0.3260262 -0.25547636 0.057582743
-0.32622004 -0.25545472 0.057565682
-0.32640883 -0.25543573 0.057533652
-0.32658985 -0.25541383 0.057530493
-0.32678074 -0.25539181 0.057519205
-0.32699022 -0.25537103 0.057481304
-0.32717916 -0.25534722 0.057485025
-0.3273603 -0.25532532 0.057481863
-0.3275483 -0.25530735 0.057442911
-0.32772949 -0.25528541 0.057439748
-0.32792419 -0.25526276 0.057429597
-0.32811284 -0.25523961 0.057428703
-0.32832697 -0.25521269 0.057432305
-0.32853526 -0.2551851 0.057446323
-0.3287333 -0.25515008 0.057524972
-0.32891646 -0.25508907 0.057810169
-0.32910332 -0.25509346 0.057606269
-0.32926178 -0.25511673 0.057288323
-0.3294625 -0.25507888 0.057385422
-0.32965896 -0.25506625 0.057299133
-0.32983455 -0.25504765 0.05727639
-0.33003879 -0.25502926 0.057225827
-0.33022338 -0.25501513 0.057161517
-0.33040857 -0.25499645 0.05713065
-0.33060655 -0.25497028 0.057143554
-0.33079654 -0.25494975 0.057121895
-0.33098453 -0.25493148 0.057085253
-0.331177 -0.25490817 0.057082027
-0.33136594 -0.25488886 0.057052311
-0.33155799 -0.25486606 0.057045631
-0.33175573 -0.25484055 0.057053927
-0.33195609 -0.25481221 0.05708066
-0.33214858 -0.25479263 0.057049762
-0.33234414 -0.25476629 0.057066139
-0.33255205 -0.25473362 0.057118218
-0.33276275 -0.25471163 0.05708839
-0.33294433 -0.25468701 0.05710483
-0.33313334 -0.25467452 0.057024345
-0.33331248 -0.25465581 0.056999277
-0.33351812 -0.25462931 0.057007529
-0.33371469 -0.25459927 0.057050433
-0.3338986 -0.25458539 0.056984976
-0.33408764 -0.2545695 0.056929864
-0.33427536 -0.25455794 0.056843627
-0.33444554 -0.25455117 0.056737855
-0.33463031 -0.25453299 0.056703538
-0.33481699 -0.25450993 0.05670381
-0.33500555 -0.25449112 0.056670614
-0.33521628 -0.25445408 0.056752671
-0.33542559 -0.25441563 0.056846261
-0.33565205 -0.25436717 0.056998603
-0.3358683 -0.25434047 0.056998741
-0.33607411 -0.25431195 0.057021987
-0.33624184 -0.25432166 0.056796271
-0.33642378 -0.25430927 0.056721587
-0.33660698 -0.25429282 0.05667574
-0.33679578 -0.25426561 0.056704834
-0.3370274 -0.25422522 0.056792561
-0.33721229 -0.25421572 0.05669364
-0.33740702 -0.25419462 0.056671962
-0.33760065 -0.25417176 0.056664124
-0.3377842 -0.25415233 0.056640189
-0.33796751 -0.25413045 0.056634709
-0.33816361 -0.2541056 0.056639545
-0.33834991 -0.25408927 0.056590222
-0.33856231 -0.25406909 0.056545388
-0.33873752 -0.25405163 0.056514572
-0.33894286 -0.25402176 0.056548201
-0.33914515 -0.25398684 0.056622218
-0.33933207 -0.25398034 0.056499075
-0.33954 -0.25395373 0.056506164
-0.33969954 -0.25394425 0.056430437
-0.33991581 -0.25390837 0.056498621
-0.34012011 -0.25388998 0.056448057
-0.3402856 -0.25387555 0.056403439
-0.34049764 -0.25384593 0.056428976
-0.34069917 -0.25381997 0.056437247
-0.34088281 -0.25380829 0.056355637
-0.34109199 -0.25377393 0.056419246
-0.34131405 -0.25375131 0.056383595
-0.34147197 -0.25374529 0.056283649
-0.3416723 -0.25372288 0.056266554
-0.34186608 -0.25369847 0.056270253
-0.34205273 -0.25367725 0.056256678
-0.34223509 -0.25366169 0.056205064
-0.34246489 -0.25362635 0.056257043
-0.34266514 -0.25360423 0.056237638
-0.34285131 -0.2535859 0.056203313
-0.34304547 -0.25356159 0.05620585
-0.3432343 -0.25353903 0.056200344
-0.34343395 -0.2535108 0.056227088
-0.34361792 -0.25349644 0.056165081
-0.34381181 -0.2534748 0.056148026
-0.34399316 -0.25346234 0.056074493
-0.34421876 -0.25342655 0.056133408
-0.34440824 -0.25341263 0.056063306
-0.34458274 -0.25339851 0.056008272
-0.34481576 -0.25335127 0.056145579
-0.3450051 -0.2533353 0.056090474
-0.34518209 -0.25332165 0.056029659
-0.34536788 -0.25330818 0.055959575
-0.3455717 -0.25327569 0.056013972
-0.34577379 -0.25325507 0.055981882
-0.34598932 -0.25322521 0.056006234
-0.34617865 -0.25320724 0.055966124
-0.34637895 -0.2531797 0.055987097
-0.34659123 -0.25315642 0.055965327
-0.34676963 -0.2531378 0.055940267
-0.34696761 -0.25311613 0.055919722
-0.34717053 -0.2530973 0.055873774
-0.34735841 -0.25307438 0.05587174
-0.34755349 -0.25305074 0.055868503
-0.34773377 -0.253039 0.05579038
-0.34796026 -0.25300065 0.055867732
-0.34810945 -0.25300345 0.055710167
-0.3483336 -0.25296289 0.055805996
-0.34853929 -0.25293654 0.055813096
-0.34874111 -0.25291085 0.055819068
-0.34893879 -0.25288984 0.055793907
-0.34912091 -0.25287694 0.055722691
-0.34932843 -0.25284776 0.05574939
-0.34951097 -0.25283077 0.055708155
-0.34971294 -0.25280908 0.055684131
-0.3498956 -0.25279397 0.055629056
-0.3501156 -0.25276852 0.055616491
-0.35030413 -0.25274783 0.055597138
-0.3504971 -0.25272819 0.05556624
-0.35068265 -0.2527076 0.055549212
-0.35088393 -0.25267729 0.055589788
-0.35107496 -0.25265896 0.055550817
-0.35129654 -0.25262555 0.055595905
-0.35147318 -0.25261614 0.05550395
-0.35168615 -0.2525827 0.055557154
-0.35187602 -0.25256887 0.055485904
-0.35208249 -0.25254133 0.05550107
-0.35226053 -0.25253284 0.055401031
-0.35248014 -0.25249934 0.055448435
-0.35269311 -0.25247353 0.055445127
-0.35289487 -0.25244737 0.05545456
-0.3531009 -0.25242579 0.055425897
-0.35327682 -0.25241148 0.055370856
-0.35347369 -0.25239012 0.055349167
-0.35367304 -0.25236735 0.055335537
-0.3538807 -0.25234497 0.055311486
-0.35408133 -0.2523233 0.05528862
-0.35428846 -0.25229615 0.055300333
-0.35448176 -0.25227195 0.055302873
-0.35469544 -0.25224292 0.055322625
-0.35488555 -0.25222582 0.055275597
-0.35508054 -0.25220591 0.05524468
-0.35526764 -0.25218883 0.055199962
-0.35548708 -0.25216019 0.055211619
-0.35568479 -0.25213888 0.055188768
-0.355865 -0.25212574 0.055121019
-0.35608596 -0.2520915 0.055173025
-0.35629568 -0.25206527 0.055175502
-0.3564803 -0.25205472 0.055084661
-0.35667092 -0.25203428 0.05506184
-0.35690272 -0.25199276 0.055157635
-0.35709369 -0.25197229 0.055134825
-0.35727879 -0.2519615 0.055045128
-0.35749018 -0.25193152 0.055074118
-0.35769081 -0.25191233 0.055032797
-0.35787806 -0.251894 0.05499731
-0.35807747 -0.25187233 0.054975607
-0.35828081 -0.25185016 0.054953888
-0.35849297 -0.25182489 0.054947115
-0.35866666 -0.25181398 0.054869018
-0.35890096 -0.25177541 0.05494057
-0.35909495 -0.25175688 0.054900441
-0.35930732 -0.2517302 0.054904051
-0.35950112 -0.25171185 0.054862764
-0.35971424 -0.2516849 0.054867521
-0.35992137 -0.25165963 0.05486539
-0.36010614 -0.2516461 0.054796468
-0.36033854 -0.25160778 0.054868039
-0.36054066 -0.25158685 0.054838248
-0.36073393 -0.25156903 0.054793503
-0.36093622 -0.25154808 0.054763712
-0.36114791 -0.25152084 0.054771937
-0.3613441 -0.25150314 0.054723717
-0.36155373 -0.25147709 0.054725032
-0.36176634 -0.25144958 0.054734413
-0.36195052 -0.25143662 0.054662026
-0.36217543 -0.25140449 0.054694414
-0.36236867 -0.251387 0.054647356
-0.25451002 -0.26353276 0.063290641
-0.25473326 -0.26351252 0.06323652
-0.25497708 -0.26347637 0.063281506
-0.2552709 -0.26346421 0.063102469
-0.25546399 -0.26342809 0.063193828
-0.25567329 -0.26339588 0.063241273
-0.25590044 -0.26336953 0.063228659
-0.25614923 -0.26334709 0.063167483
-0.25636742 -0.26331875 0.06317798
-0.25657403 -0.26328608 0.063231215
-0.25683033 -0.26326734 0.063135415
-0.25707072 -0.26324329 0.063093901
-0.25728598 -0.26321453 0.063110173
-0.25749862 -0.26318359 0.063144915
-0.25774887 -0.26316389 0.063061826
-0.25799954 -0.26314446 0.062976435
-0.25820458 -0.26311341 0.063019276
-0.25842986 -0.26308605 0.063015901
-0.25864398 -0.26305744 0.06303218
-0.25890341 -0.26303926 0.062929451
-0.25918192 -0.26302791 0.062758565
-0.25935969 -0.26298994 0.06287767
-0.25957096 -0.26296088 0.062899731
-0.25979406 -0.26293349 0.062898681
-0.26001763 -0.26290792 0.062883765
-0.26025939 -0.26288742 0.062814556
-0.2604914 -0.26286435 0.062773079
-0.26071668 -0.26283795 0.062762789
-0.26092258 -0.26280788 0.062797561
-0.26114669 -0.26278129 0.062789574
-0.26138309 -0.26275986 0.062731922
-0.26160574 -0.26273471 0.062714711
-0.2618103 -0.26270449 0.0627518
-0.26204529 -0.26268137 0.062708005
-0.26226544 -0.26265576 0.062696576
-0.26242614 -0.26262453 0.06278117
-0.26270059 -0.26260325 0.062687576
-0.26295239 -0.26258555 0.062588334
-0.26318604 -0.26256433 0.062531859
-0.26339501 -0.26253587 0.062551633
-0.26355979 -0.26249421 0.062710017
-0.26380235 -0.26247594 0.062623508
-0.2640627 -0.26246324 0.062479239
-0.26428008 -0.26243594 0.062482819
-0.26449835 -0.2624107 0.062470246
-0.26470387 -0.26238158 0.0624981
-0.26491824 -0.26235527 0.062497076
-0.26515135 -0.26233318 0.062447518
-0.26536849 -0.26230791 0.062436104
-0.2662394 -0.26220673 0.062389277
-0.26646391 -0.26218432 0.062350146
-0.26668429 -0.26216069 0.062323719
-0.26691425 -0.26213852 0.062277645
-0.26710519 -0.26210529 0.062349394
-0.26734471 -0.2620883 0.062255979
-0.26754498 -0.26205829 0.0622954
-0.26777768 -0.26203749 0.062236615
-0.26798943 -0.2620115 0.062235609
-0.268213 -0.26198962 0.062193021
-0.268428 -0.26196495 0.062179305
-0.26864344 -0.26193866 0.062177129
-0.2688663 -0.26191691 0.062134542
-0.26907647 -0.26189077 0.062135845
-0.26928425 -0.26186389 0.062145241
-0.26951095 -0.26184195 0.062100325
-0.26972741 -0.26181832 0.062077377
-0.26993662 -0.26179218 0.062079847
-0.27015394 -0.26176909 0.062052272
-0.27037624 -0.26174599 0.062020078
-0.27058649 -0.26172048 0.062016763
-0.27080363 -0.26169568 0.062001888
-0.27103013 -0.26167643 0.061937373
-0.27123052 -0.26164749 0.061968714
-0.27144602 -0.26162428 0.061943457
-0.27167252 -0.26160347 0.061890483
-0.27188879 -0.2615808 0.061860614
-0.27208871 -0.26155192 0.061891958
-0.27229127 -0.26152411 0.061912909
-0.2725172 -0.26150352 0.061858773
-0.27274317 -0.2614851 0.061788484
-0.27295721 -0.26146206 0.061763249
-0.27315179 -0.26143137 0.061813068
-0.27337494 -0.26141018 0.061765864
-0.27358261 -0.26138484 0.061763719
-0.27380762 -0.26136467 0.061707292
-0.27402043 -0.26134166 0.0616832
-0.27422613 -0.26131579 0.061686844
-0.27442911 -0.26128885 0.061700866
-0.27464411 -0.26126495 0.06168139
-0.27486217 -0.26124454 0.06163305
-0.27506196 -0.26121643 0.061658636
-0.27527568 -0.26119441 0.061626472
-0.27549079 -0.26117095 0.061603531
-0.27568749 -0.26114166 0.061640665
-0.27591112 -0.26112214 0.061580762
-0.27611586 -0.26109654 0.061583251
-0.27633518 -0.26107752 0.061523378
-0.27653474 -0.26104978 0.061546654
-0.27674961 -0.26102683 0.061520252
-0.27695087 -0.26099995 0.06153544
-0.27716064 -0.26097482 0.06152983
-0.27738231 -0.26095754 0.061454952
-0.27759448 -0.26093599 0.061420493
-0.2778101 -0.2609162 0.061369866
-0.27801678 -0.26089007 0.061374646
-0.27820954 -0.26085955 0.061424486
-0.27842861 -0.26083949 0.061372682
-0.27863222 -0.26081434 0.061372865
-0.27884358 -0.26079306 0.061337262
-0.2790527 -0.2607708 0.061310887
-0.27928868 -0.26075971 0.061177112
-0.27946973 -0.26072365 0.061278909
-0.27967289 -0.26069871 0.061277948
-0.27988479 -0.26067829 0.061235406
-0.28009415 -0.2606543 0.061221726
-0.28029692 -0.26062942 0.06122075
-0.2805101 -0.2606076 0.061187439
-0.28070736 -0.26057997 0.061211877
-0.28091431 -0.2605575 0.061188973
-0.2811164 -0.26053256 0.061189175
-0.28134087 -0.26051727 0.061096974
-0.28154448 -0.26049334 0.061087932
-0.28174773 -0.26046935 0.061080039
-0.28194717 -0.2604433 0.06109063
-0.28214756 -0.26041529 0.061115053
-0.28233311 -0.26039684 0.061081871
-0.28256813 -0.26037312 0.061042689
-0.28276452 -0.26034561 0.061067127
-0.28296664 -0.26032141 0.061061554
-0.28314042 -0.2603018 0.061048027
-0.28341457 -0.2602936 0.060857557
-0.28360415 -0.2602624 0.060915478
-0.28380528 -0.2602354 0.06093182
-0.28400779 -0.26021191 0.060920484
-0.28421518 -0.26018879 0.060902193
-0.28442061 -0.2601673 0.060873531
-0.28461111 -0.26013398 0.060946442
-0.28482133 -0.26011562 0.060890071
-0.28502613 -0.26009127 0.060883328
-0.28523511 -0.26007244 0.060831584
-0.28544229 -0.26004982 0.060809836
-0.28565872 -0.26003614 0.060713068
-0.28585547 -0.26000702 0.060749047
-0.28605425 -0.25997919 0.060773466
-0.28626066 -0.25995651 0.06075288
-0.28646541 -0.25993571 0.060719609
-0.28667775 -0.25991726 0.06066208
-0.2868723 -0.25988981 0.060687676
-0.28705284 -0.25985569 0.06077563
-0.28721556 -0.25984222 0.060726412
-0.28748053 -0.25983998 0.060500223
-0.28768829 -0.25980082 0.060600739
-0.28788936 -0.25977519 0.060606703
-0.28807768 -0.25974354 0.060669243
-0.28829905 -0.25973284 0.060545929
-0.28849307 -0.25970542 0.060571529
-0.28868219 -0.25967756 0.060605228
-0.28885531 -0.25966656 0.060528278
-0.28911442 -0.25964347 0.060462452
-0.28931111 -0.25961837 0.060468435
-0.28951523 -0.25959581 0.060449004
-0.28970516 -0.2595655 0.060500003
-0.28987479 -0.25953582 0.06056495
-0.29010543 -0.25951776 0.060487717
-0.29031348 -0.25949875 0.060438287
-0.29049739 -0.25947043 0.060480081
-0.29072487 -0.25946084 0.060342893
-0.29093015 -0.25944355 0.060283087
-0.29112411 -0.25941336 0.06032946
-0.29131892 -0.25938386 0.06037005
-0.29153183 -0.25937 0.06027792
-0.2917282 -0.25934559 0.060279287
-0.29193538 -0.25932714 0.060226399
-0.29212987 -0.25930125 0.060240462
-0.29232419 -0.25927147 0.060283363
-0.29249203 -0.25924763 0.060306791
-0.29265442 -0.25923017 0.060287558
-0.29293823 -0.25921491 0.060140871
-0.29313356 -0.25918627 0.060174547
-0.29332989 -0.25916249 0.060171306
-0.29350218 -0.25913528 0.060215473
-0.29368001 -0.25911748 0.060184635
-0.29387435 -0.25909191 0.0601964
-0.29408047 -0.25907001 0.060170036
-0.29430711 -0.25906098 0.060029395
-0.29451174 -0.25902966 0.060074549
-0.2946896 -0.25901684 0.060006805
-0.29492676 -0.25898585 0.060019515
-0.29511586 -0.25895083 0.060106274
-0.29531777 -0.25893399 0.060046494
-0.29552543 -0.25891936 0.059964761
-0.29571664 -0.25888658 0.060033053
-0.29592201 -0.25886974 0.059969787
-0.29612246 -0.25885212 0.059916928
-0.29632068 -0.25882748 0.059918284
-0.29651287 -0.25880048 0.059942756
-0.29671353 -0.25877878 0.059919879
-0.29691562 -0.25876391 0.059845094
-0.29710305 -0.2587361 0.059879962
-0.29730302 -0.25870907 0.05989746
-0.29750648 -0.25869155 0.059841126
-0.29770079 -0.25866753 0.059841353
-0.29790008 -0.25864494 0.059826568
-0.29810128 -0.25862506 0.059789851
-0.29830119 -0.25860363 0.059765827
-0.29849741 -0.25858265 0.059741821
-0.29869211 -0.25855422 0.059774347
-0.2988902 -0.25853613 0.059727259
-0.2990931 -0.25851962 0.059664018
-0.29926988 -0.25849929 0.05965279
-0.29948461 -0.25847203 0.059658688
-0.29964826 -0.25843778 0.059762865
-0.29987973 -0.25842428 0.059651032
-0.30007768 -0.25841334 0.059550896
-0.30027699 -0.25838655 0.05956725
-0.30047074 -0.25836322 0.059562862
-0.30064175 -0.25834054 0.059574731
-0.30084822 -0.25831938 0.059542611
-0.30106148 -0.25829694 0.059513912
-0.301256 -0.25827539 0.05949568
-0.30145401 -0.2582534 0.059477437
-0.30165163 -0.25823084 0.059463814
-0.30184147 -0.25819388 0.059564404
-0.30200529 -0.25816491 0.059629373
-0.30216634 -0.25814515 0.059628606
-0.30236796 -0.25814554 0.059440792
-0.30257469 -0.25813445 0.059333682
-0.30280462 -0.25812519 0.059191871
-0.30300942 -0.25810346 0.059165515
-0.30320075 -0.25806895 0.059246495
-0.30338493 -0.25806856 0.059080675
-0.30358097 -0.25805333 0.059013993
-0.30376813 -0.25799137 0.059302621
-0.30399403 -0.25797576 0.059211578
-0.30418831 -0.25793809 0.059313308
-0.30439016 -0.25791904 0.059269674
-0.30457637 -0.25788873 0.059324149
-0.3047837 -0.25787494 0.059236653
-0.3049708 -0.25784686 0.05927382
-0.30515841 -0.2578308 0.059221026
-0.30532873 -0.25781876 0.059154462
-0.305525 -0.2577962 0.059141994
-0.30576017 -0.25776827 0.059133954
-0.30592898 -0.25774071 0.059183903
-0.30614337 -0.25771734 0.059160963
-0.30632639 -0.25770032 0.059119724
-0.30651084 -0.25767565 0.059133835
-0.30670375 -0.25765523 0.059108697
-0.30689299 -0.25763497 0.059085883
-0.3071079 -0.25761509 0.059036408
-0.30731294 -0.25758511 0.059071194
-0.30750915 -0.25756428 0.05904603
-0.30769494 -0.25754616 0.059010547
-0.30789372 -0.25752082 0.059016522
-0.30808759 -0.25748879 0.059076726
-0.30824795 -0.25747159 0.059057504
-0.30843812 -0.25745896 0.058977012
-0.30863291 -0.25745383 0.05883652
-0.30886343 -0.25742492 0.058840036
-0.30906847 -0.25739431 0.058879431
-0.30926353 -0.25736943 0.058885422
-0.30943432 -0.25735235 0.058855768
-0.30962303 -0.25733539 0.058808733
-0.30980793 -0.25731736 0.058773246
-0.31003428 -0.25728321 0.058819462
-0.31023312 -0.25726143 0.058798902
-0.3104032 -0.25723884 0.058810778
-0.31061664 -0.25722352 0.058729019
-0.31081498 -0.25719607 0.058751151
-0.31100288 -0.25717345 0.058746789
-0.31119421 -0.25714764 0.058763184
-0.31135729 -0.25712702 0.058767017
-0.31158432 -0.25711092 0.058678277
-0.31173313 -0.25708863 0.058707558
-0.31193519 -0.25705406 0.058779258
-0.31210873 -0.25704658 0.058675781
-0.31231731 -0.25703913 0.05853983
-0.31252673 -0.25699806 0.058653023
-0.31271446 -0.25697595 0.058645204
-0.31292334 -0.25695261 0.058626909
-0.31312451 -0.25693974 0.058538288
-0.3133193 -0.25691473 0.058545433
-0.31350449 -0.25687957 0.058636826
-0.31367368 -0.25686812 0.05856682
-0.31388474 -0.25685602 0.058463156
-0.31408697 -0.2568267 0.058495641
-0.31428853 -0.25680399 0.058479685
-0.31448972 -0.25678363 0.05844643
-0.31468344 -0.25676638 0.058397062
-0.31486857 -0.25673637 0.05845039
-0.315074 -0.25671053 0.058454022
-0.31525436 -0.25668946 0.058445089
-0.31543934 -0.25666177 0.058481116
-0.31563473 -0.25663468 0.058503263
-0.31584117 -0.25660452 0.058538035
-0.31603035 -0.25659141 0.058462158
-0.31619161 -0.25657922 0.058404874
-0.31637073 -0.2565636 0.058356725
-0.31656381 -0.25654659 0.058306213
-0.31675532 -0.25653565 0.05821187
-0.31696531 -0.25650489 0.058247775
-0.31716979 -0.2564826 0.058226038
-0.31735614 -0.25646392 0.058194011
-0.31753263 -0.25644365 0.058182783
-0.31772435 -0.25641778 0.058199178
-0.3179509 -0.25637832 0.058284603
-0.31811336 -0.25637096 0.058190405
-0.31830189 -0.25634485 0.058211412
-0.31849337 -0.256331 0.058138993
-0.31867909 -0.25631347 0.05809889
-0.31889328 -0.25629184 0.058063265
-0.31909016 -0.25627109 0.058036946
-0.31927398 -0.25624898 0.058032617
-0.31946102 -0.25622725 0.058022499
-0.31964752 -0.25620702 0.058001999
-0.31984141 -0.25618508 0.057987232
-0.32003397 -0.2561664 0.057949409
-0.32021305 -0.25614768 0.05792433
-0.32040659 -0.2561264 0.057904948
-0.32060885 -0.25610036 0.057913214
-0.32082799 -0.25606629 0.057965234
-0.32100889 -0.25605106 0.057912469
-0.32118011 -0.25604233 0.057820529
-0.321381 -0.25601208 0.05786109
-0.32157767 -0.25598407 0.057888992
-0.32177475 -0.25596234 0.057869598
-0.32197908 -0.25593942 0.057852477
-0.32215804 -0.25592074 0.057827402
-0.32236269 -0.25589049 0.057864487
-0.32256156 -0.2558718 0.057820868
-0.32274836 -0.25585073 0.057806134
-0.3229354 -0.25582919 0.057794858
-0.32312596 -0.25580114 0.057828553
-0.32330531 -0.25579387 0.057718121
-0.32348087 -0.25578707 0.057607707
-0.3236644 -0.25577155 0.057554927
-0.32385406 -0.25575665 0.057491742
-0.32404864 -0.25573307 0.057488501
-0.32425147 -0.25570101 0.057540596
-0.32445106 -0.25566921 0.05759386
-0.32464275 -0.25564536 0.057595249
-0.32483259 -0.25562999 0.057535525
-0.32502481 -0.25561059 0.057503462
-0.3252157 -0.25558808 0.057495635
-0.32539308 -0.25558171 0.057380594
-0.32559574 -0.25555092 0.057423461
-0.32580587 -0.25551891 0.057468601
-0.32600445 -0.25548986 0.057502259
-0.32618165 -0.25548318 0.057389528
-0.32638463 -0.25545734 0.057395481
-0.32657918 -0.25543439 0.057387631
-0.3267855 -0.25540394 0.057424709
-0.32696295 -0.25539163 0.057353508
-0.32714662 -0.25537497 0.057308804
-0.32736894 -0.25533152 0.057427697
-0.32758003 -0.25531292 0.057372484
-0.32773212 -0.25530404 0.057299089
-0.32793435 -0.25527966 0.057294667
-0.32811016 -0.25526476 0.057244234
-0.3282989 -0.2552413 0.057245638
-0.32848963 -0.25521943 0.057233196
-0.32867432 -0.25520125 0.057198867
-0.32887807 -0.25516692 0.0572671
-0.32905641 -0.25515279 0.057208579
-0.32926795 -0.25510508 0.057369061
-0.32946622 -0.25507036 0.057445385
-0.32966208 -0.25504678 0.057440996
-0.32986906 -0.25500971 0.057526521
-0.33005238 -0.25501299 0.057334173
-0.33023244 -0.25500441 0.057232969
-0.33044013 -0.25497812 0.057237741
-0.33064237 -0.25495827 0.057199873
-0.33082953 -0.25493002 0.057238199
-0.3310146 -0.25491166 0.057205021
-0.33121327 -0.25488865 0.057193689
-0.33140686 -0.25487143 0.057144322
-0.33159965 -0.25484791 0.05714225
-0.33178774 -0.25482264 0.057157502
-0.33197778 -0.25480926 0.05708278
-0.3321642 -0.2547859 0.05708535
-0.33237037 -0.25475499 0.057125892
-0.33255854 -0.25474012 0.057063863
-0.33276623 -0.25471789 0.057038646
-0.33294255 -0.25470543 0.056969758
-0.33312902 -0.25468221 0.05697117
-0.33333179 -0.25466183 0.056936756
-0.33351797 -0.2546455 0.056887425
-0.33371672 -0.25461954 0.056898009
-0.3339133 -0.25459588 0.056893617
-0.33409503 -0.25457141 0.056908898
-0.3342869 -0.25454628 0.056919515
-0.33446756 -0.25453857 0.056811385
-0.33466434 -0.25451177 0.056830056
-0.33487391 -0.2544879 0.056815214
-0.33507666 -0.25446162 0.056824632
-0.3352606 -0.2544384 0.056828376
-0.33544916 -0.25441387 0.056837857
-0.33564183 -0.25439441 0.056805789
-0.33582705 -0.25438192 0.05672878
-0.33602366 -0.25435871 0.056720927
-0.33622214 -0.25432518 0.056788027
-0.33640385 -0.25429869 0.056818306
-0.33658966 -0.25428846 0.056723997
-0.33680001 -0.25426155 0.056731068
-0.33700001 -0.25423279 0.056761261
-0.33718991 -0.25421602 0.056711905
-0.33736387 -0.25420508 0.056633797
-0.33755046 -0.25418839 0.056586772
-0.337751 -0.25415942 0.056618109
-0.33794478 -0.25413918 0.056590658
-0.33813933 -0.25411561 0.056587424
-0.33834669 -0.25408909 0.05659451
-0.33852637 -0.25407836 0.05650945
-0.33872283 -0.25404802 0.056554653
-0.33890355 -0.25403377 0.05649497
-0.33909726 -0.25401372 0.056466356
-0.33931345 -0.25398266 0.056498785
-0.33949924 -0.25395909 0.056503661
-0.33968267 -0.25394511 0.056439355
-0.33987093 -0.25392714 0.056400392
-0.34005648 -0.25390887 0.05636606
-0.34025744 -0.2538856 0.056354716
-0.34045464 -0.25385797 0.056379154
-0.34064305 -0.25383747 0.056358643
-0.3408542 -0.25380626 0.056396853
-0.34104735 -0.25379187 0.056326736
-0.34123871 -0.25376436 0.056355808
-0.34145063 -0.25374004 0.056342106
-0.3416447 -0.25371778 0.056329649
-0.34180906 -0.25371143 0.056226216
-0.34198621 -0.2536951 0.056184992
-0.34222659 -0.25364915 0.05630612
-0.3424207 -0.25363633 0.056223303
-0.34259856 -0.25361496 0.056218989
-0.34282845 -0.25357977 0.056269802
-0.34300601 -0.2535679 0.056195132
-0.34319952 -0.25354865 0.056160763
-0.34339681 -0.2535176 0.05621057
-0.34358266 -0.2534996 0.056173928
-0.34375072 -0.25349465 0.05605663
-0.34396768 -0.25346056 0.056110963
-0.34416398 -0.25343943 0.056088112
-0.34436733 -0.25340888 0.056128662
-0.34455705 -0.25339475 0.056059711
-0.34475961 -0.25337142 0.056047212
-0.34494677 -0.25335047 0.056031328
-0.34513766 -0.25333124 0.055999268
-0.34535354 -0.25329015 0.056106664
-0.34556079 -0.25326595 0.056096457
-0.3457475 -0.25324768 0.056060959
-0.34592143 -0.25322989 0.056033596
-0.3461161 -0.25320616 0.056031525
-0.34629932 -0.25320074 0.05590377
-0.34649628 -0.2531755 0.0559109
-0.34667382 -0.25316146 0.055852383
-0.34687412 -0.2531361 0.0558572
-0.34709695 -0.25310782 0.055863053
-0.34731144 -0.25307915 0.055879332
-0.34752151 -0.25305957 0.0558322
-0.34769997 -0.25303301 0.055865951
-0.34787911 -0.25302002 0.055798195
-0.34810123 -0.25298265 0.055872113
-0.34828565 -0.25297415 0.05576627
-0.34846091 -0.25295389 0.055756204
-0.34867683 -0.25292677 0.055759791
-0.34886137 -0.25290644 0.055741608
-0.34907976 -0.25288367 0.055710584
-0.34927729 -0.25286469 0.055670425
-0.34948367 -0.25283051 0.055735186
-0.34965611 -0.25281617 0.055683613
-0.34984154 -0.25280118 0.055625055
-0.35006234 -0.25277328 0.055629767
-0.35027122 -0.2527436 0.055658761
-0.35045433 -0.25273013 0.055590987
-0.35064983 -0.25270522 0.055596977
-0.35082081 -0.25269556 0.055511966
-0.3510561 -0.25265908 0.055567358
-0.35123086 -0.2526471 0.055496167
-0.35140914 -0.2526311 0.05545149
-0.35162157 -0.25259975 0.055489693
-0.35184088 -0.25256616 0.055538248
-0.35200959 -0.2525633 0.055404805
-0.35220605 -0.25253823 0.05541078
-0.35242134 -0.25250375 0.055469733
-0.3526299 -0.2524752 0.055490658
-0.35283235 -0.25245747 0.05543663
-0.35303751 -0.25243461 0.055418354
-0.35324559 -0.2524066 0.055435821
-0.35342592 -0.25239673 0.055343837
-0.35363197 -0.25237176 0.055340551
-0.35382307 -0.2523469 0.055350021
-0.3540175 -0.25232536 0.055331793
-0.35421962 -0.25230628 0.055288147
-0.35443166 -0.25227639 0.055315971
-0.35462505 -0.25225559 0.055293143
-0.35481751 -0.25223365 0.055279531
-0.35502911 -0.25220427 0.055303901
-0.35519239 -0.25220582 0.055142798
-0.35543722 -0.25216272 0.055238523
-0.35566711 -0.25212657 0.055296246
-0.35583109 -0.25211933 0.055199731
-0.35600841 -0.25210953 0.055110075
-0.35627657 -0.25204897 0.055314109
-0.3564128 -0.25206378 0.055079304
-0.35662568 -0.25203097 0.055127889
-0.35679582 -0.25202513 0.055015191
-0.35700557 -0.25199908 0.055016506
-0.35721153 -0.25197193 0.055029366
-0.35741362 -0.25195023 0.055005334
-0.35759503 -0.25193822 0.054928344
-0.35781461 -0.25190708 0.054958433
-0.35803732 -0.25187275 0.055009283
-0.35823211 -0.25185519 0.054961063
-0.35845608 -0.25182042 0.055014208
-0.35864955 -0.25180364 0.054961383
-0.35884529 -0.25178412 0.054926991
-0.35905749 -0.25175744 0.054930594
-0.35925573 -0.25173667 0.054903124
-0.35945332 -0.25171787 0.054861814
-0.35968602 -0.25167906 0.054936834
-0.35988778 -0.25165817 0.054907031
-0.36009747 -0.2516301 0.054923333
-0.36029673 -0.25161216 0.054873943
-0.36048517 -0.25159678 0.054815374
-0.36070031 -0.25156912 0.05482357
-0.36088258 -0.25155702 0.054746576
-0.36110556 -0.25152543 0.054776661
-0.3613134 -0.25150025 0.054773368
-0.36151329 -0.25148067 0.054735497
-0.36171222 -0.25146013 0.054705713
-0.36194015 -0.2514264 0.054747313
-0.36212599 -0.2514126 0.054679528
-0.36234748 -0.25138232 0.054701529
-0.2547088 -0.26352665 0.063153982
-0.25488195 -0.26348722 0.063288078
-0.25512618 -0.26346469 0.063231573
-0.25538632 -0.26344609 0.063131168
-0.25558624 -0.26343119 0.063058734
-0.25581336 -0.26338685 0.063179895
-0.25602204 -0.26335612 0.063216954
-0.25625634 -0.26333168 0.063183554
-0.25650465 -0.2633124 0.063099355
-0.25668395 -0.26327455 0.063216127
-0.25694036 -0.26325595 0.063119203
-0.25715941 -0.26322812 0.063125081
-0.25738612 -0.26320231 0.06310901
-0.25762782 -0.2631804 0.063050218
-0.25785273 -0.26315436 0.063037612
-0.25809458 -0.26313275 0.062976509
-0.25831857 -0.26310664 0.062965065
-0.25851685 -0.26307392 0.063026398
-0.25876784 -0.26305661 0.062924892
-0.25898314 -0.26302847 0.062936559
-0.25921741 -0.26300547 0.06289278
-0.25943351 -0.26297769 0.062900975
-0.26031598 -0.26287386 0.062863365
-0.26052997 -0.26284587 0.062875032
-0.2607896 -0.26283062 0.062750414
-0.260995 -0.26280043 0.062786341
-0.26120105 -0.26277047 0.062819965
-0.26256374 -0.2626299 0.062615171
-0.26276267 -0.26259834 0.062667273
-0.26298055 -0.26257238 0.062660471
-0.26321203 -0.26255217 0.062598258
-0.26344454 -0.26253077 0.062544115
-0.26364741 -0.26250058 0.062582359
-0.2638838 -0.26248059 0.062514365
-0.26410928 -0.2624574 0.062479854
-0.26430193 -0.26242429 0.062549278
-0.26454324 -0.26240614 0.062462799
-0.26474866 -0.26237705 0.062490661
-0.26496679 -0.26235369 0.062464263
-0.2651954 -0.26233199 0.062415894
-0.26542902 -0.262312 0.062350217
-0.26560241 -0.26227301 0.062480856
-0.26584157 -0.26225498 0.062395535
-0.2660901 -0.26224017 0.062277898
-0.26629055 -0.26220998 0.062318463
-0.26649788 -0.26218203 0.062335931
-0.26671493 -0.26215911 0.062307224
-0.26693293 -0.26213485 0.062287748
-0.26715001 -0.26211035 0.062270574
-0.26739374 -0.26209489 0.062162179
-0.26760086 -0.26206729 0.062177345
-0.26778838 -0.26203308 0.062259477
-0.26803216 -0.26201805 0.062147617
-0.2682482 -0.26199371 0.062130459
-0.2684598 -0.26196977 0.062114459
-0.26867014 -0.26194364 0.062115774
-0.26887181 -0.26191452 0.062147103
-0.26909596 -0.26189336 0.062098768
-0.26928964 -0.26186153 0.06215781
-0.26950657 -0.26183799 0.062133718
-0.26972073 -0.26181358 0.062118866
-0.26992959 -0.2617873 0.062122494
-0.27014756 -0.26176444 0.062092632
-0.27034944 -0.26173577 0.062120505
-0.27056062 -0.26171249 0.062099896
-0.27078238 -0.2616913 0.062053874
-0.27099013 -0.26166505 0.062058665
-0.27122882 -0.26165047 0.061947986
-0.27143988 -0.26162565 0.061938908
-0.27165753 -0.26160344 0.061904438
-0.27188015 -0.26158327 0.061850339
-0.27208057 -0.2615546 0.061879378
-0.27229428 -0.26153117 0.0618576
-0.27251679 -0.26151133 0.061801203
-0.27272588 -0.26148626 0.061795592
-0.27293241 -0.2614603 0.061799232
-0.27314237 -0.26143575 0.061789006
-0.27334306 -0.26140755 0.06181458
-0.27354628 -0.26138043 0.061829761
-0.27377364 -0.26136324 0.061749123
-0.27399686 -0.26134452 0.061683487
-0.27419904 -0.26131722 0.061700985
-0.27440226 -0.2612904 0.061713856
-0.27460486 -0.26126337 0.061729036
-0.27482888 -0.26124549 0.061656486
-0.27503935 -0.26122198 0.061638195
-0.27524784 -0.2611956 0.061642975
-0.27546966 -0.26117724 0.061576195
-0.27567762 -0.26115295 0.06156598
-0.27589345 -0.26113218 0.061522298
-0.27606025 -0.26108983 0.061684094
-0.27629083 -0.26107579 0.061576918
-0.27651179 -0.26105767 0.061508991
-0.27672544 -0.26103643 0.061471075
-0.27693278 -0.2610102 0.061475862
-0.27713698 -0.26098481 0.061477203
-0.27735698 -0.26096681 0.061409269
-0.27753383 -0.26092881 0.06152951
-0.27775857 -0.26091999 0.061388917
-0.27795902 -0.26088637 0.061454855
-0.27817985 -0.26086703 0.061396148
-0.27838048 -0.26084039 0.061410189
-0.27860782 -0.26082677 0.061303023
-0.27880558 -0.26079893 0.061328609
-0.27900684 -0.26077282 0.061338041
-0.27922028 -0.26075283 0.061290901
-0.27942303 -0.26072761 0.061292253
-0.27962792 -0.26070356 0.061283208
-0.27985066 -0.26068631 0.061207198
-0.28005838 -0.26066393 0.061183147
-0.28026661 -0.26064193 0.061155647
-0.28046095 -0.26061279 0.061193936
-0.28066814 -0.26058796 0.061188333
-0.28087074 -0.26056325 0.06118622
-0.28107631 -0.26054019 0.061169103
-0.28127772 -0.260515 0.061171614
-0.2814891 -0.26049277 0.061142929
-0.28169864 -0.26047218 0.061103888
-0.28190637 -0.26045072 0.061072923
-0.28211114 -0.26042774 0.061055817
-0.28230196 -0.26039702 0.061109103
-0.28250316 -0.26037216 0.061109304
-0.28271115 -0.26034865 0.061093323
-0.28292215 -0.26032957 0.06104159
-0.28315213 -0.26032171 0.060889442
-0.2833426 -0.26029101 0.060942732
-0.28351516 -0.260263 0.060992658
-0.28376108 -0.26024926 0.060869262
-0.28396714 -0.26022801 0.060838297
-0.28416082 -0.26019943 0.060873128
-0.28436038 -0.26017165 0.060896404
-0.28456309 -0.26014864 0.060881607
-0.28477591 -0.26013198 0.060810257
-0.28496161 -0.26010686 0.06082667
-0.28517216 -0.26007789 0.060848735
-0.2853426 -0.26005435 0.060867541
-0.2855294 -0.26004136 0.060792852
-0.28576499 -0.26002315 0.060712166
-0.28598881 -0.25998884 0.060761847
-0.28616849 -0.25996584 0.060767919
-0.28634766 -0.25993672 0.06082011
-0.28658614 -0.2599152 0.060761318
-0.28680047 -0.25989822 0.060691126
-0.28699973 -0.25987405 0.06068787
-0.28719077 -0.25984424 0.06073425
-0.28735745 -0.25981554 0.060794577
-0.28759211 -0.25982261 0.060527079
-0.28781611 -0.2597889 0.060572147
-0.28801444 -0.25976455 0.060571216
-0.28821415 -0.25974128 0.060561039
-0.28840438 -0.25971109 0.060610883
-0.28860879 -0.25969142 0.060569551
-0.2888158 -0.25967067 0.060533971
-0.28901845 -0.25964999 0.060501881
-0.28921431 -0.25962424 0.060513634
-0.28938577 -0.25959605 0.060565874
-0.28955901 -0.25957912 0.060532756
-0.28978217 -0.25957501 0.060358729
-0.2900148 -0.25953186 0.060466029
-0.29022217 -0.25951573 0.060395855
-0.29040459 -0.2595 0.060345411
-0.29058957 -0.25946239 0.060455233
-0.29080471 -0.25943923 0.060429998
-0.29100773 -0.25942007 0.060386375
-0.29118261 -0.25939843 0.060386695
-0.29138738 -0.25937393 0.060381114
-0.29158339 -0.25935996 0.060305234
-0.29181519 -0.25933024 0.060313363
-0.29200163 -0.25929713 0.060388587
-0.29220778 -0.25928161 0.060314957
-0.29240751 -0.25926051 0.060288645
-0.29259485 -0.25923952 0.060272761
-0.2927728 -0.2592175 0.060273074
-0.29298386 -0.25920743 0.06015446
-0.29318118 -0.25917685 0.060200796
-0.29335821 -0.2591503 0.060235713
-0.29356641 -0.2591342 0.060164385
-0.29380143 -0.25910458 0.060169034
-0.29400668 -0.2590901 0.060088493
-0.29420662 -0.25907052 0.060050655
-0.29439616 -0.25904045 0.060100488
-0.29459378 -0.25901866 0.060081106
-0.29478478 -0.25899428 0.060087115
-0.29500252 -0.25898555 0.059952322
-0.29519352 -0.25895715 0.059988316
-0.29538709 -0.25893152 0.060001239
-0.29559234 -0.25891438 0.059940305
-0.29578444 -0.25888723 0.059965916
-0.29592767 -0.2588591 0.060043655
-0.29616216 -0.25884849 0.059907626
-0.29637653 -0.25881952 0.059926212
-0.29656801 -0.25879648 0.059921846
-0.29677317 -0.25877565 0.05988859
-0.29696923 -0.2587536 0.059872665
-0.29716024 -0.25872535 0.059907507
-0.29735419 -0.25870076 0.059912354
-0.2975525 -0.25867671 0.059909113
-0.29774836 -0.25865981 0.059855137
-0.29794979 -0.2586402 0.059816133
-0.29814807 -0.25862178 0.059771374
-0.29832271 -0.25860342 0.059747487
-0.29854384 -0.25857922 0.059724528
-0.29874098 -0.25855985 0.059687845
-0.29892337 -0.2585308 0.059736572
-0.29912034 -0.25851142 0.059699886
-0.29933032 -0.25849432 0.05963432
-0.29951626 -0.25847057 0.059640363
-0.29967928 -0.25843552 0.059751444
-0.29987004 -0.25841907 0.059698641
-0.30006987 -0.25841722 0.059529342
-0.30028063 -0.25837797 0.059627514
-0.30044347 -0.25836077 0.059605982
-0.30064407 -0.25833616 0.059605032
-0.30086654 -0.25831616 0.059549782
-0.30104873 -0.2582798 0.059652708
-0.30123529 -0.25827104 0.05954688
-0.30147025 -0.25824684 0.059511177
-0.30167362 -0.25822794 0.059465244
-0.30186993 -0.25820321 0.059468925
-0.3020615 -0.25817674 0.059489928
-0.30224389 -0.25815451 0.059487909
-0.30243918 -0.2581355 0.059450082
-0.30264938 -0.25811622 0.059400663
-0.30281839 -0.2580902 0.059439063
-0.30301261 -0.25806138 0.059475049
-0.30319494 -0.2580477 0.059409611
-0.30339932 -0.25803334 0.059329078
-0.30361226 -0.25800455 0.059347671
-0.30379823 -0.25799182 0.059271839
-0.30400321 -0.25796214 0.059304304
-0.3041873 -0.25794545 0.059259612
-0.30439186 -0.25792423 0.05922981
-0.30459434 -0.25789779 0.059240386
-0.30476362 -0.2578823 0.05920038
-0.30496132 -0.25785306 0.05923634
-0.30515465 -0.25783244 0.059212361
-0.30534646 -0.25780749 0.059221834
-0.30554086 -0.25779045 0.059170179
-0.30574366 -0.25776541 0.059170365
-0.30593991 -0.25774318 0.059155606
-0.30612281 -0.25771344 0.059208933
-0.30629066 -0.25769499 0.059191998
-0.30650944 -0.25767466 0.059142523
-0.30672029 -0.25765282 0.059111543
-0.30688769 -0.25763351 0.059101529
-0.30709141 -0.257613 0.059067119
-0.30730647 -0.25759467 0.05900614
-0.30749792 -0.25756961 0.059016764
-0.30769041 -0.25754926 0.058991637
-0.30787402 -0.25752142 0.059029974
-0.30806759 -0.25750697 0.058959872
-0.3082304 -0.2574842 0.058979854
-0.3084546 -0.25745979 0.058955736
-0.3086555 -0.25742611 0.059021663
-0.30882716 -0.25741312 0.058960885
-0.30904061 -0.25739047 0.058933347
-0.30923674 -0.25737354 0.058879383
-0.30940786 -0.25735953 0.058826681
-0.30958915 -0.25734147 0.058794688
-0.30981201 -0.25730929 0.058829375
-0.30999374 -0.25729677 0.058755871
-0.31017026 -0.25726718 0.058813844
-0.31038681 -0.25724447 0.058783986
-0.31057829 -0.25722191 0.058776166
-0.31076276 -0.25720298 0.058747619
-0.31095782 -0.2571826 0.058720171
-0.31114185 -0.25715381 0.058765419
-0.31135452 -0.25712955 0.058750577
-0.31154588 -0.25710621 0.058748517
-0.31171951 -0.25708306 0.058761537
-0.31190729 -0.25706714 0.058707602
-0.31208798 -0.25704479 0.0587079
-0.31227535 -0.25703889 0.058580168
-0.3124775 -0.25700274 0.058663383
-0.31267574 -0.25697994 0.058650915
-0.31285962 -0.2569631 0.058607385
-0.31304389 -0.25693816 0.058623802
-0.31322783 -0.25691822 0.058603331
-0.31341538 -0.25689659 0.058592066
-0.31361637 -0.25688124 0.058521919
-0.31385365 -0.25685039 0.058533482
-0.31403789 -0.25682622 0.058544144
-0.3142038 -0.25680992 0.058513373
-0.31440905 -0.25678486 0.05851125
-0.314585 -0.25677073 0.058455065
-0.31478289 -0.25674814 0.058441442
-0.31496301 -0.2567282 0.05842445
