# .PCD v0.7 - Point Cloud Data file format
VERSION 0.7
FIELDS x y z
SIZE 4 4 4
TYPE F F F
COUNT 1 1 1
WIDTH 1269
HEIGHT 1
VIEWPOINT 0 0 0 1 0 0 0
POINTS 1269
DATA ascii
-0.29019326 -0.12931357 0.057384964
-0.29039431 -0.12923902 0.057370529
-0.29059553 -0.12916522 0.057350323
-0.29076329 -0.12911546 0.0572518
-0.29097092 -0.12903905 0.057232726
-0.29116878 -0.12895495 0.057293266
-0.29135919 -0.12888294 0.057289243
-0.29154345 -0.12881544 0.057270236
-0.29172736 -0.12874676 0.057260465
-0.29191169 -0.12867989 0.057236858
-0.29209453 -0.12860714 0.05725823
-0.29225847 -0.12854655 0.057245057
-0.29242653 -0.1284882 0.057205342
-0.29263896 -0.12841843 0.057127442
-0.29283246 -0.12834525 0.057123415
-0.29301453 -0.1282685 0.057174772
-0.29319978 -0.12820807 0.057103865
-0.29338324 -0.12813856 0.057101019
-0.29356208 -0.12806268 0.057154685
-0.29374939 -0.12799469 0.057131063
-0.29393247 -0.12792216 0.057150133
-0.29411104 -0.12786761 0.057056185
-0.29430085 -0.12779352 0.057068307
-0.29447845 -0.1277332 0.057017032
-0.29465488 -0.1276637 0.057032663
-0.29485196 -0.12759249 0.057005551
-0.29503542 -0.12752365 0.056998082
-0.29521859 -0.12745109 0.057017151
-0.29540229 -0.12738563 0.05698546
-0.29558575 -0.12731695 0.05697684
-0.29576963 -0.12725672 0.056908257
-0.29595283 -0.12718432 0.056926165
-0.29613635 -0.12711877 0.056895636
-0.29631966 -0.12704881 0.056896243
-0.29649976 -0.1269839 0.056870341
-0.29667318 -0.12692797 0.056799475
-0.29686645 -0.12684843 0.056840416
-0.29704976 -0.12678014 0.056829497
-0.29722986 -0.12670693 0.056861252
-0.2974129 -0.12665084 0.056766141
-0.29756594 -0.12660035 0.056711487
-0.29777941 -0.12651378 0.056747753
-0.29796275 -0.12644365 0.056749519
-0.29814667 -0.12636435 0.056813553
-0.29832637 -0.12630157 0.056773812
-0.2985101 -0.12622797 0.056798633
-0.29868945 -0.12616882 0.05673467
-0.29887533 -0.12610716 0.056670688
-0.2990554 -0.12603845 0.056671314
-0.29923889 -0.12596759 0.056677688
-0.29942161 -0.12590399 0.056635626
-0.29959172 -0.12583907 0.05663627
-0.29978383 -0.12577555 0.056568809
-0.29994789 -0.12570845 0.056600619
-0.30014068 -0.12563919 0.056571212
-0.30033344 -0.12556994 0.056541815
-0.30051273 -0.12550651 0.056507837
-0.30067998 -0.1254584 0.056398928
-0.30087832 -0.12537411 0.056459464
-0.30106118 -0.12530731 0.056439314
-0.30124092 -0.12524071 0.056426093
-0.30142266 -0.12517948 0.056370202
-0.30160767 -0.12510191 0.056419242
-0.3017818 -0.12503296 0.056437176
-0.30196512 -0.12496434 0.056428559
-0.30215287 -0.1249028 0.056358803
-0.30231881 -0.12484328 0.056332938
-0.30251852 -0.1247568 0.056405008
-0.30269805 -0.12469143 0.056383714
-0.30288398 -0.12462446 0.056356639
-0.30305123 -0.12455995 0.056361906
-0.30322894 -0.12449014 0.056376372
-0.30341664 -0.12443841 0.056238577
-0.30359653 -0.12438169 0.056156162
-0.30377528 -0.12431829 0.056123335
-0.30394167 -0.12424665 0.056180503
-0.30413607 -0.12417082 0.056192614
-0.3043254 -0.12410188 0.056170143
-0.30452123 -0.12402186 0.05620762
-0.30469871 -0.12396258 0.056149431
-0.30486113 -0.1238956 0.056184698
-0.30502915 -0.12383827 0.056138068
-0.30523148 -0.1237571 0.056166299
-0.30542821 -0.12368385 0.056154184
-0.30559137 -0.12362372 0.056139853
-0.30576521 -0.123566 0.056080524
-0.30594641 -0.12350365 0.056033857
-0.30614156 -0.1234194 0.05610247
-0.30630836 -0.12334993 0.056143496
-0.30650014 -0.12327526 0.056154463
-0.30668834 -0.12321687 0.05606164
-0.30686641 -0.12316217 0.055970002
-0.30705649 -0.12309164 0.055956755
-0.30721292 -0.12302744 0.05598858
-0.30741531 -0.12295453 0.05595915
-0.30760282 -0.12288364 0.055955127
-0.30778021 -0.12282324 0.055905014
-0.30797595 -0.12274009 0.055964407
-0.30815333 -0.12267969 0.055914283
-0.30833763 -0.12261616 0.055867609
-0.30849987 -0.12255837 0.055839449
-0.30866766 -0.12250046 0.055797435
-0.30887076 -0.12242015 0.055817589
-0.30904719 -0.12235563 0.055798613
-0.30922976 -0.12228414 0.055811904
-0.3094289 -0.12220683 0.055821694
-0.30959907 -0.12214968 0.05576814
-0.30975848 -0.12209214 0.055745754
-0.30994099 -0.12202646 0.055718686
-0.31013677 -0.12194015 0.055799991
-0.31029513 -0.12189528 0.055692267
-0.31049463 -0.12181784 0.055702053
-0.31068808 -0.12174684 0.055683032
-0.31086725 -0.12167249 0.055725172
-0.31108019 -0.12159044 0.055731453
-0.31124881 -0.12153585 0.05566407
-0.31143284 -0.12145318 0.055751167
-0.31158808 -0.12141316 0.055618081
-0.31173873 -0.12136674 0.055541512
-0.31192175 -0.12130038 0.055517912
-0.31211376 -0.12123208 0.0554839
-0.31232202 -0.12113573 0.055602062
-0.3125281 -0.1210571 0.055602606
-0.31272024 -0.12098892 0.055567432
-0.31288287 -0.1209396 0.055479307
-0.31305325 -0.12086844 0.055522621
-0.31326205 -0.12078563 0.055545066
-0.31341514 -0.12074326 0.055433899
-0.3136276 -0.12066304 0.055428654
-0.31379998 -0.12059759 0.055426992
-0.31398657 -0.12053417 0.055373386
-0.31415606 -0.12046932 0.055375189
-0.31433532 -0.12040123 0.055373508
-0.31453115 -0.12031938 0.05542367
-0.31472406 -0.12024626 0.05542079
-0.31489635 -0.12017753 0.055442188
-0.31508383 -0.12011676 0.055367827
-0.31526214 -0.12006595 0.05524851
-0.3154335 -0.11999491 0.055288363
-0.31562924 -0.11991027 0.055358134
-0.31582773 -0.11983687 0.055342555
-0.31602442 -0.11976612 0.055313136
-0.31619042 -0.11971454 0.055231918
-0.31636932 -0.11964775 0.055222161
-0.31655863 -0.11957683 0.055213526
-0.31671751 -0.119521 0.055180758
-0.3169167 -0.1194503 0.055144414
-0.31708688 -0.11938551 0.055143908
-0.3172816 -0.11930723 0.05517216
-0.31747255 -0.11923785 0.055148538
-0.31766933 -0.11916724 0.055117968
-0.31784645 -0.11910678 0.055069007
-0.31797338 -0.11907785 0.05493369
-0.31820464 -0.11898036 0.054998744
-0.31838721 -0.11890256 0.055055868
-0.3185547 -0.11885172 0.05496541
-0.318679 -0.11883558 0.05474823
-0.318939 -0.11870375 0.0549758
-0.3191362 -0.1186169 0.055057101
-0.31929675 -0.11856242 0.05501049
-0.31948805 -0.11849307 0.054985709
-0.31965831 -0.11843222 0.054957524
-0.31984562 -0.1183712 0.054885462
-0.32002056 -0.11830128 0.054908011
-0.32022446 -0.11821304 0.054981217
-0.32039964 -0.11815829 0.054897655
-0.32059777 -0.11809263 0.054829031
-0.32075638 -0.11804651 0.054729372
-0.32096466 -0.11795627 0.054804876
-0.32116005 -0.11787343 0.05486311
-0.32133514 -0.11781572 0.054800309
-0.32152283 -0.1177368 0.054851651
-0.32171857 -0.11766842 0.054808401
-0.32190409 -0.11759812 0.054805543
-0.32207456 -0.11754034 0.054755449
-0.32225496 -0.11747067 0.054761834
-0.32245734 -0.11739445 0.054755468
-0.32265452 -0.11732453 0.054719131
-0.3228296 -0.11726135 0.054694392
-0.32303172 -0.1171829 0.054704174
-0.32321912 -0.11711638 0.054670174
-0.32336289 -0.11707623 0.054568257
-0.32354319 -0.11700443 0.054589633
-0.32375497 -0.11691783 0.054630522
-0.32393888 -0.11685546 0.054576918
-0.32412505 -0.11677727 0.054627117
-0.32432061 -0.11670431 0.054616153
-0.32449704 -0.11664527 0.054559126
-0.32468814 -0.11657483 0.054542407
-0.32486257 -0.11651291 0.054510754
-0.32506067 -0.11643732 0.05451132
-0.32524511 -0.11636943 0.054494619
-0.3254106 -0.11630989 0.054469917
-0.32562369 -0.11622811 0.054473899
-0.32580835 -0.11615764 0.054474503
-0.32600564 -0.11608834 0.054433547
-0.32617438 -0.1160304 0.054389223
-0.32637948 -0.11594535 0.054437049
-0.32654968 -0.11588834 0.054382347
-0.32674596 -0.11581545 0.054369077
-0.32693917 -0.11574586 0.054340828
-0.32712266 -0.11567235 0.05436565
-0.32731488 -0.11559685 0.054381229
-0.32751825 -0.11552622 0.054333337
-0.32769138 -0.11546628 0.054291312
-0.32786396 -0.11540223 0.054279264
-0.32804966 -0.11533386 0.054262564
-0.32824025 -0.11525814 0.054283909
-0.32844982 -0.11517671 0.054294828
-0.32861528 -0.11512713 0.054200917
-0.32881004 -0.11504967 0.0542234
-0.32898748 -0.11499009 0.05416752
-0.32918265 -0.11491014 0.054206155
-0.32940724 -0.1148228 0.054218173
-0.3296015 -0.114753 0.054188762
-0.32976916 -0.11469232 0.054166354
-0.32995433 -0.1146185 0.054188874
-0.33015281 -0.11455339 0.05411562
-0.33031693 -0.11449638 0.054077078
-0.33051252 -0.11442107 0.054082267
-0.33071756 -0.11434086 0.054096647
-0.33090368 -0.11427514 0.054060344
-0.33109465 -0.11419614 0.054103598
-0.33127567 -0.11413766 0.054030415
-0.33146358 -0.11406397 0.054044843
-0.33165908 -0.11399353 0.054016586
-0.33182445 -0.11393769 0.053966507
-0.33202937 -0.11385404 0.054005109
-0.33221549 -0.11378865 0.053966492
-0.33242574 -0.11371043 0.053953189
-0.33260471 -0.11364992 0.053899601
-0.33278388 -0.11358718 0.053861018
-0.33295903 -0.11352017 0.053862799
-0.33315149 -0.11344491 0.053876072
-0.333359 -0.11336358 0.053891607
-0.33356416 -0.11329062 0.053855237
-0.33375478 -0.11322334 0.053817771
-0.33394194 -0.11315144 0.053821824
-0.33413392 -0.11308298 0.05378896
-0.33431891 -0.1130152 0.053769961
-0.33449948 -0.11294961 0.053747516
-0.33468869 -0.11287609 0.053757332
-0.33490434 -0.11279382 0.053757846
-0.33506271 -0.11274497 0.053677801
-0.33528733 -0.11264884 0.05375094
-0.33549237 -0.1125804 0.053683445
-0.33569285 -0.11250274 0.05369208
-0.33587253 -0.11243649 0.053676553
-0.3360675 -0.11236592 0.053650603
-0.33623955 -0.11230853 0.053593583
-0.33643863 -0.11223058 0.053607982
-0.33661559 -0.1121614 0.053620141
-0.33682096 -0.11208917 0.053578012
-0.33702263 -0.11201289 0.053573951
-0.33721891 -0.11193965 0.053562999
-0.33740747 -0.11187152 0.05353706
-0.33757669 -0.11181506 0.053481203
-0.33777165 -0.11173767 0.053502537
-0.33800259 -0.11164329 0.053546831
-0.33817646 -0.11158108 0.053518634
-0.3383652 -0.11151668 0.053466178
-0.3385798 -0.11144227 0.053414792
-0.3387838 -0.11135931 0.053451095
-0.33893588 -0.11131085 0.053384908
-0.33915052 -0.11122416 0.053418875
-0.33931607 -0.11116943 0.053360716
-0.33953804 -0.11108542 0.053356595
-0.24901082 -0.14765902 0.038959287
-0.2492224 -0.14759056 0.038874492
-0.24942406 -0.14752473 0.038797792
-0.24963275 -0.14745656 0.038718764
-0.24982765 -0.14738964 0.038667459
-0.25002092 -0.14732154 0.038628824
-0.25020897 -0.14725475 0.038594835
-0.25039467 -0.14718802 0.038566608
-0.25058308 -0.14712143 0.038530305
-0.25076166 -0.14705345 0.038529765
-0.25093845 -0.14698681 0.038524624
-0.25111139 -0.14692014 0.038529877
-0.25128585 -0.14685355 0.03853051
-0.25146013 -0.14678703 0.038531139
-0.25162983 -0.14672044 0.038544461
-0.25178969 -0.14665228 0.038594719
-0.25195557 -0.14658566 0.038618434
-0.25211376 -0.14651749 0.038673297
-0.25227189 -0.14645064 0.038718946
-0.25242653 -0.14638099 0.038793419
-0.25257239 -0.1463137 0.038874846
-0.25272155 -0.14624514 0.038956251
-0.25287148 -0.14617795 0.039026141
-0.2530196 -0.14610928 0.039111011
-0.25316271 -0.14604038 0.039210886
-0.2533083 -0.14597152 0.039303847
-0.25345349 -0.14590399 0.039388724
-0.25360274 -0.14583524 0.039471287
-0.25374001 -0.14576721 0.039580405
-0.25387722 -0.14569774 0.039699897
-0.25400648 -0.14562915 0.039834406
-0.25414008 -0.1455579 0.039975822
-0.25427145 -0.14549065 0.040095329
-0.25439948 -0.14541885 0.040255211
-0.25451839 -0.14534922 0.040424332
-0.25463647 -0.14527939 0.040596925
-0.25476208 -0.14520705 0.040767178
-0.25487047 -0.14513627 0.040972076
-0.25037408 -0.14399947 0.060798764
-0.2505863 -0.14392298 0.060768157
-0.25078121 -0.14384679 0.060781404
-0.25098813 -0.14377002 0.06076695
-0.25118312 -0.14369395 0.06077905
-0.25138411 -0.14361677 0.060783066
-0.25160488 -0.14354333 0.060708612
-0.25180012 -0.14346752 0.06071841
-0.25199556 -0.14339708 0.060690157
-0.25222427 -0.14331599 0.060647964
-0.2524001 -0.14324903 0.060647432
-0.25262615 -0.14316431 0.060637534
-0.25279742 -0.14309877 0.060639333
-0.25299147 -0.14303583 0.060562655
-0.25323051 -0.14294565 0.060556177
-0.25341827 -0.142875 0.060549844
-0.25364798 -0.14278938 0.060536474
-0.25385529 -0.14271393 0.060511649
-0.25404695 -0.14263666 0.060541049
-0.25426012 -0.14256212 0.060494293
-0.25444549 -0.14249155 0.060493745
-0.25464007 -0.14242409 0.060447037
-0.25486919 -0.14234085 0.06041868
-0.25504905 -0.1422679 0.060449272
-0.2552456 -0.14219539 0.060432553
-0.25542036 -0.14213499 0.060389362
-0.25563625 -0.14205596 0.060366817
-0.25583413 -0.14197631 0.060396202
-0.25605875 -0.14190257 0.060313668
-0.25622171 -0.14183505 0.060351223
-0.25644314 -0.14175339 0.060332112
-0.25665638 -0.14168216 0.060262308
-0.25685588 -0.14161086 0.060229421
-0.25703901 -0.14153118 0.060298052
-0.25726658 -0.14145681 0.060212053
-0.25747815 -0.14138389 0.060158387
-0.25762609 -0.14131615 0.060237497
-0.25783789 -0.14123748 0.060223028
-0.25806233 -0.14115916 0.060172781
-0.25823182 -0.14108121 0.060265657
-0.2584855 -0.14100635 0.060113862
-0.2586714 -0.14095365 0.059987642
-0.25883824 -0.14087737 0.060075924
-0.25905442 -0.14080219 0.060025692
-0.25926822 -0.14071035 0.060097687
-0.25947595 -0.14063375 0.060079776
-0.25965503 -0.14057221 0.060033128
-0.2598339 -0.1405066 0.060015291
-0.26002425 -0.14043297 0.060022797
-0.26018766 -0.14035384 0.060139906
-0.26042324 -0.14027925 0.060034283
-0.26065475 -0.14020403 0.059943657
-0.26085982 -0.14012331 0.059961494
-0.26104376 -0.14006355 0.059889462
-0.26123762 -0.13998261 0.059938457
-0.26144326 -0.13991725 0.059847914
-0.26161686 -0.13983825 0.059937328
-0.26182565 -0.13976954 0.059861757
-0.26202676 -0.13969263 0.059863463
-0.26220447 -0.13962117 0.059889454
-0.26240039 -0.13955635 0.059820846
-0.26259601 -0.13948718 0.059783362
-0.26279661 -0.13941048 0.059785061
-0.26296759 -0.13933527 0.05985488
-0.2631692 -0.13926566 0.0598047
-0.26336718 -0.13918845 0.059816793
-0.26358807 -0.13911282 0.059757337
-0.26380241 -0.13904017 0.059694435
-0.26398703 -0.13895959 0.059765358
-0.26419175 -0.13889144 0.059696727
-0.2644152 -0.13882643 0.059556551
-0.26459137 -0.13875057 0.059617132
-0.26478955 -0.13867164 0.059640758
-0.26500195 -0.13860635 0.059531741
-0.26516047 -0.13854666 0.05952666
-0.26532289 -0.1384739 0.059602261
-0.26553732 -0.13839293 0.059597015
-0.26573271 -0.13832301 0.059565291
-0.26592061 -0.1382412 0.059636213
-0.2661258 -0.13817701 0.059538752
-0.26630175 -0.13810852 0.059548605
-0.2664693 -0.13804474 0.059548106
-0.26671538 -0.13795984 0.059486263
-0.26690102 -0.13789232 0.059463806
-0.26709864 -0.13783647 0.05932831
-0.26725975 -0.13775575 0.059462734
-0.26747105 -0.13769487 0.059326053
-0.26766157 -0.13762696 0.059293203
-0.26786247 -0.13753209 0.059420574
-0.26802462 -0.13747466 0.059390113
-0.2682597 -0.13739477 0.059322536
-0.26842868 -0.13734271 0.059236713
-0.26861826 -0.13727236 0.059223466
-0.26884583 -0.13717693 0.05928389
-0.26903957 -0.13710566 0.059266016
-0.26921663 -0.13703594 0.059281625
-0.26939669 -0.13696472 0.059299532
-0.26960245 -0.13689037 0.05927125
-0.26978877 -0.13682456 0.059234954
-0.26997027 -0.13675962 0.059205588
-0.27017948 -0.1366871 0.059155382
-0.27035671 -0.13661779 0.059167534
-0.27054083 -0.1365487 0.059160061
-0.27073559 -0.13647869 0.059130661
-0.27091163 -0.13640901 0.05914858
-0.27110004 -0.13634492 0.059094988
-0.27130154 -0.13626391 0.059124358
-0.27149081 -0.13619466 0.059104189
-0.2716831 -0.13612692 0.059065565
-0.27187032 -0.13605399 0.059076536
-0.27205411 -0.13598832 0.059046015
-0.27223492 -0.13593026 0.058970526
-0.27243924 -0.13585098 0.058980297
-0.2726326 -0.13577837 0.058972798
-0.27281702 -0.13570434 0.058998764
-0.27302414 -0.13563278 0.058947414
-0.27321172 -0.13556668 0.058909956
-0.27339852 -0.13549407 0.05891978
-0.27357811 -0.13543017 0.058888111
-0.27377683 -0.13535783 0.058864456
-0.27394038 -0.1352949 0.058868587
-0.27413836 -0.13522235 0.058848388
-0.27433223 -0.13514754 0.058854721
-0.27451751 -0.13507767 0.058849558
-0.27471077 -0.1350026 0.058859356
-0.27491844 -0.13493612 0.058771111
-0.2750791 -0.1348685 0.058815598
-0.2752682 -0.13479784 0.058805808
-0.27544031 -0.13473381 0.058794919
-0.27563494 -0.13466336 0.058768965
-0.27584094 -0.13458294 0.058782183
-0.27602583 -0.13451687 0.058751661
-0.27621216 -0.13445188 0.058709599
-0.27639407 -0.13438413 0.058698669
-0.27658349 -0.13431433 0.058681969
-0.27677962 -0.13424198 0.058665238
-0.2769613 -0.13417432 0.058654323
-0.27717051 -0.1341003 0.058614492
-0.2773585 -0.13403735 0.058553979
-0.27750456 -0.13397428 0.058605425
-0.27769166 -0.13390337 0.058602564
-0.2778706 -0.13383791 0.05858358
-0.27807078 -0.13377313 0.058503427
-0.27822313 -0.13369541 0.058640167
-0.27843255 -0.1336263 0.058565754
-0.27863833 -0.13355856 0.058491349
-0.27882302 -0.13348626 0.05850463
-0.27902129 -0.13341689 0.058461383
-0.27920473 -0.13334772 0.05845622
-0.27939096 -0.13327684 0.058455661
-0.27955139 -0.13322155 0.058414828
-0.27974492 -0.1331487 0.058408491
-0.27995515 -0.13306932 0.058403246
-0.28012398 -0.13300903 0.058375075
-0.28031802 -0.13294992 0.058271877
-0.28049988 -0.13287124 0.058337048
-0.28067654 -0.1328053 0.058327302
-0.28085953 -0.13273197 0.058352113
-0.28103012 -0.13265575 0.058430012
-0.28123516 -0.13259925 0.058279518
-0.28142667 -0.13252054 0.058319293
-0.28160733 -0.13246369 0.058235742
-0.28179753 -0.13238847 0.058254771
-0.28196612 -0.13232428 0.058254272
-0.28216228 -0.13225541 0.058213331
-0.28233898 -0.13219029 0.058197811
-0.28254291 -0.1321153 0.058178753
-0.28271642 -0.1320519 0.058159791
-0.2829178 -0.13197938 0.058130361
-0.28310061 -0.13191143 0.058118287
-0.28327474 -0.13184382 0.058126986
-0.28347388 -0.131769 0.058119472
-0.28366151 -0.13170718 0.058052044
-0.28386158 -0.13162835 0.058069889
-0.28404057 -0.13156155 0.058060132
-0.28422046 -0.13149603 0.058038846
-0.28438687 -0.13143566 0.058017589
-0.28458163 -0.13136716 0.057977814
-0.2847636 -0.13129903 0.057969198
-0.28493249 -0.13123059 0.057997514
-0.28513092 -0.13116169 0.057950798
-0.28532839 -0.13108552 0.057957135
-0.28549358 -0.1310178 0.057990067
-0.28568813 -0.13094987 0.057946831
-0.28587127 -0.13088396 0.057919759
-0.28604823 -0.13082157 0.057884648
-0.28621554 -0.13075721 0.057888761
-0.28640074 -0.13068835 0.057876676
-0.28660738 -0.13061416 0.057844922
-0.2867794 -0.130551 0.05782827
-0.28696179 -0.1304847 0.057805818
-0.28717512 -0.13040116 0.057821322
-0.28734437 -0.13034071 0.05779314
-0.28752637 -0.13027407 0.057774153
-0.28769627 -0.1302074 0.057787478
-0.28786567 -0.13014756 0.057754688
-0.28805962 -0.13008133 0.057701081
-0.28823894 -0.13000976 0.057723597
-0.28844157 -0.12993725 0.057690706
-0.28860402 -0.12988022 0.057656787
-0.28878853 -0.12981147 0.057645865
-0.28899744 -0.12972727 0.057677515
-0.28916368 -0.12967046 0.057632059
-0.28933418 -0.12960555 0.057631545
-0.28951916 -0.12953827 0.057609085
-0.28971118 -0.12945969 0.057646561
-0.28989768 -0.12940677 0.057520334
-0.29007581 -0.12933199 0.057568226
-0.29026097 -0.12926596 0.057536542
-0.29045069 -0.12918048 0.057628211
-0.29065832 -0.12911418 0.057538807
-0.29083872 -0.12904552 0.057538275
-0.2910338 -0.12897605 0.057504252
-0.29120576 -0.12890428 0.057547551
-0.29140326 -0.12884352 0.057446655
-0.29159626 -0.12876755 0.057463367
-0.29177263 -0.12869808 0.057478987
-0.29196429 -0.12863076 0.057439208
-0.29214898 -0.12856542 0.057404064
-0.29233393 -0.12850146 0.057358548
-0.29251754 -0.12843205 0.057354547
-0.29269481 -0.12836672 0.057339028
-0.29287803 -0.12829548 0.057348847
-0.29304397 -0.1282275 0.05738179
-0.2932502 -0.1281644 0.05727395
-0.29343328 -0.12809254 0.057288393
-0.29360753 -0.12803151 0.05725098
-0.29379967 -0.12794942 0.057312656
-0.29397333 -0.12788463 0.057302915
-0.29416808 -0.12782025 0.05723431
-0.29435194 -0.12775375 0.057209544
-0.29453227 -0.12768774 0.05719056
-0.294716 -0.12762095 0.057168104
-0.29489973 -0.1275548 0.057141043
-0.29508299 -0.12748404 0.057147406
-0.29526636 -0.12741424 0.057146862
-0.29545015 -0.12735055 0.057102498
-0.29563376 -0.12728514 0.057070818
-0.29581696 -0.12721306 0.057086408
-0.29597709 -0.12715475 0.057067491
-0.29614064 -0.12709846 0.057025492
-0.29636377 -0.12700704 0.057069786
-0.29654729 -0.12694596 0.05700814
-0.29673058 -0.12687236 0.057034105
-0.29691395 -0.12680936 0.056986284
-0.29706731 -0.12674616 0.05701926
-0.29728067 -0.12666692 0.057004787
-0.29746407 -0.12659727 0.057003085
-0.29764423 -0.12652585 0.057022154
-0.2978307 -0.12646233 0.056969702
-0.2980108 -0.12639342 0.056971479
-0.29819742 -0.12632486 0.056953624
-0.29838049 -0.12626047 0.056916177
-0.2985346 -0.12619253 0.05698029
-0.29870746 -0.12613451 0.05692558
-0.29890102 -0.12605982 0.056931913
-0.29908732 -0.12599421 0.05689447
-0.29926729 -0.12592717 0.056883551
-0.29943672 -0.1258688 0.056840386
-0.29961663 -0.12580197 0.05682832
-0.29980254 -0.12573782 0.05678165
-0.29998547 -0.12567182 0.056755736
-0.3001684 -0.12560549 0.056732126
-0.30036363 -0.12554061 0.05666583
-0.30052513 -0.12549007 0.05658925
-0.30072945 -0.12540698 0.056625534
-0.30091727 -0.12533 0.056663021
-0.30108777 -0.12528001 0.056558739
-0.3012768 -0.12521301 0.056523584
-0.30148876 -0.12512371 0.056582905
-0.3016423 -0.12506491 0.056584757
-0.30183563 -0.12499231 0.056577258
-0.3020322 -0.12491897 0.056566291
-0.30222163 -0.12485016 0.056542672
-0.30240414 -0.12478482 0.056513295
-0.30258062 -0.12471929 0.056501247
-0.30274096 -0.12465791 0.056503065
-0.30294609 -0.12457484 0.056537047
-0.30313832 -0.12450697 0.056499578
-0.30331504 -0.12445161 0.056416038
-0.30348021 -0.12438393 0.05644897
-0.30365571 -0.12431165 0.056486495
-0.30382746 -0.12424245 0.056512501
-0.30404392 -0.1241627 0.056493402
-0.30422172 -0.12411257 0.056370661
-0.30438918 -0.12403854 0.056441642
-0.30458418 -0.12397077 0.056396093
-0.30477792 -0.12389767 0.056390904
-0.30496112 -0.12383009 0.056375369
-0.30511114 -0.12377429 0.056365691
-0.30532917 -0.12369842 0.056315467
-0.30548733 -0.12364417 0.05627349
-0.30564865 -0.12358109 0.056284536
-0.30586872 -0.1234915 0.056324229
-0.30605793 -0.12343109 0.056242958
-0.30622739 -0.12337701 0.056169815
-0.30642959 -0.12329704 0.056189962
-0.30659178 -0.12323944 0.056160659
-0.30675918 -0.12317587 0.056159001
-0.30694512 -0.12310161 0.05618266
-0.30713302 -0.12302277 0.056232821
-0.30732724 -0.12296292 0.056134243
-0.30749008 -0.12291701 0.056021925
-0.30766973 -0.12284463 0.056049049
-0.30786246 -0.12276182 0.056114193
-0.30804524 -0.12268294 0.056178212
-0.30825952 -0.12260865 0.056126848
-0.30842307 -0.12254822 0.056113675
-0.30862758 -0.12247699 0.056066941
-0.308808 -0.12240995 0.056054872
-0.30899489 -0.12233515 0.056079678
-0.30918232 -0.12227093 0.056029547
-0.30936658 -0.12220178 0.056022074
-0.30952922 -0.12214334 0.055997379
-0.30969349 -0.12208709 0.055953071
-0.30987903 -0.12200469 0.056034371
-0.3100656 -0.12192604 0.056086849
-0.31026545 -0.12187448 0.055915624
-0.3104364 -0.1218157 0.055871297
-0.3106164 -0.12174983 0.055852309
-0.31078693 -0.12168159 0.055874862
-0.31098315 -0.12159561 0.055952668
-0.31120118 -0.12152404 0.055872463
-0.31138384 -0.12145848 0.055844255
-0.31155753 -0.12140429 0.055760715
-0.31169891 -0.12136969 0.05562656
-0.31190011 -0.12127569 0.055747014
-0.31207392 -0.12120239 0.055796064
-0.31226721 -0.12113675 0.055740148
-0.31246185 -0.12105967 0.055760324
-0.31261733 -0.12100926 0.055698749
-0.31280747 -0.12093554 0.055707403
-0.31300378 -0.12085601 0.055740248
-0.31318823 -0.1207964 0.055665914
-0.31336296 -0.1207312 0.055656169
-0.31356409 -0.12065264 0.055669401
-0.31376415 -0.12056337 0.055759881
-0.31396008 -0.12050188 0.055668212
-0.31414142 -0.12043881 0.055626161
-0.31431463 -0.12037634 0.05560144
-0.31450498 -0.12031117 0.055550139
-0.31467921 -0.12024318 0.055561148
-0.31487593 -0.1201721 0.055534039
-0.3150343 -0.12011297 0.055525497
-0.31521928 -0.12004437 0.055512257
-0.31540915 -0.11996462 0.055563573
-0.31561258 -0.11989132 0.055534147
-0.31579208 -0.11983111 0.055477109
-0.31595805 -0.11977587 0.055421278
-0.31614619 -0.11971021 0.055379201
-0.31632942 -0.1196335 0.055427078
-0.31651339 -0.11956313 0.05542884
-0.316688 -0.11949548 0.055436388
-0.31688011 -0.11943146 0.055372402
-0.31705156 -0.11937547 0.055307318
-0.31724191 -0.11929289 0.055377085
-0.31743455 -0.11921773 0.055389192
-0.31761047 -0.11916584 0.055283744
-0.31781605 -0.11908658 0.055290047
-0.31798694 -0.11902118 0.055291839
-0.31818181 -0.11894666 0.05529356
-0.31836623 -0.11887646 0.055293016
-0.31855482 -0.11880399 0.055297054
-0.31875715 -0.11872962 0.055278007
-0.31893039 -0.11867444 0.055202544
-0.31910044 -0.11860738 0.055218183
-0.31928343 -0.11853937 0.055206105
-0.3194555 -0.11847618 0.055189453
-0.3196165 -0.11843362 0.05505868
-0.31981641 -0.11834076 0.055174537
-0.32002306 -0.1182674 0.055137027
-0.32017177 -0.11822189 0.055059325
-0.32036805 -0.11814037 0.055106014
-0.32058558 -0.11805639 0.055113431
-0.32075864 -0.11799531 0.055079482
-0.32094201 -0.11793031 0.055045497
-0.32112953 -0.11785726 0.055056468
-0.32132682 -0.11778397 0.055043187
-0.32150012 -0.11771981 0.055029988
-0.32168242 -0.1176534 0.055008687
-0.32186559 -0.11758599 0.054992005
-0.32206938 -0.11750226 0.055034056
-0.32223979 -0.11745314 0.054924015
-0.32243308 -0.11737657 0.054944187
-0.32261449 -0.11730866 0.054935571
-0.32280698 -0.11724433 0.05487274
-0.3229818 -0.11717876 0.054865304
-0.32315221 -0.11711571 0.054852106
-0.323322 -0.11705887 0.054797415
-0.32353842 -0.11697481 0.054808293
-0.32375202 -0.11688621 0.054858383
-0.32392406 -0.11682418 0.054833662
-0.3240816 -0.1167788 0.054731727
-0.32427511 -0.11669236 0.054819927
-0.3244665 -0.11662944 0.054750182
-0.32461399 -0.1165849 0.054669034
-0.32484338 -0.11648696 0.054742128
-0.32504222 -0.11641058 0.054746151
-0.32521349 -0.11635483 0.054679919
-0.32540751 -0.11628395 0.054658584
-0.32557029 -0.11622248 0.054654643
-0.3257612 -0.11614764 0.054669052
-0.32595599 -0.11607116 0.05468462
-0.32612073 -0.11602502 0.054568831
-0.32632101 -0.1159476 0.054576296
-0.3265506 -0.11585572 0.054606739
-0.32672572 -0.11579834 0.054541659
-0.3268981 -0.11572939 0.054564197
-0.32709339 -0.11565769 0.054545168
-0.32726809 -0.11558887 0.054560781
-0.32744348 -0.11552889 0.054512993
-0.32764456 -0.11545599 0.05448702
-0.32784468 -0.11538179 0.054472588
-0.32802036 -0.11531457 0.054474376
-0.32818764 -0.11525387 0.054453116
-0.32839483 -0.11517946 0.054421369
-0.32859591 -0.11510225 0.054425374
-0.32876721 -0.11503986 0.054405265
-0.32896197 -0.11496703 0.054395463
-0.32916415 -0.11489122 0.054386783
-0.32934791 -0.11481629 0.054420821
-0.32952514 -0.11475925 0.05434766
-0.32970244 -0.11468662 0.054382868
-0.32988533 -0.1146261 0.054318912
-0.33010134 -0.11454337 0.054321717
-0.33030057 -0.11447531 0.054266945
-0.33049098 -0.11439867 0.05429519
-0.33066371 -0.11433756 0.054262388
-0.33086446 -0.11427025 0.054198384
-0.33104438 -0.11420209 0.054195534
-0.33122167 -0.11413442 0.054196157
-0.33139303 -0.11407267 0.054171439
-0.33158177 -0.11400031 0.054174326
-0.33174449 -0.11395544 0.054055087
-0.331963 -0.11385848 0.054150131
-0.3321701 -0.11378113 0.054139137
-0.33235994 -0.11371632 0.054086678
-0.33253098 -0.11365104 0.05408733
-0.33273718 -0.1135727 0.054085553
-0.33294404 -0.1134918 0.054099929
-0.33314082 -0.11341853 0.054087803
-0.33332694 -0.11335745 0.054019231
-0.3334944 -0.11329187 0.054031409
-0.33367127 -0.11322553 0.054023959
-0.33387268 -0.11315217 0.054000303
-0.33407748 -0.11307967 0.053961635
-0.33426833 -0.11301231 0.053924181
-0.33446041 -0.11293405 0.053959347
-0.3346566 -0.11286384 0.05392763
-0.33484945 -0.11279091 0.053923592
-0.33503464 -0.11272124 0.053917266
-0.33523795 -0.11264466 0.053910904
-0.3354241 -0.11257811 0.053880364
-0.33562347 -0.11250717 0.053845182
-0.3358244 -0.11242919 0.053854953
-0.33601746 -0.11235651 0.053848617
-0.33618784 -0.11229877 0.053798534
-0.3363902 -0.11222538 0.053772558
-0.33659086 -0.11214982 0.053766187
-0.33677128 -0.11208129 0.053764503
-0.33695444 -0.11201969 0.053707458
-0.33715284 -0.11194266 0.053717237
-0.3373439 -0.11187224 0.053700529
-0.3375611 -0.11178425 0.053736776
-0.33774823 -0.1117193 0.0536924
-0.33792585 -0.11165549 0.053665355
-0.33810455 -0.1115926 0.053629082
-0.33832416 -0.11150651 0.053645711
-0.33852172 -0.11143262 0.053635903
-0.3387143 -0.11136493 0.05359612
-0.33891615 -0.11128926 0.053587448
-0.33911893 -0.11121106 0.053593758
-0.33930147 -0.11114339 0.053580534
-0.33951318 -0.11106296 0.053578742
-0.24917366 -0.14757237 0.039130218
-0.24938048 -0.14750522 0.039048944
-0.24958652 -0.14743823 0.038968824
-0.2497887 -0.14737003 0.038907155
-0.24998853 -0.14730322 0.038842034
-0.25017509 -0.14723635 0.038812686
-0.25036421 -0.14716831 0.038784489
-0.25054705 -0.14710285 0.038755156
-0.25072917 -0.14703615 0.038736198
-0.25091067 -0.14696953 0.038718395
-0.25108951 -0.14690293 0.038707521
-0.25126329 -0.14683628 0.03871049
-0.2514365 -0.14676967 0.038714614
-0.25160673 -0.14670303 0.038726822
-0.25177562 -0.14663509 0.03875171
-0.25194323 -0.14656845 0.03877084
-0.2520951 -0.14650135 0.038834967
-0.252251 -0.14643437 0.038887557
-0.25241452 -0.14636497 0.038936678
-0.25256959 -0.14629798 0.038991578
-0.25271884 -0.14622939 0.039073005
-0.25286451 -0.14616199 0.039155602
-0.25301313 -0.14609331 0.039239347
-0.25316015 -0.1460259 0.03931848
-0.25330734 -0.14595708 0.039406829
-0.25345027 -0.14588942 0.039498657
-0.25359279 -0.14582306 0.039582413
-0.25373489 -0.14575386 0.039686929
-0.25387791 -0.14568466 0.039789122
-0.25400949 -0.14561617 0.039916717
-0.25414598 -0.14554647 0.040039692
-0.25427455 -0.14547762 0.040177669
-0.25440183 -0.1454086 0.04032027
-0.25453275 -0.1453397 0.040452477
-0.25465927 -0.14526898 0.040608913
-0.25477976 -0.14519775 0.040784959
-0.25489688 -0.14512613 0.040972538
-0.25500959 -0.14505406 0.041175123
-0.25052902 -0.14390597 0.061038405
-0.25075662 -0.14383258 0.060945537
-0.25096345 -0.14375748 0.06091959
-0.2511521 -0.14367902 0.060965173
-0.25136891 -0.14360327 0.060917296
-0.25157934 -0.14352879 0.060877513
-0.25179401 -0.14345483 0.060822725
-0.25197884 -0.143378 0.060867168
-0.25217906 -0.14330277 0.060859688
-0.2523964 -0.14322764 0.060806043
-0.25256857 -0.14316209 0.060805567
-0.25278562 -0.14308177 0.060788825
-0.25297078 -0.14300878 0.060805589
-0.2531701 -0.14295013 0.060685143
-0.25342196 -0.14285423 0.060684435
-0.25360402 -0.14279205 0.060634349
-0.25379694 -0.1427075 0.060711045
-0.2540102 -0.1426273 0.060703531
-0.25419545 -0.14256024 0.060678802
-0.25441015 -0.14247668 0.060690876
-0.25462523 -0.14240439 0.060623415
-0.25481364 -0.14233431 0.060611352
-0.25502765 -0.14225467 0.060598075
-0.25521672 -0.14218482 0.060582556
-0.25540331 -0.14211661 0.060562432
-0.25559506 -0.14204542 0.060549222
-0.25578368 -0.14197576 0.060533699
-0.25595915 -0.14190233 0.060579319
-0.25620121 -0.14181779 0.060525611
-0.25640559 -0.14174694 0.060476609
-0.25657082 -0.1416817 0.060492292
-0.25678301 -0.14160258 0.060480174
-0.25702757 -0.14151509 0.060440287
-0.2571978 -0.14144498 0.060476705
-0.25739715 -0.14138168 0.060388524
-0.25760257 -0.14130181 0.060399473
-0.25775728 -0.14123113 0.060480893
-0.25796857 -0.14115433 0.060454935
-0.25814095 -0.14108075 0.060509786
-0.25835621 -0.14101487 0.060397364
-0.2586191 -0.14093168 0.060279042
-0.25880194 -0.14086024 0.060291201
-0.25896081 -0.14079246 0.060341485
-0.25918722 -0.14073145 0.060165621
-0.25939402 -0.14064643 0.060208842
-0.25959182 -0.14056581 0.060245179
-0.25980881 -0.140487 0.060218059
-0.25999546 -0.1404292 0.060125303
-0.26016101 -0.14035258 0.06021937
-0.2603704 -0.14027666 0.060192272
-0.26057044 -0.14021575 0.060085654
-0.2607978 -0.14012703 0.060099997
-0.26097474 -0.14005503 0.060131781
-0.2611782 -0.13997822 0.060126603
-0.26136106 -0.1399076 0.060133006
-0.26154763 -0.13984436 0.060078297
-0.26175365 -0.13976841 0.060060427
-0.26191664 -0.13970204 0.060089938
-0.26215303 -0.13962033 0.060031634
-0.26231444 -0.13954926 0.060098052
-0.26251763 -0.139484 0.06001332
-0.26268521 -0.13941671 0.060037062
-0.26291645 -0.13934542 0.059919976
-0.26312947 -0.13926297 0.059928603
-0.26331082 -0.13919494 0.059921183
-0.26347807 -0.13912778 0.059944913
-0.26368093 -0.13905418 0.059918981
-0.26393127 -0.13897295 0.059820287
-0.26410672 -0.13890134 0.05985323
-0.26429474 -0.13883324 0.059828494
-0.26450446 -0.13875505 0.059816372
-0.26469126 -0.1386821 0.059828535
-0.26488364 -0.13861316 0.059798017
-0.26506367 -0.13854545 0.059791747
-0.26526976 -0.13847129 0.059761204
-0.26544476 -0.13840218 0.059777997
-0.26562691 -0.13833532 0.059760191
-0.26585102 -0.13825496 0.059724979
-0.26597813 -0.13818552 0.059871033
-0.26619428 -0.13813454 0.059652545
-0.2663922 -0.13806333 0.059623167
-0.2665678 -0.13798736 0.05968608
-0.2667346 -0.13791341 0.059758242
-0.26694134 -0.13784282 0.059701167
-0.26713333 -0.13776989 0.059699483
-0.26734325 -0.13770323 0.059606664
-0.26753765 -0.13763899 0.0595381
-0.26779068 -0.13755226 0.059470531
-0.26796782 -0.13747703 0.059524212
-0.26812431 -0.13741496 0.059541065
-0.2683033 -0.13735078 0.059512898
-0.26852229 -0.13727023 0.059492681
-0.26869166 -0.1372079 0.059477225
-0.26887959 -0.13713419 0.059491679
-0.26909402 -0.13706018 0.059438046
-0.2692897 -0.13698699 0.059428271
-0.26945555 -0.13692085 0.059448555
-0.26966926 -0.13684696 0.059396084
-0.26984769 -0.13677786 0.059403658
-0.27002722 -0.13671482 0.059366263
-0.27019393 -0.13665201 0.059361178
-0.27038026 -0.13658088 0.059361815
-0.27059883 -0.13649851 0.059355427
-0.2707988 -0.13642502 0.059336424
-0.27096334 -0.13636436 0.059322134
-0.271166 -0.13629515 0.059266228
-0.27134588 -0.13623016 0.059241515
-0.27155763 -0.13615385 0.059210949
-0.27172205 -0.13608178 0.059276193
-0.27190357 -0.13601483 0.059260696
-0.27212629 -0.13593817 0.059203587
-0.272306 -0.13587356 0.059176564
-0.27247041 -0.13580747 0.059200317
-0.272672 -0.13573885 0.059143253
-0.27286658 -0.13566376 0.059149627
-0.27304539 -0.13560215 0.059104167
-0.2732344 -0.13553052 0.059101328
-0.27341217 -0.13546234 0.059104286
-0.27361405 -0.13539459 0.059040308
-0.27381039 -0.13531768 0.059054755
-0.27396885 -0.13525504 0.059070453
-0.2741611 -0.13518232 0.059066448
-0.27432942 -0.13511558 0.05908443
-0.2745347 -0.13504721 0.059015833
-0.27472228 -0.13497861 0.058995709
-0.27489009 -0.13491173 0.059015989
-0.27508605 -0.13484161 0.058984306
-0.27528283 -0.13477215 0.058945708
-0.27546385 -0.13470671 0.058920994
-0.2756477 -0.13463289 0.058946997
-0.2758297 -0.13456824 0.058914203
-0.27604109 -0.13449472 0.05886519
-0.27620679 -0.1344303 0.058873951
-0.27640799 -0.134361 0.058822662
-0.27658805 -0.13429558 0.05880025
-0.27675998 -0.13423195 0.058787093
-0.2769199 -0.13416742 0.058812004
-0.27712819 -0.13408895 0.058805652
-0.27731109 -0.13401847 0.058810908
-0.27751186 -0.1339422 0.058809187
-0.27768317 -0.13387465 0.058824852
-0.27786478 -0.13382241 0.058706746
-0.27805662 -0.13375899 0.058639348
-0.27823144 -0.13367502 0.058759905
-0.27843323 -0.1336156 0.05863829
-0.27862781 -0.133543 0.058627371
-0.27880824 -0.13347116 0.058648765
-0.27899283 -0.13340271 0.058635566
-0.27916506 -0.13334045 0.058612026
-0.27934253 -0.13326624 0.058657639
-0.27954102 -0.13320559 0.058553323
-0.27970043 -0.13314109 0.0585794
-0.2798951 -0.13306913 0.058563858
-0.28008133 -0.13299838 0.058562189
-0.28026387 -0.13293302 0.05853286
-0.28044534 -0.13286245 0.058542721
-0.28061417 -0.13279784 0.058544554
-0.28081661 -0.13273369 0.058454067
-0.28099892 -0.13266411 0.058454707
-0.28117058 -0.13261168 0.058364306
-0.28138271 -0.13253489 0.058336034
-0.2815595 -0.13246012 0.058387421
-0.28173321 -0.1323963 0.058370799
-0.28192446 -0.13233641 0.05828033
-0.28209305 -0.13226262 0.05834673
-0.282276 -0.13219428 0.058336992
-0.2824561 -0.13212289 0.058356091
-0.28265327 -0.13205031 0.058338247
-0.28283805 -0.13198426 0.058307752
-0.28301841 -0.13191842 0.058287643
-0.28320128 -0.13184515 0.058312491
-0.2833685 -0.13178496 0.058287814
-0.28354555 -0.13171539 0.058302302
-0.283741 -0.13164678 0.058261402
-0.28391388 -0.13157201 0.058323171
-0.28412348 -0.13150497 0.058233812
-0.28428492 -0.1314435 0.058233362
-0.28449076 -0.13137209 0.058184367
-0.28465563 -0.13131545 0.058141254
-0.28483072 -0.13124946 0.058136147
-0.28501958 -0.13117887 0.05812639
-0.28520477 -0.13110919 0.058120102
-0.28538653 -0.13104695 0.058071177
-0.28555658 -0.13097376 0.058129497
-0.28574824 -0.13090773 0.058080539
-0.28592709 -0.13084148 0.058067355
-0.28610057 -0.13078006 0.058034595
-0.28629825 -0.1307043 0.058037501
-0.28647611 -0.13063675 0.058035843
-0.28664741 -0.13057898 0.057983488
-0.28684232 -0.13050577 0.057976022
-0.28702584 -0.13044849 0.057887889
-0.28719497 -0.130373 0.05796466
-0.28738904 -0.13029844 0.057968728
-0.28756648 -0.13023818 0.057917498
-0.28774637 -0.13016737 0.057933141
-0.28792804 -0.13010001 0.057919949
-0.28810078 -0.13003889 0.057887178
-0.28828835 -0.12996763 0.057885505
-0.28846443 -0.12989712 0.05790922
-0.28863555 -0.12984142 0.057843029
-0.28882542 -0.12977558 0.057797536
-0.28899792 -0.12971489 0.057762459
-0.28917679 -0.12964198 0.057795394
-0.28940198 -0.12955922 0.057774015
-0.28955796 -0.12950596 0.057730917
-0.28972003 -0.12944891 0.057698186
-0.28989872 -0.1293754 0.05773573
-0.29008326 -0.12930712 0.057721376
-0.29027423 -0.12923573 0.057711616
-0.29045621 -0.12917125 0.057677675
-0.29063472 -0.12910794 0.057644896
-0.29081529 -0.12903969 0.057640925
-0.29098871 -0.1289725 0.057648517
-0.2911849 -0.12889431 0.057672173
-0.29138041 -0.12882635 0.057626657
-0.29154286 -0.12877278 0.057568569
-0.29173726 -0.12870158 0.057548422
-0.29192501 -0.12863341 0.057524838
-0.29210454 -0.12856175 0.057547383
-0.29229262 -0.12849511 0.057512276
-0.29249984 -0.12841737 0.057503626
-0.29267892 -0.12834322 0.057544626
-0.29284933 -0.128279 0.05753953
-0.29304129 -0.1282147 0.057477891
-0.2932027 -0.12816004 0.057430182
-0.293403 -0.12808444 0.057425
-0.29358712 -0.12801799 0.057399128
-0.29376662 -0.12794517 0.057429753
-0.29395032 -0.12787622 0.05742231
-0.29411709 -0.12781206 0.05742646
-0.29429454 -0.12774898 0.05739484
-0.29447442 -0.12767768 0.057413928
-0.29464769 -0.12760873 0.057434194
-0.29482749 -0.12753563 0.057465963
-0.29501513 -0.12747131 0.057415873
-0.29516602 -0.12742198 0.057358954
-0.29537973 -0.12734227 0.057346828
-0.29555663 -0.12727557 0.057341717
-0.29573393 -0.12721504 0.057292804
-0.29592121 -0.12715352 0.057224259
-0.29611465 -0.12708002 0.057222567
-0.29630491 -0.12701222 0.057189748
-0.2964851 -0.12694794 0.057159279
-0.29666853 -0.12687826 0.057157606
-0.29684862 -0.12680987 0.057155952
-0.29701871 -0.12674725 0.057140481
-0.29717219 -0.12668617 0.057158493
-0.29739198 -0.12661807 0.057049517
-0.29757538 -0.12654757 0.057053611
-0.29775542 -0.12647969 0.0570485
-0.29793558 -0.12640944 0.057059519
-0.29811582 -0.12633882 0.057072848
-0.29829901 -0.12627356 0.057041209
-0.29846692 -0.12619488 0.057143334
-0.29866269 -0.12613443 0.0570448
-0.29884249 -0.12607045 0.057013169
-0.29902604 -0.12600006 0.057016104
-0.29920575 -0.12593628 0.056983326
-0.2993854 -0.12587252 0.056950539
-0.29955819 -0.1258122 0.056912012
-0.29973513 -0.125744 0.05691728
-0.29992267 -0.12566796 0.056949034
-0.30010208 -0.12560512 0.056910489
-0.30026907 -0.12554105 0.056913476
-0.30047199 -0.12546811 0.056882933
-0.30065602 -0.12539572 0.05689856
-0.30083621 -0.12532777 0.056893438
-0.30101439 -0.12527086 0.056816854
-0.30119842 -0.12519881 0.056830171
-0.30137098 -0.12513842 0.056792796
-0.30156043 -0.12507027 0.056764595
-0.30174059 -0.12500232 0.056759477
-0.30192298 -0.12493836 0.05672092
-0.30210486 -0.12486281 0.056764223
-0.30227947 -0.12479302 0.056786783
-0.30246732 -0.12473161 0.056715939
-0.30264616 -0.12466931 0.056675088
-0.3028248 -0.12459584 0.056712631
-0.30300057 -0.12453372 0.056678701
-0.30316564 -0.12446655 0.056708217
-0.30332774 -0.12441064 0.05666741
-0.30354303 -0.12433513 0.05662185
-0.30372116 -0.12427477 0.056569472
-0.30390057 -0.12420996 0.056544751
-0.30405805 -0.12415878 0.056483217
-0.30422157 -0.12410679 0.056411281
-0.30441308 -0.12402178 0.056494895
-0.30458534 -0.12396978 0.056399886
-0.30476922 -0.12389977 0.05639936
-0.30495423 -0.12382651 0.056418445
-0.30514681 -0.12374838 0.056451343
-0.30533996 -0.12366905 0.056491144
-0.3055104 -0.12360498 0.0564849
-0.30570671 -0.12353339 0.056462448
-0.30590215 -0.12346411 0.056426156
-0.30608839 -0.12340398 0.056350708
-0.30625603 -0.12334728 0.056300662
-0.30640358 -0.12328331 0.056354433
-0.3066043 -0.12320043 0.056398831
-0.30681354 -0.12313916 0.056270272
-0.30699667 -0.12305799 0.056349307
-0.30717289 -0.12299404 0.056326911
-0.30734822 -0.12293227 0.056291837
-0.30752081 -0.12287684 0.056219876
-0.30771774 -0.12279721 0.0562516
-0.30785993 -0.12273429 0.056312304
-0.30804384 -0.12266576 0.056301415
-0.3082518 -0.12259339 0.056253564
-0.30841592 -0.12252559 0.056289986
-0.30861738 -0.12244325 0.056328624
-0.30879667 -0.1223909 0.056217443
-0.30896631 -0.12234107 0.056114364
-0.30914152 -0.12227353 0.056119639
-0.30933005 -0.12219562 0.056161765
-0.30950984 -0.12211904 0.056217756
-0.30968493 -0.12206332 0.056141168
-0.30987847 -0.12199228 0.056122184
-0.31006533 -0.12192909 0.056066327
-0.31020865 -0.12188728 0.055977155
-0.31037417 -0.12184416 0.055838354
-0.31061754 -0.12172912 0.055993304
-0.31079057 -0.12165628 0.056041226
-0.31096169 -0.12159725 0.055998094
-0.31116483 -0.12152357 0.055972159
-0.3113285 -0.12147318 0.055888698
-0.31150457 -0.12140498 0.055896282
-0.31171101 -0.12132058 0.055936046
-0.31188726 -0.12124767 0.055975903
-0.31205305 -0.12117942 0.056011174
-0.31224513 -0.12112534 0.055878054
-0.31241968 -0.12105574 0.055899475
-0.31261942 -0.12098367 0.055871248
-0.31278789 -0.12092019 0.055866159
-0.31298465 -0.12084875 0.055841401
-0.31315112 -0.12078438 0.05584785
-0.31333077 -0.1207241 0.055790853
-0.3135182 -0.12064677 0.055831827
-0.31369701 -0.12058366 0.055796742
-0.31388053 -0.1205171 0.055773169
-0.31406727 -0.12045777 0.055690795
-0.31423137 -0.12040159 0.055646531
-0.31441522 -0.12031834 0.05573824
-0.314612 -0.12024325 0.055738837
-0.31481314 -0.12016153 0.055774018
-0.31498754 -0.12010541 0.055702053
-0.31518096 -0.12003955 0.055647325
-0.31536737 -0.11997273 0.055617973
-0.31554776 -0.11990354 0.055620927
-0.31573546 -0.1198349 0.055600811
-0.31589174 -0.11977539 0.055600364
-0.31609374 -0.11970064 0.055584814
-0.3162837 -0.11962152 0.055631552
-0.31646666 -0.11956363 0.055549186
-0.31664634 -0.11949953 0.055518705
-0.31683269 -0.11943306 0.055487059
-0.31702313 -0.11935376 0.055533785
-0.31718963 -0.11929434 0.055505652
-0.31737483 -0.11922614 0.055488989
-0.31754991 -0.11915483 0.055520784
-0.31773964 -0.11908742 0.055486821
-0.31791303 -0.11902206 0.055481717
-0.31809545 -0.11895791 0.055444323
-0.31828997 -0.11889064 0.055396505
-0.31845546 -0.11883277 0.055360299
-0.31863442 -0.11876016 0.055390924
-0.31881836 -0.11869079 0.055385802
-0.31901231 -0.11861794 0.055378333
-0.31918892 -0.11855517 0.055346712
-0.31937543 -0.11848267 0.055356566
-0.31957015 -0.11841217 0.05533066
-0.31973702 -0.11836523 0.055214904
-0.31992969 -0.11827877 0.055305444
-0.32010558 -0.11822324 0.055225398
-0.3202669 -0.11817392 0.055140793
-0.32048759 -0.11805558 0.05537881
-0.32068115 -0.117993 0.055301022
-0.32083565 -0.11794925 0.055195685
-0.32102352 -0.11787871 0.055188242
-0.32122535 -0.1177969 0.055222265
-0.32139385 -0.11773872 0.055180281
-0.32159746 -0.11766368 0.055162419
-0.32177442 -0.11760095 0.055129647
-0.32195741 -0.11753093 0.055131435
-0.32213226 -0.11746801 0.055105586
-0.32230002 -0.11742204 0.05498061
-0.32249683 -0.11733849 0.055040002
-0.32268164 -0.11726382 0.055069461
-0.32286888 -0.11719467 0.055053946
-0.32304388 -0.11712906 0.055046536
-0.32321861 -0.1170665 0.05501838
-0.32343397 -0.1169865 0.055003945
-0.32360303 -0.11693058 0.054944668
-0.32378218 -0.11686304 0.054939557
-0.32398519 -0.11678408 0.054950513
-0.32417336 -0.11671956 0.054900419
-0.32436883 -0.11663105 0.054997858
-0.32454014 -0.11657014 0.054967403
-0.32473397 -0.11651491 0.054837745
-0.32489547 -0.11644696 0.054882254
-0.32509196 -0.1163733 0.054873627
-0.32528085 -0.11630055 0.054878868
-0.32546815 -0.11623471 0.0548403
-0.32565963 -0.1161643 0.05482246
-0.32585952 -0.11608719 0.054828819
-0.32601494 -0.11603648 0.05476959
-0.32617339 -0.11597747 0.05475992
-0.32640207 -0.11589637 0.054717779
-0.32657373 -0.11583051 0.054720756
-0.3267552 -0.11576391 0.054702953
-0.32695279 -0.11568736 0.054711618
-0.32712838 -0.11562713 0.054665018
-0.32732391 -0.11555766 0.054629885
-0.32750681 -0.11547791 0.054699693
-0.32768452 -0.11542501 0.054596588
-0.32786843 -0.11535614 0.054588009
-0.32804245 -0.11529536 0.054549478
-0.32824507 -0.11521406 0.054577727
-0.3284474 -0.11513554 0.054587536
-0.32864761 -0.1150593 0.054586977
-0.32882977 -0.11499493 0.05455187
-0.32900482 -0.11492878 0.054547921
-0.32920074 -0.11485717 0.054526623
-0.32938451 -0.11478902 0.054513425
-0.32958508 -0.11471283 0.054511715
-0.32975513 -0.11465421 0.05446858
-0.3299517 -0.11457556 0.054494545
-0.33012348 -0.11452408 0.054397225
-0.33031046 -0.11444642 0.054441664
-0.3305003 -0.11438127 0.054391555
-0.3307035 -0.11430292 0.054397903
-0.33089405 -0.11423069 0.054395057
-0.33107188 -0.11416464 0.054383039
-0.33126533 -0.11409613 0.054346751
-0.33146596 -0.11402272 0.054325439
-0.33164567 -0.11395082 0.054349143
-0.33183694 -0.11388247 0.054317482
-0.33201465 -0.11381896 0.054288156
-0.3322002 -0.11374582 0.054304931
-0.33239186 -0.11367931 0.054259434
-0.33256683 -0.11361651 0.054232426
-0.33277512 -0.11353621 0.054238759
-0.33294445 -0.11347886 0.054188717
-0.3331452 -0.11339779 0.054220431
-0.33331907 -0.11333624 0.054187659
-0.33352059 -0.11326067 0.054179028
-0.33374405 -0.11317858 0.054157652
-0.33393455 -0.11311151 0.054119077
-0.33409527 -0.11305645 0.054075964
-0.33427492 -0.11298773 0.054077771
-0.33449149 -0.11290245 0.054096755
-0.33468577 -0.11283013 0.054084688
