# .PCD v0.7 - Point Cloud Data file format
VERSION 0.7
FIELDS x y z
SIZE 4 4 4
TYPE F F F
COUNT 1 1 1
WIDTH 1286
HEIGHT 1
VIEWPOINT 0 0 0 1 0 0 0
POINTS 1286
DATA ascii
-0.32673308 -0.10023524 0.0557466
-0.32692829 -0.1001393 0.05580835
-0.3271105 -0.10005847 0.055806696
-0.32727796 -0.099988595 0.055775102
-0.32745439 -0.099912703 0.055757321
-0.32763618 -0.099835791 0.055730306
-0.32783824 -0.099746801 0.055723988
-0.32800698 -0.099675357 0.055699304
-0.32819322 -0.099598661 0.055657279
-0.32837921 -0.099513263 0.055675227
-0.32856661 -0.099429101 0.055680484
-0.32873714 -0.099361435 0.055624664
-0.32890028 -0.099291615 0.055605762
-0.32910663 -0.099194631 0.055640955
-0.32928717 -0.09911979 0.055603564
-0.32945895 -0.099050552 0.055554654
-0.32964331 -0.09896791 0.055558763
-0.32983586 -0.098874837 0.055608984
-0.33001277 -0.098804846 0.055549685
-0.33020982 -0.098720461 0.05552724
-0.33038226 -0.098647699 0.055500247
-0.33058494 -0.098559134 0.055489309
-0.33076805 -0.098478563 0.055483047
-0.33093151 -0.098408952 0.055461839
-0.33110821 -0.098331079 0.055456754
-0.33127433 -0.098258242 0.055449378
-0.33146405 -0.098172545 0.05545808
-0.33165735 -0.098098651 0.055375673
-0.33182812 -0.098025613 0.055355605
-0.33202299 -0.097939149 0.055353925
-0.33221668 -0.097848967 0.055381075
-0.33238593 -0.09778323 0.055316031
-0.33256295 -0.09770029 0.05534438
-0.33276671 -0.097606137 0.055368043
-0.3329339 -0.0975352 0.055344522
-0.33311796 -0.097469836 0.055232149
-0.33330077 -0.097385518 0.055252414
-0.33348215 -0.09730047 0.055281907
-0.33366215 -0.097227231 0.055235285
-0.33383918 -0.097154975 0.055190977
-0.33403206 -0.097069226 0.055190451
-0.33421642 -0.096990995 0.055164576
-0.33441827 -0.096892603 0.055222847
-0.33458686 -0.096827835 0.055153187
-0.33477664 -0.096738711 0.055184968
-0.33497107 -0.096646845 0.055221342
-0.33516359 -0.096578903 0.055100873
-0.33533189 -0.096504927 0.055094644
-0.33550993 -0.096427135 0.05508494
-0.33569628 -0.09634243 0.055097118
-0.33586264 -0.096284926 0.054984793
-0.33605519 -0.096193373 0.055024642
-0.33625609 -0.096108995 0.054990642
-0.33645931 -0.096010506 0.055045452
-0.33663327 -0.095939949 0.054998845
-0.33682105 -0.095861048 0.054967191
-0.33700693 -0.095775187 0.054988608
-0.33718619 -0.095703468 0.054933906
-0.33737287 -0.095616907 0.054957621
-0.3375617 -0.095543817 0.054883294
-0.33776051 -0.095453233 0.054897744
-0.33793536 -0.095377535 0.054883428
-0.33814579 -0.095287882 0.05485633
-0.33833867 -0.095197387 0.054888099
-0.33852294 -0.095122755 0.054838002
-0.33867398 -0.09505748 0.054824907
-0.33884293 -0.094990507 0.054769088
-0.33904344 -0.094903067 0.054757018
-0.33924663 -0.094806463 0.054799132
-0.33942574 -0.094735309 0.054740977
-0.33960447 -0.094662473 0.054695517
-0.33981436 -0.094567634 0.054705329
-0.33998102 -0.094496936 0.0546818
-0.34016034 -0.09441942 0.054666322
-0.34036207 -0.094324976 0.054698069
-0.34055895 -0.094237797 0.054695226
-0.3407304 -0.09417481 0.054604806
-0.34093335 -0.094085604 0.054597326
-0.34112144 -0.093997404 0.054627951
-0.34131974 -0.093913145 0.054600883
-0.34151167 -0.09383139 0.054576144
-0.34169281 -0.093752548 0.054564118
-0.34188232 -0.093671352 0.054542847
-0.34206599 -0.093594112 0.054512363
-0.34227604 -0.093498349 0.054527931
-0.34244746 -0.093427576 0.054490559
-0.34263122 -0.093348421 0.054472759
-0.34284043 -0.093251854 0.054496415
-0.34303007 -0.093170941 0.054472834
-0.3432155 -0.09309037 0.054459639
-0.34341171 -0.093008906 0.054419894
-0.34358743 -0.092934184 0.05439635
-0.34376025 -0.092860393 0.054375123
-0.34396815 -0.092767641 0.054376863
-0.34413815 -0.092698678 0.054331418
-0.34433106 -0.092613086 0.054329745
-0.34454805 -0.092507973 0.054387964
-0.34472588 -0.092437223 0.054330971
-0.34490666 -0.092363633 0.054284353
-0.34507638 -0.0922914 0.054261975
-0.345292 -0.092189945 0.054299451
-0.2539691 -0.13489944 0.040202782
-0.25415021 -0.13482046 0.04019187
-0.25432372 -0.13474078 0.040208664
-0.25449231 -0.13466397 0.040220853
-0.25466469 -0.13458446 0.04023996
-0.25482267 -0.1345071 0.040287934
-0.25499615 -0.13442761 0.040303577
-0.25515142 -0.13435045 0.040358476
-0.25531033 -0.13427182 0.040412225
-0.25545669 -0.13419388 0.040499453
-0.25561279 -0.13411668 0.04055205
-0.25575879 -0.1340387 0.040640429
-0.25590402 -0.13396075 0.040731121
-0.25603878 -0.13388455 0.040841449
-0.25618166 -0.13380662 0.040939063
-0.25632402 -0.13373128 0.041020535
-0.25646877 -0.13365319 0.041113537
-0.25660601 -0.13357539 0.041227318
-0.25674424 -0.13349749 0.04133879
-0.25687885 -0.13341966 0.041460656
-0.25701606 -0.13334034 0.041584823
-0.25714201 -0.13326536 0.041713629
-0.25727087 -0.13318618 0.041862041
-0.25738731 -0.13310999 0.042027786
-0.25751221 -0.13303207 0.042179666
-0.2576296 -0.13295427 0.042353477
-0.25773957 -0.13287655 0.04254923
-0.25784507 -0.13279878 0.042758837
-0.25794733 -0.13272092 0.042978838
-0.25312355 -0.13205403 0.062104657
-0.25334591 -0.13196333 0.062048644
-0.253573 -0.13187273 0.061977617
-0.25376889 -0.13178241 0.061998963
-0.25399786 -0.13169371 0.061909482
-0.25419262 -0.13160355 0.06193313
-0.25442359 -0.13151515 0.061835565
-0.25460398 -0.13142511 0.061901927
-0.25481015 -0.13133684 0.061878256
-0.25498414 -0.13125511 0.061907731
-0.2552236 -0.13115729 0.061848201
-0.2554034 -0.13106905 0.061904199
-0.25564024 -0.13098651 0.061748944
-0.25583741 -0.1309087 0.061681472
-0.25608325 -0.13082503 0.061506584
-0.25627229 -0.13071199 0.061703265
-0.25646687 -0.13062431 0.06171076
-0.25667113 -0.13053519 0.06169863
-0.25687996 -0.13044627 0.061671484
-0.25707084 -0.130357 0.06170091
-0.25726306 -0.13026951 0.061714195
-0.2574611 -0.13018742 0.061673231
-0.25765783 -0.13010539 0.061635755
-0.25788325 -0.13000536 0.06163393
-0.25807583 -0.12992688 0.061584935
-0.25828004 -0.12983845 0.061568186
-0.25848198 -0.1297553 0.061522607
-0.25867441 -0.12966485 0.06155549
-0.25889838 -0.12956698 0.061543293
-0.2590825 -0.12949039 0.061507002
-0.25929916 -0.12938882 0.061542124
-0.25952047 -0.12930536 0.061439969
-0.25970006 -0.1292235 0.061453283
-0.25988168 -0.12913819 0.06148389
-0.26010519 -0.12904087 0.061469395
-0.26026437 -0.12896517 0.061502371
-0.26048338 -0.12887681 0.061440602
-0.26068923 -0.12879141 0.061398469
-0.26085263 -0.12871249 0.061440669
-0.26112676 -0.12860438 0.061346442
-0.26133019 -0.12851733 0.061322767
-0.2614643 -0.12844753 0.061391581
-0.26171499 -0.12834187 0.061351627
-0.26187736 -0.12826307 0.061396129
-0.26211813 -0.12816995 0.061300844
-0.26230592 -0.12808207 0.061330281
-0.26248792 -0.12800692 0.061290532
-0.26269782 -0.12792295 0.06122648
-0.2629182 -0.12783058 0.061187774
-0.26313296 -0.12773782 0.061168686
-0.26332527 -0.12765454 0.061153129
-0.26350993 -0.12757635 0.061126053
-0.26367074 -0.12749588 0.061186716
-0.26391619 -0.12739304 0.061143324
-0.26407868 -0.12732249 0.06113131
-0.26432225 -0.12722559 0.061053321
-0.26451382 -0.12713687 0.061076969
-0.26470098 -0.12707132 0.060956471
-0.26490253 -0.12697798 0.060981248
-0.2651194 -0.1268865 0.060947172
-0.26529989 -0.1268027 0.060970861
-0.2654894 -0.12671405 0.061000288
-0.26567623 -0.12663914 0.060944375
-0.26590022 -0.12654093 0.060934499
-0.26609564 -0.12645525 0.060925841
-0.26627421 -0.12638366 0.060872264
-0.26648107 -0.12628748 0.060900487
-0.26665503 -0.12621133 0.060891911
-0.26686659 -0.1261283 0.06081631
-0.26702833 -0.12604639 0.060883895
-0.26721567 -0.12596412 0.060876422
-0.26746219 -0.12586591 0.060798422
-0.2676453 -0.12578739 0.060778275
-0.26782632 -0.12570862 0.060766198
-0.26802868 -0.12562494 0.06072294
-0.26823536 -0.12553358 0.060718864
-0.2684263 -0.12544818 0.06072177
-0.26863173 -0.12536535 0.060663495
-0.26881433 -0.12528299 0.060671028
-0.2690137 -0.12519282 0.060680822
-0.2691783 -0.12512255 0.060660727
-0.26937971 -0.12503725 0.060631305
-0.26957399 -0.12495293 0.060616896
-0.26973021 -0.12487465 0.060676411
-0.26998314 -0.1247775 0.060571861
-0.27015278 -0.1246997 0.060587507
-0.27033195 -0.12462837 0.060530469
-0.27051497 -0.12453768 0.060593367
-0.27070546 -0.12445758 0.060561664
-0.27088907 -0.12437612 0.060559977
-0.27108529 -0.12429059 0.06054787
-0.2712802 -0.12420718 0.06052538
-0.27148491 -0.12412143 0.060489021
-0.27168471 -0.12404399 0.060411155
-0.27188659 -0.12395322 0.060417481
-0.2720643 -0.1238732 0.060423881
-0.27227667 -0.12378508 0.060380578
-0.2724753 -0.12370084 0.060352314
-0.27265733 -0.12362213 0.060336791
-0.27280429 -0.12354662 0.060405564
-0.27296919 -0.12348045 0.060356636
-0.273229 -0.12340041 0.060114816
-0.27339196 -0.12330981 0.060237747
-0.27358201 -0.12321413 0.060313314
-0.27378821 -0.12312772 0.060276952
-0.273992 -0.12304325 0.060234826
-0.27418631 -0.1229662 0.060170822
-0.27436775 -0.12288062 0.060203731
-0.27456418 -0.12279941 0.060161639
-0.27474695 -0.12272189 0.06013573
-0.27491868 -0.12264623 0.060130611
-0.2750935 -0.12256903 0.06012664
-0.27527869 -0.12248737 0.060121477
-0.27546912 -0.12239967 0.060141683
-0.27566469 -0.12231883 0.060099579
-0.27582431 -0.12223957 0.060155623
-0.27603257 -0.1221631 0.06004544
-0.27622902 -0.12207765 0.060032181
-0.27642149 -0.12199361 0.060021237
-0.27659079 -0.1219097 0.060079563
-0.27677444 -0.12182535 0.060097478
-0.27696371 -0.12175392 0.060010418
-0.27714989 -0.12167338 0.059994869
-0.27734298 -0.12158719 0.059996612
-0.27753332 -0.12150836 0.059956837
-0.27771369 -0.12142868 0.059952848
-0.27791545 -0.12134324 0.059923418
-0.27809978 -0.1212596 0.059934411
-0.27827942 -0.12118838 0.059875064
-0.27845767 -0.1211139 0.059842248
-0.27864113 -0.12103014 0.059856694
-0.27883467 -0.12094766 0.05983191
-0.27902198 -0.12086559 0.05982329
-0.27920482 -0.12078466 0.059820443
-0.27938822 -0.12071584 0.059733398
-0.27957517 -0.12062798 0.059765138
-0.27975529 -0.12054606 0.059777305
-0.27993652 -0.12046769 0.05976177
-0.28012627 -0.12038419 0.059755452
-0.2803176 -0.12030456 0.059717976
-0.2804952 -0.12022783 0.059702467
-0.28069341 -0.12014243 0.059683427
-0.28087181 -0.1200694 0.059640225
-0.28106287 -0.11998701 0.059622366
-0.28124633 -0.11990409 0.059631057
-0.28143352 -0.11982309 0.059615508
-0.28161266 -0.11975092 0.059564237
-0.28181162 -0.11966332 0.059557877
-0.28198373 -0.11958444 0.059573516
-0.28217658 -0.11950686 0.059517588
-0.28235468 -0.11942141 0.059559748
-0.28254053 -0.11934354 0.059526898
-0.28273678 -0.11925817 0.059513643
-0.28292087 -0.11917955 0.059491187
-0.28308293 -0.11911226 0.059458416
-0.28326979 -0.11902513 0.059485547
-0.28348374 -0.11893324 0.059463002
-0.28365618 -0.11886201 0.059425585
-0.28385141 -0.11878014 0.059391566
-0.28402904 -0.11869812 0.059411801
-0.28419772 -0.11862484 0.059399776
-0.28437123 -0.11855839 0.0593266
-0.28456804 -0.11847074 0.059327178
-0.28473857 -0.11839899 0.059298988
-0.28492618 -0.11831272 0.059318051
-0.28513357 -0.1182212 0.059312828
-0.28526515 -0.11815304 0.059378184
-0.28547087 -0.11806803 0.059333753
-0.2856473 -0.11799317 0.059309009
-0.28582028 -0.11792374 0.059257753
-0.28601369 -0.117842 0.059228353
-0.28621686 -0.11775576 0.059200075
-0.28637195 -0.11768122 0.059237681
-0.28655165 -0.1176054 0.059209473
-0.28674126 -0.11752519 0.059181228
-0.2869246 -0.11744012 0.059204914
-0.28710639 -0.1173705 0.059128255
-0.28732249 -0.11727884 0.059097633
-0.28750145 -0.11719878 0.059100565
-0.28764486 -0.11712722 0.059153199
-0.28782889 -0.11705153 0.059111141
-0.28801441 -0.11697297 0.059084062
-0.28820074 -0.11689523 0.059048913
-0.28838554 -0.1168163 0.059026454
-0.28856212 -0.1167344 0.059049007
-0.28874987 -0.1166584 0.058997713
-0.28891811 -0.11657785 0.05903643
-0.28911737 -0.11649454 0.059000086
-0.28929496 -0.11642322 0.05894766
-0.28946057 -0.11634485 0.05897947
-0.28964436 -0.11627044 0.058929339
-0.2898238 -0.11620154 0.058854986
-0.29001266 -0.11611808 0.058850978
-0.29018337 -0.11603015 0.058932368
-0.2903651 -0.11595921 0.058864936
-0.29056284 -0.11588064 0.058800921
-0.29074025 -0.11580534 0.058776177
-0.29092389 -0.11572149 0.058790632
-0.29110992 -0.11564049 0.058778554
-0.29128292 -0.11556563 0.058764204
-0.29147306 -0.11548432 0.058741726
-0.29163674 -0.11540919 0.058757391
-0.29180625 -0.11533011 0.058782272
-0.29199529 -0.11524759 0.058771335
-0.29218191 -0.11517362 0.058709659
-0.29237479 -0.11507872 0.058771379
-0.29254451 -0.11501192 0.058712047
-0.29274875 -0.11493284 0.058631867
-0.29291907 -0.11485509 0.058645204
-0.29308876 -0.11478898 0.058581267
-0.29326475 -0.11471975 0.05851962
-0.29345387 -0.1146255 0.058588266
-0.29366004 -0.11453774 0.058561139
-0.29382148 -0.11445937 0.058605641
-0.29398701 -0.11438748 0.058593623
-0.2941716 -0.11431271 0.058543488
-0.29434219 -0.11423553 0.058552213
-0.29451683 -0.11415824 0.058549397
-0.29470447 -0.11407482 0.058548845
-0.29490519 -0.11398543 0.058549412
-0.29509968 -0.11389964 0.058544226
-0.29529512 -0.11383906 0.058364868
-0.29544476 -0.1137688 0.058389805
-0.29563698 -0.11367097 0.058473434
-0.29580438 -0.1135957 0.058478713
-0.29597747 -0.11352401 0.058442451
-0.29616228 -0.1134607 0.058313884
-0.2963497 -0.11336906 0.058369849
-0.29653758 -0.11328707 0.058358915
-0.29671291 -0.11321235 0.058336481
-0.29690337 -0.11312736 0.058338232
-0.29708013 -0.11306608 0.058220066
-0.29725942 -0.11298264 0.058244918
-0.29744357 -0.11289146 0.058307812
-0.29759943 -0.11282691 0.058275059
-0.29779977 -0.11274854 0.058201805
-0.29798344 -0.11266639 0.058204718
-0.29815951 -0.11258405 0.05823189
-0.29833171 -0.11251275 0.058195621
-0.29850563 -0.11243527 0.058196262
-0.29870075 -0.11235397 0.058158793
-0.29887819 -0.1122761 0.058151349
-0.2990582 -0.11219421 0.058163501
-0.29923645 -0.11211922 0.058134146
-0.29941407 -0.11204212 0.058120932
-0.29957959 -0.111975 0.05807662
-0.29974625 -0.11189803 0.058095742
-0.29993767 -0.11180275 0.05816438
-0.3001301 -0.11172739 0.05809461
-0.30026647 -0.11165947 0.058143806
-0.30047908 -0.11157887 0.058048602
-0.30066478 -0.11150752 0.057971936
-0.30082187 -0.11143615 0.057981849
-0.30101544 -0.11135063 0.057977825
-0.30119643 -0.11127441 0.057948459
-0.30137312 -0.11119348 0.057964087
-0.30153304 -0.11111679 0.058001678
-0.30170718 -0.11104142 0.057987325
-0.30187804 -0.11096784 0.057970673
-0.30204529 -0.11089332 0.057971332
-0.3022368 -0.11082023 0.05788888
-0.30242413 -0.11074137 0.057858348
-0.30259284 -0.11068351 0.057741359
-0.30279568 -0.11058977 0.057764988
-0.30298787 -0.11048821 0.057873994
-0.30316573 -0.11042103 0.057792731
-0.30334592 -0.1103389 0.057806037
-0.30352327 -0.11026667 0.05776054
-0.30370045 -0.11019164 0.057734646
-0.30387744 -0.11011279 0.057735279
-0.30405802 -0.11004508 0.0576494
-0.30423486 -0.10995866 0.057701927
-0.30440208 -0.10988992 0.057663374
-0.30455285 -0.10982917 0.057620265
-0.30475938 -0.10973125 0.057661172
-0.304943 -0.10965031 0.057656016
-0.30510354 -0.1095825 0.057631329
-0.30529025 -0.1095051 0.05759272
-0.30548728 -0.10941056 0.057639424
-0.30563435 -0.10935519 0.057570942
-0.30579886 -0.10927255 0.05763505
-0.30601472 -0.10918662 0.057566363
-0.30617854 -0.10911582 0.057552051
-0.3063522 -0.10904066 0.057537697
-0.30652216 -0.10897189 0.057491064
-0.30670995 -0.10887992 0.057548176
-0.30688706 -0.10880222 0.057540733
-0.30704111 -0.10873543 0.057528745
-0.30726644 -0.10864408 0.057468109
-0.30744553 -0.10855074 0.05756101
-0.30762416 -0.10848506 0.057467062
-0.30780283 -0.10841803 0.057382341
-0.30797929 -0.10834434 0.057349529
-0.30812424 -0.10827634 0.057373323
-0.30834123 -0.10817783 0.057386525
-0.30850673 -0.10811496 0.057313375
-0.30867049 -0.10804402 0.05730021
-0.3088651 -0.10795293 0.057330776
-0.30902231 -0.10788508 0.057316471
-0.30918857 -0.10781694 0.057276774
-0.30940625 -0.1077161 0.057303805
-0.30957672 -0.10764202 0.057291772
-0.30976638 -0.10756162 0.057264693
-0.30993846 -0.10749343 0.057207666
-0.31011039 -0.10741293 0.057234846
-0.31029698 -0.10734508 0.057131641
-0.31047243 -0.10726234 0.057163425
-0.31064245 -0.10718998 0.057141013
-0.31082228 -0.10712463 0.057041287
-0.31100422 -0.10703968 0.057068441
-0.31119138 -0.10694664 0.057134785
-0.31137237 -0.10686601 0.057135403
-0.31153548 -0.10679792 0.057104938
-0.31170613 -0.10672341 0.057095215
-0.31189883 -0.10663249 0.057130396
-0.31208453 -0.10655572 0.05709064
-0.31226242 -0.10647646 0.05709127
-0.31244269 -0.10639869 0.057074592
-0.31259114 -0.10633219 0.057077613
-0.31279096 -0.10625507 0.056997448
-0.31297487 -0.10617484 0.056986526
-0.31312519 -0.10611125 0.056964163
-0.31331304 -0.10602774 0.056963615
-0.31348902 -0.10595444 0.056929648
-0.31367156 -0.1058704 0.056948721
-0.31383237 -0.10579314 0.056987464
-0.31401089 -0.10572057 0.056940801
-0.31420484 -0.10563605 0.056928702
-0.31437641 -0.10555995 0.05692704
-0.31454512 -0.10548428 0.056931157
-0.31472558 -0.1054066 0.056913324
-0.31491566 -0.10533211 0.056844722
-0.31508869 -0.10526605 0.056770392
-0.31526661 -0.10518119 0.056809083
-0.31543481 -0.1051071 0.056803983
-0.3156147 -0.10502441 0.056821905
-0.31580222 -0.10494292 0.056808665
-0.31598681 -0.10486833 0.056757368
-0.3161678 -0.10480177 0.056662265
-0.31629962 -0.10476813 0.056492329
-0.3165046 -0.10465902 0.056613982
-0.31668976 -0.10457687 0.05661229
-0.31686953 -0.10451241 0.056506805
-0.31704488 -0.10444005 0.05646823
-0.31721553 -0.10436097 0.056489639
-0.31738752 -0.10429028 0.056449916
-0.31757134 -0.10420025 0.056505892
-0.31775799 -0.10409929 0.056627609
-0.31794295 -0.10402369 0.056582078
-0.3181048 -0.10396854 0.056467421
-0.31826702 -0.10391238 0.056358524
-0.31844765 -0.10382953 0.056375287
-0.31866533 -0.10371954 0.05646462
-0.31885222 -0.10363001 0.056507893
-0.31903082 -0.10355672 0.056465853
-0.3192023 -0.10348235 0.056452654
-0.3193869 -0.1034025 0.056437124
-0.31956679 -0.10332202 0.056440055
-0.31974301 -0.10323911 0.056470677
-0.31993961 -0.10315137 0.056472402
-0.32010067 -0.1030964 0.056358904
-0.32028568 -0.10300244 0.056437943
-0.32046407 -0.10293418 0.056362446
-0.32062733 -0.10286602 0.056331985
-0.32080096 -0.10279273 0.056304939
-0.3209745 -0.10272831 0.056217931
-0.32117394 -0.10262744 0.056300379
-0.3213574 -0.10254588 0.056299843
-0.32152668 -0.10247182 0.056291275
-0.32171452 -0.10239137 0.056269966
-0.32189551 -0.10232244 0.056191005
-0.32204193 -0.10228247 0.056019861
-0.32223183 -0.10218227 0.056126576
-0.32242587 -0.10207973 0.056236729
-0.3226023 -0.10201419 0.056148555
-0.32279459 -0.10193466 0.056107622
-0.32295981 -0.10185967 0.056117512
-0.32317144 -0.10176475 0.056122661
-0.32333127 -0.10170235 0.056063369
-0.32352501 -0.10160927 0.056110084
-0.32370344 -0.10152537 0.056140706
-0.3238776 -0.10146304 0.056037545
-0.32404405 -0.10140144 0.055952858
-0.32419938 -0.1013312 0.055960469
-0.32441324 -0.10120457 0.056174375
-0.32459661 -0.101139 0.056065422
-0.32477972 -0.10106304 0.056027971
-0.32494929 -0.10098257 0.056062069
-0.32515416 -0.10090932 0.055940367
-0.32532382 -0.10083236 0.055950247
-0.32549837 -0.10075867 0.055923209
-0.32568538 -0.10067706 0.055912279
-0.32585967 -0.10060383 0.055882931
-0.32603911 -0.10052322 0.055888176
-0.32620779 -0.10045807 0.055820782
-0.32638431 -0.10037841 0.055828333
-0.3265568 -0.10030784 0.055786308
-0.32672694 -0.10023086 0.055795036
-0.32693803 -0.10013531 0.055805944
-0.3271026 -0.10007267 0.055733956
-0.32731652 -0.099970296 0.055782918
-0.32748845 -0.099900648 0.055736277
-0.3276754 -0.099807359 0.055804927
-0.32784891 -0.09974499 0.05570408
-0.3280122 -0.099677823 0.055666685
-0.32820338 -0.099597588 0.055633835
-0.32839057 -0.0995076 0.055679414
-0.32859027 -0.099419162 0.055676524
-0.32878187 -0.099338561 0.055644818
-0.32893783 -0.099269405 0.055643212
-0.32910407 -0.099204496 0.055581596
-0.32928097 -0.099128574 0.055562615
-0.32946205 -0.099044338 0.055587456
-0.32967436 -0.09894301 0.055634122
-0.32984108 -0.098880425 0.055555202
-0.33001748 -0.098805413 0.055531617
-0.33020809 -0.098726444 0.055491839
-0.33039713 -0.098629862 0.055576637
-0.33057189 -0.09856268 0.055504616
-0.33075649 -0.09848588 0.055468317
-0.33093634 -0.098406777 0.055462021
-0.3311244 -0.098320298 0.055481073
-0.33131623 -0.098242819 0.055427458
-0.33148843 -0.098173395 0.055378508
-0.33165425 -0.098103762 0.055350333
-0.33184978 -0.098013781 0.055370525
-0.33203304 -0.09793096 0.055379216
-0.33219874 -0.097864255 0.055331443
-0.33238858 -0.097784102 0.055302039
-0.33257139 -0.097699448 0.055324577
-0.33275247 -0.097622178 0.055302128
-0.33293366 -0.097549945 0.055245083
-0.33311728 -0.097462036 0.055287216
-0.33329445 -0.097389549 0.055244017
-0.33349326 -0.097301677 0.055239979
-0.33370408 -0.09719982 0.055294719
-0.33388028 -0.097131178 0.055228457
-0.33405063 -0.097059347 0.055201426
-0.33425742 -0.096969962 0.055183522
-0.33443674 -0.096892796 0.055165697
-0.33460045 -0.096818998 0.055172134
-0.33477637 -0.096748255 0.055120863
-0.33496806 -0.096657105 0.055160675
-0.33512816 -0.096599683 0.055066779
-0.33534217 -0.096502513 0.055079989
-0.33551627 -0.096433938 0.055019498
-0.33568674 -0.096357644 0.055022456
-0.33589068 -0.096258 0.055082995
-0.33608729 -0.096178398 0.055029355
-0.33627895 -0.096095078 0.0550161
-0.33644074 -0.096028745 0.054977566
-0.33662623 -0.095945433 0.054982789
-0.33681947 -0.095860548 0.054975301
-0.33699426 -0.095786929 0.054947112
-0.33715272 -0.095726661 0.054877438
-0.33737099 -0.095616914 0.054963302
-0.33756006 -0.095539145 0.05492007
-0.3377237 -0.095475562 0.05485731
-0.33791539 -0.095386095 0.054885577
-0.33810493 -0.095307954 0.054843504
-0.33829021 -0.095227793 0.054827958
-0.33847132 -0.095147789 0.054823972
-0.3386533 -0.095071308 0.054793444
-0.33882603 -0.094993837 0.054797556
-0.33904877 -0.09489584 0.054789979
-0.33922061 -0.094821662 0.054774474
-0.33940598 -0.094737552 0.054785468
-0.33959281 -0.094662644 0.054729559
-0.33978832 -0.09457659 0.054723218
-0.33996946 -0.094495043 0.054729607
-0.34014735 -0.094423264 0.054679479
-0.34033948 -0.094340906 0.05465816
-0.34053361 -0.094252393 0.054672584
-0.34072191 -0.09417209 0.054648954
-0.34090355 -0.094096601 0.054612674
-0.3410776 -0.094020762 0.054601777
-0.34129182 -0.093926378 0.054595385
-0.34148002 -0.093838304 0.054624822
-0.34165233 -0.093766451 0.054592021
-0.34183034 -0.093692929 0.054553431
-0.34203196 -0.093601592 0.054564375
-0.34221634 -0.093525738 0.054522306
-0.3423965 -0.093448207 0.054504476
-0.34260052 -0.093358688 0.054495808
-0.34276736 -0.093290627 0.054453798
-0.34295094 -0.093213774 0.054420955
-0.34313166 -0.093133941 0.054416969
-0.34332931 -0.093045242 0.054422159
-0.34352386 -0.092957735 0.054428499
-0.34370708 -0.092883416 0.054379527
-0.34389424 -0.092801392 0.054370902
-0.34408182 -0.092717171 0.05437611
-0.34426337 -0.092644602 0.05432022
-0.34446451 -0.092552975 0.054334626
-0.34464067 -0.092481971 0.054284513
-0.34481579 -0.092404462 0.054281693
-0.34503835 -0.092299923 0.054319095
-0.34521219 -0.092229433 0.054272447
-0.2537778 -0.1349398 0.040507074
-0.25394043 -0.13486056 0.040553857
-0.2540966 -0.134783 0.040608741
-0.25424895 -0.13470441 0.040682081
-0.25440618 -0.13462552 0.040742729
-0.25455177 -0.1345486 0.040825315
-0.25469169 -0.13447198 0.040922914
-0.25483325 -0.13439396 0.041025121
-0.25497338 -0.13431725 0.041122723
-0.25512123 -0.13423879 0.041208766
-0.25526503 -0.13416183 0.041297123
-0.25540525 -0.13408372 0.041403949
-0.25553975 -0.13400713 0.041517712
-0.25567311 -0.13393053 0.041634943
-0.25580692 -0.13385257 0.041760229
-0.25592989 -0.13377501 0.041915543
-0.25605658 -0.13369851 0.042052396
-0.25617748 -0.13362084 0.042214632
-0.25630119 -0.13354295 0.042369943
-0.2564151 -0.13346535 0.042552959
-0.25652233 -0.13338919 0.04274638
-0.25662616 -0.133313 0.042950187
-0.25671917 -0.13323703 0.043185167
-0.2517935 -0.13263682 0.062166259
-0.25201032 -0.13254704 0.062120624
-0.25220716 -0.13245614 0.062143091
-0.25242707 -0.13236654 0.062087066
-0.25263011 -0.13227729 0.062079526
-0.25283766 -0.13218808 0.06205814
-0.25304288 -0.13209738 0.062054053
-0.25324225 -0.13200842 0.062055752
-0.25346801 -0.13191772 0.061989337
-0.25366929 -0.13182893 0.061984107
-0.25389448 -0.1317385 0.061917685
-0.25410181 -0.13164988 0.061892845
-0.25429013 -0.13155973 0.061936092
-0.25447237 -0.1314811 0.061919387
-0.25473523 -0.13138139 0.061802119
-0.25491416 -0.13129303 0.061861537
-0.25510502 -0.1312031 0.061895553
-0.25532094 -0.13111509 0.061840698
-0.25553536 -0.13102554 0.061800834
-0.25572142 -0.13093741 0.061837174
-0.25592732 -0.13084792 0.061822709
-0.25614187 -0.13076034 0.061769009
-0.25635171 -0.13067114 0.061740689
-0.25652301 -0.13058802 0.061787456
-0.25674456 -0.13049583 0.061744113
-0.25691515 -0.13042474 0.061711296
-0.25715593 -0.13032128 0.061686352
-0.25733012 -0.13023672 0.061734255
-0.25753197 -0.13015988 0.061645988
-0.25774586 -0.13006803 0.061623439
-0.25797239 -0.12997498 0.061570849
-0.25816786 -0.12988791 0.061571412
-0.25839818 -0.12979349 0.061516505
-0.25858456 -0.12971149 0.061510175
-0.25877094 -0.12962253 0.061551116
-0.25897521 -0.12953614 0.061520517
-0.25916979 -0.12945119 0.061509542
-0.25935647 -0.12936769 0.06151244
-0.25955603 -0.12928134 0.06149568
-0.25977522 -0.12919614 0.061411984
-0.2599903 -0.12910187 0.061402101
-0.26020038 -0.12901103 0.061384168
-0.26040757 -0.12892555 0.061338563
-0.26059744 -0.12883912 0.061351825
-0.26076266 -0.12876211 0.061375536
-0.2609835 -0.128676 0.061292984
-0.26117504 -0.12858252 0.061348908
-0.26135451 -0.12850666 0.061321847
-0.26159188 -0.12842029 0.061190806
-0.2617932 -0.12832403 0.061236318
-0.26192239 -0.12824455 0.061385848
-0.26214054 -0.12815708 0.061320603
-0.2623319 -0.12807506 0.061299264
-0.26253891 -0.12798882 0.061259426
-0.26276925 -0.12789337 0.061211437
-0.26297453 -0.12781484 0.061124321
-0.26315165 -0.12772815 0.061177988
-0.26335514 -0.12763819 0.061173908
-0.2635667 -0.12755297 0.061113298
-0.2637293 -0.12747458 0.061154321
-0.26389554 -0.12740238 0.061142281
-0.26409292 -0.12731209 0.061158977
-0.26431754 -0.1272248 0.061072953
-0.2645424 -0.1271279 0.061051518
-0.26475179 -0.12703924 0.061020888
-0.26494765 -0.12695506 0.06100069
-0.26511607 -0.12687764 0.061017476
-0.26530641 -0.12679693 0.060990375
-0.26546961 -0.12671897 0.061026782
-0.26571614 -0.12661937 0.060957998
-0.26590571 -0.12654087 0.060918212
-0.26609331 -0.12646019 0.060899179
-0.26629072 -0.12636872 0.060923949
-0.26646084 -0.12629192 0.060931511
-0.26667222 -0.12620659 0.060872052
-0.26685292 -0.12612526 0.060878418
-0.26706055 -0.12602718 0.060916997
-0.26726732 -0.12594986 0.06081719
-0.26746258 -0.12586051 0.060833894
-0.26767477 -0.12577806 0.060752526
-0.26784864 -0.12569602 0.060784288
-0.26802334 -0.12561837 0.060783759
-0.26825207 -0.12552416 0.060732313
-0.26839685 -0.12545659 0.060753793
-0.26860875 -0.12537476 0.06066896
-0.26879665 -0.12528463 0.060713362
-0.26899031 -0.12520635 0.060659721
-0.26918298 -0.12511933 0.060668364
-0.26938823 -0.12503031 0.060652744
-0.26957837 -0.12495614 0.060581822
-0.26977631 -0.12486594 0.060596216
-0.26996213 -0.12478453 0.060587578
-0.27013031 -0.12470638 0.060610123
-0.27033556 -0.12462005 0.060576063
-0.27052355 -0.12453479 0.060587019
-0.27072555 -0.12445026 0.060550652
-0.2709077 -0.12436844 0.060555872
-0.2710903 -0.12429592 0.060496494
-0.27130654 -0.12419878 0.06050276
-0.27150381 -0.12411364 0.060484864
-0.27169275 -0.12403134 0.060472757
-0.27188379 -0.12395661 0.060402982
-0.27205884 -0.12387827 0.06040591
-0.2722376 -0.12380322 0.060375381
-0.27244473 -0.12371624 0.060340151
-0.27263668 -0.12363277 0.060326878
-0.27280846 -0.12355387 0.06034366
-0.2730372 -0.1234583 0.060301442
-0.27322325 -0.12337355 0.060314722
-0.27340966 -0.12329137 0.060309537
-0.27362162 -0.12321615 0.060179733
-0.27378926 -0.12312908 0.060264561
-0.27397993 -0.12304585 0.060253602
-0.27418107 -0.12296815 0.060173422
-0.27435622 -0.12289572 0.060135987
-0.27453747 -0.12281006 0.060170032
-0.2747235 -0.12272329 0.060197134
-0.27492386 -0.12263829 0.060168851
-0.27509949 -0.12256379 0.0601441
-0.27530476 -0.12247797 0.060106568
-0.27548185 -0.12239636 0.060125634
-0.27566463 -0.12231919 0.060097404
-0.27582455 -0.12224521 0.060116522
-0.27603304 -0.12215559 0.060095135
-0.27620658 -0.12207827 0.060095757
-0.27639788 -0.12199901 0.060055967
-0.27658185 -0.12191468 0.060072701
-0.27677283 -0.12183014 0.060069814
-0.27696732 -0.12175505 0.059991956
-0.27715397 -0.12167461 0.059974097
-0.27734956 -0.12159479 0.059925057
-0.27751705 -0.12151577 0.059955694
-0.27769497 -0.12143786 0.059947073
-0.27789056 -0.12135278 0.059933793
-0.27806565 -0.12127393 0.059940178
-0.278254 -0.12119751 0.059890021
-0.2784375 -0.12111644 0.059886005
-0.27861536 -0.12104178 0.05985548
-0.27881721 -0.12095393 0.059842177
-0.27897707 -0.12087489 0.059895895
-0.27918613 -0.12079315 0.05981914
-0.27937022 -0.12071862 0.059768997
-0.2795338 -0.12063827 0.059820391
-0.27975801 -0.12054878 0.059750512
-0.27994019 -0.12046474 0.059770718
-0.28010324 -0.12038717 0.059804827
-0.28031793 -0.12030904 0.059686534
-0.2804988 -0.12022763 0.059692912
-0.28067335 -0.12015258 0.059675083
-0.28084719 -0.12007412 0.059682619
-0.28103492 -0.12000255 0.059601329
-0.28123754 -0.1199291 0.059487693
-0.2814284 -0.11983085 0.059578218
-0.28161097 -0.11974427 0.059614569
-0.28178647 -0.11966049 0.059653237
-0.28199452 -0.11958411 0.059543051
-0.28218502 -0.11949859 0.059548233
-0.28236237 -0.11941925 0.059551157
-0.28251985 -0.11934567 0.059574902
-0.28273845 -0.11925919 0.059501577
-0.28289315 -0.11919093 0.059497647
-0.28310156 -0.11910237 0.059469335
-0.28328955 -0.1190227 0.059442237
-0.28347799 -0.11893994 0.059434749
-0.28365204 -0.11886258 0.05943422
-0.28382719 -0.11878948 0.059401393
-0.28401354 -0.11870206 0.059431963
-0.28421378 -0.11861983 0.059385233
-0.28438595 -0.11854517 0.059372015
-0.28457198 -0.11846128 0.059379525
-0.28473139 -0.1183894 0.059385955
-0.28491676 -0.11831633 0.059321962
-0.28510806 -0.11823249 0.059313308
-0.28527963 -0.11815401 0.059327781
-0.28545779 -0.11807635 0.059316866
-0.28564903 -0.11801203 0.059175581
-0.28585473 -0.11791177 0.059234925
-0.28602347 -0.11783931 0.059217118
-0.28617746 -0.11775186 0.059345804
-0.28638688 -0.11767826 0.059212551
-0.28655973 -0.11760109 0.059214331
-0.28674319 -0.11752004 0.059210315
-0.28692645 -0.117443 0.059179775
-0.28712058 -0.11735822 0.059168801
-0.28727755 -0.1172893 0.059162557
-0.28747126 -0.11721286 0.059096232
-0.28767133 -0.11712918 0.059059877
-0.28783566 -0.11704952 0.059104353
-0.28803036 -0.11696569 0.059085317
-0.28820607 -0.11688723 0.059087079
-0.28839061 -0.11681233 0.05903808
-0.28858343 -0.1167317 0.059002906
-0.28876212 -0.11666092 0.05894354
-0.28894126 -0.11658146 0.058941849
-0.28911006 -0.11650609 0.058943644
-0.28928322 -0.11642081 0.05899962
-0.28947541 -0.11634012 0.058966741
-0.28965962 -0.11626604 0.058913141
-0.28985795 -0.11617736 0.058915991
-0.29002446 -0.11609978 0.058939703
-0.2902011 -0.11602806 0.058893036
-0.29039434 -0.11595438 0.058809415
-0.2905857 -0.11586862 0.058813453
-0.29076129 -0.11579107 0.058809459
-0.29093653 -0.11571318 0.058808915
-0.29113209 -0.1156271 0.05880256
-0.29132077 -0.11554916 0.058761626
-0.29148167 -0.11547595 0.058772668
-0.29166368 -0.11540115 0.058730595
-0.2918452 -0.11532028 0.058731198
-0.29203546 -0.1152335 0.058745615
-0.29223049 -0.11514715 0.058742717
-0.29242101 -0.11507263 0.058672935
-0.29260513 -0.11498349 0.058721971
-0.29277334 -0.11492077 0.058639579
-0.29294592 -0.11484608 0.058625206
-0.29310772 -0.11476823 0.058665086
-0.2932879 -0.11468575 0.058680683
-0.29348865 -0.11461518 0.058553219
-0.29365417 -0.11454313 0.058542326
-0.2938289 -0.11445222 0.058631755
-0.29402944 -0.11437564 0.058545806
-0.29422349 -0.1142887 0.058549829
-0.29438898 -0.11421683 0.058537789
-0.29456699 -0.11413803 0.058534943
-0.29475066 -0.114062 0.058496322
-0.2949301 -0.11397849 0.058521155
-0.295127 -0.11389707 0.058479033
-0.29529086 -0.11382253 0.058490068
-0.29548207 -0.11374619 0.058430679
-0.29567155 -0.11366671 0.058397807
-0.29584172 -0.11358886 0.058412284
-0.29601943 -0.11351003 0.058410581
-0.29619852 -0.11341702 0.058501147
-0.29639563 -0.11334603 0.058387533
-0.29657134 -0.11327183 0.058360472
-0.29673594 -0.11319917 0.058356516
-0.29693121 -0.11311609 0.058330543
-0.29711506 -0.11302402 0.058400333
-0.29726267 -0.11296707 0.058341071
-0.29746774 -0.1128798 0.058313921
-0.29765859 -0.11279564 0.058308728
-0.29784295 -0.11271471 0.058301255
-0.29801106 -0.11264167 0.058289208
-0.29818293 -0.11256867 0.058265612
-0.29835448 -0.11250649 0.05816938
-0.2985535 -0.11241328 0.05820106
-0.29874626 -0.11233623 0.058141656
-0.29889327 -0.11225528 0.058247313
-0.29905963 -0.11218965 0.058190294
-0.29923928 -0.11213285 0.058032915
-0.29942223 -0.11206222 0.057959706
-0.29963535 -0.11195271 0.058059387
-0.29980913 -0.11187479 0.058063462
-0.29997298 -0.11180077 0.05807104
-0.30013722 -0.11172844 0.058065932
-0.30031368 -0.11164593 0.058093071
-0.30048814 -0.11157092 0.058075242
-0.30066887 -0.1114916 0.058067776
-0.300843 -0.11141505 0.058061481
-0.30103096 -0.11133692 0.058023997
-0.30120128 -0.11125883 0.058039632
-0.30137408 -0.11117388 0.058094464
-0.30154923 -0.111104 0.058039725
-0.30173013 -0.11102629 0.058020726
-0.30190796 -0.11095166 0.057990197
-0.30209273 -0.11087833 0.057929669
-0.30227038 -0.11080361 0.057900302
-0.30245164 -0.11073152 0.05784208
-0.30262664 -0.11066713 0.057750449
-0.30281046 -0.11058847 0.057729132
-0.30298752 -0.11051045 0.057723977
-0.30316821 -0.11043657 0.057679601
-0.303352 -0.11035928 0.057649057
-0.30353212 -0.11027666 0.057665814
-0.30370891 -0.11019164 0.057709094
-0.30388936 -0.11011498 0.057684328
-0.30407944 -0.11002505 0.057720657
-0.3042534 -0.10995435 0.057675149
-0.30443379 -0.1098784 0.057645775
-0.3046338 -0.10979848 0.05758404
-0.30478799 -0.10972077 0.05764585
-0.30495843 -0.10965231 0.057595745
-0.30514193 -0.10957583 0.057560585
-0.30532932 -0.1094798 0.057646506
-0.30549651 -0.10940973 0.057617169
-0.30568114 -0.10931154 0.05772616
-0.30585292 -0.10921906 0.057835195
-0.30602971 -0.10915117 0.057762012
-0.30621165 -0.10909658 0.057582706
-0.30638763 -0.10899545 0.057737857
-0.3065615 -0.10892156 0.057714261
-0.30674103 -0.10885362 0.05763299
-0.30692592 -0.10876329 0.057687785
-0.30710569 -0.10869204 0.057628419
-0.30727857 -0.10862536 0.057558693
-0.30745515 -0.10855315 0.057515487
-0.30763403 -0.10848619 0.057429604
-0.30780882 -0.10842494 0.057317208
-0.30798265 -0.10834834 0.057312071
-0.30816588 -0.10827046 0.057287298
-0.30834875 -0.1081946 0.05724984
-0.30852556 -0.1081182 0.05723431
-0.3087233 -0.10802641 0.05726023
-0.30889568 -0.10794181 0.057313912
-0.30907822 -0.10786762 0.057266071
-0.30926329 -0.10779536 0.057197463
-0.30944428 -0.10769913 0.057304163
-0.30961668 -0.10760248 0.057439722
-0.30979589 -0.10753028 0.057388432
-0.30996335 -0.10745736 0.057377547
-0.31014118 -0.10737797 0.057379317
-0.31032419 -0.10730171 0.057344161
-0.31050974 -0.10721499 0.057372425
-0.31068373 -0.10713968 0.05735806
-0.31085965 -0.10706827 0.057311401
-0.31102774 -0.1070151 0.057164423
-0.31121045 -0.10692845 0.057200775
-0.31138477 -0.10685164 0.057195626
-0.31157032 -0.10677594 0.057148937
-0.31175306 -0.10669979 0.057113778
-0.31193054 -0.10663158 0.057040583
-0.31211531 -0.10655776 0.056983512
-0.31228599 -0.10648341 0.056972615
-0.31244177 -0.10642945 0.056868348
-0.31262618 -0.1063473 0.056868948
-0.3128078 -0.10626521 0.056877613
-0.31299534 -0.10617404 0.056930091
-0.31317857 -0.10609598 0.056906477
-0.31336814 -0.10600764 0.056933582
-0.31355 -0.10593358 0.056886889
-0.31372276 -0.10585391 0.056905977
-0.31389517 -0.10576776 0.05697003
-0.31410041 -0.10567534 0.056977481
-0.31425783 -0.10561521 0.056910109
-0.31442329 -0.1055481 0.056865785
-0.31460598 -0.10546468 0.056880224
-0.31478521 -0.10539027 0.056843929
-0.31497711 -0.10530446 0.056846805
-0.31514516 -0.10523757 0.056793239
-0.31532237 -0.10515472 0.056820378
-0.3155002 -0.10508364 0.056765646
-0.31567407 -0.10500906 0.056746654
-0.31585455 -0.10492527 0.056770325
-0.31604794 -0.10484898 0.056704
-0.31621045 -0.10478217 0.056666601
-0.31639779 -0.1047072 0.056609534
-0.31657609 -0.10462862 0.056604374
-0.31674933 -0.10455552 0.056577317
-0.31693053 -0.10447649 0.056566395
-0.31711617 -0.10438803 0.056606192
-0.31729615 -0.10430633 0.056617171
-0.31747854 -0.10423069 0.056579717
-0.3176634 -0.10414986 0.05656993
-0.31784305 -0.10406917 0.056575153
-0.31802255 -0.10399412 0.056542315
-0.31820861 -0.10391633 0.056508303
-0.31835467 -0.10386685 0.056402914
-0.31855422 -0.10377237 0.056441516
-0.31871748 -0.10369895 0.056446783
-0.31889692 -0.10360917 0.056514278
-0.31910145 -0.10352064 0.056497518
-0.31928092 -0.10344102 0.056495816
-0.3194471 -0.103377 0.056428418
-0.31962633 -0.10331208 0.056327544
-0.31978807 -0.10324188 0.056315526
-0.31997743 -0.10314888 0.056374915
-0.32015923 -0.10306077 0.056423947
-0.32035536 -0.10297427 0.056418739
-0.32052723 -0.10290432 0.056374397
-0.32072562 -0.10281834 0.056358792
-0.32091016 -0.1027436 0.056308649
-0.32108197 -0.10267366 0.056264307
-0.32127535 -0.10258788 0.056262564
-0.32144463 -0.10251381 0.05625397
-0.32161206 -0.10244294 0.056229241
-0.32177389 -0.10237747 0.056184929
-0.32196537 -0.10228692 0.056221254
-0.32213318 -0.10221554 0.056198832
-0.32230657 -0.10214303 0.05616717
-0.32251966 -0.10204154 0.056212649
-0.3226817 -0.10197578 0.056169484
-0.32285824 -0.10189831 0.05616203
-0.32304409 -0.10181385 0.056174152
-0.323232 -0.10174151 0.056097466
-0.32342371 -0.10165171 0.056128014
-0.32361296 -0.10157725 0.056061711
-0.32377195 -0.10150506 0.056071602
-0.3239741 -0.10141061 0.056102127
-0.32411253 -0.10136654 0.055982925
-0.32433406 -0.10124636 0.056129862
-0.32451677 -0.10117108 0.056088947
-0.32469389 -0.10108997 0.056104552
-0.32486323 -0.10101707 0.056087893
-0.325028 -0.1009545 0.056014735
-0.32521075 -0.10087225 0.056021098
-0.32538196 -0.10080361 0.055969831
-0.32557788 -0.10071941 0.055949636
-0.32574874 -0.10064787 0.055919133
-0.32591727 -0.10057635 0.055895552
-0.32611233 -0.10049014 0.055891499
-0.32629862 -0.10041328 0.055850565
-0.32648575 -0.10033517 0.055815406
-0.32665217 -0.10027002 0.055754926
-0.32683504 -0.100185 0.05577974
-0.32702783 -0.10009913 0.055780306
-0.32721093 -0.10001723 0.055783212
-0.3273868 -0.099948548 0.055718098
-0.32754159 -0.099896193 0.055605765
-0.32773817 -0.099789813 0.055734329
-0.32794705 -0.09969493 0.055747528
-0.32813895 -0.099607758 0.055759631
-0.3283138 -0.099537492 0.055708364
-0.32851854 -0.09944547 0.055714652
-0.32870829 -0.099361449 0.055711769
-0.32886153 -0.099307932 0.055612125
-0.32903633 -0.099228874 0.055620819
-0.32921502 -0.099156559 0.055571843
-0.32939577 -0.099072814 0.055594355
-0.32959217 -0.098992139 0.05554878
-0.32976213 -0.09891963 0.055527516
-0.32994545 -0.098835766 0.055543099
-0.33013377 -0.098756976 0.055509076
-0.33030972 -0.098682657 0.055482022
-0.33051533 -0.098587714 0.055505611
-0.33068815 -0.098511904 0.055498168
-0.33087319 -0.098429129 0.055501066
-0.33105949 -0.098347686 0.055491269
-0.33122689 -0.098287001 0.055397354
-0.33141518 -0.09820585 0.05537948
-0.33160529 -0.09811981 0.055389281
-0.33178905 -0.098041698 0.055364504
-0.33197343 -0.097957522 0.05537894
-0.33216003 -0.097881362 0.055332236
-0.33232948 -0.097812817 0.055285592
-0.33252761 -0.097712375 0.055369176
-0.33271816 -0.097639367 0.055289026
-0.33288682 -0.097569317 0.055255067
-0.33306941 -0.097487807 0.055256821
-0.3332634 -0.097405657 0.05522855
-0.33344734 -0.097325236 0.055218767
-0.33364528 -0.097233519 0.055243537
-0.33379334 -0.097182803 0.055140451
-0.33399031 -0.097092368 0.055159457
-0.3341932 -0.097005054 0.055139236
-0.33437228 -0.096933082 0.055086784
-0.33456281 -0.096840583 0.055139255
-0.33476466 -0.096740179 0.055211302
-0.33493137 -0.096682511 0.055098929
-0.33512595 -0.096600264 0.055069502
-0.33529684 -0.096528202 0.055042464
-0.33547619 -0.096448988 0.055038452
-0.33567944 -0.096359484 0.055032071
-0.33589223 -0.096266419 0.055021048
-0.33606875 -0.09619762 0.054954771
-0.3362124 -0.096139871 0.05491282
-0.33642113 -0.096033007 0.055007905
-0.33659947 -0.095964581 0.054933559
-0.33678773 -0.095882937 0.054919146
-0.33699495 -0.095789634 0.054926589
-0.33719209 -0.095698446 0.0549502
-0.33737943 -0.095618047 0.054930031
-0.33758914 -0.095526859 0.054915559
-0.33775288 -0.095461041 0.054867771
-0.33793777 -0.095376819 0.054881044
-0.33812955 -0.095291898 0.054878157
-0.33830613 -0.09521459 0.054869555
-0.33846545 -0.095153607 0.054802179
-0.33867732 -0.095056206 0.05482344
-0.3388831 -0.094965406 0.054818202
-0.33906513 -0.094889075 0.054786514
-0.3392494 -0.09480615 0.054792874
-0.33942357 -0.094731778 0.054771584
-0.33963513 -0.094637394 0.054773245
-0.33983064 -0.09455353 0.054751895
-0.34002537 -0.094474778 0.054698251
-0.3401925 -0.094401672 0.054689676
-0.34039149 -0.094314404 0.054680999
-0.34059793 -0.094221629 0.054687284
-0.34076327 -0.094158798 0.054614134
-0.34094816 -0.094073907 0.054632016
-0.34114712 -0.09398903 0.054607198
-0.3413468 -0.093899421 0.05461235
-0.34151769 -0.093824975 0.054601457
-0.34167877 -0.093766607 0.054511018
-0.34189746 -0.093655996 0.054601457
-0.34207928 -0.093588732 0.054508649
-0.34229168 -0.093490764 0.054532219
-0.34248421 -0.093406878 0.0545201
-0.3426573 -0.093336545 0.054474596
-0.34285268 -0.093251899 0.054459013
-0.34304649 -0.093166932 0.054450352
-0.34323224 -0.093084194 0.054450937
-0.34341535 -0.09300416 0.054441147
-0.34360379 -0.092926674 0.054397907
-0.34379816 -0.092841454 0.054389246
-0.34399268 -0.092756167 0.054380581
-0.34417322 -0.092680842 0.054346588
-0.34436807 -0.092597269 0.054325238
-0.34455323 -0.092515647 0.05432006
-0.34475815 -0.092426255 0.054307908
-0.34494591 -0.092346005 0.054285422
-0.34515899 -0.092248917 0.054300923
-0.34533787 -0.092175499 0.054258861
-0.25352237 -0.13493043 0.041343465
-0.25366938 -0.13485186 0.041432939
-0.25381097 -0.13477485 0.041528199
-0.25395373 -0.13469645 0.041629225
-0.25408709 -0.13461988 0.041746404
-0.25422153 -0.13454062 0.041878577
-0.25434822 -0.13446429 0.04201423
-0.25447789 -0.13438901 0.042133741
-0.25460088 -0.13431145 0.042289007
-0.2547228 -0.13423385 0.042447731
-0.25483692 -0.13415785 0.042619165
-0.2549541 -0.13407896 0.042800963
-0.25506169 -0.13400435 0.042982787
-0.25516796 -0.13392574 0.043195751
-0.25526667 -0.13384861 0.043421421
-0.25000179 -0.13341929 0.062266763
-0.25019917 -0.13332781 0.062291525
-0.25040174 -0.13323776 0.062290907
-0.25058705 -0.13314675 0.062349133
-0.25084627 -0.13305525 0.06218693
-0.25103408 -0.13296431 0.062237084
-0.25126374 -0.13287392 0.062156834
-0.25146374 -0.13278282 0.062171206
-0.25167671 -0.13269305 0.062137119
-0.25189543 -0.1326033 0.062085718
-0.2520901 -0.13251252 0.062113944
-0.25226393 -0.13242371 0.06219181
-0.25248834 -0.13233414 0.06212195
-0.25271687 -0.13224307 0.062049769
-0.25288966 -0.13215439 0.062129945
-0.25308394 -0.13207836 0.062059022
-0.25333986 -0.13197936 0.061957933
-0.25359097 -0.13188384 0.061847635
-0.25377598 -0.13179533 0.061889723
-0.25397232 -0.13170518 0.061908722
-0.25417328 -0.1316167 0.061902348
-0.2543819 -0.13152668 0.06188326
-0.25456801 -0.13144818 0.061853871
-0.25477964 -0.13135836 0.061824396
-0.25493944 -0.13126832 0.061953031
-0.25519726 -0.13117068 0.06183695
-0.25539315 -0.13108598 0.061820209
-0.25558621 -0.13099965 0.06182307
-0.25576767 -0.13091491 0.06185019
-0.2559889 -0.13082913 0.061764196
-0.25620449 -0.130735 0.061752003
-0.25638261 -0.13065545 0.061753757
-0.25660151 -0.13055307 0.061787676
-0.25680992 -0.13047433 0.061692506
-0.257 -0.13038848 0.061701145
-0.2572166 -0.13028796 0.061729301
-0.25744146 -0.13020667 0.061601795
-0.2576054 -0.13011853 0.061705057
-0.25783399 -0.13002726 0.061634023
-0.25803819 -0.12994225 0.061594196
-0.25823715 -0.12985194 0.061606269
-0.25844994 -0.12976398 0.061560653
-0.25925896 -0.12941673 0.06147401
-0.25945649 -0.12932858 0.061475713
-0.25963533 -0.12925026 0.061467096
-0.25984919 -0.12915775 0.061449148
-0.26001939 -0.12908989 0.061395597
-0.26026502 -0.12898138 0.061390225
-0.26046646 -0.12889388 0.061375774
-0.26065376 -0.1288074 0.061397105
-0.26086789 -0.12872086 0.06133765
-0.26105228 -0.12863432 0.061368216
-0.26121128 -0.1285589 0.061400004
-0.26143262 -0.12847134 0.061325543
-0.26161352 -0.12838653 0.061354965
-0.26181418 -0.12829953 0.061339363
-0.2620523 -0.12820624 0.06125332
-0.26226059 -0.12811822 0.061221547
-0.26244801 -0.1280361 0.061212905
-0.26261756 -0.12796006 0.061216995
-0.26283467 -0.12786931 0.061177135
-0.26303285 -0.12777697 0.06120535
-0.26322195 -0.12770292 0.061136752
-0.26341027 -0.12760785 0.061213415
-0.26362365 -0.1275364 0.06105366
-0.26384181 -0.12743671 0.061071444
-0.26402798 -0.12735124 0.061089322
-0.26422286 -0.12726088 0.06111408
-0.26440921 -0.12717551 0.061130807
-0.26462188 -0.12709114 0.06106098
-0.26480153 -0.12700908 0.061075419
-0.26500484 -0.12692785 0.061012536
-0.26517823 -0.12684518 0.06105005
-0.26536357 -0.12676398 0.061041415
-0.26556349 -0.12667665 0.061030425
-0.26578841 -0.12659261 0.06092136
-0.26595151 -0.12651688 0.060942762
-0.26619655 -0.12641355 0.060903966
-0.26638696 -0.12633146 0.060886092
-0.26657543 -0.12625328 0.060847469
-0.26674613 -0.12617062 0.060893055
-0.26694202 -0.12609574 0.060809456
-0.26715794 -0.12599705 0.060827233
-0.2673488 -0.12592171 0.060762089
-0.26753384 -0.12583098 0.060819171
-0.26773864 -0.12574333 0.060795486
-0.26791382 -0.12567005 0.060763817
-0.26810959 -0.12558539 0.060747072
-0.26833481 -0.12548867 0.060723331
-0.26851112 -0.12540945 0.06072855
-0.26869559 -0.12533168 0.060699165
-0.26890996 -0.12523554 0.060704269
-0.26906022 -0.12516485 0.060730323
-0.26924375 -0.12508497 0.060718235
-0.26947066 -0.12498477 0.060712926
-0.26968354 -0.12490846 0.060587764
-0.26983857 -0.12483667 0.060606878
-0.27004921 -0.12474473 0.060594711
-0.27025819 -0.1246503 0.060604446
-0.27042979 -0.12457301 0.060610831
-0.27061248 -0.12449808 0.060567617
-0.27082041 -0.12440819 0.060549691
-0.27101749 -0.12432975 0.060486823
-0.27120653 -0.12424283 0.060505845
-0.27137828 -0.1241636 0.060524922
-0.27160132 -0.12407751 0.060435463
-0.27177343 -0.12400083 0.060436089
-0.2719833 -0.123905 0.060452741
-0.27215332 -0.12383027 0.060446456
-0.27236387 -0.12374889 0.060362801
-0.27254808 -0.1236636 0.060385294
-0.27274275 -0.12358335 0.060342044
-0.27290568 -0.12351195 0.060334619
-0.27310723 -0.12341439 0.060388185
-0.27333614 -0.12334587 0.060161516
-0.27348182 -0.12326042 0.060301721
