# .PCD v0.7 - Point Cloud Data file format
VERSION 0.7
FIELDS x y z
SIZE 4 4 4
TYPE F F F
COUNT 1 1 1
WIDTH 1240
HEIGHT 1
VIEWPOINT 0 0 0 1 0 0 0
POINTS 1240
DATA ascii
-0.073149703 -0.28849202 0.02980312
-0.073279224 -0.28853697 0.029921569
-0.073411323 -0.28858277 0.030042313
-0.073542751 -0.28862983 0.03015268
-0.073683903 -0.28868243 0.030257259
-0.073812164 -0.28871608 0.030447233
-0.0739206 -0.28873977 0.030639583
-0.074044369 -0.28877848 0.030781116
-0.074167736 -0.2888118 0.030957267
-0.074288614 -0.28884396 0.031133424
-0.074412256 -0.28887707 0.03131187
-0.070661575 -0.28263512 0.060999565
-0.070863672 -0.28274423 0.060922842
-0.071031876 -0.28281629 0.060984656
-0.071237788 -0.28291848 0.06096676
-0.071440026 -0.28302523 0.060906187
-0.071632653 -0.28312203 0.060881414
-0.07182157 -0.28321376 0.060878552
-0.072012022 -0.28330776 0.060865313
-0.072213516 -0.28341761 0.060781673
-0.072394855 -0.28349569 0.060845759
-0.072593927 -0.2835992 0.06079673
-0.072779179 -0.28368968 0.060790434
-0.072969124 -0.28378034 0.06079796
-0.073161826 -0.28387854 0.060763948
-0.073356934 -0.28397706 0.060735695
-0.073540911 -0.28406277 0.060757093
-0.073734134 -0.28416225 0.060716156
-0.073882006 -0.28423619 0.060699575
-0.074106842 -0.28435183 0.060652785
-0.074298002 -0.28445238 0.06059802
-0.074503288 -0.28454959 0.06061127
-0.074689567 -0.28463954 0.060611881
-0.074871778 -0.28473058 0.060591746
-0.075064994 -0.28482783 0.060565811
-0.075255543 -0.28491741 0.060582567
-0.075444058 -0.28501135 0.060563572
-0.075607397 -0.28509209 0.060551569
-0.075824693 -0.28520545 0.060495563
-0.076010585 -0.28529194 0.060518097
-0.076187834 -0.28538385 0.060476057
-0.076381534 -0.28547928 0.060463969
-0.076580055 -0.28558269 0.060413793
-0.076764323 -0.285667 0.060445562
-0.076952383 -0.28576159 0.060420789
-0.077133 -0.28585204 0.06039951
-0.077314124 -0.28594756 0.060345922
-0.077518634 -0.28605407 0.060294569
-0.077706419 -0.28614077 0.060321718
-0.077892125 -0.28623232 0.060309641
-0.078074798 -0.28633565 0.06020876
-0.078271113 -0.28642476 0.060247414
-0.078439794 -0.28651717 0.060174253
-0.07862173 -0.28658986 0.0602764
-0.078791812 -0.28666764 0.060305901
-0.07900171 -0.28677228 0.06028454
-0.079187252 -0.28686461 0.060266692
-0.079370193 -0.28695241 0.060270779
-0.079546839 -0.28706074 0.060116839
-0.079752557 -0.28716335 0.060095489
-0.079922348 -0.28725529 0.060029246
-0.080111504 -0.28732732 0.060159057
-0.080287606 -0.2874268 0.0600628
-0.080491066 -0.28751624 0.060122203
-0.080672994 -0.28760323 0.060128592
-0.080857731 -0.28770065 0.060073845
-0.081038743 -0.28778115 0.060120624
-0.081226081 -0.28787917 0.060070477
-0.081398986 -0.2879487 0.060164578
-0.081593275 -0.28806108 0.060040586
-0.081769198 -0.28815237 0.059998542
-0.081967086 -0.28825206 0.059971441
-0.082147993 -0.28833818 0.059980147
-0.082323402 -0.28842372 0.059975028
-0.082510069 -0.28851676 0.059956037
-0.082698375 -0.28861353 0.059917428
-0.082882732 -0.28870767 0.059883438
-0.083066136 -0.28879434 0.059896752
-0.083247282 -0.28888762 0.059858162
-0.083437018 -0.28898868 0.05979532
-0.083604448 -0.28905764 0.059875593
-0.083779268 -0.28915527 0.059787408
-0.083969027 -0.28924516 0.059799556
-0.084159672 -0.28933722 0.059800163
-0.084342539 -0.28942358 0.059813481
-0.08452183 -0.28951427 0.059786424
-0.084707573 -0.28960788 0.059760518
-0.084873214 -0.28969851 0.059689663
-0.085076347 -0.28980261 0.059649855
-0.085229032 -0.2898818 0.059613653
-0.085439406 -0.28997755 0.059653431
-0.085611291 -0.29005775 0.059672534
-0.085801199 -0.29015684 0.059623543
-0.085980803 -0.29024336 0.059625331
-0.086134508 -0.29032651 0.059566062
-0.086330503 -0.29041338 0.059618555
-0.086522005 -0.29050291 0.059638768
-0.086705096 -0.29059991 0.059581716
-0.086883448 -0.29068375 0.059597358
-0.087067135 -0.29077518 0.059579525
-0.087247953 -0.29086661 0.059552465
-0.087424397 -0.29096192 0.059485048
-0.087593839 -0.29104492 0.059477642
-0.08778964 -0.29114929 0.059412472
-0.087972559 -0.29123998 0.059396952
-0.088150948 -0.2913163 0.059463345
-0.088320203 -0.29140884 0.059391335
-0.088472597 -0.29149288 0.059321679
-0.08865577 -0.29157597 0.059358068
-0.088873997 -0.29168203 0.059353981
-0.089043647 -0.29176787 0.059328109
-0.089213237 -0.29185387 0.059301093
-0.089373589 -0.29192713 0.059329472
-0.089567453 -0.29201832 0.059346214
-0.089747556 -0.29211232 0.059299551
-0.089921825 -0.29219505 0.05930943
-0.090106592 -0.29228529 0.059303135
-0.090302646 -0.2923741 0.059342943
-0.090483844 -0.29247466 0.059255898
-0.09065669 -0.29256514 0.059209254
-0.090825438 -0.29265088 0.059181087
-0.091020644 -0.29273653 0.05923935
-0.09120097 -0.29283613 0.059155781
-0.091380306 -0.29293182 0.059095278
-0.091557682 -0.29301816 0.059091303
-0.091739975 -0.29311529 0.059030782
-0.091914833 -0.2931883 0.059107587
-0.092086308 -0.29327607 0.059074782
-0.092268445 -0.29335591 0.059129633
-0.092451118 -0.29345804 0.059036817
-0.09262839 -0.29354602 0.059021313
-0.09280549 -0.2936334 0.059009261
-0.09297917 -0.29371864 0.059000686
-0.093161978 -0.2938036 0.059023231
-0.093339935 -0.29389933 0.058958113
-0.093516603 -0.29398546 0.058952995
-0.093693435 -0.29407358 0.05893518
-0.093872584 -0.29415455 0.058972739
-0.094042554 -0.29423711 0.058969941
-0.094219744 -0.29433125 0.058912903
-0.094396271 -0.29441905 0.058896244
-0.094556391 -0.29449871 0.058880791
-0.094738632 -0.29457948 0.058929864
-0.094898276 -0.29465204 0.058960553
-0.095111214 -0.2947714 0.058850344
-0.09526135 -0.29484797 0.058823377
-0.095450431 -0.2949408 0.058813613
-0.095646173 -0.29504511 0.058748446
-0.095822006 -0.2951307 0.058744475
-0.095988005 -0.29520908 0.058756687
-0.096154004 -0.29528767 0.058767743
-0.096333012 -0.29537424 0.058767226
-0.096515015 -0.29547793 0.058661722
-0.096684165 -0.29555511 0.058692385
-0.096856244 -0.29564643 0.058637671
-0.097044826 -0.29573455 0.058657892
-0.097239807 -0.29582801 0.058663096
-0.097418129 -0.29592061 0.058619905
-0.097590074 -0.29600638 0.058602098
-0.097771928 -0.29609346 0.058607347
-0.097927429 -0.29617247 0.058581516
-0.098086134 -0.29625267 0.058557987
-0.098296918 -0.29635534 0.058552772
-0.098452583 -0.29643062 0.058552317
-0.098617248 -0.29651681 0.058508012
-0.098782748 -0.29659513 0.058519069
-0.098958723 -0.29669866 0.058395125
-0.099162936 -0.29679573 0.058406077
-0.099333107 -0.29686514 0.058492102
-0.09951932 -0.29696622 0.058417737
-0.099703319 -0.29705849 0.058395285
-0.099871337 -0.29714131 0.058384418
-0.1000627 -0.29723111 0.05840233
-0.10021903 -0.29730105 0.058439948
-0.10038613 -0.29738808 0.058397938
-0.10056631 -0.29748005 0.058365121
-0.10074069 -0.29756558 0.058356542
-0.10092691 -0.29766169 0.058315627
-0.10109758 -0.29774699 0.058296677
-0.10126154 -0.2978299 0.058271982
-0.1014652 -0.29792774 0.058276013
-0.101616 -0.29799154 0.058336712
-0.10179177 -0.29809704 0.058198929
-0.10195128 -0.29818144 0.058150012
-0.1021392 -0.29826939 0.058169086
-0.10231628 -0.29835644 0.058159351
-0.10249484 -0.29843885 0.058185369
-0.10266053 -0.29851502 0.058211423
-0.1028413 -0.29861295 0.058140531
-0.10301868 -0.29868826 0.058210395
-0.10317273 -0.29876536 0.058192648
-0.10334575 -0.29887262 0.058034107
-0.10354142 -0.29896021 0.058080833
-0.1036967 -0.29903361 0.058091927
-0.10388888 -0.29913929 0.058006003
-0.10406869 -0.2992278 0.057995103
-0.10423982 -0.29930937 0.058002684
-0.10442585 -0.29940143 0.057988305
-0.10458957 -0.29949042 0.05792208
-0.10475135 -0.29955819 0.057991985
-0.10494489 -0.29965094 0.057997197
-0.10512705 -0.29974249 0.057973601
-0.10530298 -0.29983035 0.057954632
-0.10545183 -0.29990819 0.05791498
-0.10563692 -0.30000132 0.057890229
-0.10581665 -0.3000893 0.057882786
-0.10598871 -0.30017632 0.05785691
-0.10617889 -0.30026743 0.057862125
-0.10633605 -0.3003445 0.05785476
-0.10649969 -0.3004176 0.057894658
-0.10667153 -0.30049798 0.057912625
-0.10684482 -0.30060279 0.057771381
-0.10702933 -0.30069602 0.05774432
-0.10721067 -0.30078751 0.057718419
-0.10739718 -0.30087116 0.057761721
-0.10756535 -0.30095682 0.057732396
-0.1077325 -0.30103767 0.057731908
-0.1079046 -0.30111763 0.057753332
-0.10808213 -0.30120817 0.057721674
-0.10825004 -0.30129385 0.057691198
-0.10843272 -0.30138892 0.057645686
-0.1086105 -0.30147302 0.057657856
-0.10878462 -0.3015562 0.057664279
-0.10895993 -0.3016324 0.057721462
-0.10913721 -0.30173382 0.057615973
-0.10928597 -0.30180955 0.057590161
-0.10946628 -0.30189607 0.057594255
-0.10964762 -0.30198672 0.057574123
-0.10982379 -0.30207279 0.057567842
-0.11000109 -0.30216783 0.057505034
-0.11017174 -0.3022497 0.057509158
-0.11033843 -0.30233583 0.057471767
-0.11051637 -0.30242482 0.057451643
-0.11070546 -0.30251199 0.05747994
-0.11086319 -0.3025974 0.057418339
-0.11104076 -0.30267709 0.057459358
-0.11122508 -0.30276918 0.057439215
-0.11138353 -0.30284426 0.05744914
-0.11155847 -0.30294058 0.057370193
-0.1117374 -0.30302387 0.057391603
-0.11192135 -0.30311164 0.057399146
-0.11207389 -0.30319661 0.05732372
-0.11224333 -0.30327961 0.057316311
-0.1124218 -0.30335474 0.057390779
-0.11260755 -0.30345404 0.057326801
-0.11279199 -0.30353722 0.057366639
-0.11295116 -0.30362886 0.057268132
-0.11311632 -0.30371115 0.057251502
-0.11329754 -0.30379295 0.0572902
-0.11347705 -0.30388442 0.057258543
-0.11365849 -0.30397028 0.057270706
-0.11381838 -0.30405262 0.057236791
-0.11399235 -0.30414021 0.057213221
-0.11416444 -0.30422914 0.057174653
-0.11433058 -0.30430675 0.057192627
-0.11449702 -0.30439964 0.057109095
-0.11468741 -0.3044869 0.05714085
-0.11486726 -0.30457407 0.057139177
-0.11504471 -0.30466661 0.057093669
-0.11521679 -0.30475897 0.057032038
-0.11539257 -0.3048414 0.057048835
-0.11555712 -0.30492392 0.057028748
-0.1157313 -0.30501109 0.057008632
-0.11589939 -0.30509138 0.057015073
-0.11607041 -0.30517343 0.057019193
-0.11624295 -0.30526513 0.056963321
-0.11640915 -0.30535704 0.056885548
-0.11657917 -0.30543619 0.056905828
-0.11674863 -0.30551574 0.056921497
-0.11691441 -0.30559748 0.056910634
-0.11708975 -0.30568057 0.056921661
-0.1172726 -0.30575955 0.056984581
-0.11744935 -0.30584538 0.056981768
-0.11764324 -0.30593848 0.056985825
-0.11782684 -0.30603057 0.056963377
-0.11802061 -0.30612704 0.056944359
-0.118171 -0.30621046 0.056872409
-0.11833569 -0.30629286 0.056853473
-0.11851627 -0.30638003 0.056854106
-0.11867864 -0.30646047 0.056840949
-0.11884573 -0.3065511 0.056774709
-0.11900037 -0.306629 0.056753501
-0.11916948 -0.30671543 0.056721862
-0.11934973 -0.30680281 0.05672019
-0.11952931 -0.30689052 0.056713909
-0.11970069 -0.30697891 0.056676496
-0.11988394 -0.307071 0.056652896
-0.12005482 -0.30715364 0.056652408
-0.12023694 -0.30724037 0.05666111
-0.12040406 -0.30733341 0.056578726
-0.120575 -0.30741611 0.056578226
-0.12075984 -0.30750465 0.056583472
-0.12093098 -0.30759019 0.056564517
-0.12110549 -0.30766875 0.056603231
-0.12126809 -0.30776048 0.05651509
-0.12142508 -0.30783743 0.056507725
-0.1216132 -0.3079305 0.056493342
-0.12179427 -0.3080124 0.056530878
-0.1219408 -0.30809876 0.056426637
-0.12211875 -0.30817917 0.056464192
-0.12229404 -0.30826601 0.056449845
-0.12247988 -0.30835727 0.056440078
-0.12267182 -0.3084465 0.056463759
-0.12282975 -0.30853131 0.056406774
-0.12301049 -0.30861908 0.056403942
-0.123184 -0.30870664 0.056379221
-0.1233566 -0.30878925 0.056384489
-0.12352712 -0.30887777 0.056343619
-0.12369528 -0.30895928 0.056341987
-0.12387127 -0.30904353 0.056347243
-0.12405249 -0.30914152 0.05627751
-0.12422774 -0.30922353 0.056295458
-0.12438134 -0.30930436 0.056251183
-0.12456621 -0.30939621 0.056234501
-0.12473485 -0.30948517 0.056184407
-0.12490723 -0.30956322 0.056219671
-0.12507233 -0.30964825 0.056184586
-0.12526695 -0.30973756 0.056216326
-0.12544462 -0.309829 0.056178905
-0.12562251 -0.30991554 0.05617493
-0.12579396 -0.30999902 0.05617097
-0.125953 -0.31008556 0.056105915
-0.12611438 -0.31016913 0.056068532
-0.12630492 -0.31025511 0.056109514
-0.12646922 -0.31033802 0.056085967
-0.12664005 -0.31042409 0.056062404
-0.12683129 -0.31051245 0.056089547
-0.12701295 -0.31060308 0.056070562
-0.12717746 -0.31068146 0.056078162
-0.12735195 -0.31076911 0.05605574
-0.12751901 -0.31085837 0.055998728
-0.12769273 -0.31094393 0.055987842
-0.12785646 -0.31102708 0.055960841
-0.12803854 -0.3111155 0.055958014
-0.12822276 -0.31120133 0.055979408
-0.12839384 -0.31128976 0.055940844
-0.12856972 -0.31137949 0.055909187
-0.128737 -0.31146643 0.055868328
-0.12890825 -0.31155047 0.055859759
-0.12910081 -0.31163293 0.05593073
-0.12927815 -0.31172249 0.055904839
-0.1294349 -0.31180915 0.055831712
-0.12962714 -0.31189197 0.055899214
-0.12979269 -0.31198564 0.055807605
-0.12995239 -0.31206754 0.055775996
-0.13015656 -0.31214669 0.055906925
-0.13030955 -0.31223807 0.055789966
-0.13050315 -0.31232741 0.055818252
-0.13066819 -0.31242308 0.055711646
-0.13083017 -0.31250677 0.055675417
-0.13100749 -0.31259441 0.055662215
-0.13118659 -0.31267983 0.055669773
-0.13137501 -0.31276411 0.055715382
-0.13155028 -0.3128542 0.055679105
-0.13173252 -0.31294546 0.055657819
-0.13191336 -0.31303689 0.05563077
-0.13206112 -0.31312039 0.055549588
-0.1322304 -0.31320331 0.055542178
-0.13240272 -0.31328788 0.055533607
-0.13258702 -0.31337702 0.055533074
-0.13274643 -0.31346306 0.055472627
-0.13293546 -0.31354401 0.055542458
-0.13314235 -0.313631 0.055629537
-0.13331896 -0.31372312 0.055584028
-0.13349158 -0.31382331 0.055471636
-0.13366142 -0.3139084 0.055451535
-0.13384748 -0.31399202 0.05549369
-0.13400997 -0.31408164 0.055419385
-0.13418749 -0.31416991 0.055402722
-0.134379 -0.31425893 0.055426404
-0.13453342 -0.31433982 0.05538442
-0.13470538 -0.31442678 0.055358551
-0.13490629 -0.31451157 0.055441029
-0.13507316 -0.3146064 0.055345956
-0.13525356 -0.31469467 0.055338513
-0.1354205 -0.31478575 0.055268817
-0.13559544 -0.31486899 0.055277538
-0.13579026 -0.31496376 0.055273514
-0.13597351 -0.31505203 0.055275302
-0.13614117 -0.3151359 0.055256356
-0.13631162 -0.31521782 0.055259332
-0.13649252 -0.31530997 0.05522766
-0.13666281 -0.31539732 0.055193707
-0.13685691 -0.31549242 0.05518508
-0.13700974 -0.31557357 0.055136189
-0.13718197 -0.31565738 0.055132229
-0.13737805 -0.31574553 0.055176653
-0.13753581 -0.31583524 0.055086218
-0.13772458 -0.31592381 0.055104136
-0.13791186 -0.3160142 0.055104755
-0.13809824 -0.31610817 0.055078834
-0.13826333 -0.31618905 0.055071436
-0.13844058 -0.31627306 0.055082459
-0.13860944 -0.31636074 0.055041596
-0.13879581 -0.31645313 0.055026066
-0.13898565 -0.31654719 0.05501052
-0.13916123 -0.31663987 0.054958105
-0.13933116 -0.31672257 0.054954149
-0.1395077 -0.31681192 0.054927111
-0.13966542 -0.31689322 0.054893207
-0.13983245 -0.31697607 0.054878883
-0.14003699 -0.31706691 0.054932512
-0.14020802 -0.31715479 0.054897409
-0.14039586 -0.31724429 0.054906096
-0.14056277 -0.31733224 0.054857165
-0.14076093 -0.31742671 0.054865822
-0.14093092 -0.31751633 0.054815724
-0.14110035 -0.31759951 0.05480716
-0.14126819 -0.31768429 0.054782458
-0.14146625 -0.31777579 0.054810729
-0.1416402 -0.31786233 0.054794077
-0.14182265 -0.3179554 0.05476125
-0.14199346 -0.31804198 0.054734219
-0.14217889 -0.31813356 0.054721002
-0.14234087 -0.31821692 0.054687075
-0.1425218 -0.31830218 0.054701548
-0.1427341 -0.31839919 0.05473901
-0.1428901 -0.31848878 0.054643966
-0.14305641 -0.31857076 0.054633103
-0.14325222 -0.31866598 0.054629076
-0.14342666 -0.31875139 0.054621652
-0.14359662 -0.31884134 0.054569252
-0.14373513 -0.31892109 0.054483488
-0.14396626 -0.31900999 0.054636251
-0.14414889 -0.31910813 0.054569971
-0.14431719 -0.31919661 0.054522187
-0.14451548 -0.31929079 0.054533154
-0.14469936 -0.31938145 0.054521084
-0.14487661 -0.31946737 0.054519415
-0.14502867 -0.31955072 0.054453231
-0.14520086 -0.31963798 0.054426193
-0.14541495 -0.31973171 0.054491337
-0.14558516 -0.31982642 0.054407783
-0.14575973 -0.3199169 0.054366913
-0.1459589 -0.32001013 0.054387104
-0.14613855 -0.32009649 0.054390043
-0.14631455 -0.32018423 0.054372232
-0.14651509 -0.3202807 0.05437512
-0.1466466 -0.3203586 0.054278988
-0.14685197 -0.32045984 0.054265708
-0.14705378 -0.32055074 0.054310117
-0.14722446 -0.32063398 0.05430501
-0.14738098 -0.3207207 0.054230724
-0.14757717 -0.32081145 0.054257855
-0.14772613 -0.32089627 0.05417205
-0.14793478 -0.32099372 0.054194525
-0.14810482 -0.32108286 0.054147895
-0.14827946 -0.32116663 0.054152008
-0.14850558 -0.32127842 0.054135196
-0.14868301 -0.32135546 0.054193523
-0.14888559 -0.32146138 0.054139875
-0.1490671 -0.32155159 0.0541232
-0.14923589 -0.32163942 0.054081187
-0.1494101 -0.32172352 0.054081839
-0.14959663 -0.32181287 0.054087065
-0.14977381 -0.32190013 0.054076172
-0.14998636 -0.32200295 0.054075561
-0.15013346 -0.3220863 0.053993233
-0.15031138 -0.32217374 0.053983495
-0.15051432 -0.32227173 0.053984061
-0.15070347 -0.32236442 0.053975444
-0.15087484 -0.32244733 0.053974945
-0.15105943 -0.32253972 0.053953651
-0.15118907 -0.32261738 0.053852916
-0.15143657 -0.32271042 0.054031007
-0.15161419 -0.32281044 0.053935904
-0.15181941 -0.32291454 0.053903006
-0.15200907 -0.32300901 0.053884007
-0.15217982 -0.32309628 0.053852364
-0.067935795 -0.28605062 0.029278396
-0.068112604 -0.28615129 0.029176358
-0.068290018 -0.28625107 0.029082395
-0.068463027 -0.28634611 0.029005755
-0.06862855 -0.28643477 0.02894759
-0.068793759 -0.2865214 0.028902115
-0.068962663 -0.28661239 0.028839324
-0.069125757 -0.28669697 0.028800773
-0.069287091 -0.28678155 0.028756469
-0.069445834 -0.28685951 0.028747927
-0.069602087 -0.28693855 0.028724393
-0.069760218 -0.28701797 0.028704327
-0.069916144 -0.28709492 0.028693492
-0.070076272 -0.28717497 0.028675716
-0.070229858 -0.28724942 0.028674109
-0.070382237 -0.28732452 0.028664434
-0.070538804 -0.28740266 0.028647829
-0.070686817 -0.28747475 0.028643936
-0.070834197 -0.28754225 0.028668882
-0.070981294 -0.28760946 0.028694987
-0.07113269 -0.28768182 0.028700314
-0.07128045 -0.28775191 0.02870911
-0.07141915 -0.28780919 0.028774463
-0.071561724 -0.28787109 0.028821347
-0.071706161 -0.28793323 0.028872836
-0.071847096 -0.28799313 0.028927796
-0.071987107 -0.2880519 0.028987374
-0.072126225 -0.28810957 0.029051568
-0.072264776 -0.28816229 0.029146917
-0.072397798 -0.28821236 0.02924227
-0.072534934 -0.28826526 0.029331855
-0.072668895 -0.28831628 0.029423758
-0.072800949 -0.28836483 0.029526044
-0.072932705 -0.2884129 0.029630641
-0.073066756 -0.28846157 0.02973868
-0.073199049 -0.28851005 0.029842127
-0.073327966 -0.28855419 0.029964028
-0.073459052 -0.28860089 0.030075546
-0.073589429 -0.28864658 0.030191684
-0.073730409 -0.28869891 0.030297406
-0.073843002 -0.28871912 0.030526647
-0.073958591 -0.28875196 0.030680891
-0.074082926 -0.28878906 0.030835113
-0.074204184 -0.28882188 0.031007798
-0.074322864 -0.28885105 0.03119665
-0.07070899 -0.28266254 0.06096942
-0.070906162 -0.28276494 0.060921542
-0.071072027 -0.28283381 0.060997199
-0.071280502 -0.28294274 0.060942367
-0.071477465 -0.28304541 0.060892183
-0.071665533 -0.28313589 0.060895097
-0.071859457 -0.28323466 0.060861073
-0.072050586 -0.2833297 0.060843211
-0.072240815 -0.28343016 0.060786128
-0.072428524 -0.28351405 0.060831726
-0.072625875 -0.28361845 0.060771164
-0.072802566 -0.28369996 0.060797177
-0.073000401 -0.28379875 0.060775831
-0.073191449 -0.28389463 0.060752198
-0.073383361 -0.28398848 0.060744725
-0.073570624 -0.28407905 0.06074417
-0.073749445 -0.28416762 0.060729802
-0.073905505 -0.28425378 0.060657829
-0.074140429 -0.28436705 0.060659442
-0.074329004 -0.28447086 0.060574677
-0.074525326 -0.28456166 0.060601793
-0.074707128 -0.28464842 0.060609337
-0.074904069 -0.28475124 0.060558006
-0.075085685 -0.28483427 0.060589772
-0.075274624 -0.28492874 0.060568459
-0.075462155 -0.28502119 0.060556374
-0.07562454 -0.28510422 0.060525905
-0.075840682 -0.28521201 0.060503349
-0.076025598 -0.28530079 0.060507432
-0.076192364 -0.28538746 0.060466558
-0.076403633 -0.28549188 0.060450949
-0.076593757 -0.28558955 0.060412325
-0.076774135 -0.28567144 0.060447559
-0.076964393 -0.28576967 0.06040547
-0.077145904 -0.28585765 0.060403787
-0.077317894 -0.28595012 0.060340986
-0.077532783 -0.28606182 0.060288444
-0.077711165 -0.28614086 0.060336374
-0.077900805 -0.28623915 0.060291983
-0.078084826 -0.28634486 0.060179546
-0.078273833 -0.28642559 0.060250521
-0.078435563 -0.28651881 0.060149681
-0.078613132 -0.28658387 0.060288746
-0.078799762 -0.28667346 0.06029281
-0.079005301 -0.28677475 0.060279533
-0.079191998 -0.2868692 0.060251292
-0.079374105 -0.28696004 0.060232311
-0.079544671 -0.28705734 0.060132597
-0.079747796 -0.28716436 0.060073167
-0.079916567 -0.2872498 0.060047291
-0.080113932 -0.2873325 0.060132086
-0.080285594 -0.28742364 0.060077369
-0.080486514 -0.28751308 0.060128685
-0.080669992 -0.28760302 0.060120076
-0.080850035 -0.28769633 0.060078021
-0.081034645 -0.28777891 0.060122468
-0.081222668 -0.28787827 0.060065392
-0.081397563 -0.2879467 0.060173325
-0.081593543 -0.28806248 0.06003201
-0.081766739 -0.2881535 0.059983052
-0.081963606 -0.28825113 0.059966326
-0.082143962 -0.28833613 0.059980802
-0.082316317 -0.28842071 0.059972212
-0.082512632 -0.28851771 0.059957795
-0.082699239 -0.28861642 0.059900731
-0.082883149 -0.28870967 0.059871353
-0.083062366 -0.28879294 0.059893899
-0.083243981 -0.28888732 0.059849527
-0.083432622 -0.28898597 0.059799366
-0.083604068 -0.28905806 0.059871551
-0.083779059 -0.28915611 0.059781052
-0.083965182 -0.28924373 0.059796661
-0.084155813 -0.28933576 0.059797257
-0.084338285 -0.28942129 0.059815176
-0.084525421 -0.289518 0.059773102
-0.08470735 -0.28960893 0.059752963
-0.084872544 -0.28969845 0.059687875
-0.085079424 -0.28980523 0.059642285
-0.085227743 -0.28988025 0.05961993
-0.085438527 -0.28997704 0.059653915
-0.085610472 -0.29005745 0.059671875
-0.085803948 -0.29015878 0.059619389
-0.085983753 -0.29024592 0.059617721
-0.086133115 -0.29032472 0.059573438
-0.086332895 -0.29041445 0.059619006
-0.086521126 -0.29050258 0.059638068
-0.086704493 -0.29060042 0.059576385
-0.086885437 -0.29068381 0.059603542
-0.087066583 -0.2907759 0.059573025
-0.087247372 -0.2908673 0.059545964
-0.087423384 -0.29096138 0.059485458
-0.08759281 -0.29104438 0.059478037
-0.087788612 -0.29114872 0.059412859
-0.087975137 -0.29124203 0.059391551
-0.088150144 -0.29131654 0.059459105
-0.088322625 -0.29141048 0.059388235
-0.088474467 -0.29149267 0.059328958
-0.088658042 -0.29157719 0.059357263
-0.08886987 -0.29168084 0.059348561
-0.089045718 -0.29176849 0.059330739
-0.089215785 -0.29185626 0.059293333
-0.089375801 -0.29192832 0.059328623
-0.089569859 -0.29202029 0.059340745
-0.089749694 -0.2921133 0.059299842
-0.089924425 -0.292198 0.059298184
-0.090115435 -0.29229003 0.059299931
-0.090304829 -0.29237545 0.059340902
-0.090485923 -0.29247561 0.059256159
-0.090658844 -0.29256648 0.059207205
-0.090824291 -0.29265064 0.059179038
-0.091023207 -0.29273996 0.059224598
-0.091203153 -0.29283786 0.059151396
-0.091382027 -0.29293126 0.059104729
-0.091562934 -0.29302049 0.059092656
-0.091741793 -0.29311526 0.059036765
-0.09191718 -0.29319131 0.059095085
-0.092094794 -0.29327998 0.059076115
-0.092273675 -0.29335842 0.059129808
-0.092453115 -0.29345933 0.05903469
-0.092630334 -0.29354712 0.059020326
-0.092807561 -0.29363543 0.059002504
-0.092984147 -0.29371962 0.059010062
-0.093163908 -0.29380485 0.059021078
-0.093341805 -0.29390019 0.058958262
-0.093518764 -0.29398888 0.05893698
-0.093695283 -0.29407445 0.058935307
-0.093871221 -0.29415455 0.05896825
-0.094047673 -0.29423973 0.058968887
-0.094221532 -0.29433176 0.05891531
-0.094398052 -0.29441971 0.058897488
-0.094558112 -0.29449868 0.058886632
-0.094737209 -0.2945798 0.058923028
-0.094896644 -0.294649 0.058975637
-0.095109768 -0.29477188 0.058842339
-0.09525983 -0.29484707 0.058824591
-0.095435783 -0.29493111 0.05883101
-0.095641419 -0.29504472 0.05873581
-0.095820449 -0.29512993 0.058744509
-0.095983215 -0.29520985 0.058735967
-0.09614592 -0.29528391 0.058766637
-0.096334688 -0.2953735 0.058777619
-0.096503682 -0.29547107 0.05867099
-0.096679255 -0.29555532 0.058675088
-0.096844964 -0.2956377 0.058659609
-0.09703324 -0.29573429 0.058622152
-0.097212374 -0.29581025 0.058693148
-0.097403556 -0.29591221 0.058629133
-0.097575396 -0.29599962 0.0585998
-0.097757094 -0.29608873 0.058591183
-0.097922549 -0.29616943 0.058586091
-0.098071277 -0.29624775 0.058542974
-0.098268986 -0.29634476 0.058533162
-0.098441251 -0.29642394 0.058560349
-0.098606296 -0.29650688 0.0585391
-0.098764203 -0.29659134 0.058484416
-0.098938383 -0.29668197 0.058441225
-0.099131599 -0.29678386 0.058384135
-0.099308342 -0.29685539 0.058477059
-0.09949182 -0.29695171 0.058425762
-0.099679127 -0.29704508 0.058406763
-0.099847011 -0.29712871 0.058390114
-0.10003464 -0.29721963 0.058388412
-0.10019778 -0.2972908 0.058439851
-0.10035578 -0.29737014 0.058419779
-0.10053814 -0.29746866 0.058350034
-0.10070419 -0.29754332 0.058387615
-0.10089256 -0.29764578 0.058310919
-0.1010669 -0.2977308 0.058305804
-0.10122713 -0.29781416 0.058266111
-0.10143049 -0.29791304 0.058262054
-0.10158747 -0.29798087 0.058315814
-0.1017592 -0.29807478 0.058242626
-0.10191344 -0.29816473 0.05813951
-0.10209256 -0.29824498 0.058181666
-0.10228516 -0.29834175 0.058156881
-0.10245325 -0.29842186 0.058164462
-0.10261603 -0.29849544 0.058198601
-0.10279865 -0.29858807 0.058169227
-0.10296823 -0.29867458 0.058138736
-0.10313807 -0.29873952 0.058253594
-0.10329285 -0.29883486 0.058115862
-0.10349106 -0.29894555 0.058016077
-0.10365929 -0.29901519 0.058094032
-0.10382289 -0.29909658 0.058078557
-0.10402394 -0.29920846 0.057979912
-0.10419326 -0.2992852 0.058014024
-0.10436615 -0.29937157 0.057995062
-0.10455471 -0.29946658 0.057969131
-0.10469608 -0.29954407 0.057907574
-0.10487258 -0.29961428 0.058008578
-0.10506392 -0.2997115 0.057976868
-0.10525281 -0.29980543 0.057959013
-0.10540588 -0.29988292 0.057935491
-0.10557133 -0.29996744 0.057905011
-0.10574795 -0.30006111 0.057849124
-0.10593311 -0.30014655 0.057876278
-0.10610773 -0.30023617 0.057841152
-0.10628139 -0.30032018 0.057840649
-0.10644846 -0.30039445 0.057883997
-0.10660999 -0.30046433 0.057938896
-0.10678378 -0.30056182 0.057848405
-0.10695846 -0.30066404 0.057729073
-0.10713735 -0.30074626 0.057757393
-0.10731928 -0.30083683 0.057739556
-0.10749505 -0.30091754 0.057767879
-0.10765792 -0.30100459 0.057712033
-0.10783311 -0.30108625 0.05773228
-0.10800309 -0.30116916 0.057727166
-0.10817401 -0.30125079 0.057733588
-0.1083504 -0.30134851 0.057650018
-0.10852245 -0.30143431 0.057632208
-0.10870284 -0.30152068 0.057637446
-0.10888594 -0.30160373 0.057673831
-0.10905284 -0.30167931 0.05770795
-0.10922401 -0.30177709 0.057607085
-0.10937212 -0.30185354 0.057574354
-0.10955979 -0.30194208 0.057588801
-0.10972794 -0.30202687 0.057565235
-0.10990559 -0.30211639 0.057540491
-0.11008454 -0.3022095 0.057496127
-0.1102492 -0.30228776 0.057504877
-0.11042139 -0.30237794 0.057458233
-0.11060099 -0.30246517 0.057455402
-0.11078574 -0.30255195 0.057472162
-0.1109432 -0.30263758 0.057408251
-0.11112481 -0.30271801 0.057457328
-0.11129864 -0.30280623 0.057429135
-0.11145602 -0.30288234 0.057428669
-0.11163592 -0.30297849 0.057367004
-0.11180916 -0.30305797 0.057395339
-0.11199149 -0.30314723 0.057387888
-0.11214511 -0.30323115 0.05732283
-0.11231557 -0.30331326 0.057324644
-0.11249215 -0.30339006 0.057381812
-0.11267823 -0.30348903 0.057321273
-0.11285778 -0.30357209 0.057346128
-0.11301204 -0.30365926 0.057261467
-0.11317866 -0.30374038 0.057257511
-0.11335574 -0.30382138 0.057288144
-0.11353762 -0.30391505 0.057249542
-0.11371974 -0.30400038 0.057267472
-0.11387754 -0.30408427 0.057216249
-0.11405077 -0.3041684 0.057213433
-0.11422243 -0.30425763 0.057171401
-0.114388 -0.30433565 0.057184767
-0.11455104 -0.30442709 0.057100073
-0.11474188 -0.30451405 0.057135276
-0.11492243 -0.30460072 0.057139359
-0.11509869 -0.30469406 0.057084627
-0.11526856 -0.30478412 0.057031069
-0.11544082 -0.30486521 0.057045557
-0.11560139 -0.30494666 0.057019711
-0.11577602 -0.30503356 0.057003047
-0.11594378 -0.305114 0.057007179
-0.11611221 -0.30519411 0.057015907
-0.11628472 -0.30528581 0.056960031
-0.11644752 -0.30537626 0.056881107
-0.11661384 -0.30545413 0.056897931
-0.11678426 -0.30553311 0.056920502
-0.11695004 -0.30561486 0.056909632
-0.11712488 -0.30569822 0.056917202
-0.11730725 -0.30577746 0.056976654
-0.11748532 -0.30586258 0.056983057
-0.11767481 -0.30595475 0.056979038
-0.11785857 -0.30604672 0.056957737
-0.11804961 -0.30614138 0.056942187
-0.11820371 -0.30622607 0.056873664
-0.11835927 -0.30630356 0.056858212
-0.11853843 -0.30639142 0.056849614
-0.11870419 -0.30647331 0.056837592
-0.11887268 -0.30656326 0.056780584
-0.11902606 -0.30664173 0.056751288
-0.11919194 -0.30672663 0.056719661
-0.11937201 -0.30681407 0.056716826
-0.11954246 -0.30689687 0.056714021
-0.11971272 -0.30698577 0.056669682
-0.1199001 -0.30707896 0.056651831
-0.12007155 -0.30716139 0.056654792
-0.12024985 -0.30724677 0.056660034
-0.12041546 -0.30733755 0.056588031
-0.12058143 -0.30741939 0.056577161
-0.12077751 -0.30751199 0.056591578
-0.12093547 -0.30759424 0.056551903
-0.12111954 -0.30767468 0.056609042
-0.12127786 -0.30776244 0.05653359
-0.12142909 -0.3078416 0.056492776
-0.12161573 -0.30792964 0.05650723
-0.12180045 -0.30801573 0.056528602
-0.12194412 -0.30810311 0.056408208
-0.12212126 -0.30818105 0.056459606
-0.12229577 -0.30826548 0.056459092
-0.12247913 -0.3083576 0.056435492
-0.12267428 -0.30844837 0.056459144
-0.12283296 -0.3085303 0.056424074
-0.12300793 -0.30861732 0.056407407
-0.12317905 -0.30870304 0.056387294
-0.12335663 -0.30878928 0.056384467
-0.12352477 -0.30887595 0.056348212
-0.1236873 -0.30895403 0.0563512
-0.12386457 -0.30904049 0.056346066
-0.12403715 -0.30913341 0.056282111
-0.12421076 -0.30921844 0.05627469
-0.12437381 -0.30929902 0.056262676
-0.12454101 -0.3093859 0.056221806
-0.12472196 -0.30947638 0.056201674
-0.12489147 -0.30955768 0.056205787
-0.12506059 -0.30963913 0.056207597
-0.12523955 -0.30972776 0.056193225
-0.12542272 -0.30981773 0.056183469
-0.12559456 -0.30990344 0.056165662
-0.12576967 -0.3099907 0.056147844
-0.1259402 -0.31007442 0.056139268
-0.12609877 -0.31015867 0.056088053
-0.12627171 -0.31024182 0.056090999
-0.1264452 -0.31032488 0.056096263
-0.12661037 -0.31040993 0.056061167
-0.1267865 -0.31049478 0.056062967
-0.12698482 -0.31058621 0.056092378
-0.12714101 -0.31066641 0.056060776
-0.12731461 -0.31074971 0.056064881
-0.12747595 -0.31083789 0.055996351
-0.12765436 -0.31092247 0.056007363
-0.12781359 -0.31100655 0.055959605
-0.12799037 -0.31109378 0.055947542
-0.12817152 -0.31117797 0.055970091
-0.12833957 -0.31126475 0.055932678
-0.12852027 -0.31135353 0.055922925
-0.12868807 -0.31144038 0.055884361
-0.12885216 -0.31152353 0.055858508
-0.12903488 -0.31160554 0.055900652
-0.1292187 -0.31168965 0.055932425
-0.12937033 -0.31177935 0.055822387
-0.12955076 -0.31186196 0.055852998
-0.12973717 -0.31195006 0.055866294
-0.12988989 -0.31203943 0.055762034
-0.13007043 -0.31211591 0.055834182
-0.13025388 -0.31220466 0.055833645
-0.13042028 -0.31229186 0.055788159
-0.13060112 -0.31238103 0.055776097
-0.13076884 -0.31247422 0.055694859
-0.1309322 -0.31255564 0.055678226
-0.13110545 -0.31264186 0.055661574
-0.13128912 -0.31272468 0.055701416
-0.13146937 -0.31281409 0.055685885
-0.1316494 -0.31290358 0.055669215
-0.13182111 -0.31299216 0.05563179
-0.13198556 -0.3130796 0.05557825
-0.13214566 -0.31315964 0.055560473
-0.13230406 -0.31324384 0.055509251
-0.13249968 -0.31332967 0.055567514
-0.13266268 -0.31341729 0.055508196
-0.1328278 -0.31350076 0.05548349
-0.13303454 -0.31358185 0.055609785
-0.13322301 -0.31366888 0.055636927
-0.13339324 -0.3137655 0.055540673
-0.13355283 -0.31385732 0.055442154
-0.1337415 -0.31394446 0.055469289
-0.13391174 -0.31402954 0.055450328
-0.13408802 -0.31411982 0.05541636
-0.13426167 -0.31420466 0.055410087
-0.13443393 -0.31428781 0.055410735
-0.13459644 -0.31437364 0.055361811
-0.1347807 -0.31445777 0.05539472
-0.13496864 -0.3145473 0.055403404
-0.13513562 -0.31463841 0.055333696
-0.13530712 -0.31472549 0.055305514
-0.1354752 -0.31481281 0.055264641
-0.13566087 -0.314899 0.05528833
-0.13584468 -0.31499085 0.055268176
-0.136024 -0.31507757 0.055267654
-0.13618183 -0.3151584 0.0552372
-0.13637152 -0.31524464 0.055273555
-0.13652523 -0.31533465 0.055168133
-0.13672554 -0.3154276 0.05519408
-0.13689741 -0.31551313 0.05517742
-0.13703878 -0.31559303 0.055099718
-0.13723594 -0.31567928 0.055160288
-0.13740836 -0.31576493 0.055144779
-0.13758823 -0.31585726 0.055108491
-0.13775611 -0.31594139 0.055088397
-0.13795507 -0.31603831 0.0550832
-0.13813543 -0.31612384 0.055094205
-0.1382972 -0.31620485 0.055075277
-0.13847679 -0.3162905 0.055082824
-0.13863212 -0.31637853 0.054995853
-0.13882667 -0.31646901 0.055019505
-0.1390145 -0.31656143 0.055008575
-0.1391888 -0.31665245 0.054963075
-0.13935864 -0.31673685 0.054947581
-0.13952836 -0.31682462 0.054909013
-0.13968433 -0.31690592 0.054869331
-0.13987002 -0.31699023 0.054905709
-0.14006028 -0.31708121 0.054912075
-0.14024128 -0.3171674 0.05492077
-0.14040601 -0.31725535 0.054864921
-0.14060494 -0.31734812 0.05488741
-0.14077863 -0.31743935 0.054838452
-0.14095201 -0.31752735 0.054810263
-0.14111432 -0.31760722 0.054800548
-0.14129467 -0.31769532 0.054794259
-0.14147924 -0.31778511 0.054790262
-0.14166766 -0.31787661 0.054787397
-0.14183706 -0.31796473 0.05474538
-0.14201152 -0.31805137 0.054729864
-0.14218819 -0.31813648 0.05473166
-0.14233398 -0.31822112 0.054636639
-0.14255011 -0.31830862 0.054750208
-0.14273274 -0.31840658 0.054685079
-0.14289869 -0.31849322 0.05464191
-0.14307177 -0.31857693 0.054641396
-0.14325364 -0.31866869 0.054615494
-0.14343184 -0.31875885 0.054588437
-0.14359912 -0.31884408 0.054559108
-0.14373763 -0.3189238 0.054473333
-0.14398852 -0.31901798 0.054654874
-0.1441581 -0.31911567 0.054549396
-0.14431931 -0.31919777 0.05452124
-0.14453349 -0.31930014 0.054528691
-0.14470604 -0.31938431 0.054523572
-0.1448786 -0.31947002 0.054508071
-0.14503103 -0.31955338 0.054443017
-0.14520557 -0.31964073 0.0544229
-0.14541991 -0.31973597 0.054478802
-0.14558876 -0.31983212 0.054381397
-0.14577313 -0.31992009 0.05438894
-0.14596251 -0.32001135 0.054390691
-0.14614439 -0.32009932 0.054390162
-0.14633368 -0.3201907 0.054390766
-0.14651385 -0.32028162 0.054364856
-0.14663178 -0.32035726 0.054239914
-0.1468742 -0.32046798 0.054283053
-0.14705797 -0.32055342 0.054305583
-0.14722314 -0.32063487 0.054294713
-0.14738537 -0.32072195 0.054236561
-0.14758833 -0.32081461 0.05427289
-0.14773192 -0.32089904 0.054172102
-0.14794222 -0.32099664 0.05419917
-0.14810255 -0.32108366 0.054135252
-0.14830051 -0.3211734 0.054175057
-0.1485126 -0.32128131 0.054138668
-0.14868179 -0.32136056 0.054155484
-0.14889482 -0.32146585 0.05413986
-0.14907676 -0.32155609 0.054124333
-0.14924468 -0.32164386 0.054080002
-0.14942017 -0.32172805 0.0540841
-0.14960369 -0.32181716 0.054081257
-0.14978388 -0.32190466 0.054078426
-0.14999692 -0.32201028 0.054060504
-0.15013655 -0.32208747 0.053995483
-0.15032101 -0.32217824 0.053984568
-0.15052527 -0.32227635 0.053988587
-0.1507096 -0.32236722 0.053976506
-0.15088493 -0.32245049 0.053986374
-0.15106903 -0.32254556 0.053945467
-0.1511863 -0.32262069 0.053821687
-0.1514516 -0.32271272 0.054064319
-0.15161885 -0.32281581 0.053915016
-0.15183778 -0.32292396 0.053899378
-0.15201995 -0.323015 0.053879231
-0.15219602 -0.32310411 0.053852193
-0.067984402 -0.28608027 0.02923727
-0.068162546 -0.2861807 0.029141027
-0.068339795 -0.28628039 0.029047096
-0.068510741 -0.28637323 0.028978558
-0.068675846 -0.2864615 0.028921576
-0.068840638 -0.28654775 0.028877273
-0.069004118 -0.28663269 0.028837591
-0.069171831 -0.28672257 0.028778281
-0.069331184 -0.286805 0.028742071
-0.069487989 -0.28688273 0.028728925
-0.069645934 -0.28696188 0.028710017
-0.069806024 -0.28704172 0.028693411
-0.069963112 -0.2871201 0.028676806
-0.070116982 -0.28719488 0.028674057
-0.070270151 -0.28727087 0.028660931
-0.070423245 -0.2873449 0.028660484
-0.07057479 -0.28742114 0.028640442
-0.07072787 -0.28749534 0.028638845
-0.070874676 -0.28756225 0.028666101
-0.071022883 -0.28763083 0.028686434
-0.071172744 -0.28770143 0.028698685
-0.071316943 -0.28776532 0.028737485
-0.07145945 -0.28782719 0.028784353
-0.071603343 -0.28788871 0.028838143
-0.071743973 -0.28794831 0.028894249
-0.071885794 -0.28800932 0.028944589
-0.072029755 -0.2880688 0.029012214
-0.072165988 -0.28812712 0.029062569
-0.072301716 -0.28817645 0.029171733
-0.072432652 -0.28822395 0.029277463
-0.072569229 -0.28827831 0.029355489
-0.072704166 -0.28832844 0.029456589
-0.072835192 -0.28837788 0.029549628
-0.072965711 -0.28842223 0.029674966
-0.073099181 -0.28847235 0.029771449
-0.073230572 -0.28851971 0.029879488
-0.073361874 -0.28856465 0.030003663
-0.073493168 -0.28861165 0.030113999
-0.073626593 -0.28865898 0.030228943
-0.073764607 -0.28870299 0.030380784
-0.073866397 -0.28872058 0.030592687
-0.073990636 -0.28876004 0.030730732
-0.074111849 -0.28879303 0.03090222
-0.074235782 -0.28882697 0.031076018
-0.074354306 -0.28885591 0.03126597
-0.070566237 -0.28258798 0.061006762
-0.07076934 -0.28269532 0.060945041
-0.070953958 -0.28278378 0.060950279
-0.071142413 -0.28287131 0.060973957
-0.071341939 -0.28297746 0.060908787
-0.071537405 -0.28307819 0.06086671
-0.071723282 -0.28316569 0.060882315
-0.071918882 -0.28326374 0.060858686
-0.072117999 -0.2833702 0.060790069
-0.072301105 -0.28345412 0.060820673
-0.072490886 -0.28354764 0.060808595
-0.07268554 -0.28364834 0.060764208
-0.07285741 -0.2837263 0.06079831
-0.073064901 -0.28383252 0.060758498
-0.073256701 -0.28392959 0.060729109
-0.07344117 -0.28401607 0.060747027
-0.073633343 -0.284114 0.060713027
-0.073790289 -0.28418407 0.060751781
-0.073980644 -0.2843006 0.060587466
-0.074199736 -0.28440088 0.06062489
-0.074401334 -0.28450322 0.060592018
-0.074591026 -0.28459477 0.060592622
-0.074765004 -0.28468049 0.060581736
-0.074968353 -0.28478608 0.060532715
-0.075152367 -0.28486562 0.060595613
-0.075342804 -0.28496256 0.060562767
-0.075517558 -0.28505 0.060542658
-0.075725324 -0.28515962 0.06048093
-0.075910844 -0.28524557 0.060505766
-0.076097146 -0.28534049 0.060472932
-0.076268032 -0.28542626 0.060451679
-0.076482326 -0.28553575 0.060411856
-0.076665819 -0.28562281 0.060422853
-0.076852813 -0.28571171 0.060432687
-0.07704141 -0.28581133 0.060375638
-0.07721813 -0.28589958 0.060356669
-0.077400349 -0.28599718 0.06029271
-0.077612713 -0.28610075 0.060286336
-0.077791572 -0.28618073 0.060329638
-0.077981301 -0.28628352 0.060255282
-0.078173056 -0.28638589 0.060190145
-0.078361079 -0.28647357 0.060211509
-0.07852985 -0.28655779 0.060193725
-0.078694724 -0.28662223 0.060295895
-0.078901052 -0.28672495 0.060275689
-0.079094663 -0.28681841 0.060276277
-0.079277188 -0.28690553 0.060283825
-0.07945928 -0.28701457 0.060142599
-0.079659075 -0.28711087 0.06014432
-0.079848506 -0.28722057 0.060022678
-0.080008179 -0.2872799 0.060142167
-0.080198765 -0.28738293 0.060068954
-0.08040192 -0.28747672 0.06009835
-0.080585122 -0.28756139 0.060124345
-0.080771446 -0.28765702 0.060086902
-0.08094348 -0.28773987 0.060088713
-0.081137419 -0.28783593 0.06007316
-0.081322759 -0.28792524 0.060074925
-0.081500806 -0.28800514 0.06011593
-0.081695199 -0.28811294 0.06002311
-0.081883475 -0.288214 0.059955675
-0.082068548 -0.28830352 0.059955139
-0.082247928 -0.28838667 0.059978835
-0.08241801 -0.28847754 0.059920676
-0.082613833 -0.28856829 0.059946638
-0.082806878 -0.28866994 0.059890725
-0.0829878 -0.28875694 0.05989366
-0.083174206 -0.28885037 0.059871212
-0.083361089 -0.28895092 0.059802622
-0.083536088 -0.28903109 0.059832111
-0.083713792 -0.28912342 0.05978892
-0.083898515 -0.28921396 0.059780315
-0.084081553 -0.28930077 0.059791312
-0.084272973 -0.28939492 0.059780374
-0.084441692 -0.28947324 0.059801802
-0.084636517 -0.2895759 0.059744727
-0.084812313 -0.28966525 0.05971539
-0.084996641 -0.28976268 0.059659503
-0.085179992 -0.28985807 0.059613988
-0.08533974 -0.28993499 0.059615836
-0.08554244 -0.29002512 0.059668299
-0.085735485 -0.29012537 0.059621602
-0.08591447 -0.2902104 0.059631474
-0.086075597 -0.29029882 0.059560657
-0.086246602 -0.29037741 0.059587844
-0.086458236 -0.29047737 0.059603371
-0.086636387 -0.2905606 0.059622467
-0.086823702 -0.29066223 0.05954811
-0.086979359 -0.29072875 0.059606485
-0.087181404 -0.29083371 0.059557457
-0.087357827 -0.29092902 0.059490055
-0.087542221 -0.2910237 0.059452616
-0.08772859 -0.29111627 0.059435934
-0.087916352 -0.29122239 0.059332747
-0.08808744 -0.29128468 0.059469491
-0.088267818 -0.29137674 0.059436679
-0.088434115 -0.29147887 0.059290886
-0.088591754 -0.29155254 0.059307724
-0.088792078 -0.29164615 0.059329063
-0.088987052 -0.29174116 0.059323888
-0.089166492 -0.29183191 0.059296839
-0.089319482 -0.29189938 0.059340227
-0.089486994 -0.291989 0.059282068
-0.089686528 -0.29208034 0.059316095
-0.089863837 -0.29217541 0.059253298
-0.090061858 -0.29226086 0.059321925
-0.090210944 -0.29233626 0.059299581
-0.09042538 -0.2924417 0.059287436
-0.090605363 -0.29253787 0.059225783
-0.090768822 -0.29262638 0.059161887
-0.090965196 -0.29271811 0.059183225
-0.091141909 -0.29280049 0.059203476
-0.09132126 -0.29289618 0.059142984
-0.091505088 -0.29300058 0.059038658
-0.091681898 -0.29308474 0.059047371
-0.09186253 -0.29317364 0.059036467
-0.092037864 -0.2932497 0.059094779
-0.092205912 -0.2933358 0.059062004
-0.092395559 -0.29342529 0.059076443
-0.092576489 -0.29351744 0.059044786
-0.09275423 -0.29360944 0.059003904
-0.0929313 -0.29369751 0.058987252
-0.093107879 -0.29378238 0.058990199
-0.093287796 -0.29386976 0.058987375
-0.09346506 -0.29396117 0.058948796
-0.093644597 -0.29404628 0.058959812
-0.093821377 -0.29413491 0.058938541
-0.093987644 -0.29421222 0.058958825
-0.094167635 -0.29430324 0.058931775
-0.094341069 -0.29439214 0.058897827
-0.094511233 -0.29448062 0.058855817
-0.094687343 -0.29456565 0.058856465
-0.094853058 -0.29463652 0.05891826
-0.095042683 -0.29473683 0.058860041
-0.095228642 -0.29483074 0.058832984
-0.095388405 -0.29491112 0.058811765
-0.095597088 -0.29502082 0.058752339
-0.095772907 -0.29510862 0.058733381
-0.095948637 -0.29519603 0.058716722
-0.096108004 -0.29526779 0.058752015
-0.096277162 -0.29535165 0.05873768
-0.096449487 -0.29543829 0.058715276
-0.09664759 -0.29554477 0.058643203
-0.096806914 -0.29561701 0.058675032
-0.096991748 -0.29571658 0.058606453
-0.097157784 -0.29578623 0.058677472
-0.097362071 -0.2958914 0.058634218
-0.097537048 -0.29598138 0.058597952
-0.097715423 -0.29606903 0.058588207
-0.097890735 -0.29615209 0.058599234
-0.098042674 -0.29623196 0.058556128
-0.098204561 -0.29631302 0.058537208
-0.098412178 -0.29641187 0.058546986
-0.098570593 -0.29649231 0.058521159
-0.098734669 -0.29658198 0.058451481
-0.098893784 -0.29665533 0.058475241
-0.099082731 -0.29676306 0.058365129
-0.09927512 -0.29684529 0.058437232
-0.099453516 -0.296929 0.058454022
-0.099633455 -0.29702446 0.058396988
-0.099811204 -0.29711148 0.058389552
-0.099991918 -0.29720131 0.058372878
-0.10017071 -0.29728243 0.058408115
-0.10031624 -0.29735282 0.058407698
-0.10050231 -0.29745039 0.058356419
-0.10067675 -0.2975353 0.058352448
-0.10085613 -0.29762962 0.058301188
-0.10103345 -0.29771695 0.058290292
-0.10120376 -0.2978031 0.058264431
-0.1013872 -0.29789442 0.058246601
-0.1015597 -0.29797202 0.058285315
-0.10172805 -0.29805154 0.058297515
-0.10189771 -0.29815185 0.058174774
-0.10205372 -0.29823506 0.058122419
-0.10224156 -0.29832283 0.05814264
-0.10242858 -0.29841328 0.058142096
-0.10259713 -0.29849172 0.058162376
-0.1027628 -0.29856771 0.058189567
-0.10293676 -0.29866305 0.058114104
-0.10310923 -0.29873079 0.058218557
-0.10326799 -0.2988255 0.058098152
-0.10344573 -0.29892954 0.05797654
-0.10363455 -0.29900503 0.0580821
-0.10379356 -0.29908797 0.058041271
-0.10399263 -0.29919508 0.057968047
-0.10417064 -0.29927844 0.057985976
-0.10433771 -0.29936013 0.057979729
-0.10452657 -0.29945421 0.057960726
-0.10468226 -0.29954311 0.057869162
-0.10484415 -0.29961041 0.05794251
-0.10503557 -0.29969904 0.057968482
-0.10522109 -0.29979154 0.057949498
-0.10538697 -0.2998752 0.057925947
-0.10554469 -0.29995888 0.057875901
-0.10572898 -0.30005321 0.057840772
-0.10591198 -0.30013499 0.057885215
-0.10608171 -0.30022588 0.057825912
-0.10626378 -0.30030948 0.057855368
-0.10641997 -0.30038795 0.057835314
-0.1065879 -0.30046073 0.057891339
-0.10675316 -0.3005448 0.05786318
-0.10692928 -0.30065134 0.057719659
-0.10711782 -0.30073804 0.0577491
-0.10729472 -0.30082965 0.05770823
-0.10747197 -0.30090797 0.057757307
-0.10764184 -0.3009972 0.05770953
-0.10781228 -0.3010793 0.057711344
-0.10797696 -0.30115739 0.057721242
-0.10815748 -0.30124953 0.057688434
-0.10832168 -0.30133411 0.05765336
-0.10850886 -0.30142879 0.057625141
-0.10868587 -0.3015137 0.057629235
-0.10885736 -0.30159444 0.057643734
-0.10902458 -0.30166945 0.057682462
-0.10920974 -0.30177194 0.057595428
-0.10935757 -0.30184859 0.057560399
-0.10954235 -0.30193505 0.057579473
-0.10972191 -0.30202758 0.057540894
-0.10988533 -0.30210713 0.057536967
-0.11007462 -0.30220401 0.057500668
-0.11023669 -0.30228502 0.057482898
