# .PCD v0.7 - Point Cloud Data file format
VERSION 0.7
FIELDS x y z
SIZE 4 4 4
TYPE F F F
COUNT 1 1 1
WIDTH 1312
HEIGHT 1
VIEWPOINT 0 0 0 1 0 0 0
POINTS 1312
DATA ascii
-0.23759006 -0.44986123 0.048211537
-0.23775716 -0.44993681 0.048195727
-0.23794916 -0.45001578 0.048230525
-0.2380977 -0.45009094 0.048162915
-0.23829725 -0.45016965 0.048221901
-0.23845963 -0.45024726 0.048178442
-0.23863959 -0.45032558 0.048182163
-0.23880686 -0.4504014 0.048165202
-0.23899022 -0.45047969 0.048179291
-0.23915023 -0.45055592 0.048138149
-0.23931564 -0.4506335 0.048103902
-0.2394872 -0.45071241 0.048078842
-0.23968859 -0.4507902 0.048149344
-0.23984125 -0.45086682 0.048084021
-0.24001522 -0.45094422 0.048076246
-0.24019256 -0.4510231 0.04806846
-0.24034268 -0.45109981 0.047995076
-0.24054357 -0.45117804 0.048060969
-0.24069923 -0.45125616 0.047994483
-0.24087149 -0.4513323 0.047990173
-0.24104114 -0.45141158 0.047957055
-0.24121909 -0.45148918 0.047959637
-0.24139561 -0.45156839 0.047947247
-0.24156143 -0.45164633 0.047911841
-0.24173295 -0.4517242 0.047893699
-0.2419063 -0.45179909 0.047900923
-0.24207738 -0.45187557 0.047890849
-0.2422521 -0.45195502 0.047871545
-0.24242398 -0.45203304 0.04785341
-0.24259365 -0.45211112 0.047828361
-0.24276973 -0.45218775 0.047832109
-0.24295506 -0.45226875 0.047833502
-0.2431192 -0.45234698 0.047791187
-0.24328588 -0.45242375 0.047766149
-0.24348392 -0.4525035 0.047813617
-0.24363646 -0.45258176 0.047736757
-0.24381657 -0.45266014 0.047740486
-0.2439889 -0.45273855 0.047721192
-0.24417059 -0.45281848 0.047719143
-0.24432825 -0.4528954 0.047666483
-0.24450259 -0.45297107 0.047671393
-0.24468423 -0.45305118 0.047668193
-0.24487853 -0.4531315 0.047700681
-0.24503125 -0.45320985 0.047623821
-0.2452182 -0.45329159 0.047625218
-0.24540609 -0.453372 0.047638133
-0.24558605 -0.45345512 0.047609571
-0.24574277 -0.45352805 0.047581129
-0.24591327 -0.45360544 0.047562994
-0.24611335 -0.45368782 0.04759891
-0.24627787 -0.45376518 0.047563508
-0.2464675 -0.45384604 0.047578726
-0.2466301 -0.45392478 0.047528338
-0.24681118 -0.45400685 0.047510158
-0.2469634 -0.45408121 0.047458675
-0.24717006 -0.45416424 0.047509544
-0.24732536 -0.45424011 0.047456898
-0.24751887 -0.45432147 0.047480162
-0.24768442 -0.45440048 0.047436688
-0.24785739 -0.45447847 0.047421999
-0.24803151 -0.45456058 0.047383089
-0.24821489 -0.45464176 0.047377583
-0.24837625 -0.45472202 0.047313366
-0.24854778 -0.45479611 0.047320597
-0.24875194 -0.45487976 0.047359951
-0.24891509 -0.45495754 0.047317639
-0.24910209 -0.45504048 0.047310956
-0.24927112 -0.45511863 0.047283608
-0.24947277 -0.45520115 0.047322981
-0.24964501 -0.4552809 0.047294457
-0.24981734 -0.45536065 0.047265936
-0.24997611 -0.45544097 0.047193661
-0.2501668 -0.45552316 0.047203105
-0.25034955 -0.45560235 0.047209129
-0.25053474 -0.45568177 0.047220901
-0.25069511 -0.45576486 0.047134783
-0.2508685 -0.45584235 0.04712471
-0.15683536 -0.4134433 0.05511035
-0.15704298 -0.41354027 0.055070121
-0.15723385 -0.41362098 0.055089951
-0.157423 -0.41370007 0.055115547
-0.15763105 -0.41379586 0.055084549
-0.15782458 -0.41387945 0.055092826
-0.1580341 -0.41397896 0.05504106
-0.15823804 -0.41407314 0.055008914
-0.15843213 -0.4141556 0.055026416
-0.15863347 -0.41424742 0.055002373
-0.15883334 -0.4143379 0.054982938
-0.15904026 -0.4144356 0.054935798
-0.15923993 -0.41452411 0.054929048
-0.15944359 -0.41461882 0.054892305
-0.15964699 -0.41471344 0.054855555
-0.15983766 -0.41479525 0.054867309
-0.16003856 -0.41488552 0.054852486
-0.16023743 -0.41497588 0.054830752
-0.16044489 -0.41507313 0.054788221
-0.16063339 -0.41515315 0.054805756
-0.16084228 -0.41525427 0.054741301
-0.16101435 -0.41531748 0.054823492
-0.16122946 -0.41542321 0.054746322
-0.16142075 -0.41550651 0.054750003
-0.16162023 -0.41559631 0.054734036
-0.16181624 -0.41568476 0.054716926
-0.16201314 -0.41577429 0.054695204
-0.16220845 -0.41586226 0.054679252
-0.16240793 -0.41595256 0.054659825
-0.16260391 -0.41604152 0.054639257
-0.16280541 -0.41613427 0.054609444
-0.16298656 -0.41620761 0.054650079
-0.16318578 -0.41629815 0.054628335
-0.16338903 -0.41639546 0.054573141
-0.16357516 -0.4164744 0.054590683
-0.16377552 -0.41656888 0.054545879
-0.16397938 -0.41666508 0.054499898
-0.16416153 -0.41675377 0.054440193
-0.16434906 -0.41683471 0.054448504
-0.16455713 -0.41692212 0.054474011
-0.16475049 -0.41700736 0.054470755
-0.16495173 -0.41710374 0.054415569
-0.16514316 -0.41718709 0.054419249
-0.16533804 -0.41727677 0.054390609
-0.16552889 -0.41735971 0.054395445
-0.16572288 -0.41744864 0.054369129
-0.16591418 -0.41753227 0.054370489
-0.16610727 -0.41762045 0.054346479
-0.16630141 -0.41770756 0.054332849
-0.16648801 -0.41778862 0.054337703
-0.16667178 -0.41786656 0.054355249
-0.16687849 -0.41796845 0.054279283
-0.16707492 -0.4180612 0.05423449
-0.16722775 -0.4181211 0.054282177
-0.16745409 -0.41822886 0.054224562
-0.16764154 -0.41830909 0.054237481
-0.16783664 -0.41840091 0.054195017
-0.16801938 -0.41847581 0.05422987
-0.16821407 -0.41856489 0.054204702
-0.16841221 -0.4186582 0.054161061
-0.16859278 -0.41873336 0.054187849
-0.16880003 -0.41883788 0.054095723
-0.1689859 -0.41891965 0.054093666
-0.16917019 -0.41899696 0.054116987
-0.1693657 -0.41909325 0.054045677
-0.16956469 -0.41918865 0.053990502
-0.16974699 -0.4192639 0.054021902
-0.1699219 -0.41934359 0.054001432
-0.17012611 -0.41943237 0.054006208
-0.17031586 -0.41951707 0.053996049
-0.17050821 -0.41960785 0.053952437
-0.17066848 -0.41967255 0.053989708
-0.17086872 -0.41978186 0.053844571
-0.17105272 -0.41985151 0.053918634
-0.17122574 -0.41991565 0.05399736
-0.17144951 -0.42003015 0.053886704
-0.17160229 -0.42009705 0.053887114
-0.17182358 -0.42019746 0.053864118
-0.17201009 -0.42028207 0.053844746
-0.17219764 -0.42036527 0.053838059
-0.17238702 -0.42045099 0.053819835
-0.17257658 -0.42054 0.053779699
-0.17271492 -0.42060041 0.053781334
-0.1729095 -0.42067847 0.053829968
-0.17313187 -0.42078447 0.053772371
-0.17331682 -0.420865 0.053776078
-0.1735066 -0.42095515 0.05372902
-0.17369297 -0.42103782 0.053722337
-0.17387396 -0.42111644 0.053727221
-0.17406726 -0.42120883 0.053675525
-0.17425439 -0.42129612 0.053640015
-0.17444268 -0.42138836 0.053574514
-0.17460997 -0.42145172 0.053641729
-0.17477231 -0.42152092 0.053654779
-0.17499129 -0.42162442 0.053604122
-0.17515869 -0.42170098 0.053582542
-0.17536433 -0.4217959 0.0535504
-0.1755508 -0.42188016 0.053533338
-0.17572846 -0.42195523 0.053552069
-0.17591584 -0.42204109 0.053526938
-0.17609468 -0.42211807 0.053536437
-0.17628427 -0.4222109 0.053470928
-0.1764683 -0.42229578 0.053442355
-0.17664756 -0.4223738 0.053446088
-0.17680076 -0.4224481 0.053398047
-0.17701134 -0.42253095 0.053461604
-0.17719087 -0.42261678 0.05341344
-0.1773781 -0.42270377 0.053380229
-0.17753005 -0.42277321 0.05336104
-0.17769741 -0.42283726 0.053423651
-0.17792173 -0.42293796 0.053407557
-0.17810659 -0.42302564 0.053362831
-0.17828941 -0.42311034 0.053331945
-0.17847657 -0.42319834 0.05329182
-0.17865711 -0.42327982 0.053275943
-0.17883791 -0.42335799 0.053283136
-0.17901951 -0.4234415 0.053256873
-0.17919694 -0.42351836 0.053262927
-0.17937995 -0.42360845 0.053196289
-0.17956288 -0.42368671 0.05320923
-0.17974377 -0.42376971 0.053184129
-0.17992736 -0.4238534 0.05316247
-0.18009824 -0.42392397 0.053191621
-0.18027097 -0.42399773 0.053204615
-0.18046136 -0.42408508 0.053178318
-0.18063685 -0.42416385 0.053165924
-0.18081604 -0.42424491 0.053148903
-0.18100461 -0.42433405 0.053105298
-0.1811849 -0.42441747 0.053075586
-0.18136466 -0.4244957 0.053079326
-0.18154591 -0.42458126 0.053038072
-0.18172699 -0.42466676 0.052996818
-0.18190348 -0.42474407 0.052997116
-0.18207701 -0.42481595 0.053025093
-0.18221234 -0.42487726 0.053011745
-0.18240644 -0.42497393 0.052933522
-0.18260679 -0.42505899 0.052952155
-0.18279886 -0.42514759 0.052922379
-0.18297614 -0.42522728 0.052908827
-0.18314871 -0.42529792 0.052942578
-0.18332064 -0.42537734 0.052915208
-0.18348254 -0.42544705 0.05292365
-0.18366994 -0.42553753 0.052867375
-0.18386155 -0.4256213 0.052868735
-0.18403307 -0.42569542 0.052875977
-0.18421902 -0.42578372 0.052830089
-0.18438052 -0.42585325 0.052838519
-0.18456122 -0.42593086 0.052849166
-0.18474407 -0.4260132 0.052834436
-0.18492463 -0.42609641 0.052807029
-0.18510008 -0.42617428 0.052800406
-0.18527582 -0.42625296 0.052789159
-0.18545417 -0.42633778 0.052744459
-0.18562719 -0.42641065 0.052764371
-0.18580137 -0.42648625 0.052769288
-0.18596441 -0.42656675 0.052708525
-0.18613146 -0.42665088 0.052635051
-0.18633972 -0.42674574 0.05261096
-0.18651398 -0.42682239 0.052608959
-0.18668579 -0.42688653 0.052684233
-0.18682733 -0.42692107 0.052869216
-0.18702374 -0.42705426 0.05255226
-0.18717325 -0.42712298 0.052530766
-0.18736561 -0.42720586 0.052540209
-0.18755965 -0.42729345 0.05252311
-0.18773288 -0.42736864 0.052528024
-0.18791506 -0.42745376 0.052492544
-0.18808098 -0.42752403 0.052509025
-0.18825279 -0.42760339 0.052481662
-0.18840839 -0.42766759 0.05250857
-0.18858957 -0.42775092 0.052482314
-0.18879047 -0.42784441 0.052445583
-0.18896425 -0.42792258 0.052432049
-0.18913782 -0.42800033 0.052420817
-0.18931149 -0.42807862 0.052406125
-0.1894881 -0.42815769 0.052394882
-0.1896589 -0.42822704 0.052432105
-0.18983445 -0.42831233 0.05237589
-0.19000897 -0.42839459 0.052336976
-0.19018546 -0.42847446 0.05231997
-0.19034807 -0.428545 0.05232494
-0.19052479 -0.42861572 0.052370206
-0.19068354 -0.42869312 0.05231753
-0.19085778 -0.42877629 0.052271701
-0.19104998 -0.42886376 0.052250005
-0.1912249 -0.42893919 0.052258369
-0.19139852 -0.42902124 0.052218311
-0.19156753 -0.42909628 0.05221172
-0.19174355 -0.42917734 0.052185476
-0.1918873 -0.42924267 0.052169789
-0.19207494 -0.42932487 0.05217002
-0.19224337 -0.4293983 0.052172661
-0.19241881 -0.42947805 0.052153349
-0.19259746 -0.42955974 0.052130561
-0.1927788 -0.42964071 0.052120447
-0.19292578 -0.42971003 0.052087437
-0.19307722 -0.42977154 0.052120134
-0.19326121 -0.4298518 0.052122697
-0.1934343 -0.42993808 0.052052647
-0.1936001 -0.4300167 0.052012634
-0.19379075 -0.43010363 0.051989783
-0.19396763 -0.43017769 0.052013136
-0.1941607 -0.43026143 0.052019116
-0.1943319 -0.43033811 0.052007895
-0.19450325 -0.43041676 0.051983997
-0.19464841 -0.4304769 0.0520075
-0.19484842 -0.43057105 0.051963847
-0.19500726 -0.43064851 0.051911172
-0.19516231 -0.4307186 0.051896572
-0.1953328 -0.43079156 0.05190843
-0.19550009 -0.43086296 0.051921453
-0.19566096 -0.43092963 0.051947184
-0.19585091 -0.43102056 0.051895507
-0.19602142 -0.43109629 0.051888909
-0.19619833 -0.43117821 0.051859211
-0.19635639 -0.4312579 0.051789243
-0.19653305 -0.43134061 0.051753782
-0.19672523 -0.43142086 0.051780522
-0.19689226 -0.43149313 0.051786628
-0.19705294 -0.43156505 0.05177661
-0.19721669 -0.43164226 0.05174005
-0.19738984 -0.43171999 0.051727682
-0.19755392 -0.43177781 0.051822592
-0.1977108 -0.43186396 0.051705349
-0.19789337 -0.4319424 0.051715985
-0.1980824 -0.43202007 0.051750809
-0.19825502 -0.43210307 0.051701531
-0.1984151 -0.4321776 0.051671911
-0.19859385 -0.43226174 0.051632978
-0.19877249 -0.43234566 0.051595204
-0.1989422 -0.43241894 0.051602446
-0.19912413 -0.43250105 0.051586561
-0.19929409 -0.43257189 0.051611107
-0.19945106 -0.43264097 0.051609177
-0.19960301 -0.43272275 0.051506948
-0.19976948 -0.43279412 0.051517665
-0.19993502 -0.43287176 0.051483408
-0.20011353 -0.43295151 0.051473308
-0.20026176 -0.43303096 0.051375709
-0.20043211 -0.43309838 0.051424466
-0.20061526 -0.43317056 0.051478926
-0.20079304 -0.43325323 0.051446915
-0.2009594 -0.43332458 0.051457636
-0.20113485 -0.43340158 0.051456779
-0.20130552 -0.43348423 0.051404051
-0.20146221 -0.43355232 0.051407889
-0.20162651 -0.43363181 0.051357504
-0.20180112 -0.4337112 0.051338196
-0.2019822 -0.43379226 0.051326923
-0.20214799 -0.43386504 0.051326118
-0.20230512 -0.43393111 0.051344953
-0.20248495 -0.43400422 0.051383283
-0.20264508 -0.43408394 0.05131907
-0.20282313 -0.4341628 0.051313587
-0.20299286 -0.43424502 0.051260851
-0.2031474 -0.43431869 0.051220894
-0.20332417 -0.43439028 0.051260389
-0.20349345 -0.4344629 0.051271092
-0.20366323 -0.43454394 0.051226437
-0.20382482 -0.43461746 0.051208347
-0.20398058 -0.43468702 0.051199514
-0.2041624 -0.4347648 0.051212464
-0.20435092 -0.4348532 0.051173478
-0.20452142 -0.43492272 0.051208399
-0.20468676 -0.43501264 0.051091105
-0.20484388 -0.43508694 0.051054582
-0.20502226 -0.43516368 0.051064089
-0.20518567 -0.43523234 0.051084049
-0.20536493 -0.43530744 0.051107388
-0.20552243 -0.43538052 0.051080104
-0.20568955 -0.4354496 0.051108114
-0.20585671 -0.43552607 0.051086534
-0.20603177 -0.43560928 0.051043011
-0.20621455 -0.43569225 0.051023662
-0.20637025 -0.43576798 0.050973311
-0.20653245 -0.4358457 0.050928682
-0.2067048 -0.43591928 0.05094168
-0.2068745 -0.43598419 0.051005438
-0.2070239 -0.4360503 0.051001247
-0.2071922 -0.43613702 0.05091393
-0.20735896 -0.436207 0.050935023
-0.20753796 -0.43628898 0.050911084
-0.20770554 -0.43636993 0.050860673
-0.20786813 -0.43644011 0.050867952
-0.20803273 -0.43650156 0.050939791
-0.20819843 -0.43655017 0.051101595
-0.20838551 -0.43666106 0.05090693
-0.20854522 -0.4367466 0.050802361
-0.20869422 -0.43681288 0.050795861
-0.20886153 -0.43687689 0.050858475
-0.20903192 -0.43695873 0.050810356
-0.20920555 -0.43704164 0.050764531
-0.20937641 -0.43711734 0.050759077
-0.20953169 -0.43719134 0.050719105
-0.20968112 -0.43726206 0.050683774
-0.2098659 -0.43733633 0.050728999
-0.2100421 -0.43741575 0.050714303
-0.2102056 -0.43748993 0.050697349
-0.21037011 -0.4375678 0.050658491
-0.21053378 -0.43763691 0.050676141
-0.21070169 -0.43771097 0.050673015
-0.21086515 -0.43778974 0.050624933
-0.21102852 -0.43786848 0.050576851
-0.21119453 -0.43793982 0.05058641
-0.21136656 -0.43801415 0.050593641
-0.21153505 -0.43808314 0.050626263
-0.21170077 -0.43815058 0.050661206
-0.21186188 -0.43823126 0.050593521
-0.2120313 -0.43830392 0.050604224
-0.2121968 -0.43839303 0.050492708
-0.21236241 -0.43845648 0.050554167
-0.21252996 -0.43853089 0.050547585
-0.21268947 -0.43862474 0.0503865
-0.21287018 -0.43869156 0.050469808
-0.21303429 -0.43876478 0.050460931
-0.21320947 -0.43883672 0.05049352
-0.21336727 -0.43891919 0.050403945
-0.21352623 -0.43898487 0.050430838
-0.2136896 -0.4390626 0.050389674
-0.21384914 -0.43914324 0.050317399
-0.2140177 -0.43922427 0.050269291
-0.21418254 -0.43929303 0.050292693
-0.21434894 -0.43936816 0.050278045
-0.21452014 -0.43943971 0.050301429
-0.21468966 -0.43951258 0.050310969
-0.21484932 -0.43959263 0.050243303
-0.21502507 -0.43967181 0.050228607
-0.21518604 -0.43975073 0.050172459
-0.21534972 -0.4398241 0.05016128
-0.21552955 -0.43989003 0.050248049
-0.21570206 -0.43996456 0.050255276
-0.21586464 -0.44004229 0.050211806
-0.21602851 -0.4401089 0.05024676
-0.21618599 -0.44019654 0.05012143
-0.21635213 -0.44026178 0.050172519
-0.2165181 -0.44033721 0.050154407
-0.21668096 -0.44041452 0.050114393
-0.21685246 -0.44048983 0.050113559
-0.21702346 -0.44056866 0.050087351
-0.21719083 -0.44064641 0.050057694
-0.21735564 -0.44071928 0.050053436
-0.21752261 -0.44078779 0.050084904
-0.21768942 -0.44086275 0.050072558
-0.21785434 -0.44093564 0.050068285
-0.21801615 -0.44101337 0.05002252
-0.21819068 -0.44108415 0.050060879
-0.21835971 -0.44115803 0.050062358
-0.21852465 -0.44123402 0.050037332
-0.21868762 -0.44131106 0.049999628
-0.21885565 -0.44138843 0.049974587
-0.21903262 -0.44146129 0.050006017
-0.2191911 -0.44154048 0.049940653
-0.21935694 -0.44161311 0.049940996
-0.21953079 -0.44168481 0.049971282
-0.21969235 -0.44176242 0.049925517
-0.21985167 -0.44183818 0.049885526
-0.22001871 -0.44191599 0.049854722
-0.22018279 -0.44199228 0.04982508
-0.22035696 -0.44206685 0.049836919
-0.22051519 -0.44214302 0.049791165
-0.22069024 -0.44221455 0.049826059
-0.22085612 -0.4422901 0.0498068
-0.22102046 -0.44236362 0.049796771
-0.22118416 -0.44244012 0.049764823
-0.22135328 -0.44251436 0.049764
-0.22153556 -0.44258597 0.049819615
-0.22170395 -0.4426659 0.049778428
-0.22186862 -0.44273683 0.049786855
-0.22202905 -0.44281462 0.04973647
-0.22220467 -0.44289172 0.049735613
-0.22238478 -0.44296721 0.049758956
-0.22253099 -0.44304764 0.04964868
-0.2227046 -0.44312301 0.04965359
-0.22286513 -0.44319811 0.049621668
-0.22302759 -0.44326755 0.049633555
-0.22319031 -0.44334191 0.049613152
-0.22336707 -0.4434188 0.049616907
-0.22354344 -0.4434959 0.049618348
-0.22371179 -0.44356844 0.049626745
-0.22386886 -0.44364956 0.049544096
-0.22402537 -0.44372356 0.049507584
-0.22420412 -0.4438 0.049520548
-0.22437073 -0.44387794 0.049487438
-0.22455227 -0.44395831 0.04948194
-0.22471075 -0.44403404 0.049439643
-0.22487545 -0.44410789 0.049428456
-0.22504228 -0.44418114 0.049427643
-0.22521359 -0.44425771 0.049417581
-0.22538504 -0.44432974 0.049438652
-0.22552915 -0.44440499 0.049357217
-0.22569929 -0.44447967 0.049356379
-0.22587383 -0.44455323 0.04937629
-0.22605552 -0.44462717 0.049414612
-0.2262218 -0.44470751 0.049364209
-0.22637953 -0.44478345 0.049318455
-0.22654851 -0.44485867 0.049310703
-0.22671288 -0.44493288 0.049296066
-0.22688991 -0.44500613 0.049325187
-0.22706774 -0.44508147 0.049342763
-0.22723436 -0.44515958 0.049308501
-0.22739415 -0.44523504 0.049271967
-0.22756471 -0.44531009 0.049269985
-0.22773081 -0.44538832 0.049233418
-0.22791332 -0.44546074 0.049284421
-0.22808112 -0.44554073 0.049240924
-0.22824696 -0.4456149 0.049230892
-0.22840422 -0.44569305 0.049168997
-0.22857563 -0.44576812 0.049169309
-0.22876723 -0.44584313 0.049229495
-0.22892024 -0.44592214 0.049149174
-0.22910069 -0.44599551 0.049187504
-0.22925738 -0.44607374 0.04912331
-0.22943106 -0.44615462 0.04909132
-0.22960405 -0.44623363 0.049069714
-0.22977427 -0.44630921 0.049063116
-0.22991936 -0.44638354 0.048990894
-0.2300979 -0.44646159 0.048992332
-0.23027822 -0.44653937 0.04900068
-0.23045704 -0.44661358 0.049028628
-0.23063104 -0.44669065 0.04902317
-0.23081644 -0.44676006 0.049102984
-0.23098035 -0.44684282 0.049029525
-0.23113114 -0.44691998 0.048954986
-0.23131707 -0.44699338 0.049009431
-0.23147568 -0.44707689 0.048915237
-0.23163991 -0.44715378 0.048882145
-0.23181115 -0.44722587 0.048902065
-0.23199181 -0.44730037 0.048933476
-0.2321547 -0.44737944 0.048881926
-0.23233001 -0.44745484 0.048891447
-0.23249927 -0.44752932 0.048889466
-0.23266844 -0.44760755 0.048862118
-0.23283266 -0.44768459 0.048827868
-0.23299515 -0.44776553 0.048762485
-0.23315415 -0.44783962 0.048732884
-0.2333328 -0.44791666 0.048741229
-0.23351234 -0.44799188 0.048764575
-0.23367116 -0.44806966 0.048709586
-0.23385715 -0.44814959 0.048720215
-0.23404101 -0.44822809 0.048734304
-0.23421648 -0.44830582 0.048728839
-0.23437756 -0.44838339 0.048681915
-0.23455523 -0.44845742 0.048707575
-0.23472869 -0.44853374 0.048705567
-0.23487994 -0.44860891 0.04864601
-0.2350688 -0.44868374 0.048699293
-0.23522946 -0.44876319 0.04863853
-0.2354055 -0.44884288 0.048621524
-0.23554868 -0.44891876 0.048533175
-0.23571931 -0.4489921 0.048542723
-0.23589942 -0.4490698 0.048551071
-0.23607546 -0.44914624 0.04855597
-0.23624229 -0.44922686 0.04850556
-0.23642264 -0.44930637 0.048502371
-0.23660518 -0.44938409 0.048517622
-0.23677813 -0.44946429 0.048487946
-0.23695454 -0.44953763 0.048514761
-0.2371206 -0.44961345 0.048494346
-0.23729663 -0.44969517 0.048463497
-0.23746549 -0.44977087 0.048452288
-0.23762506 -0.4498488 0.048398457
-0.23782416 -0.4499259 0.048466682
-0.23795964 -0.45000374 0.048342623
-0.23815486 -0.45008445 0.048375107
-0.23833866 -0.45015949 0.048412267
-0.23848729 -0.45023811 0.048321582
-0.23867786 -0.45031613 0.048358709
-0.23884161 -0.45039555 0.048307166
-0.23901302 -0.45047301 0.048291333
-0.23919514 -0.45055005 0.048310049
-0.23936343 -0.45062461 0.04830461
-0.23955874 -0.45070282 0.048354402
-0.23968436 -0.4507823 0.048190024
-0.23988819 -0.45086032 0.048266292
-0.24005581 -0.45093819 0.048236635
-0.24023804 -0.45102176 0.048211526
-0.24039447 -0.45109695 0.048166942
-0.24059846 -0.45117536 0.0482409
-0.24075058 -0.4512538 0.048161734
-0.24095099 -0.45133099 0.048233412
-0.2411184 -0.45140758 0.048211832
-0.24127311 -0.45148748 0.048130341
-0.24145126 -0.4515669 0.048121404
-0.24162345 -0.45164797 0.048083656
-0.24179634 -0.45172456 0.048078194
-0.24199355 -0.45180085 0.048146427
-0.24212715 -0.45187956 0.048010841
-0.24231744 -0.4519605 0.048027206
-0.24250744 -0.45203862 0.048062027
-0.24267715 -0.45211843 0.048025448
-0.24283953 -0.45219538 0.047986589
-0.24303293 -0.45227513 0.04802024
-0.24318944 -0.4523536 0.04795374
-0.24337576 -0.45243353 0.047965515
-0.24353522 -0.45251346 0.047897849
-0.24372075 -0.45259491 0.04789694
-0.24389887 -0.45267206 0.047902986
-0.24410155 -0.45274803 0.04798964
-0.24427783 -0.45283109 0.047950719
-0.24443422 -0.45290968 0.047883067
-0.24460661 -0.45298842 0.047861464
-0.2447836 -0.4530687 0.047843292
-0.24497172 -0.4531506 0.047846992
-0.24514732 -0.45323095 0.047824219
-0.24531692 -0.45331123 0.047784176
-0.24549289 -0.45338744 0.047790233
-0.24566334 -0.45346501 0.047770947
-0.24584873 -0.45354435 0.047783878
-0.24604055 -0.45362529 0.047804851
-0.24620605 -0.45370567 0.047752149
-0.2463761 -0.45378476 0.04772133
-0.2465567 -0.45386836 0.047691613
-0.24673864 -0.45394924 0.047683805
-0.24689215 -0.45402384 0.047634616
-0.2470815 -0.45410371 0.047655605
-0.24725878 -0.45418325 0.0476432
-0.24745132 -0.45426881 0.047635339
-0.24761732 -0.45434803 0.04759185
-0.24780607 -0.45442814 0.047609381
-0.24797876 -0.45450634 0.047592394
-0.24813204 -0.45458511 0.047514372
-0.2483402 -0.4546676 0.047573324
-0.24850507 -0.45474425 0.04754369
-0.24867754 -0.45482528 0.047507089
-0.24885939 -0.45490545 0.047503889
-0.24902555 -0.4549849 0.047459252
-0.24921031 -0.45506534 0.047462966
-0.24937472 -0.45514607 0.047404494
-0.24955723 -0.45522517 0.047410518
-0.24975634 -0.45530915 0.047432616
-0.24990997 -0.45538807 0.04735459
-0.25009286 -0.45546478 0.04737791
-0.25030702 -0.45555246 0.047419533
-0.25047639 -0.45563108 0.047389876
-0.2506479 -0.45571119 0.047356751
-0.2508288 -0.45579317 0.04733856
-0.25100851 -0.45587513 0.047316927
-0.15673243 -0.41336587 0.055327918
-0.15693125 -0.413454 0.055321153
-0.15711102 -0.41352162 0.055396385
-0.15732975 -0.41362947 0.055315696
-0.15754387 -0.41373101 0.055263862
-0.15774588 -0.4138228 0.055242088
-0.15793887 -0.41390374 0.055266503
-0.15814327 -0.4139981 0.055234328
-0.15834486 -0.4140878 0.055225246
-0.15855119 -0.41418439 0.055183832
-0.1587508 -0.41427237 0.055180531
-0.15894304 -0.41436121 0.055149578
-0.1591564 -0.41445917 0.055119663
-0.15935686 -0.41454837 0.055110581
-0.15955473 -0.41463509 0.055110749
-0.15970095 -0.41467768 0.055255357
-0.15994252 -0.41480276 0.055126101
-0.16010818 -0.41488406 0.055067603
-0.16036327 -0.41500461 0.055008642
-0.16055161 -0.41508421 0.055028461
-0.16074774 -0.41516981 0.055030938
-0.16095881 -0.4152731 0.054958358
-0.16115481 -0.41535878 0.054959685
-0.16134891 -0.41544265 0.05496794
-0.1615378 -0.41552112 0.05499699
-0.16173565 -0.41561124 0.054974072
-0.16194302 -0.41570929 0.054925743
-0.16214153 -0.41580039 0.054898217
-0.16233808 -0.41588736 0.054892611
-0.16255319 -0.41599637 0.054793485
-0.16271999 -0.41605195 0.054911464
-0.16293156 -0.41615751 0.054825045
-0.16312517 -0.41624182 0.054828681
-0.16332048 -0.41633031 0.05480925
-0.1635199 -0.41642112 0.054786336
-0.16369811 -0.41648906 0.05485465
-0.16391625 -0.41660044 0.054748587
-0.16409515 -0.41668996 0.054673865
-0.16429439 -0.41676268 0.054772072
-0.16450305 -0.41686663 0.054687966
-0.16470429 -0.4169603 0.054651193
-0.16488585 -0.41703469 0.054686047
-0.16507749 -0.41711795 0.05469086
-0.16528216 -0.41721588 0.054635614
-0.16548932 -0.41731676 0.054567672
-0.16568337 -0.41740555 0.054542467
-0.16586876 -0.41748232 0.05457269
-0.16605479 -0.41756228 0.054583289
-0.16624567 -0.41764539 0.054586943
-0.16644204 -0.41773486 0.054564044
-0.16664475 -0.41783172 0.054509971
-0.16683595 -0.41791809 0.054492857
-0.16700913 -0.41799617 0.054478146
-0.16722059 -0.41809121 0.05446209
-0.16740762 -0.4181706 0.05447961
-0.16760725 -0.41826475 0.05443478
-0.16780987 -0.41836262 0.054373778
-0.16798648 -0.41843259 0.054423645
-0.16818127 -0.41852155 0.054399595
-0.16836946 -0.41860279 0.05440788
-0.16854066 -0.41868207 0.054379333
-0.16874903 -0.41877201 0.054388676
-0.16894378 -0.41886145 0.054361168
-0.1691412 -0.41895431 0.054318648
-0.16933376 -0.4190414 0.054300379
-0.1695163 -0.41911915 0.054315612
-0.16970544 -0.41920236 0.054313518
-0.16988507 -0.41928482 0.054288395
-0.17009777 -0.41938642 0.054231949
-0.1702832 -0.41946816 0.054228716
-0.17047466 -0.4195548 0.054210451
-0.17064489 -0.41962612 0.054232676
-0.17085688 -0.41972756 0.054175086
-0.17104302 -0.41980791 0.054183383
-0.17124435 -0.41990763 0.054106243
-0.17140001 -0.41997784 0.054092772
-0.17161739 -0.42007276 0.054095138
-0.17180379 -0.42015392 0.054098815
-0.17197844 -0.4202258 0.054130245
-0.17217961 -0.42032045 0.054086547
-0.17234913 -0.4203887 0.054127231
-0.17255305 -0.42048731 0.054065075
-0.17274016 -0.42056996 0.054060668
-0.17293604 -0.42066437 0.054003164
-0.17312071 -0.42074406 0.054011468
-0.17331327 -0.42083442 0.053971283
-0.17349657 -0.4209125 0.053986512
-0.17368706 -0.42100349 0.053935952
-0.17386036 -0.42107752 0.053948931
-0.17400229 -0.42113692 0.053967826
-0.17423561 -0.42124313 0.05394128
-0.17442219 -0.42132622 0.053932268
-0.17459621 -0.42141446 0.053851809
-0.17479847 -0.42149726 0.053891163
-0.17499468 -0.42158785 0.053860188
-0.17517605 -0.42166749 0.053859282
-0.17536885 -0.42176017 0.053804092
-0.1755612 -0.4218525 0.053750072
-0.17574084 -0.42192674 0.053780317
-0.17592892 -0.42201325 0.05375284
-0.17608503 -0.42208403 0.053737059
-0.17623204 -0.42213467 0.053829759
-0.17642576 -0.42221254 0.053877234
-0.17666897 -0.42234296 0.053716831
-0.1768564 -0.42242935 0.05368821
-0.17704256 -0.42251399 0.053667665
-0.17722535 -0.42259374 0.053670209
-0.17739588 -0.42266208 0.053713188
-0.17759877 -0.42276555 0.053615276
-0.17778617 -0.42285278 0.053580876
-0.17796293 -0.42292371 0.05362498
-0.1781452 -0.42300698 0.053602148
-0.17833561 -0.42309573 0.05356659
-0.17850126 -0.42317206 0.053541534
-0.17867422 -0.42324868 0.05353605
-0.17886339 -0.42332435 0.053584702
-0.17906602 -0.42342189 0.05352601
-0.17925188 -0.42350417 0.053520471
-0.17943734 -0.42358592 0.053517226
-0.17962205 -0.42367062 0.053492077
-0.17980923 -0.42375964 0.053445004
-0.17998825 -0.42383516 0.053464867
-0.18016841 -0.42391682 0.053446658
-0.18032524 -0.42397967 0.05348625
-0.18053034 -0.4240877 0.053364102
-0.18069911 -0.42415872 0.053384013
-0.18088251 -0.42424679 0.05333234
-0.18106022 -0.4243207 0.053359136
-0.18120363 -0.42437321 0.053428777
-0.18141474 -0.42449382 0.053239696
-0.18161985 -0.42457718 0.053283654
-0.18180671 -0.42466831 0.053221587
-0.18199861 -0.42474124 0.053296756
-0.18216643 -0.42481592 0.053288992
-0.18236235 -0.42492011 0.05316573
-0.18254772 -0.42499036 0.053239785
-0.18272841 -0.42507088 0.053230803
-0.18291262 -0.42515844 0.053184897
-0.18309496 -0.4252426 0.05315629
-0.18326508 -0.42531285 0.053185433
-0.1834608 -0.42540887 0.053116392
-0.18364033 -0.42548802 0.053113185
-0.18382116 -0.42556998 0.053094976
-0.18399933 -0.42564666 0.053104464
-0.18418345 -0.42573589 0.053047016
-0.18436205 -0.42581379 0.053049583
-0.18454292 -0.42589113 0.053062517
-0.18472418 -0.42597499 0.053032771
-0.18489879 -0.42605031 0.053041123
-0.18508266 -0.42613462 0.053015981
-0.18526226 -0.42621553 0.05300124
-0.18544094 -0.42629448 0.052996878
-0.18559471 -0.42636454 0.052978806
-0.18580289 -0.42645749 0.052967377
-0.18598191 -0.42653781 0.052954942
-0.18616222 -0.42662141 0.052924052
-0.18633196 -0.42669252 0.05294627
-0.18648125 -0.42675909 0.052938599
-0.18666995 -0.426851 0.052876521
-0.18688053 -0.42695153 0.052821249
-0.18705653 -0.42702553 0.052842274
-0.18723653 -0.42711002 0.052804463
-0.18741897 -0.42719424 0.052775867
-0.18759388 -0.4272657 0.052810747
-0.18776886 -0.42734477 0.052794877
-0.18795246 -0.42743289 0.052743204
-0.18810117 -0.42749974 0.052732069
-0.18828142 -0.42757905 0.052730016
-0.18846034 -0.42765468 0.052748729
-0.18865167 -0.42774278 0.052720077
-0.18881728 -0.42781997 0.052689262
-0.18898608 -0.4278903 0.052713793
-0.1891571 -0.42796761 0.052697934
-0.18933181 -0.42804807 0.052671686
-0.1895338 -0.42813641 0.052672975
-0.1897144 -0.4282186 0.052652456
-0.18984953 -0.42826986 0.052705996
-0.1900394 -0.42837501 0.052558552
-0.19025335 -0.42846721 0.052569017
-0.19042793 -0.42853925 0.052599289
-0.19060488 -0.42862001 0.05257763
-0.190771 -0.42869225 0.052581411
-0.19094883 -0.42877719 0.052534383
-0.19112714 -0.42885306 0.052549638
-0.19131045 -0.428938 0.052518718
-0.19145563 -0.42900738 0.05247993
-0.1916562 -0.42909339 0.052492771
-0.19181947 -0.42919335 0.052301615
-0.19201131 -0.42926693 0.05237218
-0.19218826 -0.4293381 0.052415125
-0.19236259 -0.42941037 0.052443087
-0.19253241 -0.42948937 0.052412238
-0.19270365 -0.42956096 0.052435607
-0.19286862 -0.42964658 0.052345958
-0.19305041 -0.42972878 0.052328892
-0.19321474 -0.42979509 0.052367292
-0.19339761 -0.42988464 0.052304089
-0.19358554 -0.42996988 0.05228468
-0.19375814 -0.43005252 0.052237682
-0.19390011 -0.43013027 0.052133147
-0.19410355 -0.43019953 0.052267089
-0.1942777 -0.43027273 0.052288137
-0.19441859 -0.43031865 0.052394703
-0.19461802 -0.43042898 0.05224029
-0.19479939 -0.43051445 0.052200153
-0.19496417 -0.43058628 0.052202791
-0.19511634 -0.43065375 0.052197419
-0.19529697 -0.43073359 0.052193046
-0.19549069 -0.43082601 0.052142479
-0.19566494 -0.43090472 0.052126605
-0.1958359 -0.43098116 0.052116524
-0.19600385 -0.43106088 0.052075308
-0.19615877 -0.43112838 0.052077986
-0.19635466 -0.4312101 0.052105848
-0.19651289 -0.4312866 0.052057754
-0.19667394 -0.43134993 0.052106548
-0.19684781 -0.43143517 0.052045695
-0.19703415 -0.4315187 0.052033227
-0.19721405 -0.43160453 0.05198618
-0.19737808 -0.43168047 0.051958829
-0.19755186 -0.43174648 0.052027166
-0.1977219 -0.43183178 0.051954795
-0.19789203 -0.4319104 0.051927414
-0.19805598 -0.43198168 0.05193121
-0.19823243 -0.43206018 0.051923398
-0.19839287 -0.43213475 0.051894918
-0.19857861 -0.43221766 0.051884748
-0.19876109 -0.43230015 0.051867694
-0.19891784 -0.43237635 0.051817305
-0.19909194 -0.43244267 0.051884491
-0.19925833 -0.43251982 0.051855966
-0.19942792 -0.43259737 0.05183436
-0.19958422 -0.43267405 0.051779356
-0.19975807 -0.43274352 0.051824626
-0.19995256 -0.43283251 0.051799428
-0.20011006 -0.43289959 0.051812481
-0.20027183 -0.43298158 0.051737845
-0.20045106 -0.43305942 0.051742706
-0.20061688 -0.43313617 0.051715348
-0.2007997 -0.43321282 0.05173865
-0.20094444 -0.43327498 0.051747158
-0.20111746 -0.43336549 0.051648241
-0.20128691 -0.43342465 0.051750049
-0.20146415 -0.43351069 0.051693797
-0.20164497 -0.43359557 0.051655974
-0.20182762 -0.43367282 0.051674664
-0.20198718 -0.43374476 0.051661178
-0.20215438 -0.43382707 0.051600359
-0.20230493 -0.433893 0.051600762
-0.20247614 -0.43397281 0.051568754
-0.20266116 -0.43405369 0.051570129
-0.2028186 -0.43413138 0.051511671
-0.20297696 -0.43419489 0.051551241
-0.20313989 -0.43426642 0.051550433
-0.20331238 -0.43435192 0.05148381
-0.20349135 -0.43442896 0.051493291
-0.20365369 -0.43450177 0.051482107
-0.20383249 -0.43457922 0.05148812
-0.20401339 -0.4346607 0.051473372
-0.20418516 -0.43473732 0.051464438
-0.20434298 -0.43481174 0.051429041
-0.204523 -0.43489489 0.051400457
-0.204713 -0.43498054 0.051384509
-0.20486812 -0.43505207 0.051360656
-0.20503141 -0.43512204 0.051371381
-0.20519717 -0.43519482 0.051370546
-0.2053781 -0.43528315 0.051309656
-0.20554037 -0.4353551 0.051304229
-0.20570455 -0.43543077 0.05127918
-0.20587558 -0.43550053 0.051314078
-0.2060423 -0.43557853 0.051280942
-0.20621404 -0.43565425 0.051277779
-0.20637251 -0.4357259 0.051263142
-0.20653422 -0.43579862 0.051250789
-0.20669632 -0.43587732 0.051199228
-0.20686446 -0.43595883 0.05114647
-0.20704859 -0.43603987 0.051144402
-0.2072254 -0.43611988 0.051127363
-0.20738004 -0.43617815 0.051191188
-0.2075559 -0.43625966 0.051161468
-0.20771825 -0.43633711 0.051119119
-0.20788836 -0.43640888 0.051137876
-0.20806246 -0.43649268 0.051087402
-0.20822796 -0.436571 0.051048506
-0.20839903 -0.43664145 0.051078796
-0.20855488 -0.43672153 0.050999571
-0.20872922 -0.43679875 0.050994091
-0.20889838 -0.43687731 0.050964404
-0.20906492 -0.43694836 0.050977413
-0.20923489 -0.43702573 0.050958101
-0.20939958 -0.43709391 0.050984964
-0.20957392 -0.43717113 0.050979473
-0.20973866 -0.43724963 0.050937112
-0.20990172 -0.43732998 0.050877467
-0.21007174 -0.43740204 0.050893925
-0.21025737 -0.43747616 0.050942592
-0.21042258 -0.43755382 0.050907157
-0.21058793 -0.43763125 0.050874025
-0.21075493 -0.43770677 0.050858196
-0.21091899 -0.43777606 0.050875824
-0.21108423 -0.43785805 0.050811559
-0.21125564 -0.4379153 0.050931811
-0.21142109 -0.43798345 0.05096098
-0.21157868 -0.43806842 0.050854065
-0.21175063 -0.43815231 0.05079668
-0.21192105 -0.43823314 0.050755449
-0.21208841 -0.43830815 0.050744228
-0.21225461 -0.43838418 0.050722636
-0.21241899 -0.43846184 0.050684899
-0.21259962 -0.43853736 0.050709367
-0.2127724 -0.43861169 0.050718885
-0.21293543 -0.43868634 0.050697297
-0.21310116 -0.43875465 0.050726466
-0.21326369 -0.43883371 0.050673738
-0.21342708 -0.43891984 0.05057602
-0.21359631 -0.43899706 0.050555572
-0.21377119 -0.439062 0.05063428
-0.21394263 -0.43914139 0.05060574
-0.21411134 -0.43921527 0.05060605
-0.21427976 -0.43929315 0.050578665
-0.21444602 -0.4393689 0.050559383
-0.2146152 -0.43944249 0.050563149
-0.21478385 -0.43952012 0.050538074
-0.21495245 -0.43959415 0.050537232
-0.21512644 -0.43967155 0.050529435
-0.21530093 -0.43974507 0.050549321
-0.21546486 -0.43981892 0.050535817
-0.21562466 -0.43989903 0.05046811
-0.21578591 -0.43998146 0.050388858
-0.21595672 -0.44005406 0.05040415
-0.21613373 -0.44012612 0.050441328
-0.2162974 -0.44021013 0.050358612
-0.21647058 -0.44028136 0.050390042
-0.2166421 -0.44035375 0.050408792
-0.21681222 -0.44043034 0.050395247
-0.21697296 -0.44050929 0.050337918
-0.21714838 -0.44058272 0.050361268
-0.21731541 -0.44065791 0.050347738
-0.21748343 -0.44073254 0.050341122
-0.21764894 -0.44080862 0.050317224
-0.21781565 -0.44088715 0.050280631
-0.21798387 -0.44096476 0.050254412
-0.21815069 -0.44104314 0.05021897
-0.21832098 -0.44111961 0.050206583
-0.2184975 -0.44119284 0.050234534
-0.21866795 -0.4412663 0.050242901
-0.21884179 -0.44134107 0.050252412
-0.21900474 -0.44141844 0.05021238
-0.21916249 -0.44149831 0.050140075
-0.21932991 -0.44157335 0.050128851
-0.21950774 -0.44164628 0.050162565
-0.21966732 -0.441728 0.050083321
-0.21983904 -0.4418039 0.050079007
-0.22001052 -0.44187713 0.050091986
-0.22017868 -0.44195473 0.050065767
-0.22035716 -0.44203326 0.050063714
-0.22052746 -0.44210717 0.050068624
-0.22068428 -0.4421815 0.050030932
-0.2208548 -0.44225806 0.050018534
-0.22102164 -0.44233355 0.050002709
-0.22119561 -0.44240871 0.05000991
-0.22136804 -0.44248459 0.050007887
-0.22153383 -0.44256321 0.049967844
-0.22170679 -0.44264153 0.049950823
-0.22187854 -0.44272035 0.049926892
-0.22205208 -0.44279072 0.049965236
-0.22220987 -0.44286978 0.049898699
-0.2223787 -0.44294715 0.049875934
-0.22254887 -0.44301894 0.049894691
-0.22272421 -0.44309145 0.049923807
-0.222882 -0.4431729 0.049841113
-0.22305921 -0.44324985 0.049845986
-0.22321749 -0.44332603 0.04980021
-0.22339733 -0.44339967 0.049835064
-0.22356747 -0.44347915 0.049801912
-0.22373524 -0.44355214 0.049805686
-0.22390223 -0.44363022 0.049772553
-0.22406986 -0.44370571 0.049759019
-0.22423594 -0.44378412 0.049721271
-0.22439681 -0.44385937 0.04968933
-0.22457492 -0.44393635 0.049696509
-0.22475073 -0.44400942 0.049723312
-0.22492252 -0.44408846 0.049698222
-0.22508582 -0.44416767 0.049646653
-0.2252683 -0.44424129 0.049689569
-0.22543788 -0.44431642 0.049684107
-0.22560045 -0.44439584 0.04962907
-0.22575682 -0.44447014 0.049590223
-0.22592382 -0.44454604 0.049572084
-0.22609568 -0.44462064 0.049576987
-0.22627588 -0.44469529 0.049606077
-0.22644424 -0.44477314 0.049578704
-0.22661848 -0.4448517 0.049563989
-0.22679944 -0.44492856 0.04958038
-0.22695743 -0.44500905 0.049504615
-0.22711237 -0.44508806 0.049430005
-0.22728406 -0.44515863 0.049461447
-0.22746021 -0.44523683 0.04945479
-0.22763467 -0.44531119 0.049468916
-0.22781661 -0.44538814 0.049487613
-0.22796485 -0.44546437 0.049411885
-0.22814211 -0.44554666 0.04938101
-0.22830586 -0.44562146 0.049360577
-0.22846574 -0.44569919 0.049309026
-0.22863401 -0.44577718 0.049280494
-0.22880919 -0.44584757 0.049323447
-0.22900844 -0.44592339 0.049400888
-0.22914557 -0.44600981 0.049223717
-0.22932379 -0.44607982 0.049278192
-0.22950117 -0.44615617 0.049287684
-0.22966336 -0.44623747 0.049218815
-0.22985402 -0.44631141 0.049283601
-0.23001792 -0.44638646 0.049262021
-0.23018655 -0.4464646 0.049233489
-0.23035035 -0.44654167 0.049198061
-0.23050983 -0.44661748 0.049158037
-0.23069525 -0.44669083 0.049211327
-0.23085257 -0.44676712 0.04916209
-0.23102623 -0.44684643 0.049140457
-0.23119417 -0.44692481 0.049108468
-0.23136467 -0.44700083 0.049099538
-0.23154567 -0.447081 0.049094018
-0.23171197 -0.44715965 0.049055118
-0.23188555 -0.44723535 0.049057711
-0.23207061 -0.44731128 0.049092535
-0.23224874 -0.44739205 0.049074341
-0.23239677 -0.44746596 0.049013622
-0.23258214 -0.44753465 0.049098045
-0.2327411 -0.44761816 0.049004965
-0.23292075 -0.44768965 0.049053665
-0.2330927 -0.44776958 0.049022816
-0.2332463 -0.44785005 0.048934374
-0.23342028 -0.4479261 0.048935816
-0.23360798 -0.44800234 0.048976399
-0.23377791 -0.4480826 0.048937481
-0.23393078 -0.44815949 0.048870966
-0.23411793 -0.44823599 0.048908092
-0.23428804 -0.44831803 0.048857637
-0.23446321 -0.44838893 0.048897132
-0.23465249 -0.44846722 0.048928477
-0.23480807 -0.44854736 0.048848104
-0.23497654 -0.4486244 0.048826497
-0.23514149 -0.44870007 0.048803754
-0.23532702 -0.44877553 0.048843194
-0.23548508 -0.44885367 0.048783574
-0.23564956 -0.44892949 0.048758529
-0.23582539 -0.44900942 0.048739187
-0.23598891 -0.44908875 0.048687615
-0.23616563 -0.44916359 0.04870519
-0.23634233 -0.44924355 0.048688151
-0.23653072 -0.44932094 0.04872296
-0.2367077 -0.44939935 0.048717465
-0.23686995 -0.44947553 0.048683196
-0.23703893 -0.44955623 0.048638515
-0.23720859 -0.44963691 0.04859614
-0.23736472 -0.44971025 0.048563052
-0.23755115 -0.44978487 0.048610568
-0.23774928 -0.44986382 0.048663791
-0.23790413 -0.44994226 0.048592649
-0.23806718 -0.45002341 0.048527233
-0.23824354 -0.45009896 0.048539042
-0.23841095 -0.4501783 0.048498977
-0.23860753 -0.4502545 0.048566055
-0.23878093 -0.45033678 0.04852365
-0.23895316 -0.4504112 0.048530869
-0.23914132 -0.45048967 0.048557609
-0.23930554 -0.45056933 0.048506025
-0.23947796 -0.45064861 0.048480943
-0.23966509 -0.45072734 0.048503071
-0.23982292 -0.45080572 0.048441142
-0.23998609 -0.45088232 0.048406877
-0.2401675 -0.45096609 0.048378278
-0.24033146 -0.45104116 0.048356697
-0.24047211 -0.4511185 0.048251018
-0.24069691 -0.45119491 0.048399847
-0.24085811 -0.45127785 0.048317138
-0.24103969 -0.45135415 0.048339304
-0.24121577 -0.45143521 0.04831304
-0.24138722 -0.45151186 0.048302948
-0.24156913 -0.45159137 0.048304349
-0.24174637 -0.45166951 0.048301153
-0.24190825 -0.45174795 0.048250742
-0.2420795 -0.45182776 0.048218735
-0.24225168 -0.45190611 0.048199411
-0.24242967 -0.45198441 0.048197374
-0.24258925 -0.45206442 0.048129667
-0.24278203 -0.45214272 0.048171379
-0.24296607 -0.45222557 0.048156612
-0.2431327 -0.45230266 0.048129249
-0.24330153 -0.45238122 0.048098404
-0.24348371 -0.45245984 0.048106723
-0.24366054 -0.45253852 0.048098911
-0.24385568 -0.45262453 0.048095625
-0.24402116 -0.45270181 0.048063658
-0.24420413 -0.45277923 0.048082348
-0.24437127 -0.45285943 0.048035368
-0.24454586 -0.45293832 0.048019499
-0.2447401 -0.45302033 0.048040442
-0.24491525 -0.45309791 0.048034947
-0.24509811 -0.45317993 0.048022497
-0.24527609 -0.45326611 0.047967382
-0.24541944 -0.45333761 0.047908988
-0.24562478 -0.45341456 0.047996785
-0.24580592 -0.45350233 0.047940504
-0.24598733 -0.45357475 0.047988046
-0.24615692 -0.45365813 0.047927205
-0.24631931 -0.45373577 0.047883715
-0.24649887 -0.45381528 0.047878202
-0.24666518 -0.45389721 0.047817379
-0.24685836 -0.4539786 0.047839485
-0.2470206 -0.45405632 0.047794838
-0.24721497 -0.45413789 0.047819238
-0.24737564 -0.45421699 0.047760755
-0.24757329 -0.45430017 0.047783986
-0.24774781 -0.45437849 0.047771581
-0.24792328 -0.4544569 0.047761474
-0.24811384 -0.45453867 0.047773208
-0.24829629 -0.45462152 0.04775383
-0.24845482 -0.45469934 0.047697667
-0.24865358 -0.45478299 0.047720894
-0.24883386 -0.45486456 0.047703847
-0.24898425 -0.45494205 0.047625802
-0.24918672 -0.45502478 0.047666315
-0.24934655 -0.45510146 0.047621682
-0.24954325 -0.45518404 0.047646068
-0.2497243 -0.4552685 0.047611713
-0.24991943 -0.45535246 0.047622263
-0.25009128 -0.45542997 0.04760756
-0.25026396 -0.45550886 0.047585934
-0.25040919 -0.45558357 0.047511384
-0.25058293 -0.45566517 0.047474753
-0.25081217 -0.45575023 0.047578573
-0.25095117 -0.45582718 0.047470596
-0.2511543 -0.45591208 0.04749842
-0.15664801 -0.41329801 0.055535506
-0.15684159 -0.41337889 0.05556218
-0.15704395 -0.41346842 0.055556506
-0.15724307 -0.41355687 0.055548541
-0.15746324 -0.41366416 0.055475861
-0.15765373 -0.41374439 0.055497944
-0.15784091 -0.41381937 0.055545416
-0.15805966 -0.41392776 0.055461206
-0.15826717 -0.41402313 0.055431284
-0.15845485 -0.41410092 0.055461448
-0.15866923 -0.41420344 0.055403806
-0.15886968 -0.4142983 0.055356603
-0.15909183 -0.41440493 0.055294301
-0.15925537 -0.41445872 0.055414576
-0.15946627 -0.41455835 0.055366181
-0.15968126 -0.41466439 0.055286601
-0.15986755 -0.41473934 0.055331778
-0.16007259 -0.41483349 0.055303019
-0.1602733 -0.41492331 0.055290423
-0.16047341 -0.41501477 0.055265158
-0.16068223 -0.41511536 0.055204075
-0.1608687 -0.41519091 0.055245783
-0.161066 -0.41527769 0.055243596
-0.16126807 -0.41537172 0.055206783
-0.16146836 -0.4154619 0.055190731
-0.16167133 -0.41555718 0.055148132
-0.16187198 -0.41564801 0.055128634
-0.16209891 -0.41576892 0.054984391
-0.16226327 -0.4158217 0.055113897
-0.16246139 -0.41591021 0.055102479
-0.1626645 -0.41600421 0.055069108
-0.16285022 -0.41608196 0.055093523
-0.16304883 -0.4161714 0.055077482
-0.16325018 -0.41626614 0.055033743
-0.16344836 -0.41635537 0.055017713
-0.16363782 -0.4164353 0.055038642
-0.1638478 -0.41653761 0.054969475
-0.16401744 -0.41661912 0.054921292
-0.16420928 -0.41670197 0.05492951
-0.16440764 -0.41678977 0.054923866
-0.16462536 -0.41688502 0.054925032
-0.16482246 -0.41697636 0.054891694
-0.16502337 -0.4170697 0.054856036
-0.16520986 -0.41714951 0.05486891
-0.16541156 -0.41724166 0.054843627
-0.16559325 -0.41731632 0.054877289
-0.16578305 -0.41741216 0.054792069
-0.16600625 -0.41751939 0.054728605
-0.16619146 -0.41759592 0.054759942
-0.16639128 -0.41768914 0.054721981
-0.16658428 -0.41777474 0.054715205
-0.16676545 -0.4178493 0.054747712
-0.16696417 -0.41794169 0.054712065
-0.16713965 -0.41800982 0.054771133
-0.16734181 -0.41810647 0.054717012
-0.1675404 -0.41819915 0.054679058
-0.16773991 -0.41829309 0.054635331
-0.1679292 -0.41837776 0.054623954
-0.16811717 -0.41845837 0.054635663
-0.16831303 -0.41855106 0.054589644
-0.168495 -0.41862479 0.054630224
-0.16864119 -0.41868451 0.054659452
-0.16889055 -0.41881028 0.054548554
-0.16908395 -0.41890067 0.054510623
-0.16926348 -0.41897178 0.054561593
-0.16944969 -0.41905373 0.054559473
-0.16964732 -0.41914701 0.054514594
-0.16983166 -0.41922417 0.054539017
-0.17002693 -0.41931486 0.054504536
-0.17021874 -0.41940424 0.054468926
-0.17041272 -0.41949368 0.054439064
-0.17059371 -0.41957262 0.054441579
-0.17078638 -0.41965517 0.05445442
-0.17093863 -0.41971773 0.054482467
-0.17115849 -0.41981786 0.054457091
-0.17136472 -0.41992366 0.05435333
-0.17155759 -0.42001554 0.05430387
-0.17173582 -0.42008591 0.054356005
-0.17194036 -0.42019027 0.054256875
-0.17212477 -0.42026883 0.054272071
-0.17230356 -0.42034015 0.054319583
-0.17250428 -0.42044318 0.054218162
-0.17268582 -0.42051825 0.05424837
-0.17286797 -0.4205972 0.054254338
-0.1730559 -0.42068091 0.054245278
-0.17324844 -0.42077094 0.054207355
-0.17344134 -0.42086163 0.054165959
-0.17362031 -0.42093679 0.054188099
-0.17381099 -0.42102477 0.054158263
-0.17400165 -0.42111295 0.054127268
-0.17419046 -0.42119876 0.054106668
-0.17436954 -0.4212808 0.054082658
-0.17456746 -0.42137319 0.054044709
-0.17474683 -0.42144629 0.054081842
-0.17493077 -0.42152587 0.05408895
-0.17512284 -0.42162031 0.054019887
-0.17530859 -0.42170271 0.05401314
-0.17549144 -0.42178109 0.054024883
-0.17568107 -0.42186934 0.053990431
-0.17586866 -0.42195821 0.053945605
-0.17605367 -0.42204013 0.053940032
-0.1762096 -0.42210704 0.053949594
-0.176387 -0.42217448 0.054019041
-0.17660479 -0.42228433 0.053922154
-0.17678948 -0.42236626 0.053915411
-0.1769768 -0.42245588 0.053864826
-0.17716709 -0.42254663 0.053815376
-0.17734228 -0.42261824 0.053850222
-0.17753065 -0.42270643 0.053812321
-0.17770231 -0.42277271 0.05387257
-0.17789471 -0.42286748 0.053802345
-0.17807256 -0.4229435 0.053815253
-0.17825969 -0.42303044 0.053781975
-0.17843913 -0.42310923 0.05378104
-0.17862105 -0.42318824 0.053785849
-0.17880674 -0.42327732 0.053734124
-0.17895615 -0.42334703 0.053705651
-0.17912793 -0.42342177 0.053709373
-0.17930982 -0.42350522 0.05368419
-0.17950927 -0.42359382 0.053676222
-0.17972131 -0.42369139 0.053645127
-0.17989981 -0.42376974 0.053644184
-0.1800863 -0.42385763 0.053602833
-0.1802672 -0.42393619 0.053607658
-0.18044522 -0.42400989 0.053636722
-0.18061136 -0.4240801 0.053654309
-0.18079698 -0.42417154 0.053586431
-0.18097003 -0.42425421 0.053540528
-0.1811251 -0.42431834 0.053566251
-0.18130052 -0.42440566 0.053496111
-0.18151259 -0.42449653 0.053510003
-0.1817117 -0.42458206 0.053521655
-0.18189515 -0.42466655 0.053494163
-0.18205856 -0.42475596 0.05337448
-0.18223786 -0.4248285 0.053415075
-0.18243346 -0.42490804 0.053456735
-0.18261972 -0.42499873 0.05339577
-0.18280122 -0.42508546 0.053347524
-0.18297368 -0.42514986 0.053422764
-0.18315805 -0.42524263 0.053342193
-0.18333736 -0.42532068 0.053345867
-0.18351878 -0.42540821 0.053291854
-0.18369542 -0.42548114 0.053322077
-0.18387429 -0.42556396 0.053292297
-0.18405315 -0.42564163 0.053297132
-0.1842175 -0.42571601 0.053281281
-0.18441157 -0.42580432 0.053259492
-0.18458711 -0.42588085 0.053262036
-0.18474483 -0.42594704 0.053281978
-0.1849191 -0.42602098 0.053298373
-0.18507932 -0.42610434 0.05320986
-0.18527585 -0.42617571 0.053309202
-0.18545325 -0.42625704 0.0532852
-0.18563928 -0.42635241 0.053191934
-0.18583103 -0.42643714 0.053187467
-0.18600464 -0.42651659 0.053164646
-0.18618926 -0.42659733 0.05316598
-0.18635575 -0.42667282 0.053148955
-0.1865208 -0.42674494 0.053150404
-0.1866993 -0.42682418 0.053143702
-0.18687737 -0.42690921 0.053096626
-0.18706422 -0.42699656 0.053059883
-0.18724923 -0.42708653 0.053000081
-0.18742287 -0.42716104 0.053010713
