# .PCD v0.7 - Point Cloud Data file format
VERSION 0.7
FIELDS x y z
SIZE 4 4 4
TYPE F F F
COUNT 1 1 1
WIDTH 602
HEIGHT 1
VIEWPOINT 0 0 0 1 0 0 0
POINTS 602
DATA ascii
-0.2549586 -0.27824131 0.060372803
-0.2551879 -0.27822703 0.060377579
-0.25536203 -0.27821711 0.060374528
-0.25559613 -0.27819282 0.060450777
-0.25581476 -0.27818778 0.060392179
-0.25601828 -0.27818382 0.060332488
-0.25618324 -0.27816814 0.060375601
-0.2564429 -0.27816087 0.060315676
-0.25666085 -0.27815604 0.060255922
-0.25685355 -0.27813718 0.060310446
-0.25706115 -0.27812558 0.060304936
-0.25727943 -0.27812418 0.060219813
-0.2574656 -0.27810931 0.060247846
-0.25768715 -0.27809927 0.06022498
-0.25789449 -0.27809927 0.060134135
-0.25810516 -0.27808186 0.060170136
-0.25832015 -0.27807331 0.060139216
-0.25852662 -0.27807039 0.060070299
-0.25873095 -0.27805147 0.060120154
-0.25893021 -0.27803773 0.060134292
-0.25914088 -0.27802941 0.060103402
-0.25933707 -0.27801347 0.060134843
-0.25955635 -0.27801186 0.060050867
-0.25975969 -0.27800146 0.06003847
-0.25996396 -0.27798882 0.060042202
-0.26016501 -0.27797681 0.060042486
-0.2603839 -0.27797571 0.059955053
-0.26058319 -0.27796257 0.059964571
-0.26079017 -0.27795243 0.05994869
-0.26097256 -0.27793872 0.059969813
-0.2611632 -0.277922 0.060009353
-0.26139146 -0.27791643 0.059950717
-0.26159579 -0.27791426 0.059877183
-0.26178429 -0.27789927 0.059905201
-0.26196691 -0.27788931 0.059898645
-0.2621834 -0.27787453 0.059912711
-0.26238874 -0.27786714 0.059877224
-0.26260743 -0.27785444 0.059875138
-0.26283097 -0.27785289 0.059788838
-0.2630282 -0.27783892 0.059805281
-0.26322636 -0.27782932 0.059789438
-0.26340279 -0.27781093 0.059847496
-0.26363802 -0.27782077 0.059672348
-0.26382217 -0.27778798 0.059833005
-0.26400706 -0.27779183 0.059723802
-0.26421624 -0.27777842 0.059730981
-0.26441264 -0.27776781 0.059723213
-0.2646327 -0.27776489 0.059648469
-0.26481014 -0.27774382 0.059726112
-0.26502666 -0.2777378 0.059675597
-0.26522163 -0.27772617 0.05967591
-0.26543692 -0.27771932 0.059632316
-0.26564762 -0.27773151 0.059450358
-0.26584154 -0.27769959 0.059600584
-0.26601917 -0.27769446 0.059560619
-0.26622954 -0.27768725 0.059521653
-0.26642802 -0.27766773 0.059578456
-0.26666 -0.27766317 0.059510577
-0.26687458 -0.27765682 0.059463523
-0.26705417 -0.27764201 0.059493892
-0.26722237 -0.27762741 0.059527755
-0.26743975 -0.2776289 0.059421878
-0.26765335 -0.27762651 0.059346002
-0.26784527 -0.27761286 0.059362479
-0.26804724 -0.27759755 0.059386976
-0.26824409 -0.27758518 0.059391897
-0.26845008 -0.27757463 0.059379481
-0.26866978 -0.27757612 0.059272431
-0.26886162 -0.2775487 0.059390388
-0.26906908 -0.27754024 0.059361819
-0.26924887 -0.27753562 0.059317231
-0.26944783 -0.27753127 0.059262171
-0.26965943 -0.27751899 0.059260104
-0.26985705 -0.27751833 0.059178524
-0.27005571 -0.27749929 0.059231874
-0.2702474 -0.27749112 0.059207983
-0.27043751 -0.27748621 0.059161037
-0.27064469 -0.27746838 0.059201658
-0.27084875 -0.27746734 0.059120063
-0.27105916 -0.27744886 0.059164125
-0.27126938 -0.27744088 0.059130929
-0.27145895 -0.27742502 0.05916471
-0.27166009 -0.2774207 0.059108496
-0.27184108 -0.27740332 0.059157297
-0.27201173 -0.27738732 0.059200387
-0.2722418 -0.27739337 0.059055246
-0.27245963 -0.2773807 0.059053153
-0.27265519 -0.27736858 0.05905693
-0.27283904 -0.27736199 0.059024997
-0.27305269 -0.27735522 0.058981411
-0.27324468 -0.27734378 0.058981735
-0.27343464 -0.27733544 0.05896017
-0.27363405 -0.27732399 0.058957003
-0.2738288 -0.27731115 0.05896654
-0.27402675 -0.27730402 0.058932245
-0.27423531 -0.27729616 0.05889906
-0.27442366 -0.27728555 0.058894787
-0.2746354 -0.27727699 0.058865044
-0.27481896 -0.27726448 0.058876939
-0.27502239 -0.27726206 0.058805719
-0.27522492 -0.27725062 0.058801383
-0.27543247 -0.27723417 0.058831628
-0.27561331 -0.277224 0.058827389
-0.27580762 -0.27721101 0.058838088
-0.27598545 -0.27718583 0.058945727
-0.27619973 -0.27720156 0.058736071
-0.27639571 -0.2771841 0.05877905
-0.27660137 -0.27716306 0.058843892
-0.27683434 -0.27713588 0.058942065
-0.27702424 -0.27710181 0.059109621
-0.27721125 -0.27706873 0.059271418
-0.27740115 -0.27703232 0.059456259
-0.27758837 -0.27699748 0.059630744
-0.27777663 -0.27696431 0.059792534
-0.27796862 -0.27692997 0.05996123
-0.27816138 -0.27689672 0.060121849
-0.27835429 -0.27686265 0.060288232
-0.27854669 -0.27682546 0.060477678
-0.27873668 -0.2767911 0.060647532
-0.27892891 -0.27675 0.060865816
-0.22828695 -0.27952898 0.062559389
-0.22851324 -0.27951583 0.062557265
-0.22876848 -0.2795102 0.06248698
-0.22899336 -0.27949527 0.062498689
-0.2292176 -0.27948019 0.062511556
-0.22944549 -0.27946788 0.062502503
-0.22969395 -0.27946061 0.062447242
-0.22992876 -0.27944916 0.062428929
-0.23016949 -0.27943969 0.062393308
-0.23037407 -0.27942029 0.062446602
-0.23060653 -0.27940834 0.062432915
-0.23086771 -0.27940583 0.06233725
-0.23109262 -0.27939165 0.062343191
-0.23131816 -0.27937776 0.062346824
-0.23155238 -0.27936679 0.062325068
-0.23177779 -0.27935463 0.062316015
-0.23201267 -0.27934411 0.062290791
-0.23225366 -0.27933574 0.062247097
-0.2324951 -0.27932763 0.06220109
-0.2327033 -0.27931005 0.062239386
-0.23293321 -0.27929825 0.062225707
-0.23317656 -0.27929115 0.062171616
-0.23340748 -0.27927992 0.062153328
-0.23363854 -0.27926883 0.062133878
-0.2338458 -0.27924958 0.062184863
-0.23409697 -0.27924734 0.062091548
-0.23433147 -0.27923778 0.062059402
-0.2345577 -0.27922541 0.062051512
-0.23479813 -0.27921814 0.061999746
-0.23502395 -0.27920753 0.061979171
-0.23524833 -0.2791948 0.061974734
-0.23546688 -0.27918005 0.061987631
-0.23568939 -0.27916682 0.061987817
-0.23592918 -0.27916163 0.061921068
-0.23615602 -0.27915016 0.061906252
-0.23636314 -0.27913156 0.061952621
-0.23658414 -0.27911809 0.061955124
-0.23682025 -0.27911031 0.061909135
-0.23704915 -0.27909997 0.061885089
-0.23727703 -0.27909112 0.061850674
-0.23748963 -0.27907485 0.061877429
-0.23771878 -0.27907544 0.061772667
-0.23798709 -0.27907002 0.061695427
-0.23817909 -0.27904791 0.061774142
-0.23841393 -0.27904052 0.061725862
-0.23863232 -0.2790269 0.061730668
-0.23885405 -0.27901462 0.061723955
-0.23908131 -0.27900642 0.061684921
-0.23930641 -0.27899569 0.061665498
-0.23953162 -0.27898508 0.061644934
-0.23975456 -0.2789737 0.061631288
-0.23997773 -0.27896434 0.061602645
-0.24018294 -0.27894598 0.061647873
-0.24041882 -0.27894011 0.061588056
-0.24060577 -0.27891815 0.061667949
-0.24086788 -0.27892137 0.061529621
-0.24109553 -0.27891251 0.061495207
-0.24129811 -0.27889526 0.061533526
-0.24152139 -0.2788848 0.061512962
-0.24173199 -0.27886912 0.061536267
-0.24196598 -0.27886334 0.061476454
-0.24218498 -0.27885327 0.061454758
-0.24241062 -0.27884424 0.061422646
-0.24263312 -0.27883396 0.061400935
-0.24283975 -0.27881694 0.061435781
-0.24305478 -0.27880555 0.061425623
-0.24329634 -0.27880388 0.061332352
-0.24351671 -0.2787931 0.061315265
-0.24372968 -0.27877915 0.061324716
-0.24395311 -0.27876994 0.061294921
-0.24417382 -0.2787596 0.061274372
-0.24438703 -0.27874801 0.06126653
-0.24458563 -0.27872786 0.061327927
-0.24483144 -0.27872923 0.061210424
-0.24504104 -0.27871424 0.061229117
-0.24525265 -0.27870226 0.06122474
-0.2454938 -0.27870202 0.061121091
-0.24569812 -0.27868482 0.061158255
-0.24590956 -0.27867097 0.061167717
-0.24612911 -0.27866104 0.061144855
-0.24634582 -0.27864984 0.061132394
-0.24656284 -0.27864099 0.061102636
-0.2467815 -0.27863094 0.061080933
-0.24700861 -0.2786251 0.061024621
-0.24721017 -0.27860698 0.061069861
-0.24742471 -0.27859735 0.061047021
-0.24764091 -0.27858651 0.061032251
-0.24786876 -0.27858156 0.060969017
-0.24808371 -0.27857032 0.060957715
-0.2482971 -0.2785584 0.060952172
-0.24848586 -0.27855152 0.060920238
-0.24870743 -0.2785286 0.060991902
-0.24893086 -0.27852204 0.060942519
-0.24914141 -0.27851343 0.060913939
-0.24935594 -0.27850252 0.060900323
-0.24958013 -0.2784923 0.06087745
-0.2497662 -0.27848011 0.060885873
-0.25000542 -0.27847356 0.060829498
-0.25021833 -0.27845994 0.060836643
-0.25044042 -0.27845362 0.060786106
-0.25065285 -0.2784422 0.06077712
-0.2508589 -0.27842742 0.060795829
-0.25105125 -0.27842143 0.060755797
-0.25124332 -0.27840605 0.060784936
-0.25149903 -0.27839792 0.06073311
-0.25170869 -0.2783854 0.060733356
-0.25193834 -0.27838427 0.060641289
-0.25213376 -0.27837828 0.060600087
-0.25235432 -0.27835792 0.060653314
-0.25249565 -0.27833787 0.060739174
-0.25274059 -0.27835587 0.060499474
-0.25299394 -0.27833048 0.060575612
-0.25320062 -0.27831692 0.0605851
-0.25339922 -0.27830601 0.060578469
-0.253584 -0.27830186 0.0605281
-0.25384599 -0.27829179 0.060487773
-0.25404155 -0.27827683 0.060512289
-0.25422826 -0.27826414 0.060524158
-0.25445768 -0.27824968 0.060530085
-0.25466943 -0.27824491 0.060472675
-0.25484785 -0.27823237 0.06048689
-0.25511163 -0.27823207 0.060373921
-0.25529459 -0.27822521 0.060344309
-0.25550973 -0.27819955 0.060439065
-0.25571355 -0.27819303 0.060397834
-0.25593072 -0.278182 0.060384206
-0.25610459 -0.27817222 0.060380001
-0.25634596 -0.27816382 0.060336299
-0.25657043 -0.27815798 0.06028115
-0.25676715 -0.2781392 0.060333326
-0.25697738 -0.27812949 0.060312822
-0.25719064 -0.27812478 0.06025425
-0.25739074 -0.27811676 0.060225714
-0.25760084 -0.27809894 0.060265161
-0.25782162 -0.27809706 0.060182348
-0.2580173 -0.27808633 0.060175739
-0.25822955 -0.27807307 0.06018059
-0.25844759 -0.27806979 0.060109317
-0.25864506 -0.27805191 0.06015458
-0.25885117 -0.27804324 0.060128324
-0.25905314 -0.27802867 0.060147047
-0.25925684 -0.2780214 0.060111582
-0.25947234 -0.27801105 0.060093358
-0.25967652 -0.2780014 0.060075179
-0.25988084 -0.27798891 0.060077749
-0.26008669 -0.27798072 0.060048044
-0.26029795 -0.27797377 0.060006775
-0.26050344 -0.27796561 0.059977062
-0.26070955 -0.27795175 0.05998886
-0.26090959 -0.27794266 0.05996839
-0.26108584 -0.27793056 0.059980303
-0.26129645 -0.27791411 0.060009375
-0.26153487 -0.27791715 0.059882678
-0.26171562 -0.27790573 0.059887655
-0.26190549 -0.27789205 0.059905283
-0.2620976 -0.27788028 0.059907913
-0.26230076 -0.27786785 0.059910487
-0.262528 -0.27785918 0.059874922
-0.26276094 -0.27785566 0.059798978
-0.26295432 -0.2778385 0.059840795
-0.26316553 -0.27783358 0.059784546
-0.26332945 -0.27781126 0.059877217
-0.26355478 -0.27781931 0.059719458
-0.26374707 -0.277787 0.0598731
-0.26394537 -0.27778879 0.059773099
-0.26415324 -0.27778158 0.059735313
-0.26434791 -0.27776951 0.059739076
-0.26457766 -0.27776852 0.05964585
-0.26475027 -0.27775052 0.059702754
-0.26496586 -0.27774003 0.059685681
-0.26516271 -0.27773425 0.059642166
-0.26536354 -0.27772105 0.059651677
-0.26559371 -0.27772942 0.059489273
-0.26579091 -0.27770105 0.059611782
-0.26595521 -0.27769437 0.059589166
-0.26617289 -0.27769488 0.059490234
-0.26636559 -0.27766961 0.059592001
-0.26659814 -0.27766579 0.059518367
-0.26681653 -0.27765545 0.059498981
-0.26700562 -0.27764276 0.059509687
-0.2671673 -0.27762964 0.059535503
-0.2673772 -0.27763155 0.05942969
-0.26760265 -0.27762973 0.059344545
-0.26778278 -0.27761161 0.059399102
-0.2679911 -0.27759936 0.059398208
-0.26817563 -0.27758631 0.059413545
-0.26839948 -0.27757439 0.05940336
-0.26861504 -0.27757564 0.059299819
-0.26880816 -0.27755004 0.059403896
-0.26898819 -0.27754101 0.059391584
-0.26919645 -0.27753392 0.059352644
-0.26940691 -0.27752984 0.059290633
-0.2696079 -0.27751881 0.059283987
-0.26981676 -0.27751809 0.059197776
-0.27000374 -0.27749896 0.059256919
-0.27019149 -0.27749589 0.059197314
-0.27038547 -0.27748621 0.059183784
-0.27059644 -0.27746862 0.059220921
-0.27079383 -0.27746907 0.059131298
-0.27099413 -0.27744728 0.059204213
-0.27120587 -0.27744171 0.05915257
-0.27139661 -0.27742782 0.059171341
-0.27160525 -0.27742368 0.059110492
-0.27178007 -0.27740872 0.059144318
-0.27196038 -0.27739623 0.059157379
-0.27218068 -0.27739328 0.059082642
-0.27239463 -0.2773807 0.059081718
-0.27259222 -0.2773661 0.059102762
-0.27278745 -0.27736604 0.059017755
-0.27299219 -0.27735102 0.059038777
-0.27318826 -0.2773467 0.058984891
-0.27339107 -0.27733493 0.058982864
-0.27357528 -0.27733004 0.058938261
-0.27376893 -0.27731553 0.058960475
-0.27398005 -0.2773056 0.058941118
-0.27417126 -0.27729356 0.058946054
-0.27436271 -0.27728903 0.058895655
-0.27456915 -0.27727783 0.058887843
-0.27476609 -0.27727002 0.058859322
-0.27496833 -0.27726564 0.058803111
-0.27517381 -0.27725306 0.058805674
-0.27537003 -0.27723667 0.058840565
-0.27555424 -0.27722615 0.058837466
-0.27574408 -0.27721184 0.058859706
-0.27592018 -0.27719161 0.058931567
-0.27613643 -0.27720365 0.058748484
-0.27633148 -0.27718449 0.058804125
-0.27653065 -0.27716604 0.058852848
-0.27677488 -0.27714008 0.058937103
-0.27696002 -0.27710396 0.059121907
-0.27714992 -0.27706945 0.059292864
-0.27734095 -0.27703676 0.059449978
-0.27753156 -0.27700189 0.059623241
-0.2777189 -0.2769669 0.059798814
-0.27791041 -0.27693197 0.059972074
-0.27809879 -0.2768974 0.060144186
-0.278292 -0.27686504 0.060297836
-0.27848491 -0.27683035 0.060468778
-0.27867833 -0.27679592 0.060637422
-0.27886665 -0.27675524 0.060854487
-0.22830497 -0.27952665 0.062568657
-0.22853577 -0.27951339 0.062565394
-0.22877783 -0.27950525 0.062519431
-0.22899675 -0.27949002 0.062535815
-0.22923319 -0.27948034 0.062503703
-0.22945924 -0.27946591 0.062510841
-0.22970261 -0.27945864 0.062457949
-0.22993691 -0.27944705 0.062440835
-0.23017755 -0.27943915 0.062393725
-0.2303849 -0.2794207 0.062438972
-0.23062047 -0.27941138 0.062404573
-0.23086315 -0.27940288 0.062360909
-0.23108265 -0.27938855 0.062370375
-0.2313223 -0.27937931 0.062333636
-0.23154905 -0.27936754 0.062321171
-0.23177528 -0.27935407 0.062321387
-0.23200557 -0.27934363 0.062297374
-0.23224248 -0.27933392 0.062265266
-0.2324762 -0.27932486 0.062229715
-0.23269066 -0.27930942 0.062249571
-0.23291285 -0.27929667 0.062246341
-0.2331636 -0.27929208 0.062170371
-0.23338062 -0.27927774 0.062180996
-0.23361318 -0.27926719 0.062156975
-0.2338109 -0.2792463 0.062224168
-0.23407191 -0.27924582 0.062113572
-0.23430307 -0.27923676 0.062079184
-0.23453078 -0.27922493 0.062066711
-0.23476937 -0.27921873 0.062008083
-0.23499919 -0.27920786 0.061987527
-0.23521984 -0.27919549 0.061982006
-0.23543644 -0.27918008 0.062000699
-0.23565485 -0.27916709 0.062000938
-0.23590049 -0.27916232 0.061928451
-0.23612545 -0.27915192 0.061906766
-0.23632848 -0.27913353 0.061953187
-0.23654281 -0.27911937 0.061963826
-0.23678179 -0.27911267 0.061908651
-0.23700951 -0.27910364 0.061875433
-0.23723702 -0.27909291 0.061854891
-0.23745055 -0.27907878 0.061865531
-0.23764157 -0.27906847 0.06185782
-0.23793894 -0.27907228 0.061699808
-0.23813665 -0.27905062 0.061772771
-0.23836674 -0.27904317 0.06172685
-0.23857734 -0.27902657 0.061757099
-0.23880589 -0.27901876 0.061714653
-0.23903361 -0.27900895 0.06168719
-0.23925571 -0.27899885 0.061664373
-0.23946415 -0.27898344 0.061686557
-0.23968072 -0.27897134 0.061681051
-0.23992291 -0.27896774 0.061601654
-0.2401278 -0.27895114 0.061634239
-0.24034676 -0.27893838 0.061632171
-0.24055986 -0.27892524 0.061635897
-0.24079318 -0.27891853 0.061583057
-0.2410329 -0.27891651 0.061493296
-0.24123971 -0.27889916 0.061530478
-0.24145207 -0.27888602 0.061534204
-0.24166659 -0.27887198 0.061543688
-0.24189433 -0.27886549 0.061492018
-0.24212961 -0.27886042 0.061426498
-0.24234703 -0.27884981 0.061409451
-0.24256593 -0.27883801 0.061400473
-0.24277881 -0.27882564 0.061398439
-0.24298814 -0.27880988 0.061422929
-0.24321562 -0.278804 0.061366651
-0.24344672 -0.27879792 0.061310366
-0.2436482 -0.27878091 0.061347567
-0.24387321 -0.27877235 0.061312042
-0.24409652 -0.27876517 0.061267309
-0.24431576 -0.27875429 0.061251417
-0.24450788 -0.27873328 0.061322093
-0.24473663 -0.27872688 0.061269272
-0.24494994 -0.27871555 0.061259158
-0.24517544 -0.27870792 0.061216719
-0.24539648 -0.27870041 0.061175462
-0.24561995 -0.2786921 0.061138794
-0.2458185 -0.2786743 0.061182924
-0.2460342 -0.27866256 0.061175115
-0.24625763 -0.2786566 0.061121155
-0.24646945 -0.27864322 0.061127193
-0.24667871 -0.27863073 0.061127476
-0.24690618 -0.27862501 0.061070051
-0.24711654 -0.27861327 0.061064571
-0.24732661 -0.27859935 0.061075225
-0.24753697 -0.27858773 0.061068583
-0.24775389 -0.27857733 0.061050393
-0.24798752 -0.27857751 0.060946826
-0.24819501 -0.27856264 0.060965557
-0.24841438 -0.27855599 0.06091854
-0.24860862 -0.27853453 0.060991507
-0.24881995 -0.27852398 0.060976796
-0.24904725 -0.27851954 0.06091015
-0.2492353 -0.27851489 0.060862102
-0.24947223 -0.27849796 0.060883019
-0.2496731 -0.27848458 0.060893707
-0.24987783 -0.27848005 0.06083753
-0.25010407 -0.27846673 0.060836591
-0.25032684 -0.27845848 0.060799934
-0.25053126 -0.27844504 0.060809448
-0.25074279 -0.2784332 0.060803968
-0.25093687 -0.27842352 0.060790479
-0.25111517 -0.2784099 0.060812797
-0.25132918 -0.278402 0.060777329
-0.25159383 -0.27839425 0.060718589
-0.25180936 -0.27838752 0.060673885
-0.25202894 -0.27838084 0.060626857
-0.25222334 -0.27836958 0.060624905
-0.2524195 -0.27834973 0.060685188
-0.25257254 -0.27833885 0.06069839
-0.25284648 -0.27834231 0.060553145
-0.25307637 -0.27832767 0.060560271
-0.25328028 -0.27831253 0.060582474
-0.2534624 -0.27830431 0.060563274
-0.25368875 -0.27830026 0.060494322
-0.25391668 -0.27828729 0.060489919
-0.25410476 -0.27827293 0.060513347
-0.2543065 -0.27825934 0.060525179
-0.25452963 -0.27824619 0.060524255
-0.25471267 -0.27823654 0.060515434
-0.25494984 -0.27823496 0.060423374
-0.25517082 -0.27822602 0.060392484
-0.25536299 -0.27822772 0.060296007
-0.25556654 -0.27819741 0.060430035
-0.25578776 -0.27818891 0.060395692
-0.25599149 -0.27817991 0.060372937
-0.25616676 -0.27817115 0.060360689
-0.25641367 -0.27816382 0.060306631
-0.25662774 -0.2781539 0.060286142
-0.25681934 -0.27813447 0.0603453
-0.25703114 -0.27812591 0.060315594
-0.25724217 -0.27811977 0.060268611
-0.25744712 -0.27810958 0.060253918
-0.25765049 -0.27809557 0.060268059
-0.25787011 -0.27809298 0.060191065
-0.25806889 -0.27807879 0.060208693
-0.25827563 -0.27806741 0.06020207
-0.25849 -0.27806449 0.060129702
-0.25868741 -0.27804661 0.060174994
-0.25889441 -0.27803865 0.060143009
-0.25910047 -0.27802715 0.060137548
-0.25930011 -0.27801996 0.06010329
-0.25951278 -0.2780076 0.060101245
-0.25971761 -0.27799851 0.060078494
-0.25991222 -0.27798173 0.06011688
-0.26012576 -0.27797949 0.060039915
-0.26033577 -0.27797168 0.060005613
-0.26053873 -0.27796161 0.059990935
-0.2607379 -0.27794552 0.060022384
-0.26094598 -0.27793968 0.059974253
-0.26112059 -0.27792957 0.059972379
-0.26132685 -0.27791288 0.06000495
-0.26156533 -0.27791607 0.059877165
-0.26174828 -0.27790657 0.059867181
-0.26193538 -0.27789399 0.059877925
-0.26212227 -0.27788126 0.059889834
-0.26232731 -0.2778739 0.059854396
-0.26255172 -0.2778596 0.059861541
-0.26278487 -0.27785638 0.059783332
-0.26297796 -0.27783906 0.059826337
-0.26318386 -0.27783304 0.059780516
-0.26334566 -0.27781239 0.059861694
-0.26357982 -0.27781788 0.059718937
-0.26375356 -0.27778667 0.059872687
-0.26395258 -0.2777856 0.059793472
-0.26416197 -0.27777985 0.059744179
-0.26435953 -0.27777058 0.059726067
-0.26459438 -0.27776709 0.059649013
-0.26476386 -0.27775368 0.059673663
-0.26496905 -0.27774081 0.059678581
-0.26517558 -0.27773696 0.059616625
-0.26536596 -0.27772123 0.059649259
-0.26561272 -0.27772689 0.059499532
-0.26578417 -0.27770004 0.059622169
-0.26594916 -0.27769411 0.059593819
-0.2661694 -0.27769336 0.059502989
-0.2663632 -0.27767333 0.059565585
-0.26659673 -0.27766663 0.059512742
-0.26680675 -0.27765569 0.059501495
-0.26699832 -0.27764159 0.059521444
-0.26715815 -0.27763078 0.059531152
-0.26736948 -0.27763432 0.059412695
-0.26759112 -0.27762833 0.059359904
-0.26776737 -0.27761027 0.059415653
-0.26797667 -0.27759922 0.059405558
-0.26815748 -0.27758637 0.059420954
-0.26836222 -0.27757463 0.059417795
-0.26859689 -0.27757585 0.05930616
-0.26878661 -0.27755091 0.05940681
-0.26896575 -0.27754554 0.059368026
-0.26915306 -0.27753153 0.059389148
-0.26937103 -0.27752733 0.059324846
-0.2695809 -0.2775228 0.059266336
-0.26979482 -0.27751398 0.059237786
-0.26997995 -0.27749744 0.059278514
-0.27016512 -0.2774961 0.059207421
-0.27035841 -0.27748549 0.059200861
-0.27056476 -0.27747211 0.059209224
-0.27075607 -0.27746946 0.059145018
-0.27094901 -0.27745339 0.059178799
-0.27116427 -0.27744764 0.059127197
-0.27135304 -0.27743104 0.059166752
-0.27156556 -0.27742714 0.059102476
-0.27173969 -0.27741125 0.059143249
-0.27191851 -0.27740809 0.059088327
-0.27212271 -0.27739796 0.059073649
-0.27233636 -0.27738506 0.059075058
-0.2725358 -0.27736753 0.059116881
-0.27273855 -0.2773675 0.059028432
-0.27293631 -0.27735353 0.059044905
-0.27314001 -0.2773495 0.058985271
-0.27333912 -0.27733797 0.058983285
-0.27352968 -0.2773377 0.058901809
-0.27371791 -0.27732709 0.058897559
-0.27392688 -0.2773068 0.058955483
-0.27410984 -0.27729338 0.058974322
-0.2743122 -0.27729541 0.058870886
-0.27451444 -0.27728352 0.058870047
-0.27470806 -0.27727666 0.058835812
-0.27489012 -0.27726921 0.058810849
-0.27510852 -0.27726045 0.05877997
-0.27529049 -0.27724552 0.058810338
-0.27548948 -0.27722722 0.058857925
-0.27567858 -0.27721953 0.058831789
-0.27585313 -0.27719611 0.058927894
-0.27605152 -0.27720118 0.058803715
-0.27625939 -0.27719474 0.058760203
-0.27645317 -0.27718148 0.058773234
-0.27670074 -0.27715531 0.058857512
-0.27688509 -0.27711797 0.059051558
-0.27707326 -0.27707964 0.059251353
-0.27726212 -0.27705163 0.05937507
-0.27744824 -0.2770153 0.059561044
-0.27763528 -0.27698016 0.059737798
-0.27782765 -0.27694848 0.059886854
-0.27801421 -0.27690944 0.060092427
-0.27820343 -0.27687687 0.060249567
-0.27839381 -0.27684671 0.06038826
-0.27858785 -0.27681538 0.060533851
-0.27877551 -0.27677363 0.060759015
-0.27897131 -0.2767455 0.060880393
