# .PCD v0.7 - Point Cloud Data file format
VERSION 0.7
FIELDS x y z
SIZE 4 4 4
TYPE F F F
COUNT 1 1 1
WIDTH 1252
HEIGHT 1
VIEWPOINT 0 0 0 1 0 0 0
POINTS 1252
DATA ascii
-0.063448928 -0.38643521 0.059015691
-0.063611321 -0.38653386 0.05903909
-0.06378343 -0.38664991 0.058992092
-0.063955642 -0.38676494 0.058952022
-0.06410405 -0.38686216 0.058929369
-0.064287007 -0.38697654 0.05893537
-0.064434886 -0.3870751 0.058902331
-0.06459482 -0.38718143 0.058868088
-0.064765632 -0.38728762 0.05887761
-0.064932674 -0.38740528 0.058800653
-0.065083653 -0.3874934 0.058844872
-0.065256506 -0.38760421 0.058833636
-0.065420628 -0.38770801 0.058831666
-0.065583453 -0.38781524 0.05880316
-0.065743342 -0.38792008 0.058778137
-0.06590943 -0.38801846 0.058817681
-0.066069491 -0.3881321 0.058738444
-0.066239662 -0.38822994 0.058797572
-0.066397093 -0.38834912 0.058673374
-0.066538572 -0.38845971 0.058540039
-0.066718623 -0.38857004 0.058559895
-0.066883303 -0.38865423 0.058682472
-0.067038029 -0.38876042 0.058628649
-0.067209519 -0.38886428 0.058655463
-0.067372866 -0.38895243 0.058748074
-0.06753359 -0.38906223 0.058695361
-0.067692749 -0.38917473 0.058619604
-0.067853518 -0.38929141 0.058524225
-0.068042427 -0.38938552 0.058680132
-0.068194389 -0.38948813 0.05863785
-0.068338856 -0.38960373 0.05848489
-0.068501033 -0.38972369 0.058374505
-0.068686999 -0.38981688 0.058524668
-0.06884592 -0.38993481 0.058414303
-0.0690111 -0.39003521 0.05843769
-0.069177859 -0.39013994 0.05844032
-0.069335118 -0.39023295 0.058478747
-0.069498561 -0.39034277 0.058436409
-0.069668286 -0.39044309 0.058478232
-0.069833487 -0.39055017 0.058460101
-0.070002325 -0.39067066 0.058372758
-0.070170775 -0.39079124 0.058283102
-0.070328534 -0.39087772 0.058364198
-0.070483714 -0.39098588 0.058299996
-0.070645861 -0.39109638 0.058248438
-0.070803732 -0.39119476 0.058255713
-0.070967175 -0.39129758 0.0582572
-0.071130879 -0.39140573 0.058226403
-0.071289659 -0.39150304 0.058244061
-0.071446449 -0.39160275 0.058238663
-0.071616553 -0.39170867 0.058247037
-0.071787305 -0.3918139 0.05826233
-0.071964115 -0.39192832 0.058244146
-0.072134666 -0.39204431 0.058191385
-0.072277032 -0.39213881 0.05816184
-0.072448291 -0.3922486 0.058150604
-0.072607227 -0.392351 0.058137126
-0.072767258 -0.39245722 0.058104023
-0.072931632 -0.39255896 0.058115888
-0.073090106 -0.39266661 0.058067806
-0.073239416 -0.39276844 0.05801978
-0.073402941 -0.39287096 0.058023568
-0.073568024 -0.39297202 0.058042347
-0.073746629 -0.39308888 0.058016084
-0.073917449 -0.39319876 0.058002539
-0.074065641 -0.39327827 0.05808945
-0.074219517 -0.39337578 0.058086377
-0.074374415 -0.3934904 0.057980649
-0.074540041 -0.39360017 0.057947524
-0.074697725 -0.39369437 0.057980176
-0.074841872 -0.39380404 0.057862975
-0.075004868 -0.39390695 0.057862155
-0.075169198 -0.39400885 0.057872869
-0.075332873 -0.39411977 0.057824761
-0.075509787 -0.39422056 0.057891928
-0.075662866 -0.39432684 0.057831183
-0.075827323 -0.39443696 0.05779114
-0.075988844 -0.39453688 0.057803016
-0.076142922 -0.39464211 0.057752658
-0.076311 -0.39474955 0.057743743
-0.076473117 -0.39484912 0.057760227
-0.076641276 -0.39494476 0.057825126
-0.076813214 -0.39505756 0.057797745
-0.076967105 -0.39516267 0.057747379
-0.07713037 -0.39526558 0.057747718
-0.077287085 -0.39536875 0.0577204
-0.077453978 -0.39547321 0.057725333
-0.077624716 -0.39558655 0.057689883
-0.077775896 -0.39569291 0.057621077
-0.077933103 -0.39579201 0.057621438
-0.07809411 -0.39589253 0.057627559
-0.078270815 -0.39600596 0.057615131
-0.078427501 -0.39610896 0.057588976
-0.07858637 -0.39621073 0.057578959
-0.078754783 -0.39631799 0.057572342
-0.078911878 -0.3964242 0.057527728
-0.079085082 -0.39653245 0.057533789
-0.079230249 -0.39662743 0.057512298
-0.079383567 -0.39672515 0.05750576
-0.079556972 -0.39683002 0.057533726
-0.079710908 -0.39693424 0.057489127
-0.079883918 -0.39704272 0.057492878
-0.080054238 -0.39715582 0.057457428
-0.080204912 -0.39726463 0.05737133
-0.080362789 -0.39736357 0.057375144
-0.08053185 -0.39746734 0.057392754
-0.080690295 -0.39756295 0.057419643
-0.080851048 -0.3976672 0.057401538
-0.081013605 -0.39778021 0.05733614
-0.081178419 -0.39787334 0.057403352
-0.081331789 -0.39798683 0.057298794
-0.081484474 -0.39808488 0.057287648
-0.081636511 -0.39818013 0.0572915
-0.081804737 -0.39828765 0.057282578
-0.081977606 -0.39839345 0.057302475
-0.08214137 -0.3985087 0.057227843
-0.082305111 -0.3986178 0.057191264
-0.082458414 -0.39871866 0.057165127
-0.082627803 -0.39882284 0.057181582
-0.082786247 -0.39892492 0.0571681
-0.082946964 -0.39902917 0.057149991
-0.083100885 -0.39913559 0.057091556
-0.083277769 -0.3992404 0.057133343
-0.083421975 -0.39933553 0.057107247
-0.0835841 -0.39943936 0.057097215
-0.083746687 -0.39954591 0.057072181
-0.083904058 -0.39965397 0.057017185
-0.084070213 -0.39975941 0.057012893
-0.084231175 -0.39985809 0.057030544
-0.084391974 -0.39995962 0.057029735
-0.084538713 -0.40007317 0.056898668
-0.084695809 -0.40016475 0.056945175
-0.084842093 -0.40027007 0.056863707
-0.085009381 -0.40037531 0.056865174
-0.085170269 -0.40047154 0.056897812
-0.085349001 -0.4005768 0.056944214
-0.085526139 -0.40067995 0.056997526
-0.085699186 -0.40078679 0.057011656
-0.085858941 -0.40089414 0.056970488
-0.086009301 -0.40099832 0.056912068
-0.086161748 -0.40110713 0.05683288
-0.086336687 -0.40121111 0.056872368
-0.086477295 -0.40131208 0.056795549
-0.086628452 -0.40141085 0.056774028
-0.086806208 -0.40151697 0.056811195
-0.086980402 -0.40162143 0.056844927
-0.087124534 -0.40173405 0.056709267
-0.087289616 -0.40183774 0.056711897
-0.087454624 -0.40193656 0.056744523
-0.087601639 -0.40204102 0.05667112
-0.087760657 -0.40214825 0.056627657
-0.087920956 -0.402248 0.05663608
-0.088095643 -0.40235513 0.056654811
-0.088254705 -0.40245038 0.056686308
-0.088422753 -0.40255871 0.056671627
-0.088599555 -0.4026705 0.056669589
-0.088760331 -0.40277758 0.056634184
-0.088901266 -0.40288264 0.056533135
-0.089066625 -0.40297964 0.056578442
-0.089238413 -0.40308294 0.056609876
-0.089410685 -0.40318856 0.056628618
-0.089562654 -0.40330133 0.056522906
-0.089719027 -0.40340433 0.056495592
-0.089895993 -0.40351179 0.056521229
-0.090039074 -0.40361175 0.056460544
-0.090208873 -0.40371785 0.056466613
-0.090365559 -0.40382084 0.056440458
-0.090521 -0.40392396 0.056408539
-0.090688922 -0.40402815 0.056419227
-0.090845928 -0.40413114 0.056394231
-0.091011435 -0.40423566 0.0563934
-0.091166869 -0.40434322 0.056333791
-0.091331765 -0.40444344 0.05635719
-0.091498144 -0.40455016 0.056345977
-0.091668591 -0.40465444 0.056365892
-0.091819435 -0.40476447 0.056272861
-0.091946304 -0.40486529 0.056143053
-0.092118539 -0.40496737 0.056183714
-0.092325479 -0.40507177 0.056346454
-0.092481181 -0.40517932 0.056288004
-0.092640795 -0.40528452 0.056259528
-0.09280014 -0.40538976 0.056229889
-0.092961758 -0.40549698 0.05619679
-0.093120024 -0.40560228 0.056162547
-0.093287401 -0.40570721 0.056166328
-0.093452118 -0.40581435 0.056145892
-0.093617111 -0.40591741 0.056151994
-0.093774937 -0.40602481 0.056102756
-0.093952432 -0.40612969 0.056146849
-0.094111398 -0.40623909 0.056089535
-0.094256893 -0.40633872 0.056040369
-0.094444677 -0.4064436 0.056124777
-0.09459424 -0.40655321 0.056029458
-0.094754547 -0.40665662 0.056014813
-0.094926 -0.40676397 0.056019723
-0.095068991 -0.40686756 0.05593596
-0.095239714 -0.40696907 0.055974327
-0.095420182 -0.40707654 0.056013793
-0.095589809 -0.40718603 0.055997938
-0.095726371 -0.40729147 0.055877313
-0.095911175 -0.40739724 0.055944443
-0.096076407 -0.40750101 0.055947073
-0.09624435 -0.40761444 0.055900093
-0.096392259 -0.407718 0.055835914
-0.096539259 -0.40781581 0.055804048
-0.096716918 -0.40792188 0.055841215
-0.096877664 -0.40802762 0.055813879
-0.097039714 -0.40813529 0.055779628
-0.097214982 -0.40824151 0.055806424
-0.097373426 -0.40834913 0.055758342
-0.097525924 -0.40844727 0.055746049
-0.097699963 -0.40855363 0.055767093
-0.097876288 -0.40866753 0.055750061
-0.098030195 -0.40876952 0.055719309
-0.098191947 -0.40887552 0.055694278
-0.098362193 -0.40898561 0.055677276
-0.09852913 -0.40909195 0.055670671
-0.098692238 -0.40919992 0.055638716
-0.098859727 -0.40930456 0.055644803
-0.099016681 -0.40940863 0.055612877
-0.099196218 -0.40951589 0.055650033
-0.099353835 -0.40962186 0.055608872
-0.099512428 -0.40972793 0.05557118
-0.099670358 -0.40983042 0.05555309
-0.099829495 -0.40993828 0.055506155
-0.10001279 -0.41004789 0.0555433
-0.10015745 -0.41015124 0.055467609
-0.10032224 -0.41025439 0.055472553
-0.10051176 -0.41036645 0.055518888
-0.10067269 -0.41047287 0.055488095
-0.10082758 -0.41057879 0.05543657
-0.10099297 -0.41068563 0.055420749
-0.10113445 -0.41078699 0.055345073
-0.10131971 -0.41089562 0.05539605
-0.10146475 -0.4110007 0.055311128
-0.10165439 -0.41110823 0.055386301
-0.10183226 -0.41121644 0.055410787
-0.10197562 -0.41132137 0.055320106
-0.10213594 -0.41142797 0.055285852
-0.10231411 -0.41153473 0.055320717
-0.10248405 -0.41164407 0.055307172
-0.10262591 -0.4117488 0.05521189
-0.10280019 -0.41185698 0.055222556
-0.10297 -0.41196474 0.055218242
-0.10314205 -0.41207281 0.055220839
-0.10330606 -0.4121784 0.055207334
-0.10348409 -0.41228729 0.05522836
-0.10365392 -0.41239691 0.055212509
-0.10380989 -0.41250166 0.055172518
-0.10398531 -0.41261205 0.055173948
-0.10414794 -0.4127177 0.055154674
-0.10431482 -0.41282713 0.05512847
-0.10448848 -0.41293585 0.055133365
-0.10464421 -0.41304231 0.055081841
-0.10483178 -0.41315296 0.055129346
-0.10497315 -0.41325757 0.055032905
-0.10514984 -0.41336691 0.055045865
-0.10531658 -0.41347495 0.055027731
-0.1054973 -0.41358501 0.055052191
-0.10564993 -0.41369116 0.05499031
-0.10581465 -0.41379905 0.054965258
-0.10599411 -0.41390753 0.054994352
-0.10615002 -0.41401577 0.054932445
-0.10631406 -0.41412213 0.054914325
-0.10649636 -0.41423279 0.054941088
-0.10666731 -0.41434184 0.05493331
-0.10683461 -0.4144519 0.054904792
-0.10698237 -0.41455591 0.054837156
-0.10717937 -0.41467068 0.054896146
-0.10733394 -0.41477731 0.054838866
-0.10751127 -0.41488761 0.054848354
-0.1076545 -0.41499248 0.05475767
-0.10785416 -0.41510651 0.054831646
-0.10801335 -0.41521552 0.05477779
-0.10817085 -0.41532126 0.054737791
-0.10834485 -0.41543278 0.054726541
-0.1085242 -0.41554675 0.054721031
-0.10866581 -0.41564837 0.054644197
-0.10885864 -0.4157618 0.054695137
-0.10904972 -0.415878 0.054721855
-0.10920484 -0.41598648 0.054655343
-0.10940118 -0.41609934 0.054723553
-0.10957568 -0.41621137 0.054711148
-0.10974663 -0.41632134 0.054697603
-0.10989302 -0.41642541 0.054624215
-0.11002939 -0.41652909 0.054513969
-0.1101926 -0.41663766 0.054478552
-0.11039877 -0.41675434 0.054561712
-0.11056635 -0.41686532 0.054528572
-0.1107279 -0.41697231 0.054496624
-0.11089741 -0.41708231 0.054477327
-0.11108 -0.41719627 0.054484479
-0.11127038 -0.41731185 0.054512363
-0.11140797 -0.41741148 0.054432102
-0.11159 -0.41752696 0.054427728
-0.11177476 -0.41763881 0.054456789
-0.1119484 -0.41775417 0.054420162
-0.11212131 -0.41786519 0.054407768
-0.11227542 -0.41797525 0.05432741
-0.11246578 -0.41808712 0.054378361
-0.11262355 -0.41819099 0.054351039
-0.11277905 -0.4182986 0.054291442
-0.11295077 -0.41840962 0.054274436
-0.11314499 -0.4185254 0.054316137
-0.1133179 -0.41863677 0.054301433
-0.11346375 -0.41874108 0.054224588
-0.1136359 -0.41885513 0.054190278
-0.1138169 -0.41896701 0.054204356
-0.028535008 -0.36783814 0.03769384
-0.028699797 -0.36794367 0.03768383
-0.028863315 -0.36805171 0.037653062
-0.029033866 -0.36816308 0.037629187
-0.029200949 -0.36827412 0.037593793
-0.029364422 -0.36837843 0.037586093
-0.029523674 -0.36848137 0.037570342
-0.02968758 -0.36858651 0.037559181
-0.02984916 -0.36869076 0.037544571
-0.030016575 -0.36880088 0.037516102
-0.03017915 -0.36890462 0.037508406
-0.030340422 -0.36900884 0.037492637
-0.030499604 -0.36911249 0.037472278
-0.030669872 -0.36922497 0.037440326
-0.030831832 -0.36933056 0.037418798
-0.030992519 -0.36943236 0.037415717
-0.031153612 -0.36953703 0.037396502
-0.031315956 -0.36964136 0.037384197
-0.031474236 -0.36974242 0.037376519
-0.031637456 -0.36984822 0.03735844
-0.031796142 -0.36995229 0.037333466
-0.031959224 -0.370056 0.037328079
-0.032119747 -0.37015843 0.03732039
-0.032285333 -0.37026817 0.037287313
-0.032442566 -0.37037075 0.037265804
-0.032605913 -0.37047535 0.037255794
-0.032763112 -0.3705759 0.037246976
-0.032920755 -0.3706795 0.037220854
-0.033084992 -0.37079039 0.037175093
-0.033239961 -0.37088582 0.037189342
-0.033402558 -0.37099236 0.037164349
-0.033562336 -0.3710973 0.037138216
-0.033718538 -0.37119722 0.037129402
-0.033877268 -0.37130094 0.037106737
-0.034038015 -0.37140539 0.037087511
-0.034196384 -0.37150648 0.037079833
-0.034355909 -0.37160942 0.037065234
-0.034514599 -0.37171367 0.037039109
-0.034673579 -0.37181607 0.037025671
-0.034828849 -0.37191796 0.037000712
-0.034987915 -0.37202081 0.036984954
-0.035145964 -0.37212226 0.036973819
-0.035304293 -0.37222424 0.036960386
-0.035460044 -0.37232497 0.036944643
-0.035617642 -0.37242612 0.036933511
-0.035773698 -0.3725276 0.036914319
-0.035932418 -0.37263077 0.036895111
-0.036088958 -0.37273329 0.036871299
-0.036243912 -0.37283355 0.036855571
-0.036399718 -0.37293524 0.036834069
-0.036558386 -0.37303632 0.036827542
-0.036716484 -0.37313926 0.036807187
-0.03687362 -0.37324089 0.036791436
-0.037027139 -0.37334225 0.036763038
-0.037181824 -0.37344027 0.036759991
-0.037335314 -0.37353921 0.036746569
-0.03749235 -0.37363854 0.036744669
-0.037645228 -0.37373948 0.036716264
-0.037801258 -0.37384021 0.036701679
-0.037957333 -0.37394115 0.036685936
-0.038115483 -0.37404561 0.036656354
-0.038268454 -0.37414461 0.036640637
-0.038422409 -0.37424254 0.036635291
-0.038573653 -0.37433895 0.036628801
-0.03872934 -0.37444001 0.03661076
-0.038883172 -0.37454101 0.036585808
-0.039040335 -0.37464485 0.036556229
-0.039191365 -0.37474149 0.03654743
-0.039347142 -0.37484336 0.03652478
-0.039499465 -0.37494248 0.036505602
-0.039655589 -0.37504828 0.036459882
-0.039806463 -0.37513927 0.036485679
-0.039963383 -0.3752498 0.036413439
-0.0401133 -0.3753424 0.036425404
-0.040263906 -0.37543324 0.036451209
-0.040415552 -0.37553212 0.03643088
-0.04056935 -0.37563494 0.036394399
-0.040720515 -0.37573022 0.036394827
-0.040873181 -0.37582824 0.036383722
-0.04102505 -0.37592819 0.03635763
-0.041178085 -0.37602723 0.036341902
-0.041328788 -0.37612864 0.036301978
-0.041481465 -0.3762241 0.036307015
-0.041633807 -0.37632567 0.036272842
-0.041787796 -0.37642711 0.036245581
-0.04193921 -0.376524 0.036236789
-0.04208938 -0.37662548 0.036194559
-0.042241797 -0.376728 0.036154624
-0.042392708 -0.3768279 0.036125079
-0.042539075 -0.37691936 0.036130141
-0.042689368 -0.37701148 0.036146723
-0.042836744 -0.37710509 0.036142558
-0.042989165 -0.3772015 0.036140673
-0.043135963 -0.37729067 0.036161877
-0.043285146 -0.37738818 0.036140412
-0.043435119 -0.37748379 0.036133926
-0.043585785 -0.37757725 0.036143586
-0.043732293 -0.3776736 0.036118671
-0.043882214 -0.37776956 0.036109887
-0.044031754 -0.3778649 0.036103405
-0.044181112 -0.37796381 0.036073864
-0.044326287 -0.37805435 0.036080081
-0.044476025 -0.37815055 0.036068987
-0.044620801 -0.37824047 0.036077529
-0.044768076 -0.37833178 0.036087204
-0.044912878 -0.37842599 0.036069207
-0.045058772 -0.37851456 0.036090419
-0.045203634 -0.3786051 0.036095496
-0.045345843 -0.37868583 0.036151323
-0.045484092 -0.37876201 0.036219846
-0.04562629 -0.3788383 0.036303349
-0.045764714 -0.37891459 0.036371872
-0.04590597 -0.37898842 0.036466908
-0.046041638 -0.37905818 0.03656543
-0.046178915 -0.37912691 0.036676627
-0.046315819 -0.3791945 0.036793593
-0.046452679 -0.37925702 0.036941692
-0.046586551 -0.37931678 0.037095569
-0.046720076 -0.37937519 0.037256375
-0.046855859 -0.37943375 0.037425239
-0.046985924 -0.37948757 0.037601043
-0.04712113 -0.37954354 0.037783749
-0.047249943 -0.37959307 0.037981473
-0.047381155 -0.37964281 0.038187258
-0.047512177 -0.37969133 0.038399957
-0.047644109 -0.37973616 0.038639184
-0.047778055 -0.37978524 0.038859941
-0.048049964 -0.37988034 0.039336044
-0.048245437 -0.3773962 0.055598944
-0.048397835 -0.37746245 0.055785015
-0.048541456 -0.37753779 0.05588004
-0.048696339 -0.37762484 0.055946182
-0.048849143 -0.37771282 0.055998497
-0.049008049 -0.37780443 0.05605194
-0.049179576 -0.37791255 0.056052271
-0.049342811 -0.37801006 0.056086086
-0.049512662 -0.37812099 0.056062207
-0.050962843 -0.38159475 0.04009933
-0.051104933 -0.38167059 0.040185142
-0.051226262 -0.38173589 0.040254898
-0.051370375 -0.38181025 0.040357992
-0.053728569 -0.38015866 0.059933893
-0.053871565 -0.38024858 0.059935521
-0.05402641 -0.38035983 0.059850603
-0.05420823 -0.38048387 0.059792075
-0.054397419 -0.38060236 0.059796941
-0.054583967 -0.38072237 0.059782207
-0.054721098 -0.38079321 0.059879571
-0.0548882 -0.38091648 0.059768066
-0.055072032 -0.38101736 0.059861742
-0.055218007 -0.38111138 0.059849516
-0.055401541 -0.38125682 0.059664138
-0.055579845 -0.38135961 0.059724398
-0.055734057 -0.38145232 0.059752487
-0.05593257 -0.38158211 0.059723869
-0.056100018 -0.38169226 0.059695393
-0.056264974 -0.38180861 0.059618499
-0.056428656 -0.38191158 0.059620019
-0.056592505 -0.3820174 0.059604246
-0.056759182 -0.38212246 0.059604608
-0.056929223 -0.38223481 0.059572659
-0.057077851 -0.38233861 0.05950968
-0.057243872 -0.38243493 0.059561931
-0.057425402 -0.3825416 0.05961065
-0.057588384 -0.38263339 0.059679054
-0.057779942 -0.38276818 0.059591655
-0.057934076 -0.38287011 0.059562095
-0.058109626 -0.38298392 0.059542805
-0.058263563 -0.38308442 0.05952131
-0.058438957 -0.38320774 0.059442058
-0.058611177 -0.38330775 0.059495427
-0.058783304 -0.3834205 0.059469238
-0.058940019 -0.38352129 0.059456959
-0.059105799 -0.38363114 0.059423879
-0.059271362 -0.38374361 0.059373505
-0.059424803 -0.38384122 0.059368156
-0.059580777 -0.38395098 0.059297066
-0.059762221 -0.38405591 0.05935616
-0.059937261 -0.3841629 0.059377238
-0.060117215 -0.38429058 0.059288736
-0.060276695 -0.3843894 0.059299514
-0.06045489 -0.38449597 0.059335552
-0.060606871 -0.38460544 0.059250649
-0.060765926 -0.38470733 0.059240662
-0.060955711 -0.38482696 0.059240907
-0.061118387 -0.38492522 0.059267811
-0.061273184 -0.38503367 0.059200186
-0.061450481 -0.38514617 0.059195876
-0.061591245 -0.38523412 0.05920098
-0.061755065 -0.38534659 0.059143692
-0.061912552 -0.38545564 0.059082974
-0.062088117 -0.38555649 0.0591444
-0.062256336 -0.38566121 0.059152823
-0.062444657 -0.38578621 0.059113875
-0.062610261 -0.38588631 0.059140757
-0.062759995 -0.38597992 0.059145801
-0.062916845 -0.38608894 0.05908278
-0.063086346 -0.38620278 0.059039302
-0.063251734 -0.38630351 0.059061579
-0.063427389 -0.38642013 0.059024993
-0.063597292 -0.38651687 0.059089914
-0.063742988 -0.3866255 0.058985431
-0.063912593 -0.38673681 0.058958098
-0.064082049 -0.38683549 0.059009187
-0.064248972 -0.38695583 0.058914978
-0.064404689 -0.38706431 0.05885081
-0.064586535 -0.38716987 0.058907602
-0.064740434 -0.38727185 0.05887688
-0.064893506 -0.38737607 0.058828875
-0.065063968 -0.38748294 0.058832668
-0.065232001 -0.38759679 0.058783431
-0.065386698 -0.38769537 0.058776937
-0.065557882 -0.38779995 0.058798023
-0.065722235 -0.3879028 0.058803007
-0.065887704 -0.38801244 0.058769926
-0.066049591 -0.38812128 0.058727637
-0.066215821 -0.38821921 0.058770668
-0.066374972 -0.38832504 0.058736458
-0.066548072 -0.38843414 0.058736783
-0.066708118 -0.38854629 0.058666836
-0.066857673 -0.3886553 0.058575023
-0.06701915 -0.38877186 0.058483154
-0.067198247 -0.38885921 0.058642585
-0.067351811 -0.388951 0.058674138
-0.067517355 -0.38906679 0.058603004
-0.06769307 -0.38916239 0.058697872
-0.067855686 -0.38926801 0.058678646
-0.06801565 -0.38937843 0.058619067
-0.068176754 -0.38949382 0.058532968
-0.06835378 -0.38960963 0.058506753
-0.068520106 -0.38969377 0.058636263
-0.06866762 -0.38980335 0.058532931
-0.068820469 -0.38993129 0.058336165
-0.069004528 -0.39002806 0.058456369
-0.069172055 -0.39014491 0.058386374
-0.069341332 -0.3902455 0.058424771
-0.069502339 -0.39035234 0.058391713
-0.069667928 -0.3904458 0.058460113
-0.069831029 -0.39055577 0.05841551
-0.070000328 -0.39065674 0.058451604
-0.070169814 -0.39076376 0.058450796
-0.070336737 -0.39088634 0.058342759
-0.070507564 -0.39101508 0.058211636
-0.070666164 -0.39110059 0.058301978
-0.070822932 -0.3912062 0.058259711
-0.070987113 -0.39131376 0.05823471
-0.071147673 -0.39141437 0.058238551
-0.071312189 -0.39152139 0.058218166
-0.071476966 -0.391628 0.058201231
-0.071641356 -0.39172956 0.058214284
-0.071800061 -0.39182699 0.058230825
-0.0719667 -0.39193147 0.058234647
-0.072142102 -0.39204201 0.058234956
-0.0723214 -0.39215872 0.058212191
-0.072492801 -0.39227858 0.058138728
-0.072644502 -0.39237323 0.058144923
-0.072808079 -0.39248076 0.058117613
-0.072965786 -0.3925842 0.058092643
-0.073118024 -0.3926881 0.058043484
-0.073291287 -0.39279562 0.05805419
-0.073448986 -0.39289889 0.058030371
-0.073602326 -0.39300144 0.057993893
-0.073764503 -0.39310512 0.057985049
-0.073935747 -0.3932099 0.058004986
-0.074112751 -0.39332792 0.057964932
-0.074281976 -0.39343902 0.057937596
-0.074434362 -0.39352414 0.058006059
-0.074598968 -0.39361697 0.058074456
-0.074754223 -0.39373088 0.057974547
-0.074917868 -0.39384639 0.057897661
-0.075075075 -0.39394102 0.057925738
-0.075223684 -0.39404669 0.057851229
-0.07538496 -0.39415091 0.05783546
-0.075551443 -0.39425951 0.057812754
-0.075712845 -0.39436769 0.057772778
-0.075896181 -0.39447218 0.05784224
-0.076047264 -0.39457959 0.057766568
-0.076217771 -0.39468926 0.057753075
-0.076378159 -0.39478996 0.057755768
-0.076542914 -0.39489564 0.0577446
-0.076704659 -0.39500329 0.057709232
-0.07687515 -0.39510521 0.05774416
-0.077052355 -0.39521062 0.057783678
-0.077215269 -0.39531752 0.057757534
-0.077372015 -0.39542443 0.057707198
-0.077537075 -0.39552996 0.057698328
-0.077693224 -0.39562964 0.057690665
-0.077863418 -0.3957395 0.057674862
-0.078037962 -0.39585412 0.057646349
-0.078185916 -0.39595842 0.05757761
-0.078345738 -0.396056 0.057597607
-0.078514352 -0.39615598 0.057637155
-0.078683935 -0.39628026 0.057529107
-0.078849286 -0.39637855 0.057566371
-0.079005025 -0.39648536 0.057512581
-0.079171985 -0.39658985 0.057517543
-0.079339556 -0.39669749 0.057505213
-0.07950069 -0.39680827 0.05744794
-0.079657234 -0.39690101 0.057485245
-0.079824969 -0.39699858 0.057536338
-0.079988591 -0.39710486 0.057517108
-0.080152854 -0.39721408 0.057481728
-0.080324709 -0.39732316 0.057477444
-0.080484152 -0.39743769 0.057390194
-0.080630533 -0.39754802 0.05727765
-0.08081165 -0.39764667 0.057374798
-0.080972701 -0.39775386 0.05733943
-0.081143141 -0.39785722 0.057365134
-0.081294551 -0.39795893 0.057326365
-0.081462137 -0.39806971 0.057294428
-0.081609771 -0.39816663 0.057270657
-0.081770226 -0.39827698 0.057213385
-0.08192426 -0.39837146 0.057229947
-0.082096778 -0.3984713 0.057285625
-0.082264103 -0.39857918 0.057270989
-0.082444146 -0.39870042 0.057222851
-0.082601212 -0.39880881 0.057164446
-0.082761474 -0.39891315 0.057144076
-0.082907647 -0.39901337 0.057093792
-0.083089158 -0.39911947 0.057145964
-0.083251894 -0.39922589 0.05712213
-0.083403185 -0.39932734 0.057084501
-0.083569519 -0.39943549 0.057064109
-0.083746038 -0.3995434 0.057085171
-0.083897397 -0.39963639 0.057100587
-0.084059395 -0.39974588 0.057054847
-0.084219091 -0.39985594 0.05699642
-0.084391743 -0.39996514 0.056994446
-0.084551118 -0.40006426 0.057002913
-0.084716365 -0.40017006 0.056992892
-0.084869146 -0.4002791 0.056913752
-0.085016683 -0.4003813 0.056856547
-0.085170366 -0.40047926 0.056850042
-0.085329935 -0.40058109 0.056842361
-0.085499927 -0.40068844 0.056841549
-0.085678652 -0.40078592 0.056936398
-0.085852787 -0.40089771 0.056924038
-0.086033456 -0.40100548 0.056962386
-0.086201347 -0.40112126 0.05690046
-0.086352706 -0.40122256 0.056863993
-0.086509064 -0.40132535 0.056837879
-0.086672992 -0.40143418 0.056803651
-0.086826205 -0.40153757 0.056761414
-0.086979359 -0.40163594 0.056750301
-0.087156825 -0.40174225 0.056785196
-0.087327585 -0.40184987 0.056785531
-0.087473325 -0.40195704 0.056690276
-0.087637663 -0.40206578 0.056658357
-0.087810718 -0.40216818 0.056700204
-0.087965965 -0.40227121 0.056668326
-0.088111147 -0.40237579 0.05658691
-0.088284411 -0.40248317 0.05659876
-0.088460401 -0.4025878 0.056638282
-0.088630639 -0.40269101 0.056663994
-0.088784128 -0.40279198 0.056637894
-0.088962346 -0.40290597 0.056627814
-0.089123949 -0.40301523 0.056582063
-0.089268811 -0.40311962 0.056500655
-0.089427382 -0.40321991 0.056498747
-0.089608699 -0.4033244 0.056560151
-0.089793295 -0.40343097 0.056621537
-0.089933485 -0.4035472 0.05644789
-0.090094686 -0.4036451 0.056471337
-0.090275459 -0.40375903 0.056471631
-0.090420172 -0.40385649 0.056432888
-0.090594664 -0.40396667 0.05643205
-0.09074831 -0.40406549 0.05641979
-0.090908088 -0.40417266 0.056379817
-0.091076896 -0.40427685 0.056394
-0.091242924 -0.40438351 0.056381676
-0.091403373 -0.40448627 0.056371681
-0.091555014 -0.40459624 0.056282166
-0.091725044 -0.4046962 0.056327477
-0.091881439 -0.40480363 0.056272537
-0.092060797 -0.4049117 0.056303963
-0.092209041 -0.40502173 0.056200631
-0.092345536 -0.40512177 0.056113489
-0.092513025 -0.40522215 0.056146123
-0.092722431 -0.4053331 0.056277744
-0.092885941 -0.40544021 0.056252744
-0.093049407 -0.40554526 0.056240432
-0.093201146 -0.40565288 0.056165896
-0.093366891 -0.40575993 0.056150116
-0.093536049 -0.40586895 0.056135468
-0.093701884 -0.405974 0.056132376
-0.093857966 -0.40608144 0.056076277
-0.094023079 -0.40618253 0.056095093
-0.094179757 -0.40628791 0.056053981
-0.094375797 -0.40640059 0.056122232
-0.094520852 -0.40650621 0.056033902
-0.094669744 -0.40660575 0.055998594
-0.094862923 -0.40671477 0.056078397
-0.095010102 -0.40682229 0.055986598
-0.095171653 -0.40692577 0.055976596
-0.095334761 -0.40703318 0.055948138
-0.095490694 -0.40713865 0.05590358
-0.095663734 -0.40724033 0.055950023
-0.095845334 -0.40735182 0.055968761
-0.096010566 -0.40746132 0.055935688
-0.09615466 -0.40756673 0.055845052
-0.096332312 -0.40767258 0.055883404
-0.096498877 -0.40777645 0.055890687
-0.096658781 -0.40788591 0.055836879
-0.096814334 -0.40799338 0.055778474
-0.096973598 -0.40809152 0.055792712
-0.097147636 -0.40820137 0.055791877
-0.09731333 -0.40830359 0.055806071
-0.097472072 -0.40841305 0.055747662
-0.097648211 -0.40852129 0.055765264
-0.097792625 -0.40862468 0.055688467
-0.097963035 -0.40872726 0.055718787
-0.09813448 -0.40883365 0.055729505
-0.098297358 -0.40894517 0.055674523
-0.098467648 -0.40905342 0.055669099
-0.098635294 -0.40915796 0.055676375
-0.098797999 -0.40926772 0.055631772
-0.09895777 -0.40937191 0.055610251
-0.099127933 -0.40948212 0.055592138
-0.099288337 -0.40958819 0.055561393
-0.099450536 -0.40969262 0.05554793
-0.099636242 -0.40980044 0.055605851
-0.09979637 -0.40990838 0.055562422
-0.099953547 -0.4100126 0.055530537
-0.10012017 -0.41011927 0.05552052
-0.10026559 -0.41022438 0.055436797
-0.10045248 -0.41033444 0.055485483
-0.10060011 -0.41043797 0.055420209
-0.10078316 -0.41054615 0.055465456
-0.10095087 -0.41065314 0.055457734
-0.10111528 -0.4107599 0.0554385
-0.10127711 -0.41086817 0.055399679
-0.10145839 -0.41097653 0.055436868
-0.10158964 -0.4110786 0.055316307
-0.10178011 -0.41118795 0.055383436
-0.10191857 -0.41129404 0.055266298
-0.10211912 -0.41140455 0.055365667
-0.10228126 -0.41151303 0.055326842
-0.10243641 -0.41161913 0.055275358
-0.10259788 -0.41172588 0.05524461
-0.10279369 -0.41183472 0.05533592
-0.10293975 -0.41194317 0.055233747
-0.10309216 -0.41204903 0.055173054
-0.10328136 -0.41215903 0.05523096
-0.10344031 -0.41226569 0.055190995
-0.10360686 -0.41237321 0.055175211
-0.10378724 -0.41248247 0.055203173
-0.10394919 -0.41259119 0.055162042
-0.10412867 -0.41270211 0.055176172
-0.10429096 -0.4128077 0.055155799
-0.10445088 -0.41291624 0.05510775
-0.1046311 -0.41302744 0.055123035
-0.1047857 -0.41313374 0.055068102
-0.10495481 -0.41324198 0.055058062
-0.10512474 -0.41335037 0.055050328
-0.10530134 -0.4134613 0.055052955
-0.10545085 -0.41356698 0.054981891
-0.10561955 -0.41367534 0.054969553
-0.10579573 -0.41378322 0.054989468
-0.10598283 -0.41389745 0.055012796
-0.10612218 -0.4140017 0.054910656
-0.10628728 -0.41410816 0.054896027
-0.10647424 -0.41422102 0.054927416
-0.10663791 -0.41433045 0.05488858
-0.1068068 -0.41443762 0.054884322
-0.1069861 -0.41454953 0.05489153
-0.10715885 -0.41465896 0.054888405
-0.10730173 -0.41476527 0.054787397
-0.10749611 -0.4148767 0.054856803
-0.10765865 -0.41498616 0.054813363
-0.10784645 -0.41509825 0.054852828
-0.10797825 -0.41520274 0.054719586
-0.10818779 -0.41531858 0.054821216
-0.10834387 -0.41542709 0.054758199
-0.10850431 -0.41553485 0.054717064
-0.10868974 -0.4156484 0.054738093
-0.10884672 -0.41575861 0.054668151
-0.10900167 -0.41586548 0.054610908
-0.10918669 -0.41597474 0.054657307
-0.10937313 -0.41609019 0.054670252
-0.10952982 -0.41620335 0.054580711
-0.10971541 -0.41631296 0.054627106
-0.10989746 -0.41642493 0.054644682
-0.11009407 -0.41654259 0.054684103
-0.11023515 -0.41664422 0.054605022
-0.11037314 -0.41674817 0.054499418
-0.11053818 -0.41685715 0.05446865
-0.11073378 -0.41697344 0.054512687
-0.11091428 -0.41708407 0.054532576
-0.11106059 -0.41719106 0.054440781
-0.11123846 -0.41730556 0.0544261
-0.1114092 -0.41741446 0.054418363
-0.1116105 -0.41753656 0.054448534
-0.11177672 -0.41764188 0.054445438
-0.11190486 -0.4177396 0.054339882
-0.11211798 -0.41786712 0.054382689
-0.11229578 -0.41797492 0.054409508
-0.11246903 -0.41809171 0.054362562
-0.11261877 -0.41819808 0.054288037
-0.11279006 -0.41830751 0.054279149
-0.11296719 -0.41841823 0.054285228
-0.11313701 -0.41852748 0.054271728
-0.11330739 -0.41863966 0.054242086
-0.1134856 -0.41875216 0.054241233
-0.11367106 -0.41886631 0.054258801
-0.11385275 -0.4189797 0.054265998
-0.028597299 -0.36788306 0.037658729
-0.028758671 -0.36798808 0.037638381
-0.028922278 -0.36809212 0.037633009
-0.029081147 -0.36819407 0.0376219
-0.029252879 -0.36830914 0.037579581
-0.029416677 -0.36841586 0.037558071
-0.029581316 -0.36852387 0.037531935
-0.029743481 -0.36862662 0.037528872
-0.02991093 -0.36873659 0.037501574
-0.030068688 -0.36883783 0.037490468
-0.030235574 -0.36894524 0.037477002
-0.0303935 -0.36904699 0.037463591
-0.030554175 -0.36915043 0.037450165
-0.030720871 -0.36926013 0.037421711
-0.030879013 -0.36936253 0.037404835
-0.031042553 -0.36946818 0.037389085
-0.031207636 -0.3695761 0.037365258
-0.031364214 -0.36967459 0.037366841
-0.031525813 -0.36978233 0.037330341
-0.031687409 -0.36988583 0.037320368
-0.031843759 -0.36998436 0.037320793
-0.032009609 -0.37009183 0.037302732
-0.032172825 -0.37020022 0.037268523
-0.032328665 -0.37030065 0.037255123
-0.032485344 -0.37040013 0.037250932
-0.03265046 -0.37050712 0.037232876
-0.032806508 -0.37060824 0.037216
-0.032972876 -0.37071732 0.03718986
-0.033134326 -0.37082183 0.037172969
-0.033290766 -0.37092394 0.037151486
-0.033449527 -0.37102953 0.03711731
-0.033604339 -0.37112486 0.037131589
-0.033764087 -0.37123218 0.03709048
-0.033925995 -0.3713381 0.037066668
-0.034081072 -0.37143415 0.037077487
-0.034241535 -0.37153822 0.037059441
-0.034397218 -0.37164021 0.037035652
-0.034561496 -0.37174779 0.037010677
-0.034715302 -0.3718473 0.036994975
-0.034874007 -0.37194934 0.036982708
-0.035033185 -0.37205222 0.03696698
-0.035191271 -0.37215608 0.036940876
-0.035348743 -0.3722592 0.036917076
-0.035502486 -0.37235683 0.036912903
-0.035656728 -0.3724553 0.036905278
-0.03581572 -0.37255862 0.036886089
-0.035971712 -0.37266007 0.036866914
-0.036130775 -0.37276381 0.036845416
-0.036282811 -0.37286201 0.036830872
-0.036444157 -0.37296703 0.036810525
-0.036596078 -0.37306535 0.036794823
-0.036756054 -0.37317115 0.0367641
-0.036910933 -0.37326911 0.03676223
-0.037064631 -0.37336797 0.036749989
-0.037218757 -0.37346768 0.036734283
-0.037377857 -0.37357274 0.036704715
-0.037527919 -0.37366897 0.036694791
-0.037685528 -0.37377197 0.036672153
-0.037837327 -0.37386578 0.036684133
-0.037990727 -0.37396502 0.036668435
-0.038147863 -0.37407053 0.0366285
-0.038302995 -0.37417012 0.036617398
-0.038456663 -0.37427026 0.036597077
-0.038611505 -0.37436968 0.036585987
-0.038762175 -0.37446517 0.03658298
-0.03891629 -0.37456653 0.036556896
-0.039070897 -0.37466598 0.036544651
-0.039222937 -0.3747642 0.036530107
-0.039379358 -0.37486702 0.036504012
-0.039531104 -0.37496501 0.036489468
-0.039687715 -0.37506852 0.036459915
-0.039841428 -0.37516722 0.036448821
-0.039996497 -0.37527752 0.03637084
-0.040146854 -0.37536466 0.036418576
-0.040297963 -0.37546542 0.03638443
-0.04045181 -0.37556809 0.036349118
-0.040599421 -0.37565684 0.036376122
-0.040754601 -0.37575591 0.036368482
-0.040906236 -0.37585515 0.036345869
-0.041059673 -0.37595463 0.036329009
-0.041210707 -0.37605309 0.03630871
-0.041363232 -0.37615126 0.036296465
-0.041512586 -0.37624702 0.036286552
-0.041666705 -0.37634838 0.036260471
-0.041816406 -0.37644511 0.036245935
-0.041967794 -0.37654513 0.036217555
-0.042118423 -0.3766439 0.036193792
-0.042270586 -0.37674236 0.036178097
-0.042423859 -0.37684652 0.036131259
-0.042574644 -0.37694967 0.036080968
-0.042723041 -0.37704504 0.0360699
-0.042872623 -0.37713927 0.036070365
-0.043020546 -0.37723044 0.036083519
-0.043173369 -0.37732765 0.0360782
-0.043320298 -0.3774243 0.0360533
-0.043469831 -0.37751168 0.036096431
-0.043614775 -0.37760466 0.036086533
-0.043765575 -0.37770209 0.036071997
-0.043911934 -0.37779447 0.036071319
-0.04406317 -0.37789309 0.03605102
-0.044211164 -0.37798911 0.036034182
-0.044362113 -0.37808368 0.036038093
-0.044510394 -0.37818062 0.036016647
-0.044659972 -0.37827653 0.036006734
-0.044805236 -0.37836748 0.036010671
-0.044954486 -0.378463 0.03600191
-0.04509715 -0.37854862 0.036028929
-0.045244142 -0.37864366 0.036014408
-0.045388989 -0.37873417 0.036019508
-0.045535631 -0.37882453 0.036032666
-0.045677654 -0.37890902 0.036064297
-0.04581831 -0.37898615 0.036136299
-0.045958936 -0.3790631 0.03620946
-0.046098638 -0.37913778 0.036292996
-0.046235986 -0.37921137 0.036374241
-0.046376612 -0.37928334 0.036478538
-0.04651235 -0.37935275 0.036579393
-0.046652451 -0.3794229 0.03669291
-0.046785116 -0.37948447 0.036830693
-0.046922151 -0.37954655 0.036982283
-0.047052935 -0.3796027 0.037146594
-0.047186617 -0.37966046 0.037312038
-0.047324602 -0.37971836 0.037493609
-0.047456525 -0.37977555 0.037655614
-0.047589727 -0.37982526 0.037869498
-0.047719017 -0.37987453 0.03807072
-0.047983415 -0.37996989 0.038515799
-0.04811769 -0.38001898 0.038737755
-0.048389539 -0.38011202 0.039226625
-0.048624799 -0.37765071 0.055503566
-0.048777729 -0.37771767 0.055687383
-0.048920371 -0.37778959 0.055799741
-0.049075123 -0.37787601 0.055869363
-0.04923106 -0.37796596 0.055921692
-0.049386688 -0.37805477 0.055979796
-0.049557656 -0.37816122 0.055988222
-0.049720924 -0.37825873 0.05602207
-0.049889777 -0.37836665 0.056013212
-0.051299062 -0.38181534 0.040045798
-0.051440235 -0.38189539 0.040101647
-0.051571835 -0.38196498 0.040185232
-0.051709309 -0.38203919 0.040263008
-0.053155269 -0.38160172 0.048678458
-0.054109156 -0.38040745 0.059878953
-0.054249141 -0.380496 0.059877157
-0.054407313 -0.38061196 0.05977609
-0.054585934 -0.3807345 0.059714146
-0.054771695 -0.38084882 0.059731741
-0.054964151 -0.3809709 0.059727386
-0.055104502 -0.38104284 0.059830524
-0.055264659 -0.3811582 0.059740983
-0.055446293 -0.38126269 0.059803575
-0.055592854 -0.38136223 0.059759069
-0.055775419 -0.38150284 0.059600234
-0.055954043 -0.38160747 0.059650153
-0.056111485 -0.38170296 0.059673637
-0.056309469 -0.38182759 0.059675023
-0.056477211 -0.38194218 0.059620045
-0.05664473 -0.38205588 0.059569679
-0.056805413 -0.38215807 0.059564322
-0.056972407 -0.38226718 0.059540488
-0.057138968 -0.38236994 0.059554711
-0.05729695 -0.38248169 0.059479013
-0.05745136 -0.38258415 0.059447169
-0.057617493 -0.38267961 0.059505217
-0.057792932 -0.38278037 0.059566677
-0.057953063 -0.38287169 0.059627056
-0.058150634 -0.38301286 0.059523501
-0.05830469 -0.38311344 0.059502028
-0.058480233 -0.38322595 0.059490837
-0.058627978 -0.38332254 0.059469394
-0.058812402 -0.38345358 0.059377432
-0.05896936 -0.38354599 0.059418224
-0.059144545 -0.38365936 0.059400119
-0.059310444 -0.3837665 0.059384357
-0.059476264 -0.38387379 0.059367444
-0.059632517 -0.38398057 0.059315976
-0.059792191 -0.3840808 0.059318699
-0.059947953 -0.38419154 0.059240706
-0.060120255 -0.38429254 0.059288345
-0.060295627 -0.3843964 0.05933021
-0.060472097 -0.38452503 0.059222139
-0.060634948 -0.3846232 0.059250213
-0.060813248 -0.38473022 0.059283987
-0.060962103 -0.38483676 0.059204876
-0.061127126 -0.38494408 0.059184507
-0.061314125 -0.3850601 0.059196327
-0.061467439 -0.38515487 0.059208304
-0.061622072 -0.38526359 0.059138395
-0.061793368 -0.38537171 0.059137598
-0.061937109 -0.38546246 0.059136927
-0.062106784 -0.38557976 0.059072714
-0.062267751 -0.38568765 0.059032772
-0.062436894 -0.38578761 0.059074655
-0.062605396 -0.3858912 0.059091166
-0.062781632 -0.38600764 0.059058066
-0.062950172 -0.3861109 0.059076887
-0.063106403 -0.38620695 0.059092309
-0.06326317 -0.38631588 0.059029307
-0.063429847 -0.38642666 0.058993943
-0.06359826 -0.38653001 0.059011616
-0.063773401 -0.38664854 0.058961213
-0.063934669 -0.38673851 0.059034273
-0.064080194 -0.38684702 0.058929812
-0.064249456 -0.38695961 0.058893278
-0.064416267 -0.3870557 0.05895016
-0.064585991 -0.38717818 0.05885366
-0.064738683 -0.38728437 0.058791824
-0.064920932 -0.38738945 0.058853265
-0.065074585 -0.38749218 0.058816798
-0.065223932 -0.38759628 0.058754988
-0.065397672 -0.38770467 0.05876226
-0.065563105 -0.38781521 0.058723431
-0.065722696 -0.38792095 0.05869155
-0.065888941 -0.38801906 0.058733448
-0.066052847 -0.38812327 0.058728088
-0.066216178 -0.38822877 0.058712337
-0.066381022 -0.3883397 0.058668904
-0.066543639 -0.38843754 0.058698133
-0.066703998 -0.38854063 0.058685858
-0.066870399 -0.38864753 0.058673553
-0.067034021 -0.38876027 0.058613986
-0.067183249 -0.38886964 0.058518726
-0.067341156 -0.38898504 0.058419973
-0.067519359 -0.38907534 0.058557533
-0.067676798 -0.38916773 0.058600627
-0.06783656 -0.38927892 0.058535311
-0.068012491 -0.38937482 0.058629055
-0.068173774 -0.38947555 0.058635235
-0.068332799 -0.38958758 0.058561843
-0.06849087 -0.38970086 0.058476925
-0.068661973 -0.3898198 0.058408085
-0.068836473 -0.38990501 0.058562972
-0.068985716 -0.39001143 0.058486171
-0.069135055 -0.39013749 0.058287121
-0.069316529 -0.39023912 0.058366999
-0.069489673 -0.3903538 0.058332756
-0.069649197 -0.39045006 0.058359697
-0.069814667 -0.39055675 0.058345091
-0.069979161 -0.39065227 0.058396228
-0.070146121 -0.39076304 0.058362011
-0.070302278 -0.39086422 0.058345135
-0.07048171 -0.3909699 0.058391593
-0.0706404 -0.39108545 0.058295146
-0.070818193 -0.39121655 0.058176685
-0.070974573 -0.39130548 0.058237083
-0.071136944 -0.39140981 0.058224797
-0.071289934 -0.39151436 0.058174502
-0.071454056 -0.39161649 0.058182966
-0.071616337 -0.3917208 0.05817068
-0.071777247 -0.39182663 0.058143415
-0.071942516 -0.39192745 0.058164563
-0.07210312 -0.39202827 0.058167271
-0.072264485 -0.39212832 0.05817806
-0.072441109 -0.39223778 0.058189932
-0.072616927 -0.39235321 0.058161434
-0.072788432 -0.39247295 0.058089141
-0.072934642 -0.39256841 0.058068864
-0.073100902 -0.39267334 0.058068089
-0.073264964 -0.39278045 0.058045417
-0.073414668 -0.39288679 0.057970922
-0.073586226 -0.39299139 0.057993189
-0.073750287 -0.39309829 0.057971679
-0.073899567 -0.3931953 0.057953686
-0.074062087 -0.39330345 0.057918333
-0.074229971 -0.39340687 0.057933696
-0.074406751 -0.39352068 0.05791904
-0.074574821 -0.39363289 0.057880212
-0.074731246 -0.39371943 0.057955597
-0.074889518 -0.39381343 0.057991773
-0.075045705 -0.39392647 0.057901088
-0.075208917 -0.39403799 0.057847284
-0.075370245 -0.39413819 0.057856925
-0.075515948 -0.39424181 0.057783596
-0.075676441 -0.39434257 0.057786308
-0.075844936 -0.39444989 0.057779763
-0.076001354 -0.39455768 0.057722531
-0.076181673 -0.39466467 0.057764363
-0.076341838 -0.39477375 0.057714034
-0.076504312 -0.39488113 0.0576833
-0.076667823 -0.39497992 0.057710215
-0.076823652 -0.39508384 0.057674903
-0.076992378 -0.3951948 0.057646438
-0.077155717 -0.39529383 0.057671055
-0.077333964 -0.3953951 0.057740584
-0.077500015 -0.395504 0.05771444
-0.077659093 -0.39561328 0.057658348
-0.077817038 -0.39571577 0.057640314
-0.077979833 -0.3958191 0.057636108
-0.07814838 -0.39592645 0.057629563
-0.078318611 -0.39604002 0.057590712
-0.078469604 -0.39614624 0.057521969
-0.078631222 -0.39624661 0.057531603
-0.078800857 -0.3963463 0.057576947
-0.078970909 -0.39646679 0.057494283
-0.079126418 -0.39656347 0.057502788
-0.07928621 -0.39667177 0.05745592
-0.079456151 -0.39677498 0.057480503
-0.079622045 -0.39688358 0.057455514
-0.079784088 -0.39699402 0.057404023
-0.07993716 -0.39708862 0.057415999
-0.080101274 -0.39718482 0.05746137
-0.080274314 -0.39729351 0.057464033
-0.080435649 -0.39740092 0.057428684
-0.080609493 -0.39751253 0.057416342
-0.080773145 -0.39762527 0.057356779
-0.080915049 -0.39773425 0.057235025
-0.081089258 -0.39783296 0.057304561
-0.081253976 -0.39793879 0.057292275
-0.081415206 -0.39803672 0.057315741
-0.081574418 -0.39814165 0.057287324
-0.081744067 -0.39825487 0.057248488
-0.08189781 -0.39835265 0.057243165
-0.082051076 -0.39846271 0.05715942
-0.082206085 -0.39856005 0.057162158
-0.082376607 -0.39865789 0.057222497
-0.082547113 -0.39876774 0.057207864
-0.082723297 -0.39888453 0.057172451
-0.082886502 -0.3989968 0.057114039
-0.083047882 -0.3991009 0.057099447
-0.083193749 -0.3992013 0.057046879
-0.08337459 -0.39930788 0.057093326
-0.083534718 -0.39941525 0.057053365
-0.083689071 -0.39951587 0.057033051
-0.083854757 -0.39962435 0.057008069
-0.084032133 -0.39973226 0.057032619
-0.084182292 -0.39982575 0.057039991
-0.084338106 -0.39993152 0.056993142
-0.084501527 -0.40004337 0.056938186
-0.084677413 -0.40015459 0.056936216
-0.084841073 -0.4002555 0.05695045
-0.085002415 -0.40035978 0.056934711
-0.085159235 -0.40046784 0.056877479
-0.085300229 -0.40056905 0.056800716
-0.085457765 -0.40066886 0.056797672
-0.085619494 -0.40077302 0.056784242
-0.085789904 -0.4008804 0.056784604
-0.085970119 -0.40097791 0.056885257
-0.086143352 -0.40109003 0.056867152
-0.086321302 -0.4011935 0.056921691
-0.086492978 -0.40131372 0.056847088
-0.086639255 -0.40141106 0.056815274
-0.086801425 -0.40151787 0.056786843
-0.086965054 -0.40162691 0.056750335
-0.087121651 -0.40173224 0.056709241
-0.087271497 -0.40182889 0.056695864
-0.087452069 -0.40193734 0.05672963
-0.087618873 -0.40204337 0.056724239
-0.087773025 -0.402154 0.056640491
-0.087935179 -0.40226081 0.056612059
-0.088105731 -0.40236145 0.056655098
-0.088259265 -0.40246487 0.056614019
-0.088407777 -0.40257138 0.056533761
-0.088584632 -0.4026784 0.056561783
-0.08875899 -0.40278587 0.056577113
-0.088927656 -0.4028872 0.056608621
-0.089082018 -0.40298814 0.056585997
-0.089259744 -0.40310237 0.056572489
-0.089427859 -0.40321553 0.056527887
-0.089569464 -0.40331805 0.056445353
-0.089734524 -0.40342006 0.056458432
-0.089914262 -0.40352499 0.056510646
-0.090099052 -0.4036341 0.056557074
-0.090239048 -0.40374798 0.056397274
-0.090402588 -0.40384808 0.05641612
-0.0905867 -0.40396413 0.056416426
-0.090729758 -0.40405962 0.056383468
-0.090902723 -0.40417013 0.056374602
-0.091058865 -0.4042711 0.056358889
-0.091218323 -0.40437621 0.056330469
-0.091387101 -0.40448275 0.05632969
-0.091551058 -0.40458754 0.056320857
-0.091717348 -0.40469438 0.056308553
-0.091871783 -0.40480205 0.056244414
-0.092042059 -0.40490437 0.056275912
-0.092200868 -0.40500963 0.056244038
-0.092380546 -0.40512636 0.05622245
-0.092522435 -0.40522835 0.056144521
-0.092667282 -0.40533218 0.056066591
-0.092846647 -0.40543431 0.056134954
-0.093050048 -0.40554386 0.056251641
-0.09320803 -0.40565136 0.056202471
-0.093369573 -0.40575871 0.056168284
-0.093523592 -0.40586427 0.056115672
-0.093691558 -0.40597549 0.056082603
-0.093864605 -0.40608251 0.056095645
-0.094025642 -0.40618786 0.056071825
-0.094192073 -0.40629515 0.056057222
-0.094351515 -0.40639859 0.056039181
-0.094511181 -0.40650603 0.055996925
-0.094706468 -0.40662101 0.05604792
-0.094850503 -0.40672469 0.055967681
-0.095009618 -0.40682626 0.055960022
-0.095192939 -0.40693367 0.056011066
-0.095344566 -0.40704122 0.055936564
-0.09550491 -0.40714484 0.055920828
-0.095674887 -0.4072544 0.055906195
-0.095831908 -0.40735999 0.055865109
-0.096009955 -0.40746388 0.05591733
-0.096183874 -0.40757552 0.055904999
-0.096334487 -0.40768301 0.055827029
-0.096496426 -0.40778875 0.055804368
-0.096674182 -0.40789485 0.05584161
-0.096840464 -0.40799892 0.055846605
-0.096996948 -0.40811026 0.055767454
-0.097154126 -0.40821412 0.055737898
-0.097331703 -0.40831864 0.055784363
-0.097485319 -0.40842617 0.055717915
-0.097657256 -0.40853435 0.055719424
-0.097819611 -0.40863851 0.055708297
-0.09799546 -0.40875062 0.055700555
-0.098147281 -0.40885258 0.055661798
-0.098327562 -0.40895769 0.055715166
-0.098487213 -0.40906736 0.055659071
-0.098643392 -0.40917501 0.055601839
-0.098821208 -0.40928024 0.05564484
-0.09898895 -0.40939039 0.055617541
-0.099151328 -0.40949845 0.055582188
-0.099309951 -0.40960452 0.055544555
-0.099487267 -0.40971535 0.055550653
-0.099637747 -0.40981737 0.055506133
-0.099809289 -0.40992439 0.055513412
-0.099998802 -0.41003275 0.055582881
-0.10014062 -0.41013947 0.055474967
-0.10030383 -0.41024601 0.055452302
-0.10046373 -0.41035232 0.055418119
-0.10063776 -0.41045979 0.055432305
-0.10079665 -0.41056436 0.055405051
-0.10095026 -0.41067019 0.055348981
-0.10115247 -0.41078028 0.055457596
-0.10132015 -0.41088578 0.055459134
-0.10146134 -0.41099229 0.055350073
-0.10164052 -0.4111006 0.055379234
-0.1017964 -0.41120678 0.055330075
-0.1019665 -0.41131434 0.055328131
-0.10212523 -0.41142249 0.055277806
-0.10228674 -0.41152927 0.055247076
-0.10248409 -0.41163981 0.055333808
-0.10261801 -0.41174376 0.055212095
