# .PCD v0.7 - Point Cloud Data file format
VERSION 0.7
FIELDS x y z
SIZE 4 4 4
TYPE F F F
COUNT 1 1 1
WIDTH 1190
HEIGHT 1
VIEWPOINT 0 0 0 1 0 0 0
POINTS 1190
DATA ascii
-0.11019316 -0.41285917 0.053813253
-0.11034127 -0.4129661 0.05372718
-0.11051764 -0.41307399 0.053748257
-0.11070469 -0.41319114 0.053753138
-0.11088338 -0.41330248 0.053761505
-0.11104453 -0.41340908 0.053729586
-0.11121102 -0.41351962 0.053694185
-0.11136923 -0.41362858 0.053635746
-0.1115486 -0.41373745 0.053662583
-0.11173166 -0.41385135 0.05367209
-0.11188137 -0.4139573 0.053598695
-0.11205921 -0.41407028 0.053593233
-0.11226018 -0.41418657 0.053659186
-0.11244701 -0.41430014 0.053685986
-0.11258974 -0.41440478 0.053593006
-0.11275677 -0.41451439 0.053565674
-0.1129167 -0.41462535 0.053501468
-0.11310066 -0.41473854 0.05351904
-0.1132805 -0.41485098 0.053525113
-0.11344596 -0.41495904 0.053501248
-0.11362313 -0.41507378 0.053481936
-0.11379187 -0.41518539 0.053448837
-0.11396924 -0.41529751 0.053446837
-0.11411118 -0.41539928 0.053368863
-0.11431146 -0.41551515 0.053434819
-0.1145016 -0.4156357 0.053430453
-0.11464127 -0.41573569 0.0533548
-0.029619504 -0.36473927 0.036841538
-0.029784765 -0.36484757 0.036815412
-0.029947676 -0.36495292 0.036798518
-0.030113861 -0.36506274 0.036766618
-0.030273713 -0.36516434 0.03676128
-0.030431308 -0.3652631 0.036765177
-0.030600134 -0.36537275 0.036744803
-0.030762762 -0.36548248 0.036699079
-0.030925822 -0.36558884 0.036676425
-0.031090908 -0.36569396 0.036669903
-0.031256765 -0.36580226 0.036646087
-0.031418972 -0.36590791 0.036624584
-0.031582382 -0.36601323 0.03661
-0.031745981 -0.36612102 0.036580421
-0.031906102 -0.36622429 0.036565851
-0.032064553 -0.36632538 0.036558211
-0.032227989 -0.36643127 0.036540166
-0.032390788 -0.36653855 0.03651059
-0.032550398 -0.36663947 0.036508717
-0.032707945 -0.36673981 0.036502231
-0.032871384 -0.36684623 0.036480725
-0.033030532 -0.36694905 0.036465008
-0.033193812 -0.36705774 0.036428511
-0.033350181 -0.36715916 0.036410496
-0.033509497 -0.36726263 0.03639131
-0.033669923 -0.36736333 0.036394041
-0.033828273 -0.36746347 0.036392175
-0.033987392 -0.36757153 0.036343001
-0.034147944 -0.36767504 0.036328431
-0.034306955 -0.36777648 0.036320787
-0.03446364 -0.36787704 0.036309697
-0.034624834 -0.36798185 0.03628936
-0.034782086 -0.36808348 0.036273655
-0.034942318 -0.36818951 0.036241781
-0.035099629 -0.36828917 0.036238756
-0.035259463 -0.36839259 0.036221877
-0.035414953 -0.36849454 0.036196947
-0.035576627 -0.36860093 0.036168538
-0.035732675 -0.36869925 0.036168978
-0.035894401 -0.36880606 0.036138251
-0.03604776 -0.36890304 0.036136404
-0.03620261 -0.36900476 0.036110327
-0.036361478 -0.36910775 0.036092304
-0.036519118 -0.36920908 0.036080047
-0.036673572 -0.3693082 0.036068961
-0.036829874 -0.36940774 0.036062494
-0.036987133 -0.36951137 0.036034092
-0.037145995 -0.36961511 0.036011457
-0.037302651 -0.3697156 0.036000367
-0.037456147 -0.36981395 0.035990439
-0.037611105 -0.36991465 0.03597128
-0.037769705 -0.37001857 0.035946339
-0.037925322 -0.37012061 0.035921406
-0.038081013 -0.37022033 0.035911471
-0.038234945 -0.37032002 0.035894617
-0.038390163 -0.37041926 0.035885841
-0.038546577 -0.37052053 0.03586898
-0.038701892 -0.37062019 0.035857894
-0.038855419 -0.37071982 0.035839893
-0.039010622 -0.3708196 0.035827655
-0.039163854 -0.37092176 0.035792358
-0.039318018 -0.37102017 0.035784736
-0.039473705 -0.37112114 0.035766728
-0.03962633 -0.37121731 0.035767183
-0.0397778 -0.37131727 0.035738811
-0.039934739 -0.37141794 0.035727717
-0.040086888 -0.37151653 0.035710886
-0.040239066 -0.37161529 0.035692893
-0.040390044 -0.37171224 0.035681825
-0.040544182 -0.37181169 0.035667285
-0.040695418 -0.37190932 0.035652757
-0.040849417 -0.37201181 0.035618603
-0.041000694 -0.37210983 0.035601765
-0.041157879 -0.37221813 0.035543382
-0.041308999 -0.37231022 0.035563458
-0.041457199 -0.37240341 0.035565086
-0.04161039 -0.37250537 0.035530947
-0.041759796 -0.37259784 0.035541803
-0.041916072 -0.37270248 0.035503026
-0.042065553 -0.37280154 0.035472352
-0.042214319 -0.37289327 0.035485521
-0.042365059 -0.37298858 0.035483688
-0.042515296 -0.3730863 0.035464544
-0.042669363 -0.37318793 0.035436161
-0.042819768 -0.37328631 0.035413563
-0.042970937 -0.37338299 0.035404798
-0.04312088 -0.37348744 0.035341837
-0.043268628 -0.37357816 0.035357311
-0.043414176 -0.37366819 0.035368182
-0.043569788 -0.37377042 0.035342101
-0.043718066 -0.37386581 0.03532989
-0.043868795 -0.37396258 0.035318822
-0.044018112 -0.37406027 0.035296232
-0.044167995 -0.37415925 0.035267867
-0.044318363 -0.37426287 0.035211816
-0.044462048 -0.37434664 0.035254993
-0.044611484 -0.37444171 0.035249706
-0.044760682 -0.37454006 0.035222493
-0.044910952 -0.3746407 0.035184909
-0.045060162 -0.3747358 0.03517846
-0.045207612 -0.37483123 0.035162792
-0.045357294 -0.37493134 0.035126355
-0.04550527 -0.37503201 0.035079546
-0.045655251 -0.3751294 0.035061564
-0.045799859 -0.37522358 0.035042446
-0.045944721 -0.37531063 0.035069473
-0.046088971 -0.37540039 0.035076894
-0.046238039 -0.37549248 0.035088908
-0.046383977 -0.37558606 0.035079017
-0.046533573 -0.37568358 0.035058726
-0.046678819 -0.37577596 0.035053454
-0.046824209 -0.37586883 0.035045866
-0.046970405 -0.37596783 0.035002526
-0.047119886 -0.37606162 0.035005309
-0.047263946 -0.37615198 0.035008118
-0.047409266 -0.37624535 0.034997076
-0.047555044 -0.37633991 0.034980264
-0.047700763 -0.37643006 0.034991138
-0.047843978 -0.37651899 0.03499971
-0.04798916 -0.37660807 0.035015203
-0.048132062 -0.37669644 0.035026088
-0.048275016 -0.37678504 0.035035823
-0.048416797 -0.37687087 0.035058245
-0.048558049 -0.37695548 0.035086442
-0.048697583 -0.377031 0.035165392
-0.048839383 -0.37711194 0.035218958
-0.04897688 -0.37718201 0.035324451
-0.049114168 -0.37725627 0.035402264
-0.049250539 -0.37732798 0.035492759
-0.049390614 -0.37739855 0.035605162
-0.049525451 -0.37746567 0.035718743
-0.049663201 -0.37752932 0.035865761
-0.049793482 -0.37758881 0.036009345
-0.049928658 -0.37764993 0.036162149
-0.050065592 -0.37770963 0.036331076
-0.050199248 -0.37776524 0.036512721
-0.050329149 -0.3778154 0.036713976
-0.050461385 -0.37786537 0.03692561
-0.051646061 -0.3756696 0.05558648
-0.051814381 -0.37579492 0.055464603
-0.051968925 -0.37590775 0.055367008
-0.052124679 -0.37602589 0.055240583
-0.052286714 -0.37613997 0.055164862
-0.052451164 -0.37622467 0.055285234
-0.052615453 -0.37633836 0.055221047
-0.052780978 -0.37645775 0.05512571
-0.052947771 -0.37656212 0.05513072
-0.056803495 -0.37839741 0.05890689
-0.056947149 -0.3784737 0.058997363
-0.057131946 -0.37861416 0.058845416
-0.057312183 -0.37874067 0.058763862
-0.057470426 -0.37885126 0.058695085
-0.057648011 -0.37894878 0.05878656
-0.057798535 -0.37903634 0.058833163
-0.057963617 -0.37916562 0.05867324
-0.058157615 -0.37928843 0.058670051
-0.058332641 -0.37939072 0.058721162
-0.058483295 -0.37948179 0.058745854
-0.058639865 -0.37956989 0.058813192
-0.058822006 -0.37970176 0.058705099
-0.058985204 -0.37981313 0.058651298
-0.059135944 -0.37991589 0.058602165
-0.05931104 -0.38002661 0.058600217
-0.059483021 -0.38013807 0.05858098
-0.059639584 -0.38023832 0.058571041
-0.059808344 -0.38034812 0.058549508
-0.059980046 -0.38046139 0.058517583
-0.060160942 -0.38057628 0.058512148
-0.060323514 -0.380676 0.058529872
-0.060479771 -0.38077626 0.058518782
-0.060654115 -0.38089302 0.058475308
-0.060807008 -0.38099405 0.05844577
-0.060972199 -0.38110051 0.058431178
-0.061131854 -0.38119382 0.058477752
-0.061297625 -0.38129207 0.058517367
-0.061456483 -0.38139614 0.05849243
-0.061638217 -0.3815316 0.058360107
-0.061787512 -0.38163072 0.058328278
-0.061973371 -0.38175294 0.058296293
-0.062120371 -0.38184208 0.058318693
-0.062275484 -0.38194543 0.058283381
-0.062441006 -0.38204446 0.058317237
-0.062635832 -0.3821716 0.058289822
-0.062795766 -0.38228545 0.058207199
-0.062939361 -0.38237426 0.058218084
-0.063094005 -0.38247752 0.058181629
-0.063261442 -0.38258445 0.058172792
-0.063435979 -0.38268954 0.058204293
-0.063621417 -0.3828091 0.058187306
-0.06377089 -0.38290235 0.058193538
-0.063935727 -0.38300458 0.058204331
-0.064123526 -0.38312837 0.058170028
-0.064286828 -0.38323691 0.058134682
-0.06444414 -0.38334075 0.058105133
-0.06459634 -0.38343644 0.058106743
-0.064744264 -0.38352126 0.058160283
-0.064906359 -0.3836332 0.058098413
-0.065061837 -0.3837426 0.058026195
-0.065259732 -0.38386604 0.058034524
-0.06542632 -0.38396138 0.058096059
-0.065580972 -0.38406044 0.058086123
-0.065740176 -0.384168 0.05804041
-0.065890387 -0.384269 0.058000516
-0.06605953 -0.38438994 0.057909772
-0.066225536 -0.38448727 0.057956316
-0.066377141 -0.38457313 0.058017906
-0.066551328 -0.38468942 0.057976745
-0.066713624 -0.38480696 0.057880275
-0.06686005 -0.38489664 0.057896912
-0.067024179 -0.38499916 0.057903089
-0.06719853 -0.38511392 0.057872303
-0.067355163 -0.38520676 0.057909653
-0.067545295 -0.38533822 0.057836123
-0.067697883 -0.38544017 0.057799675
-0.067843758 -0.38553098 0.057807088
-0.068004318 -0.38563231 0.057806358
-0.068163455 -0.38572839 0.057833314
-0.06833265 -0.38584444 0.057773724
-0.068492934 -0.38594615 0.05776953
-0.068659581 -0.38605878 0.057721488
-0.068824753 -0.3861663 0.057699971
-0.068984918 -0.38626793 0.057695784
-0.069135316 -0.38636506 0.057681262
-0.069295578 -0.38647366 0.057633236
-0.069460206 -0.38657448 0.057652101
-0.069623761 -0.38669115 0.057566002
-0.069795117 -0.38679457 0.057595208
-0.069942139 -0.38689664 0.057535723
-0.070111692 -0.38700294 0.057539564
-0.07027328 -0.38710183 0.057558428
-0.070447505 -0.3872076 0.057584174
-0.070618682 -0.38731164 0.057608776
-0.070769921 -0.38741946 0.057529647
-0.070941165 -0.38752955 0.057516187
-0.071102411 -0.38763514 0.057491228
-0.071263514 -0.3877348 0.057503179
-0.071421616 -0.38783261 0.057515152
-0.071588822 -0.38794196 0.05749017
-0.071774274 -0.38806245 0.057467412
-0.071919076 -0.38815984 0.057428688
-0.072070219 -0.38826051 0.057394557
-0.072234944 -0.38837793 0.057308447
-0.07239715 -0.38848159 0.057299636
-0.072553732 -0.38858095 0.057295464
-0.072718903 -0.3886812 0.057320088
-0.072890066 -0.38878542 0.057343535
-0.073056526 -0.38888448 0.057380844
-0.073208377 -0.38898906 0.057324786
-0.073386952 -0.38910595 0.057297446
-0.073556475 -0.38922203 0.057239007
-0.073708311 -0.38932115 0.057217553
-0.073859662 -0.38942066 0.057191495
-0.074017599 -0.38951853 0.057202309
-0.074182682 -0.389624 0.057193488
-0.074349366 -0.38972792 0.057200801
-0.074504897 -0.38983279 0.057157416
-0.074670039 -0.38993815 0.057149746
-0.074834675 -0.39003932 0.057166301
-0.074995019 -0.39013979 0.057170182
-0.075174905 -0.39025494 0.057158981
-0.07534004 -0.39036918 0.05709479
-0.075479537 -0.39046487 0.057045721
-0.075633138 -0.39056635 0.057016179
-0.075807624 -0.39067265 0.057039611
-0.075966135 -0.39077452 0.057027355
-0.076135866 -0.3908762 0.057061188
-0.076311454 -0.39098611 0.057066161
-0.076468207 -0.39108104 0.057090823
-0.076631688 -0.39119986 0.056990884
-0.076788932 -0.39130256 0.056968249
-0.076934382 -0.39140147 0.056922611
-0.077082902 -0.39150611 0.056852728
-0.077255636 -0.39160204 0.056934983
-0.077427812 -0.39171818 0.056886911
-0.077584207 -0.39182124 0.056858517
-0.077758268 -0.39190909 0.056997299
-0.077929839 -0.39202556 0.056944609
-0.078093112 -0.39212441 0.056970403
-0.078241095 -0.39222145 0.056946658
-0.078394264 -0.3923265 0.056892902
-0.078550242 -0.39243713 0.056814913
-0.078708626 -0.39254618 0.056756526
-0.078882039 -0.39265382 0.056767266
-0.07904207 -0.39276537 0.056699641
-0.07920289 -0.39286214 0.056728903
-0.079362452 -0.39296323 0.056725867
-0.079533957 -0.39307201 0.056721628
-0.079701357 -0.39318293 0.056687422
-0.079849958 -0.39328617 0.056626767
-0.080024794 -0.39339325 0.056646734
-0.080189683 -0.39349514 0.056659825
-0.080333896 -0.39359361 0.056611877
-0.080494881 -0.39369741 0.056597304
-0.080654234 -0.39380527 0.056550443
-0.080816165 -0.393902 0.05658431
-0.080983706 -0.39400938 0.056573167
-0.081142671 -0.39411408 0.056544762
-0.081306495 -0.39422947 0.056467894
-0.08146742 -0.39433324 0.056453321
-0.081637442 -0.39443636 0.05647907
-0.081782885 -0.39453706 0.056421895
-0.081934974 -0.39464125 0.056369297
-0.082123034 -0.39474356 0.056472253
-0.082302451 -0.39484644 0.056537189
-0.0824591 -0.39494896 0.056513403
-0.08261507 -0.39505777 0.056446955
-0.082769454 -0.395161 0.056409337
-0.082946271 -0.39527115 0.056417763
-0.083093613 -0.39537978 0.056317899
-0.083267003 -0.39548522 0.056342483
-0.083442368 -0.3955901 0.056378603
-0.083590791 -0.3956894 0.056342162
-0.083740711 -0.39578822 0.05631496
-0.083903044 -0.39589739 0.056271534
-0.084065594 -0.39600363 0.056247734
-0.084226146 -0.39610478 0.056248151
-0.084389076 -0.39621651 0.056190893
-0.08455243 -0.39631689 0.056207452
-0.084698945 -0.39641938 0.056143351
-0.084859401 -0.39652336 0.05612532
-0.085028924 -0.39662763 0.05614185
-0.085209846 -0.3967371 0.056171019
-0.085355572 -0.39684236 0.056086157
-0.085525498 -0.39694396 0.056121137
-0.085679039 -0.39704177 0.05611467
-0.085847333 -0.397136 0.056190036
-0.086011931 -0.39725241 0.056109708
-0.086179063 -0.39736027 0.056093942
-0.086345285 -0.39746574 0.056089729
-0.086515665 -0.3975729 0.056091264
-0.086677454 -0.39767683 0.056078997
-0.086829983 -0.39778018 0.056033317
-0.086972937 -0.39788297 0.055953078
-0.087144457 -0.39798996 0.055960376
-0.087311521 -0.39809284 0.055975761
-0.087480016 -0.39820555 0.055934627
-0.087635502 -0.39830825 0.055905089
-0.087793879 -0.39841038 0.055890527
-0.087951608 -0.39851266 0.055872507
-0.088127621 -0.39861667 0.055916689
-0.088281445 -0.39872211 0.055862933
-0.088438712 -0.39882937 0.055811465
-0.088598393 -0.3989338 0.055787675
-0.088761576 -0.39904007 0.055766169
-0.088924944 -0.39913917 0.055790801
-0.089094527 -0.39924693 0.055785418
-0.089247502 -0.39934766 0.055758189
-0.089418605 -0.39945292 0.055774715
-0.089576587 -0.39955536 0.055756696
-0.089724608 -0.3996568 0.055705275
-0.089911357 -0.39976484 0.055766713
-0.090080515 -0.39987978 0.055714034
-0.09024477 -0.39997926 0.055739824
-0.090404153 -0.40008622 0.055698723
-0.090561174 -0.40019116 0.055661105
-0.090731859 -0.40029687 0.055673011
-0.09090545 -0.4003979 0.055726439
-0.091052927 -0.40050608 0.055630032
-0.091207772 -0.40061343 0.055568192
-0.091384247 -0.40072101 0.055591613
-0.091543376 -0.40083018 0.055535529
-0.09172003 -0.40093565 0.055572793
-0.091875836 -0.40104073 0.055529397
-0.092047155 -0.40113813 0.055596679
-0.092216417 -0.40125951 0.055503633
-0.092364281 -0.40136084 0.055452205
-0.092517316 -0.40146178 0.055423826
-0.092679024 -0.40156221 0.055433474
-0.092851616 -0.4016684 0.055449992
-0.093025297 -0.40178093 0.055430748
-0.093175799 -0.40188211 0.05539085
-0.093341276 -0.40198672 0.055388946
-0.09350989 -0.40209335 0.05538702
-0.093684539 -0.40219975 0.055410445
-0.093827061 -0.40230334 0.055323295
-0.09397649 -0.40240458 0.055278782
-0.094137765 -0.40250745 0.05527113
-0.094329484 -0.40261152 0.055377532
-0.094498046 -0.40272248 0.055347931
-0.094643757 -0.40282989 0.055249225
-0.094812281 -0.40293682 0.055244997
-0.0949893 -0.40304562 0.055262644
-0.095155768 -0.40315068 0.055261895
-0.095312573 -0.40325984 0.055196583
-0.095473759 -0.40336302 0.055186622
-0.095630139 -0.40346625 0.055157077
-0.095798537 -0.40357146 0.055163231
-0.095982946 -0.40367675 0.05523276
-0.096143454 -0.40378788 0.055169743
-0.096285708 -0.40389112 0.055083737
-0.096465275 -0.40400046 0.055108301
-0.096626431 -0.404102 0.055108719
-0.096786015 -0.40420926 0.055066466
-0.096967839 -0.40432075 0.055086412
-0.097109109 -0.40442008 0.055021171
-0.097290814 -0.40452605 0.055075713
-0.097430252 -0.40463096 0.054967806
-0.097590938 -0.40473455 0.054953232
-0.097777352 -0.40484276 0.055012371
-0.097925209 -0.40494972 0.054925188
-0.098091066 -0.40505731 0.054905981
-0.098260053 -0.40516505 0.054898292
-0.098433435 -0.4052712 0.054918267
-0.098600112 -0.40537351 0.054935958
-0.098758161 -0.40548089 0.054886803
-0.098924048 -0.40558687 0.054877967
-0.099087492 -0.40569276 0.054859921
-0.099267706 -0.40580142 0.054891407
-0.099431157 -0.40591276 0.054838754
-0.099589691 -0.40601844 0.05480228
-0.099765696 -0.4061217 0.054851077
-0.099949725 -0.40623623 0.054860618
-0.10006604 -0.40633565 0.054695152
-0.10024844 -0.4064413 0.054754298
-0.10042286 -0.40655175 0.054751202
-0.1005648 -0.40665463 0.054666355
-0.10075721 -0.40676478 0.054737002
-0.10090952 -0.40687019 0.054677479
-0.10108542 -0.40698266 0.054667447
-0.10122214 -0.40708333 0.054575704
-0.10139192 -0.40718848 0.054587625
-0.10156778 -0.40729764 0.054598354
-0.10173245 -0.40740249 0.054591846
-0.10189097 -0.40751019 0.054542679
-0.10209201 -0.40762359 0.054627124
-0.10224592 -0.40773094 0.054561824
-0.10239378 -0.40783262 0.054508097
-0.10254443 -0.40793625 0.054453205
-0.10275915 -0.40804648 0.054612558
-0.10286644 -0.40814731 0.054402135
-0.10305675 -0.4082585 0.054457795
-0.10322288 -0.40836555 0.054443195
-0.10339014 -0.40847439 0.054421671
-0.10355009 -0.40858081 0.05438634
-0.10373513 -0.40869012 0.054432794
-0.10388993 -0.40879601 0.054380182
-0.10403936 -0.40890288 0.054299925
-0.10422589 -0.40901259 0.054349821
-0.10439217 -0.40912154 0.054323692
-0.10455038 -0.4092263 0.054291829
-0.10474133 -0.40933847 0.054344025
-0.10489781 -0.40944469 0.054296017
-0.10506377 -0.40955216 0.054277956
-0.1052644 -0.40966588 0.054358944
-0.10541266 -0.40977108 0.054284453
-0.10555389 -0.40987533 0.054188076
-0.10574067 -0.40998739 0.05422413
-0.10590349 -0.41009307 0.054204937
-0.10607335 -0.41020444 0.054177642
-0.10624418 -0.41031137 0.054182634
-0.10640857 -0.41041893 0.054157663
-0.10659543 -0.4105314 0.054191414
-0.10674925 -0.41063905 0.054123819
-0.10690592 -0.41074556 0.05407466
-0.10709037 -0.41085634 0.054109573
-0.10724778 -0.41096151 0.054071952
-0.10742211 -0.41107392 0.054056168
-0.10759284 -0.41118276 0.054048467
-0.10775749 -0.41129068 0.054022346
-0.10792521 -0.41139764 0.05401466
-0.10809879 -0.41151008 0.053995419
-0.10826761 -0.4116188 0.053980809
-0.10844521 -0.41173056 0.05398231
-0.10860951 -0.41183862 0.053953879
-0.10877429 -0.4119468 0.053926606
-0.10893795 -0.41205481 0.053895868
-0.109128 -0.41217041 0.053922683
-0.10929026 -0.41227826 0.053887352
-0.10945618 -0.4123868 0.053862371
-0.10962259 -0.41249546 0.053838544
-0.10979594 -0.41260689 0.053825073
-0.10995645 -0.41271457 0.053783968
-0.1101584 -0.4128342 0.05383265
-0.11034276 -0.41294491 0.053867564
-0.11050195 -0.41305393 0.053812634
-0.11064814 -0.41315621 0.053748533
-0.1108357 -0.41327205 0.053763829
-0.11102806 -0.41338745 0.053801015
-0.11117975 -0.41349229 0.053742647
-0.11132915 -0.41360095 0.053650856
-0.11150777 -0.41371387 0.053648882
-0.11170772 -0.41383389 0.053687196
-0.11187282 -0.41393861 0.053682983
-0.11203559 -0.41404718 0.053645339
-0.11219336 -0.41415477 0.053593867
-0.11236219 -0.41426459 0.053572334
-0.1125422 -0.41437674 0.053580746
-0.11271553 -0.41449177 0.053544201
-0.11289498 -0.41460395 0.053550303
-0.11304921 -0.41471094 0.053488474
-0.11322115 -0.41482162 0.053473849
-0.11340863 -0.41493705 0.053491458
-0.11358173 -0.41504812 0.053479135
-0.11374643 -0.41515607 0.053453013
-0.11393249 -0.41527551 0.053439476
-0.11409126 -0.41538227 0.053397227
-0.11423114 -0.41548491 0.053305469
-0.11442771 -0.41560134 0.05335303
-0.11463714 -0.41572478 0.053407438
-0.029476143 -0.36464518 0.036865022
-0.029640146 -0.36475161 0.036845844
-0.029803153 -0.36485684 0.036830131
-0.02997186 -0.36496568 0.036814392
-0.030136853 -0.36507583 0.036775604
-0.030304085 -0.365183 0.03676448
-0.030465215 -0.36528832 0.036740705
-0.030628864 -0.36539307 0.036730759
-0.030794159 -0.36550012 0.036712725
-0.030958667 -0.3656083 0.036684323
-0.031120121 -0.36571258 0.036668617
-0.031284586 -0.36581892 0.036651745
-0.031444911 -0.36592191 0.036639504
-0.031610772 -0.36603042 0.036614548
-0.031772498 -0.36613557 0.036594231
-0.031934943 -0.36623973 0.036583129
-0.032097045 -0.36634567 0.036559347
-0.032259632 -0.36645031 0.036545947
-0.032420907 -0.36655754 0.036510628
-0.032584544 -0.36666173 0.036504142
-0.032742228 -0.36676216 0.036497686
-0.032898318 -0.36686265 0.036484305
-0.033063401 -0.36696923 0.03646858
-0.033225872 -0.36707667 0.036436729
-0.033389106 -0.36718315 0.036414094
-0.033545256 -0.36728206 0.036411095
-0.033704843 -0.36738369 0.036404628
-0.033866312 -0.36749032 0.036373928
-0.034023304 -0.36759305 0.036350161
-0.034185156 -0.36769828 0.036329843
-0.034343962 -0.36780161 0.03630954
-0.034502037 -0.36790174 0.03630653
-0.034659151 -0.36800289 0.036293156
-0.03482249 -0.36810851 0.036276288
-0.034977537 -0.3682093 0.036257152
-0.035137672 -0.3683129 0.036240295
-0.035294581 -0.36841667 0.036209617
-0.035458311 -0.36852345 0.036186978
-0.035613764 -0.36862302 0.036177069
-0.035770617 -0.36872238 0.036174066
-0.035926212 -0.3688224 0.036161851
-0.036087479 -0.36892855 0.036133453
-0.036248341 -0.36903423 0.036106218
-0.036401872 -0.36913404 0.036087088
-0.036559962 -0.36923346 0.036088698
-0.03671423 -0.36933464 0.036063794
-0.036874384 -0.3694399 0.036036562
-0.03702604 -0.36953744 0.036024354
-0.037182383 -0.36963719 0.036016751
-0.037340414 -0.36974221 0.035982601
-0.037495643 -0.36984053 0.035979614
-0.037651721 -0.36994287 0.035954703
-0.037809044 -0.37004471 0.035937864
-0.037961435 -0.37014163 0.035932582
-0.03811767 -0.37024203 0.035920359
-0.038272433 -0.37034553 0.035882764
-0.038429417 -0.3704448 0.03588092
-0.03858012 -0.37053955 0.035882566
-0.038736343 -0.37064052 0.035866883
-0.03889057 -0.37074113 0.03584544
-0.039045952 -0.37084374 0.035815921
-0.039199665 -0.3709411 0.035812933
-0.039354365 -0.3710402 0.035803027
-0.039507613 -0.37113982 0.035783902
-0.039663665 -0.37124139 0.035763599
-0.039818756 -0.37134439 0.035730619
-0.039971169 -0.37144312 0.035713807
-0.040123682 -0.37154502 0.035677366
-0.040278152 -0.37164178 0.035681307
-0.04043173 -0.3717458 0.035635643
-0.040584903 -0.37184066 0.035646498
-0.040735044 -0.37193632 0.035640076
-0.040887319 -0.37203279 0.035637096
-0.041039251 -0.37213176 0.035616823
-0.041193385 -0.37223467 0.035580389
-0.041347764 -0.3723352 0.035560094
-0.041498743 -0.37243304 0.035543285
-0.04165037 -0.37252909 0.035540309
-0.041800432 -0.37262562 0.035528116
-0.041951165 -0.37272349 0.035510149
-0.042102762 -0.3728199 0.03550487
-0.042253822 -0.37292176 0.035462681
-0.042406626 -0.37301749 0.035466619
-0.042556044 -0.3731136 0.035454426
-0.042707767 -0.37321082 0.035444539
-0.042859215 -0.37330768 0.035435788
-0.043011293 -0.37340909 0.035400514
-0.0431608 -0.37350601 0.035383713
-0.043311261 -0.37360153 0.035379589
-0.043464489 -0.37370569 0.035331618
-0.043617513 -0.37380973 0.035283655
-0.043761689 -0.37390071 0.035283022
-0.043913357 -0.37399223 0.035308886
-0.044062082 -0.37408864 0.035292082
-0.044212971 -0.37418589 0.035278723
-0.044363178 -0.37428197 0.035269991
-0.044511251 -0.37437761 0.035255499
-0.044660982 -0.37447664 0.035226006
-0.044810686 -0.37457585 0.035195351
-0.04495839 -0.37466761 0.035203934
-0.045107432 -0.37476587 0.035176743
-0.045257058 -0.37486175 0.035166863
-0.045404918 -0.37495798 0.035147749
-0.045551993 -0.37505281 0.03513442
-0.045702808 -0.37515163 0.035110682
-0.045850527 -0.37524813 0.035089269
-0.046000604 -0.37534976 0.035044774
-0.046147175 -0.37544426 0.035031445
-0.04629644 -0.37554064 0.035016946
-0.046442062 -0.37563348 0.035010535
-0.04659117 -0.37572575 0.035021421
-0.046734266 -0.37581334 0.035038095
-0.046884537 -0.37591255 0.035009749
-0.047029573 -0.37600464 0.035005651
-0.047178902 -0.37610215 0.034984231
-0.047323868 -0.37619874 0.034951288
-0.04747238 -0.37629047 0.034963328
-0.047617681 -0.37638381 0.034952309
-0.047763072 -0.37647301 0.034967821
-0.047907356 -0.37656879 0.034937195
-0.048054844 -0.37665862 0.034957308
-0.048198853 -0.37674949 0.034956675
-0.048346065 -0.37684351 0.034949109
-0.048486646 -0.37693113 0.034955412
-0.048633952 -0.37702084 0.034975529
-0.048774924 -0.37710962 0.034976058
-0.04891438 -0.37718982 0.035025056
-0.049055588 -0.3772693 0.035085566
-0.049198285 -0.37735245 0.035128776
-0.049340516 -0.37744984 0.035079703
-0.04947909 -0.3775171 0.035207137
-0.049616605 -0.37758115 0.035350725
-0.049756907 -0.37765205 0.035462007
-0.049889579 -0.37771851 0.035571016
-0.050028943 -0.3777861 0.035699595
-0.050166301 -0.37785333 0.035822421
-0.050303854 -0.37791485 0.035982165
-0.050439291 -0.37797558 0.036138456
-0.050571285 -0.37803179 0.036309756
-0.050705314 -0.3780871 0.036494888
-0.050839476 -0.37814194 0.036683481
-0.052874923 -0.37639928 0.055872012
-0.053038098 -0.3765392 0.055637125
-0.053201213 -0.37665868 0.055531435
-0.053364389 -0.3767795 0.055417679
-0.053534061 -0.37688386 0.055434227
-0.057425123 -0.37880734 0.058792438
-0.057570674 -0.37890431 0.058759492
-0.057740957 -0.37901905 0.058712613
-0.057909228 -0.37915018 0.05855383
-0.058077186 -0.3792327 0.058701903
-0.058272116 -0.37936956 0.058613375
-0.058434565 -0.37945572 0.058716483
-0.058600869 -0.37955886 0.05872729
-0.058739018 -0.3796322 0.058814347
-0.058912404 -0.37977293 0.058615178
-0.059118476 -0.37990025 0.058631577
-0.0592908 -0.38001701 0.058580056
-0.059456803 -0.38012087 0.0585851
-0.059595108 -0.38020745 0.058589108
-0.059757989 -0.38030788 0.058603387
-0.059942141 -0.38043502 0.058533367
-0.060101531 -0.38054615 0.058465753
-0.060261276 -0.3806406 0.058505431
-0.060426988 -0.38074464 0.058508158
-0.06059232 -0.38085592 0.0584636
-0.060761031 -0.38096094 0.058472082
-0.060923111 -0.38106978 0.058429848
-0.061076425 -0.38116488 0.058439557
-0.061257817 -0.38127065 0.058494128
-0.061428584 -0.38138843 0.05842993
-0.061575126 -0.381486 0.058396991
-0.061745685 -0.38160256 0.058339715
-0.06191095 -0.38170612 0.058343604
-0.0620884 -0.38181758 0.058346286
-0.062252469 -0.38193023 0.058287889
-0.062404849 -0.38202986 0.058265299
-0.062562592 -0.38213813 0.058209233
-0.062740035 -0.38224757 0.058224607
-0.062912196 -0.38234806 0.058275759
-0.06308125 -0.38246766 0.058193117
-0.063232638 -0.38255137 0.058267433
-0.063406326 -0.38266283 0.058255129
-0.063553236 -0.38277081 0.058157589
-0.063708387 -0.38287073 0.058144212
-0.063894488 -0.38298747 0.058148012
-0.064063415 -0.38310316 0.058089599
-0.064225607 -0.3832019 0.058111954
-0.064389475 -0.38330841 0.058091626
-0.064544208 -0.38340878 0.05807364
-0.064706422 -0.38350734 0.058097146
-0.06487035 -0.38361299 0.058082588
-0.065038033 -0.38371775 0.058088765
-0.065205403 -0.38382354 0.058086883
-0.065367974 -0.38393325 0.058041178
-0.065524623 -0.38403812 0.05800242
-0.065691806 -0.38415545 0.057926711
-0.065857045 -0.38425556 0.057952512
-0.066021249 -0.38434792 0.058023319
-0.066170365 -0.38446292 0.057889998
-0.066352434 -0.38457838 0.05788574
-0.06650579 -0.38467008 0.057917356
-0.066677526 -0.3847532 0.058076952
-0.066862106 -0.38490152 0.05787427
-0.067008585 -0.38500106 0.057828635
-0.067175001 -0.38509825 0.057877511
-0.067355722 -0.38520741 0.057907857
-0.067506507 -0.38530546 0.057888739
-0.067662992 -0.38540804 0.057863828
-0.067831159 -0.38552764 0.057777729
-0.067971952 -0.38562125 0.057747114
-0.068144538 -0.38573071 0.057742901
-0.068327159 -0.38584396 0.057754777
-0.068482123 -0.38594869 0.057710268
-0.068634778 -0.38605759 0.057630002
-0.068798944 -0.3861672 0.057591211
-0.068959221 -0.38626125 0.057635501
-0.06911578 -0.38636225 0.057620965
-0.069294058 -0.38646111 0.057706699
-0.069444671 -0.38656527 0.057648357
-0.06960012 -0.386675 0.057573847
-0.069768161 -0.38677052 0.057640012
-0.069924578 -0.38688508 0.057538968
-0.070087306 -0.3869825 0.057571713
-0.070262238 -0.38706779 0.057730131
-0.070429116 -0.38716602 0.057774387
-0.07059405 -0.38728648 0.057669841
-0.070759356 -0.3874059 0.057573367
-0.070916601 -0.38751152 0.057532303
-0.071074605 -0.38760978 0.057540838
-0.071247309 -0.38774225 0.057391271
-0.07142216 -0.38784751 0.057422798
-0.071574509 -0.38794711 0.057400212
-0.071725838 -0.38805372 0.057329185
-0.071894087 -0.38815591 0.057353824
-0.072050422 -0.38824475 0.057415422
-0.072208524 -0.38834834 0.057390511
-0.072378069 -0.38846025 0.057358615
-0.072542906 -0.38856667 0.057342894
-0.072711669 -0.3886739 0.057337545
-0.072872408 -0.38876897 0.057377212
-0.07303042 -0.38887763 0.057319991
-0.073207796 -0.38899103 0.057309985
-0.073369056 -0.38910097 0.057257362
-0.073510222 -0.38919136 0.057248674
-0.073671952 -0.38929561 0.057234116
-0.073831536 -0.38940194 0.057197653
-0.074004561 -0.38950479 0.057237275
-0.074165955 -0.38961411 0.057189263
-0.074342214 -0.3897188 0.057230014
-0.074511074 -0.38983047 0.057196971
-0.074668266 -0.38993403 0.057168603
-0.074817628 -0.39004451 0.057065278
-0.074970908 -0.3901467 0.05703
-0.075140454 -0.39025277 0.057035018
-0.075294249 -0.39035439 0.057005506
-0.075462915 -0.39045686 0.057030141
-0.075626001 -0.39055085 0.05708595
-0.075788982 -0.39065808 0.057057545
-0.075951457 -0.39076135 0.057052225
-0.076136418 -0.39088118 0.057031795
-0.076299809 -0.39098793 0.057008013
-0.076440923 -0.39109045 0.05692203
-0.076588154 -0.39118829 0.056890227
-0.076756276 -0.39129549 0.056882571
-0.076926835 -0.39139694 0.056921043
-0.077087887 -0.39149314 0.056954943
-0.07725133 -0.39159575 0.056957681
-0.077426516 -0.39170229 0.056982297
-0.077610835 -0.39182627 0.056933038
-0.077756301 -0.39193663 0.05681473
-0.077897258 -0.39202669 0.056807194
-0.078062363 -0.39213198 0.056799538
-0.078242481 -0.39224312 0.056814902
-0.078383215 -0.39234447 0.056734692
-0.07856328 -0.39244831 0.056796193
-0.078718491 -0.39255571 0.056735527
-0.078889497 -0.39266127 0.056749772
-0.079045646 -0.39276803 0.056697175
-0.079197891 -0.3928661 0.056683809
-0.079356365 -0.39296085 0.056716565
-0.079513796 -0.39306676 0.056674354
-0.079684332 -0.3931762 0.056662068
-0.079840422 -0.39326888 0.056698292
-0.080010824 -0.39338189 0.056662943
-0.080160022 -0.39348152 0.05662768
-0.080336459 -0.39358142 0.056699578
-0.080501616 -0.3936902 0.05667001
-0.080644563 -0.39379933 0.056549415
-0.080808185 -0.39390203 0.056552153
-0.080990843 -0.39400932 0.056602105
-0.081142306 -0.39410782 0.056582987
-0.081297569 -0.39421108 0.056548849
-0.081466191 -0.3943246 0.056503125
-0.081626296 -0.39442894 0.056481652
-0.081790321 -0.39452535 0.056525923
-0.081944101 -0.39462915 0.056482568
-0.082101926 -0.39474058 0.056406889
-0.082258016 -0.39484945 0.056340452
-0.082428962 -0.3949526 0.056369688
-0.082604773 -0.395051 0.056448519
-0.08274781 -0.39515856 0.056338295
-0.082920335 -0.39526436 0.056357153
-0.08310128 -0.39537621 0.05637135
-0.083254389 -0.395477 0.056344151
-0.083407097 -0.39557794 0.05631464
-0.08357776 -0.39567873 0.056357723
-0.083737686 -0.39578605 0.056316648
-0.083898805 -0.39589864 0.056246728
-0.084061943 -0.39601052 0.056189485
-0.084239155 -0.39610672 0.056287915
-0.08437933 -0.39620572 0.05622039
-0.08452224 -0.39630666 0.056151703
-0.084693335 -0.3964161 0.056141719
-0.084850922 -0.39651829 0.056123722
-0.085022204 -0.39661947 0.056166809
-0.085187964 -0.39673045 0.056125708
-0.08536347 -0.39683613 0.056157231
-0.085535333 -0.39694822 0.056133408
-0.085699454 -0.39704889 0.056151144
-0.085847206 -0.39714834 0.056111269
-0.086005911 -0.39725304 0.056081735
-0.086161248 -0.39735326 0.056067206
-0.086335391 -0.39746225 0.056072213
-0.086488992 -0.39756811 0.056015018
-0.086654499 -0.39767128 0.056022365
-0.086827829 -0.39777288 0.056071203
-0.086980119 -0.39789173 0.055926342
-0.087163568 -0.39799893 0.055979751
-0.087326273 -0.39809781 0.056003258
-0.087475494 -0.39820692 0.055908017
-0.087619275 -0.39830694 0.055848554
-0.087777615 -0.39840668 0.055849005
-0.087958604 -0.3985098 0.055918582
-0.088129655 -0.39860994 0.055967432
-0.088302389 -0.3987197 0.055962052
-0.088443033 -0.39882264 0.055871461
-0.088595197 -0.39893085 0.055793501
-0.088765912 -0.3990337 0.055823896
-0.088934749 -0.39914408 0.055798933
-0.089091167 -0.39924678 0.055772871
-0.089262381 -0.39935449 0.05577442
-0.089421697 -0.39945447 0.055777188
-0.089588359 -0.39955822 0.055785682
-0.089763418 -0.39966324 0.055819519
-0.08992444 -0.39977014 0.055785362
-0.09008535 -0.39988625 0.055692367
-0.090236261 -0.39998513 0.05566863
-0.090390712 -0.4000859 0.055647187
-0.090558276 -0.40019199 0.05564414
-0.090725072 -0.400296 0.055651486
-0.090890616 -0.40040466 0.055624228
-0.091059603 -0.40051076 0.055626947
-0.091214009 -0.40061384 0.05559051
-0.091382168 -0.40072453 0.055560932
-0.091547474 -0.40082887 0.055560201
-0.091698319 -0.40093225 0.05550763
-0.091839403 -0.40103421 0.055425107
-0.09202987 -0.40114748 0.055468105
-0.092195913 -0.40124974 0.055483531
-0.092364132 -0.4013519 0.05550817
-0.092521638 -0.40145913 0.055457868
-0.092681631 -0.40156195 0.055445638
-0.092834286 -0.40166518 0.055401128
-0.093010589 -0.40177554 0.055406116
-0.093177244 -0.40188017 0.055408847
-0.093347713 -0.40198886 0.05540118
-0.093498565 -0.40208808 0.055375133
-0.093641698 -0.40219587 0.055263765
-0.093797743 -0.4022969 0.055246927
-0.093980931 -0.40239906 0.055331491
-0.094164357 -0.40250954 0.055364132
-0.094303615 -0.40261325 0.055263165
-0.094469391 -0.40272024 0.055247441
-0.094645023 -0.4028331 0.055233978
-0.094804734 -0.40293625 0.055218279
-0.09497153 -0.40303934 0.055231392
-0.095132142 -0.40314853 0.055181086
-0.095301889 -0.40325364 0.055193026
-0.095459759 -0.40335894 0.055156574
-0.095638625 -0.40346217 0.055216927
-0.095812298 -0.40357143 0.055218466
-0.095953263 -0.40367678 0.055114031
-0.096109003 -0.40378016 0.055081047
-0.096295983 -0.40389341 0.05511022
-0.096455492 -0.40399882 0.05507952
-0.096617527 -0.40410236 0.055070736
-0.096762024 -0.40420374 0.055005498
-0.09694799 -0.40431347 0.055053137
-0.097099349 -0.40441501 0.055014405
-0.097278215 -0.40452099 0.055057447
-0.097422332 -0.40462613 0.054966841
-0.097596958 -0.40473396 0.054981068
-0.097756088 -0.40483767 0.054959603
-0.097925983 -0.40494362 0.054966938
-0.098099336 -0.40504795 0.054998472
-0.098263428 -0.40515932 0.054948151
-0.098419711 -0.40526485 0.054903623
-0.098593399 -0.40537667 0.05488902
-0.098750338 -0.40547863 0.054869875
-0.098915465 -0.40558285 0.054869145
-0.0990844 -0.40569091 0.054859173
-0.099268265 -0.40579987 0.054903362
-0.09942577 -0.40590382 0.054873832
-0.099574387 -0.40600726 0.054812036
-0.099743605 -0.4061155 0.054802068
-0.099907845 -0.40622172 0.054785199
-0.10010598 -0.40633729 0.054844301
-0.10024301 -0.40643471 0.054774493
-0.10041898 -0.40654013 0.054809473
-0.10058899 -0.4066487 0.054800659
-0.10073414 -0.40675539 0.054704279
-0.1009146 -0.40686655 0.054720789
-0.10106859 -0.40697047 0.054677423
-0.10124699 -0.40707815 0.054707784
-0.10137343 -0.40717635 0.054590724
-0.10153393 -0.40728253 0.054558869
-0.10171822 -0.40739429 0.054586906
-0.10188931 -0.40750155 0.054590765
-0.10204518 -0.40760574 0.054553162
-0.10220787 -0.40771061 0.054538611
-0.10236269 -0.40781304 0.054507934
-0.10253661 -0.40792245 0.054509483
-0.10269229 -0.4080267 0.054470729
-0.10286294 -0.40813586 0.054460749
-0.10300305 -0.40823847 0.054370154
-0.10317865 -0.40834656 0.054386687
-0.1033635 -0.40845579 0.054433171
-0.10353453 -0.40856355 0.054433569
-0.10368098 -0.40866852 0.054353334
-0.10385957 -0.40877724 0.054377925
-0.10402769 -0.40888479 0.054367959
-0.10417341 -0.40898967 0.054285415
-0.10434592 -0.40909782 0.05428927
-0.10453078 -0.40920758 0.054332294
-0.10470288 -0.40931582 0.054333851
-0.10488886 -0.40942591 0.054379169
-0.10502017 -0.409529 0.054250546
-0.10518131 -0.40963432 0.054226771
-0.10538664 -0.40974882 0.054321617
-0.10554021 -0.40985483 0.05426326
-0.10569967 -0.40996167 0.05422334
-0.10586385 -0.41007075 0.054188009
-0.10602948 -0.4101769 0.054176904
-0.10620252 -0.41028577 0.054178447
-0.10636032 -0.41039243 0.054132763
-0.10654128 -0.4105041 0.054148119
-0.10670938 -0.41061237 0.054133542
-0.1068647 -0.41071877 0.054079801
-0.10703637 -0.41082767 0.054075576
-0.10722152 -0.41093868 0.054111678
-0.10737701 -0.41104519 0.054057933
-0.10755813 -0.41115424 0.054090593
-0.10771566 -0.41126111 0.0540426
-0.10788765 -0.41137183 0.054028004
-0.1080643 -0.41148186 0.054036453
-0.10823563 -0.41159111 0.054028779
-0.10839614 -0.41169858 0.053988855
-0.10855668 -0.41180608 0.053948931
-0.1087216 -0.41191435 0.053921677
-0.10888822 -0.41202444 0.053889792
-0.10906281 -0.41213444 0.053890176
-0.10924555 -0.41224739 0.053904377
-0.10941641 -0.41235542 0.05390247
-0.10959108 -0.41246855 0.053883251
-0.1097481 -0.4125742 0.053841032
-0.10992374 -0.41268471 0.053842559
-0.11011007 -0.41279721 0.053874046
-0.11026895 -0.4129062 0.053817976
-0.11042292 -0.41301429 0.053748086
-0.11061168 -0.41313034 0.053766869
-0.11076832 -0.41323465 0.053731568
-0.11094967 -0.41334656 0.053746924
-0.11110677 -0.41345388 0.053694323
-0.11130615 -0.41357225 0.05374074
-0.11148683 -0.41368285 0.05376187
-0.11163634 -0.41378739 0.05369661
-0.11179321 -0.4138962 0.05363363
-0.11196281 -0.41400617 0.053614426
-0.11213791 -0.41411868 0.053600967
-0.11231561 -0.41422755 0.053620949
-0.11247836 -0.41433626 0.053582173
-0.11263944 -0.41444466 0.053538784
-0.11280787 -0.4145546 0.053514965
-0.11300127 -0.41467392 0.053531423
-0.11315881 -0.41477755 0.053504195
-0.11334297 -0.41489232 0.053512614
-0.11351907 -0.41500545 0.053499151
-0.11368331 -0.41511476 0.053462669
-0.1138594 -0.41522661 0.053457286
-0.11401834 -0.41533619 0.053397752
-0.11421491 -0.4154608 0.053393427
-0.11440887 -0.41557267 0.05345948
-0.11457921 -0.41567945 0.053463355
-0.11474051 -0.41579106 0.053400353
-0.029370613 -0.36457968 0.036858454
-0.029534701 -0.36468399 0.036853127
-0.02969512 -0.36478558 0.036850117
-0.029859412 -0.36489236 0.036829788
-0.030021634 -0.36499655 0.036817539
-0.03018418 -0.36510333 0.036790285
-0.030346252 -0.36520961 0.036764193
-0.03051516 -0.36531696 0.036758844
-0.030677158 -0.36542138 0.036744285
-0.030840538 -0.36552775 0.036722802
-0.031005535 -0.36563644 0.036693238
-0.031165317 -0.36574039 0.036672927
-0.031327195 -0.36584309 0.036668763
-0.031487375 -0.36594781 0.03664498
-0.031651188 -0.3660534 0.036630422
-0.031816937 -0.36616382 0.03659277
-0.03197819 -0.36626831 0.036574766
-0.03213834 -0.36637357 0.036547523
-0.032299221 -0.36647785 0.036529511
-0.03246155 -0.36657992 0.036531113
-0.032623071 -0.36668533 0.036508486
-0.032781731 -0.3667891 0.036484711
-0.032942854 -0.36689207 0.036475927
-0.033100449 -0.36699244 0.036469471
-0.033265553 -0.36710119 0.036439903
-0.033423286 -0.36720201 0.036431137
-0.033580806 -0.36730486 0.036408529
-0.033743445 -0.3674106 0.036388207
-0.033903569 -0.36751294 0.036379427
-0.034065053 -0.36761957 0.03634873
-0.03422023 -0.36771971 0.036334202
-0.034378812 -0.36782253 0.036316197
-0.034535855 -0.36792326 0.036305122
-0.034695003 -0.36802718 0.036282506
-0.034855761 -0.36813354 0.036250651
-0.035013374 -0.3682332 0.036248814
-0.035173766 -0.36833933 0.036216963
-0.035330646 -0.36844054 0.036202427
-0.035485607 -0.36853907 0.036197133
-0.035647221 -0.36864269 0.036186047
-0.035803854 -0.3687439 0.036170363
-0.03596488 -0.36884937 0.036145426
-0.036119461 -0.36894783 0.036138974
-0.036279719 -0.36905244 0.036116354
-0.03643547 -0.3691529 0.036101833
-0.036597051 -0.3692598 0.036069974
-0.036752142 -0.36936206 0.036041606
-0.036908928 -0.36945954 0.036050145
-0.037062094 -0.36956167 0.036014866
-0.037216827 -0.36965877 0.036017653
-0.037374672 -0.36976075 0.036001962
-0.037532963 -0.36986357 0.03598281
-0.037685052 -0.3699621 0.035965987
-0.037843216 -0.37006503 0.035945676
-0.037998203 -0.37016574 0.035926539
-0.038155451 -0.37026754 0.035909705
-0.038308762 -0.37036592 0.035898648
-0.038465887 -0.37046784 0.035880651
-0.038618725 -0.37056574 0.035870753
-0.038775742 -0.37066776 0.035851609
-0.038928121 -0.37076792 0.035825562
-0.039082948 -0.37086672 0.035817958
-0.039235394 -0.37096459 0.035806905
-0.039393447 -0.37106887 0.035777375
-0.039546341 -0.37116775 0.035761707
-0.039705381 -0.37127119 0.035741393
-0.039857693 -0.37136659 0.035745341
-0.040010881 -0.37146637 0.035725065
-0.040166862 -0.37156808 0.035703611
-0.040321801 -0.37166825 0.035687935
-0.040471587 -0.37176567 0.035668813
-0.040625375 -0.3718642 0.035658915
-0.040777296 -0.37196264 0.035642091
-0.040933877 -0.37206617 0.035611417
-0.041084647 -0.37216297 0.035600372
-0.041237891 -0.37226114 0.035590474
-0.041387811 -0.37235975 0.03556443
-0.041544728 -0.37246463 0.03552682
-0.041694432 -0.3725571 0.035538863
-0.041848756 -0.37265468 0.035537034
-0.041996814 -0.37275067 0.035520229
-0.042150866 -0.37285116 0.035498787
-0.04230107 -0.37294814 0.035484284
-0.042454518 -0.37304792 0.035465155
-0.042608954 -0.37315282 0.035417177
-0.042759139 -0.37324381 0.035440747
-0.042911731 -0.37335229 0.035362773
-0.043065473 -0.37345004 0.035357486
-0.04321159 -0.37353718 0.035389159
-0.043364793 -0.3736375 0.03536541
-0.043513943 -0.37373382 0.035350911
-0.04366526 -0.37383094 0.035339862
-0.043814167 -0.37392712 0.035325363
-0.043966804 -0.37402707 0.035301629
-0.04411573 -0.37412363 0.035284821
-0.04426467 -0.37422034 0.035266861
-0.04441417 -0.37431833 0.035243131
-0.044565547 -0.37441662 0.03522516
-0.044713832 -0.37451619 0.035186443
-0.044863991 -0.37460878 0.035199635
-0.045013532 -0.37470388 0.035194363
-0.045162499 -0.37480173 0.035169475
-0.045310795 -0.3748984 0.03514922
-0.045461044 -0.37499925 0.035110481
-0.045606896 -0.37508747 0.035134073
-0.045757286 -0.3751851 0.03511611
-0.045906711 -0.37528488 0.035080846
-0.046057072 -0.37538287 0.035060573
-0.046204478 -0.37547481 0.035066854
-0.046350934 -0.37556887 0.035055827
-0.046498492 -0.37566546 0.035033256
-0.046649545 -0.37576571 0.035001446
-0.04679402 -0.37586015 0.034980047
-0.04694188 -0.37595385 0.03497709
-0.047090232 -0.37604874 0.034968365
-0.047236443 -0.37613901 0.034980413
-0.047381036 -0.37623009 0.034980938
-0.04753077 -0.37632859 0.034954894
-0.047677591 -0.37642509 0.034930024
-0.047823295 -0.37651923 0.034915544
-0.047970299 -0.37661201 0.034914907
-0.048116896 -0.37670398 0.034917723
-0.048260577 -0.37679848 0.034892868
-0.048407834 -0.37689233 0.03488645
-0.048552372 -0.37697971 0.034910049
-0.048699975 -0.37707469 0.034897868
-0.048842348 -0.37716183 0.034914546
-0.048988134 -0.37725255 0.034921985
-0.04912835 -0.37733942 0.034931753
-0.049274705 -0.37742668 0.034963414
-0.049415559 -0.37751013 0.034997411
-0.0495589 -0.37759477 0.035033707
-0.049700219 -0.37767941 0.035061922
-0.049838424 -0.37775573 0.035130545
-0.049975049 -0.37782758 0.035221092
-0.050117645 -0.3779043 0.035304692
-0.05025455 -0.37797633 0.035395235
-0.050396822 -0.37805155 0.035486907
-0.050532602 -0.3781198 0.035597067
-0.050670907 -0.37818888 0.03571184
-0.050807662 -0.37825298 0.035851993
-0.050946325 -0.37831596 0.03600714
-0.051084355 -0.37837631 0.03617613
-0.051217608 -0.37843421 0.036341682
-0.053205866 -0.37626308 0.058058791
-0.05337875 -0.37639239 0.057929978
-0.053555209 -0.37652722 0.05778037
-0.053727176 -0.37665522 0.057656169
-0.053898498 -0.37678155 0.057540052
-0.054060597 -0.37686402 0.057665095
-0.054223243 -0.37693465 0.057867434
-0.058370642 -0.37938988 0.058878407
-0.058516543 -0.37949762 0.05877855
-0.058674321 -0.37960663 0.058717862
-0.058856871 -0.37974095 0.058595922
-0.059026301 -0.37984535 0.058611333
-0.059207983 -0.37995291 0.058655534
-0.0593713 -0.38005906 0.058635198
-0.059546836 -0.38019806 0.058455609
-0.05970059 -0.38029745 0.058439933
-0.059866987 -0.38037646 0.058604188
-0.060017783 -0.38047072 0.058609296
-0.06020445 -0.38062328 0.058388121
-0.060389157 -0.38072804 0.058462299
-0.06055858 -0.38082424 0.058529627
-0.060721468 -0.38092631 0.058533527
-0.060878251 -0.38102344 0.058544375
-0.061037421 -0.38113242 0.058489457
-0.0611999 -0.38123825 0.058467984
