# .PCD v0.7 - Point Cloud Data file format
VERSION 0.7
FIELDS x y z
SIZE 4 4 4
TYPE F F F
COUNT 1 1 1
WIDTH 995
HEIGHT 1
VIEWPOINT 0 0 0 1 0 0 0
POINTS 995
DATA ascii
-0.3448751 -0.28417641 0.061364524
-0.34509632 -0.28415698 0.061356485
-0.34533486 -0.28414556 0.061278008
-0.34553978 -0.28412056 0.061321944
-0.34576479 -0.28410456 0.061286207
-0.34598935 -0.2840867 0.061264306
-0.34621418 -0.28407088 0.061227418
-0.34641725 -0.2840454 0.061275966
-0.34661084 -0.28401828 0.061343014
-0.3468664 -0.28401223 0.061213724
-0.34707877 -0.2839922 0.061216109
-0.34731284 -0.28397849 0.061157268
-0.34753659 -0.28396294 0.061119229
-0.34776503 -0.28394741 0.061077707
-0.34797528 -0.28392693 0.06108471
-0.34818831 -0.28390574 0.061095156
-0.34839335 -0.28388339 0.061119482
-0.34862089 -0.28386796 0.061077975
-0.34885013 -0.28385517 0.061015692
-0.34905994 -0.28383303 0.061035376
-0.34927893 -0.28381646 0.061007746
-0.34947014 -0.28378704 0.061093252
-0.34971315 -0.28378025 0.060977865
-0.34994465 -0.28376713 0.060916729
-0.35015798 -0.28374875 0.060906418
-0.35034892 -0.28371933 0.060991935
-0.35058334 -0.2837097 0.060903102
-0.35078871 -0.28368828 0.060920514
-0.35101381 -0.2836751 0.060864016
-0.35121754 -0.28365114 0.060901031
-0.3514483 -0.28364059 0.060821451
-0.35165697 -0.28361884 0.060838845
-0.35187411 -0.28360277 0.060808912
-0.35210127 -0.28359115 0.060739726
-0.35231492 -0.28357384 0.060721345
-0.35246989 -0.28354335 0.060839318
-0.35272053 -0.28352797 0.06078155
-0.35295293 -0.28351918 0.060688119
-0.35311973 -0.28348142 0.060851011
-0.35337248 -0.2834799 0.060690593
-0.35358974 -0.28346476 0.060653746
-0.35378951 -0.28343976 0.060701162
-0.35401618 -0.28342912 0.060625061
-0.35423103 -0.28342807 0.060486749
-0.35443166 -0.28342283 0.060388867
-0.3546519 -0.28337559 0.060584925
-0.3548654 -0.28335941 0.060558468
-0.35507643 -0.28334215 0.060541261
-0.35529202 -0.28332719 0.060504422
-0.35549024 -0.28330183 0.060555309
-0.35570136 -0.2832849 0.060535777
-0.35590962 -0.28326666 0.060527809
-0.35612774 -0.28325337 0.060477111
-0.35634398 -0.28323928 0.060433343
-0.35654846 -0.28321949 0.060439222
-0.35675931 -0.28320071 0.060433537
-0.35697657 -0.28318745 0.060382858
-0.35716957 -0.28316212 0.060437225
-0.35738301 -0.28314719 0.060401544
-0.35759211 -0.28313014 0.060384333
-0.35781527 -0.28312045 0.060303643
-0.35802516 -0.28310174 0.060297966
-0.35823599 -0.28308594 0.060270373
-0.35844916 -0.28307152 0.060231235
-0.35864696 -0.28304905 0.060261365
-0.35885879 -0.28303409 0.06022685
-0.35906518 -0.28301635 0.060216568
-0.3592653 -0.28299287 0.060252454
-0.35948277 -0.28298134 0.060189079
-0.35967726 -0.28295729 0.060233064
-0.35986856 -0.28293148 0.06029205
-0.36010048 -0.28292838 0.06015712
-0.36030293 -0.28290895 0.060161859
-0.36050549 -0.28288966 0.060165439
-0.36071083 -0.28287202 0.060155161
-0.3608388 -0.28284004 0.060302116
-0.36112061 -0.28283647 0.060136944
-0.36130705 -0.28282842 0.060069118
-0.36148852 -0.28281504 0.060043979
-0.36174324 -0.28278857 0.060064591
-0.36192271 -0.28276637 0.060105193
-0.36216697 -0.28276247 0.059967883
-0.36236551 -0.28274149 0.059986476
-0.36252031 -0.28272283 0.060017981
-0.36276031 -0.28271428 0.059917592
-0.3629823 -0.28268939 0.05994875
-0.36319774 -0.28267932 0.059876159
-0.36338571 -0.28265744 0.059908643
-0.36360177 -0.28264812 0.059830286
-0.36379918 -0.28262693 0.059851207
-0.36398798 -0.28261128 0.05983755
-0.36420932 -0.28258914 0.059849113
-0.364407 -0.28256825 0.05986771
-0.36461207 -0.28255236 0.059844762
-0.36482045 -0.28254452 0.059760675
-0.36499804 -0.2825332 0.059722878
-0.36519712 -0.28250495 0.059794515
-0.36543947 -0.2824949 0.059703331
-0.36562654 -0.28247294 0.059736982
-0.36584172 -0.28245896 0.059693217
-0.3660455 -0.28244004 0.059693336
-0.36624882 -0.28242382 0.059673857
-0.36645332 -0.2824086 0.059646294
-0.36662441 -0.28239346 0.059640817
-0.36681947 -0.28237456 0.059646741
-0.36702904 -0.28235415 0.059653744
-0.36725992 -0.28234044 0.059597224
-0.36745653 -0.28231981 0.059614673
-0.36766243 -0.28230637 0.05957327
-0.36786747 -0.28229237 0.059536487
-0.36806706 -0.28227431 0.059533164
-0.36826998 -0.2822589 0.059507921
-0.36846936 -0.28224087 0.059504598
-0.36866885 -0.28222296 0.059500121
-0.36886051 -0.28220546 0.059497997
-0.36908519 -0.28220162 0.059373476
-0.36927381 -0.28217512 0.059439398
-0.36947474 -0.28215882 0.059422225
-0.36964381 -0.28214324 0.059421375
-0.36985558 -0.28213286 0.059353411
-0.37006551 -0.28211069 0.059373107
-0.37023863 -0.28208828 0.059419505
-0.3704733 -0.28208071 0.059315681
-0.37065142 -0.28205925 0.059351675
-0.37088317 -0.28204957 0.059265167
-0.37107027 -0.282029 0.059288427
-0.37124661 -0.28201702 0.059256401
-0.37144071 -0.28199932 0.059254266
-0.3716802 -0.28198275 0.059212692
-0.37184152 -0.2819646 0.059236083
-0.37205508 -0.28195423 0.05916696
-0.37224585 -0.28193367 0.059187911
-0.37243298 -0.28191736 0.059180032
-0.37263885 -0.28189996 0.059167456
-0.37284866 -0.28188664 0.05912257
-0.3730413 -0.28187218 0.059097387
-0.3732287 -0.28185257 0.059113726
-0.37345311 -0.28183016 0.059125274
-0.37363383 -0.28181604 0.059105903
-0.37384075 -0.28179619 0.059110623
-0.37404314 -0.28178433 0.059060007
-0.37423956 -0.2817705 0.059027866
-0.37442076 -0.281753 0.059032723
-0.37463161 -0.2817336 0.059031643
-0.37483889 -0.28171465 0.059029434
-0.37502867 -0.2817027 0.058988117
-0.37522754 -0.28168783 0.058961742
-0.3754493 -0.28167245 0.05892371
-0.37564242 -0.28165576 0.058914654
-0.37582496 -0.28163579 0.05893679
-0.37602049 -0.2816222 0.058903508
-0.37622806 -0.28160924 0.058857486
-0.37641981 -0.28159124 0.058858819
-0.37661636 -0.28156951 0.058884338
-0.37682423 -0.28155747 0.058831394
-0.37701097 -0.28153822 0.058845438
-0.3772065 -0.28152555 0.058805235
-0.37740496 -0.28151184 0.058770791
-0.37761974 -0.28149426 0.05875355
-0.37781411 -0.28147528 0.058760628
-0.37799776 -0.28145739 0.058766626
-0.37818804 -0.28143814 0.058778342
-0.37839013 -0.28142488 0.058738105
-0.37858477 -0.28141215 0.058699064
-0.37879911 -0.28139478 0.058680676
-0.3790001 -0.2813805 0.058648527
-0.37918302 -0.28136209 0.058659129
-0.37938455 -0.28134903 0.058617741
-0.37957072 -0.28132984 0.058631785
-0.3797642 -0.28131643 0.058598515
-0.37995487 -0.28129855 0.058599852
-0.38014773 -0.28128442 0.058572352
-0.38034284 -0.28126785 0.05856099
-0.38053373 -0.2812506 0.058557708
-0.38072833 -0.28123331 0.058552101
-0.3809517 -0.28122044 0.058494467
-0.38113946 -0.28121182 0.058430091
-0.38133225 -0.28119171 0.058446415
-0.38153261 -0.28116426 0.058511116
-0.38173249 -0.28115058 0.058475517
-0.38192484 -0.28113711 0.058443397
-0.38212699 -0.28112084 0.058425084
-0.3823159 -0.2811085 0.058387212
-0.38251695 -0.28109029 0.058383886
-0.3827067 -0.28107202 0.058388688
-0.38289735 -0.28105572 0.058378495
-0.3831006 -0.28104299 0.05833365
-0.38330248 -0.28102723 0.058311868
-0.38347965 -0.28100586 0.058347866
-0.3836666 -0.28099021 0.058335382
-0.38387236 -0.28097537 0.058304358
-0.38407061 -0.28097034 0.058206491
-0.38428438 -0.28094795 0.058225006
-0.38445902 -0.28092983 0.058239106
-0.38463488 -0.2809045 0.058305092
-0.38485572 -0.28089172 0.058248628
-0.38505194 -0.28087175 0.058261465
-0.38525137 -0.28086203 0.058197029
-0.38545159 -0.28084344 0.058197163
-0.38562965 -0.28082451 0.058214705
-0.38581023 -0.28081435 0.058166515
-0.38602689 -0.2807892 0.058203466
-0.38619202 -0.28076294 0.058283348
-0.38642544 -0.28075957 0.058149554
-0.38661295 -0.28073457 0.058205102
-0.38678929 -0.28072369 0.058164995
-0.38698041 -0.28071412 0.058105219
-0.38716799 -0.28070566 0.058039695
-0.38736397 -0.28068605 0.058050234
-0.3875607 -0.28067014 0.058033086
-0.38775492 -0.2806606 0.057970986
-0.38795245 -0.28065026 0.057912327
-0.38814843 -0.2806316 0.057915941
-0.38834524 -0.28061834 0.057879191
-0.38853773 -0.28060094 0.057875905
-0.38873476 -0.28059036 0.05781956
-0.38892359 -0.2805731 0.057817452
-0.38912591 -0.28054848 0.05786024
-0.38931933 -0.28054029 0.05778892
-0.38951182 -0.28052458 0.057772949
-0.38970703 -0.28049952 0.057823848
-0.38990328 -0.28048602 0.057789404
-0.3901135 -0.28046885 0.057772197
-0.39029849 -0.28044915 0.057790857
-0.39048374 -0.28043461 0.057771467
-0.39066818 -0.28039917 0.057905447
-0.39085457 -0.28042078 0.057620827
-0.39106068 -0.28039327 0.057682056
-0.39125633 -0.28037068 0.057714503
-0.3914485 -0.28035691 0.057684697
-0.39164767 -0.28034425 0.057642169
-0.39184332 -0.28032416 0.057656169
-0.39203182 -0.28030854 0.057642527
-0.39221677 -0.28029135 0.057642736
-0.39241201 -0.28028157 0.057581782
-0.39260772 -0.28026086 0.057600394
-0.39279965 -0.28024507 0.057585582
-0.39300248 -0.28022417 0.057600692
-0.39319766 -0.28021124 0.057562802
-0.39338586 -0.28019628 0.057544548
-0.39357468 -0.28017509 0.057571262
-0.39377335 -0.2801609 0.057540271
-0.39397624 -0.28014016 0.057554234
-0.39416638 -0.2801365 0.0574518
-0.39434993 -0.28012794 0.057389744
-0.39454272 -0.28010404 0.057433736
-0.39473891 -0.28008139 0.057466179
-0.3949371 -0.28006819 0.057428278
-0.39511716 -0.28005791 0.057381239
-0.39531606 -0.28003991 0.05737792
-0.3955054 -0.28001741 0.057413857
-0.39569655 -0.28000361 0.057385214
-0.39589199 -0.27998558 0.057384223
-0.39608249 -0.27997419 0.057338279
-0.39627704 -0.27995989 0.057310767
-0.39647204 -0.2799435 0.057298243
-0.39665708 -0.27992535 0.057305381
-0.396864 -0.27991638 0.057230525
-0.39706355 -0.27989563 0.057246812
-0.39725253 -0.27987587 0.057263143
-0.39743975 -0.2798624 0.057234518
-0.39763123 -0.27984601 0.057224318
-0.39781839 -0.27983242 0.057196844
-0.3980051 -0.27982008 0.057160158
-0.39820153 -0.27979887 0.057182215
-0.39840448 -0.27977905 0.057189263
-0.39859599 -0.27976251 0.057180215
-0.39878422 -0.27975526 0.057105463
-0.39897078 -0.27974266 0.057071075
-0.3991687 -0.27971795 0.057117343
-0.39934734 -0.27970812 0.057068001
-0.39955235 -0.2796919 0.057047363
-0.39973998 -0.27967638 0.057033718
-0.3999269 -0.27966246 0.057008553
-0.40012524 -0.27964577 0.056996014
-0.40031406 -0.27962726 0.057003129
-0.40050253 -0.27960974 0.057003319
-0.40070444 -0.27959272 0.056990765
-0.40089464 -0.27957898 0.056962125
-0.40107444 -0.27956557 0.056938153
-0.40127078 -0.2795459 0.056948692
-0.40146747 -0.27951849 0.057015721
-0.40167347 -0.27950725 0.056958172
-0.40185013 -0.2795001 0.056890391
-0.40203065 -0.27949184 0.056828361
-0.40222174 -0.27947596 0.056814708
-0.4024058 -0.27947351 0.056707684
-0.40259355 -0.27945733 0.056698654
-0.40278888 -0.27943963 0.056695364
-0.40298736 -0.27941632 0.056731254
-0.40319234 -0.27939364 0.056757879
-0.40338209 -0.2793861 0.056684271
-0.40356892 -0.27937174 0.056662574
-0.4037779 -0.27934822 0.056692638
-0.40397188 -0.27932751 0.056712408
-0.40415728 -0.27931565 0.056673419
-0.40433863 -0.27930477 0.056629829
-0.40453452 -0.27928656 0.056629986
-0.40472376 -0.27927905 0.056556378
-0.40492338 -0.279255 0.056596883
-0.40511519 -0.27923813 0.05659014
-0.40530691 -0.27922142 0.056582242
-0.40549231 -0.27920923 0.056545559
-0.40567839 -0.27920088 0.056480043
-0.40586603 -0.27918032 0.056503296
-0.40607655 -0.2791557 0.056540284
-0.40627185 -0.27913883 0.056531221
-0.40646407 -0.27912158 0.056526784
-0.40664598 -0.27910957 0.056491259
-0.40684575 -0.27909115 0.056490246
-0.40702882 -0.27907744 0.056466259
-0.40722486 -0.27906868 0.056397226
-0.40741029 -0.27905178 0.056395136
-0.4076007 -0.27903265 0.056405701
-0.40779838 -0.27901286 0.056416221
-0.40799376 -0.27899614 0.056406006
-0.40822512 -0.27895465 0.056552429
-0.40845919 -0.27892709 0.056595061
-0.40864173 -0.27889785 0.056685224
-0.40882307 -0.2788786 0.056702755
-0.40902781 -0.27885109 0.056765128
-0.40924957 -0.27881128 0.056905832
-0.40947571 -0.27877468 0.057020001
-0.40967834 -0.27874279 0.057115827
-0.40984598 -0.27871728 0.057188779
-0.41004705 -0.27869165 0.057239648
-0.41026613 -0.27865699 0.057344615
-0.4104788 -0.2786262 0.05742541
-0.4106876 -0.27859262 0.057529282
-0.41089129 -0.27855763 0.05764702
-0.41109192 -0.27852276 0.05776592
-0.41129678 -0.2784946 0.057832912
-0.41151607 -0.27846178 0.057924047
-0.41172716 -0.27842739 0.058032516
-0.4119519 -0.27839297 0.058131699
-0.4121694 -0.27835244 0.058280498
-0.41234276 -0.2783379 0.058269233
-0.33468649 -0.28499129 0.062321063
-0.33491072 -0.28496891 0.062332593
-0.33521169 -0.28496781 0.062136237
-0.33542246 -0.28494194 0.062182434
-0.33565319 -0.2849232 0.062162805
-0.33589539 -0.28490624 0.062122378
-0.33612007 -0.28488603 0.06211777
-0.3363407 -0.28486317 0.062135085
-0.33659288 -0.28484941 0.06206464
-0.33681807 -0.28482804 0.062068097
-0.33703601 -0.28480464 0.062091198
-0.33726329 -0.28478402 0.06208773
-0.33749813 -0.28476727 0.062050797
-0.33765328 -0.2847352 0.062180266
-0.33782509 -0.28471747 0.062193222
-0.33817342 -0.2847043 0.062053107
-0.33843383 -0.2846956 0.061939962
-0.33866969 -0.2846781 0.061907634
-0.33890244 -0.28465983 0.06188339
-0.33912098 -0.28463733 0.061899565
-0.33935076 -0.28461996 0.061870731
-0.3395867 -0.28460294 0.061834939
-0.33980978 -0.28458208 0.061836109
-0.34001073 -0.28455442 0.061901942
-0.34022474 -0.28453252 0.061916988
-0.34048113 -0.28452229 0.061817694
-0.34071079 -0.28451374 0.061724298
-0.34094706 -0.28448758 0.061755374
-0.34118742 -0.2844744 0.061688442
-0.34139824 -0.28445026 0.061721943
-0.34163293 -0.28443384 0.061682716
-0.34184536 -0.28441033 0.06171044
-0.34205031 -0.2843861 0.061748587
-0.34227642 -0.28436717 0.061733603
-0.34253365 -0.28435859 0.061621621
-0.34276623 -0.28434205 0.061584696
-0.34298077 -0.28433159 0.061515596
-0.34320074 -0.28430077 0.061591707
-0.34342086 -0.28428033 0.061591733
-0.34365207 -0.28426376 0.061555974
-0.34384999 -0.28423765 0.061612606
-0.34409708 -0.28422672 0.061524883
-0.3443383 -0.28421396 0.061454482
-0.34454015 -0.28418764 0.061509937
-0.34475619 -0.28416806 0.061506536
-0.34498239 -0.28415036 0.061482325
-0.34521011 -0.28413332 0.061452344
-0.34543654 -0.28411594 0.06142582
-0.34565735 -0.28409845 0.061403945
-0.34586114 -0.2840803 0.061398298
-0.34609842 -0.28406176 0.061372876
-0.34631944 -0.28404281 0.061361372
-0.34654367 -0.28402516 0.061338335
-0.34676322 -0.28400588 0.061330296
-0.34699154 -0.28399175 0.061278403
-0.34720156 -0.2839691 0.061301544
-0.34741154 -0.28394836 0.061310846
-0.34762368 -0.28392661 0.0613259
-0.34786567 -0.28391629 0.061237052
-0.34809104 -0.28389978 0.061204784
-0.34830263 -0.28388 0.061206006
-0.34853441 -0.2838662 0.061149493
-0.34875476 -0.28384998 0.061118394
-0.34897652 -0.28383255 0.061095357
-0.34918514 -0.28381005 0.061118506
-0.34942132 -0.28379852 0.061042368
-0.34962922 -0.2837778 0.061052836
-0.34985334 -0.28376171 0.061018251
-0.35005948 -0.28373849 0.061048333
-0.35029387 -0.28372681 0.060974509
-0.35049504 -0.28371537 0.060921609
-0.35070786 -0.28368333 0.06101159
-0.35093138 -0.2836695 0.060960881
-0.35115325 -0.28365317 0.060929775
-0.35137305 -0.28363609 0.060905598
-0.35158256 -0.28361472 0.060919516
-0.35179445 -0.28359649 0.060909212
-0.35201457 -0.28357983 0.060881585
-0.35222879 -0.28356072 0.06087587
-0.35244074 -0.28354073 0.060878243
-0.35266358 -0.28352761 0.06082293
-0.35287726 -0.28350854 0.060817234
-0.35309222 -0.28349221 0.06079077
-0.35331345 -0.28347671 0.060753912
-0.35351846 -0.28345406 0.060780525
-0.3537558 -0.28344607 0.060677867
-0.35395089 -0.28342116 0.060727596
-0.35414925 -0.28339565 0.060779609
-0.35438833 -0.28338891 0.060666569
-0.35459188 -0.28336591 0.060696658
-0.35477832 -0.28333706 0.060781009
-0.35501343 -0.28332895 0.060680673
-0.35524398 -0.28331891 0.060597658
-0.35547388 -0.28330874 0.060515784
-0.35567102 -0.28328523 0.060553968
-0.3558788 -0.2832647 0.060563289
-0.35609111 -0.2832464 0.060552977
-0.35629919 -0.28322613 0.060559992
-0.35651386 -0.28321138 0.060522009
-0.35671899 -0.28318983 0.060540557
-0.35694766 -0.28318009 0.060456388
-0.35713857 -0.28315148 0.060536109
-0.35734594 -0.28313348 0.060526989
-0.35755095 -0.28311208 0.060544379
-0.3577818 -0.28310406 0.060446367
-0.35799423 -0.28308669 0.060429141
-0.35821244 -0.2830748 0.060368083
-0.3584151 -0.28305486 0.060376272
-0.35862276 -0.28303525 0.060378678
-0.35883027 -0.28301567 0.060381074
-0.35905713 -0.28300658 0.060293458
-0.35925508 -0.28298441 0.060321264
-0.35946071 -0.28296405 0.060330588
-0.35970193 -0.28297555 0.060082667
-0.3599056 -0.28294465 0.060170393
-0.36009482 -0.28291541 0.060255881
-0.36031267 -0.28290227 0.060204048
-0.36052722 -0.28288993 0.060148776
-0.36072469 -0.28286543 0.060193874
-0.3609283 -0.28284448 0.060208984
-0.3611384 -0.28282732 0.060191769
-0.36135313 -0.28281558 0.060131878
-0.36155799 -0.28279561 0.060138904
-0.36176658 -0.2827805 0.060107864
-0.36193171 -0.28275236 0.060201555
-0.36218041 -0.28274599 0.060079247
-0.3623949 -0.28273222 0.060034342
-0.3625747 -0.28271046 0.060071468
-0.36274105 -0.28269106 0.060100593
-0.36301556 -0.28268829 0.059934337
-0.36321887 -0.28265995 0.060003623
-0.36341664 -0.28263891 0.060023367
-0.36359924 -0.28260538 0.060144629
-0.36381513 -0.28260708 0.059985589
-0.36400005 -0.28259447 0.059952371
-0.36418059 -0.28257909 0.059942227
-0.3644442 -0.28257671 0.05978065
-0.36465406 -0.28254163 0.059894852
-0.36483076 -0.28252393 0.059904326
-0.36505181 -0.282502 0.05991473
-0.36527342 -0.28248632 0.059879012
-0.36548099 -0.2824727 0.059837602
-0.36567065 -0.28245553 0.059834331
-0.36583003 -0.2824437 0.059812769
-0.36608329 -0.28241533 0.059848372
-0.36628056 -0.2823948 0.059864648
-0.36649552 -0.28238413 0.059796691
-0.36670002 -0.28236908 0.05976798
-0.36690691 -0.28235286 0.059746176
-0.36710396 -0.28234181 0.059693296
-0.3673192 -0.28232276 0.05968643
-0.36750978 -0.28231025 0.059648573
-0.36771721 -0.28229177 0.059642904
-0.36791119 -0.28227895 0.059605025
-0.36811939 -0.2822645 0.059569381
-0.36833319 -0.28224164 0.059591345
-0.36853665 -0.2822237 0.059584543
-0.36873549 -0.28220537 0.059583526
-0.36894679 -0.28219396 0.059523653
-0.36915261 -0.28218162 0.059474189
-0.36933684 -0.28215834 0.059519365
-0.36952841 -0.28213769 0.059540287
-0.36973229 -0.28211719 0.059551928
-0.36994928 -0.28210443 0.059497789
-0.37015751 -0.28209487 0.059426408
-0.37034795 -0.28207356 0.059453104
-0.37055874 -0.28205949 0.059412837
-0.37075552 -0.28205115 0.059340354
-0.37093461 -0.2820307 0.059368264
-0.37114021 -0.2820124 0.059362605
-0.37134129 -0.28199372 0.059362724
-0.3715581 -0.28198224 0.059299372
-0.37176505 -0.28196177 0.059308693
-0.371948 -0.28194901 0.059277788
-0.3721174 -0.28193104 0.059294213
-0.37235153 -0.2819216 0.059204254
-0.37252644 -0.28189746 0.059262156
-0.37273192 -0.28187585 0.059280705
-0.37293461 -0.28186348 0.059233554
-0.37315005 -0.28184411 0.059228998
-0.37336239 -0.28183386 0.059159901
-0.37355059 -0.28181526 0.05916816
-0.37375879 -0.28180113 0.059130207
-0.37394044 -0.28178409 0.059131593
-0.37415123 -0.28176451 0.059131663
-0.3743307 -0.28174955 0.059119225
-0.37451985 -0.2817367 0.059084825
-0.37473717 -0.28171149 0.059121765
-0.37494481 -0.28169754 0.059082665
-0.37514198 -0.28168079 0.05907128
-0.37533742 -0.28167588 0.058974594
-0.37553063 -0.28165478 0.058997817
-0.3757214 -0.28163075 0.059044115
-0.37594756 -0.28162125 0.058959961
-0.37613493 -0.28160745 0.058933642
-0.37631562 -0.28159034 0.058936179
-0.37651157 -0.28157294 0.058930568
-0.37671354 -0.28155339 0.058936451
-0.37691128 -0.28153849 0.058911234
-0.37711692 -0.28152394 0.058877911
-0.37729901 -0.28151426 0.058825105
-0.37748024 -0.28149316 0.058856454
-0.37769699 -0.28147319 0.058855355
-0.37790814 -0.28145626 0.058835827
-0.37810528 -0.28144142 0.058810614
-0.37829682 -0.28142974 0.058765836
-0.37848863 -0.28141302 0.058757935
-0.37867713 -0.28139725 0.058745444
-0.37888631 -0.28137231 0.058785878
-0.37908444 -0.28135973 0.058743369
-0.37927854 -0.28134704 0.058704339
-0.37947676 -0.28133509 0.058657207
-0.37966764 -0.28131765 0.058655091
-0.37987414 -0.28130099 0.058636744
-0.38006589 -0.28128523 0.058621928
-0.38025802 -0.28126377 0.058648616
-0.38045251 -0.28125292 0.05859575
-0.3806479 -0.2812373 0.058577459
-0.38085681 -0.28121901 0.058569476
-0.38104495 -0.28120419 0.058550067
-0.38123995 -0.28118828 0.058534086
-0.38144976 -0.2811721 0.058509968
-0.38162443 -0.2811535 0.058527518
-0.38182902 -0.28113464 0.058526471
-0.3820152 -0.28112426 0.058475956
-0.38221478 -0.28111094 0.058438044
-0.38241395 -0.28108895 0.058463551
-0.38260293 -0.28107738 0.058419924
-0.38279459 -0.28105533 0.05845122
-0.38300079 -0.28104091 0.058416747
-0.38320309 -0.28102636 0.058385737
-0.38338059 -0.28100607 0.058413658
-0.38359484 -0.28099388 0.058357224
-0.38378865 -0.28097731 0.058347017
-0.38397649 -0.28096473 0.058311474
-0.38415897 -0.28094792 0.058310546
-0.38435155 -0.28092843 0.058322243
-0.38455039 -0.28090587 0.058352351
-0.38475424 -0.28089765 0.058274075
-0.38494468 -0.2808831 0.058251202
-0.38514242 -0.28086853 0.058223672
-0.3853398 -0.28085318 0.058201917
-0.38552907 -0.28083557 0.058202103
-0.38571304 -0.28081232 0.058247279
-0.38591298 -0.28079346 0.058249716
-0.38611606 -0.28078625 0.058164526
-0.38630518 -0.28076851 0.058165871
-0.38649961 -0.28075737 0.058115304
-0.38669208 -0.28073868 0.058121245
-0.3869006 -0.28072658 0.058068298
-0.38708571 -0.28070781 0.05808004
-0.38726717 -0.28068903 0.058094099
-0.38746756 -0.28067404 0.058067717
-0.38766417 -0.28065845 0.058048271
-0.38785973 -0.28063759 0.058068015
-0.38806012 -0.28062356 0.058034718
-0.38826758 -0.28060901 0.058000226
-0.38844967 -0.28059477 0.05798085
-0.38863546 -0.28058159 0.057951085
-0.38883445 -0.28055963 0.057976589
-0.38902369 -0.28054583 0.057949103
-0.38921252 -0.28052923 0.057942376
-0.38940874 -0.28051478 0.057914868
-0.38960457 -0.2804969 0.057912715
-0.38980055 -0.28048089 0.05789673
-0.38998944 -0.28046647 0.05787386
-0.39019263 -0.28045326 0.057832476
-0.39038438 -0.28042868 0.057882223
-0.3905876 -0.28041831 0.057820089
-0.39077267 -0.28040317 0.057805307
-0.39096841 -0.28039032 0.057766266
-0.39115691 -0.28037518 0.057749167
-0.39134893 -0.28035733 0.057749338
-0.39154446 -0.28034481 0.057707991
-0.3917436 -0.28032222 0.057738103
-0.39193195 -0.28030771 0.057716388
-0.39213088 -0.28029379 0.057683099
-0.39231551 -0.28028136 0.057648722
-0.39251074 -0.28026733 0.057618909
-0.39271709 -0.28024358 0.057652444
-0.39291334 -0.28021482 0.057729829
-0.39309001 -0.28021193 0.057630938
-0.39329439 -0.28021169 0.057493873
-0.39349419 -0.28018367 0.057563167
-0.39367887 -0.2801668 0.057561077
-0.39385957 -0.28015411 0.057531334
-0.39406961 -0.28013098 0.057557926
-0.39426789 -0.2801173 0.057523482
-0.39445966 -0.28009963 0.057522506
-0.39464718 -0.2800869 0.057488114
-0.39483884 -0.28006989 0.057482533
-0.3950296 -0.280058 0.057440057
-0.39523855 -0.28004158 0.057418242
-0.39542854 -0.28001496 0.057484128
-0.39561203 -0.28000388 0.057440542
-0.3958028 -0.27999088 0.057406142
-0.39599213 -0.279984 0.057327934
-0.39619353 -0.27996922 0.057299238
-0.39639041 -0.27994415 0.057348959
-0.39657792 -0.2799294 0.057329558
-0.39677152 -0.27991787 0.057282455
-0.39696726 -0.27989796 0.057295293
-0.39715451 -0.27988386 0.057271283
-0.39734212 -0.2798683 0.057257649
-0.39755511 -0.27984869 0.057256561
-0.39773735 -0.27982813 0.057283297
-0.39793155 -0.27981371 0.057256944
-0.39812183 -0.27980059 0.057223689
-0.3983185 -0.27978876 0.057176579
-0.39851013 -0.27977127 0.057174444
-0.39870703 -0.27975833 0.057135399
-0.39889851 -0.27974132 0.057129808
-0.39909881 -0.27971894 0.057157606
-0.39928922 -0.27970487 0.057131276
-0.39947847 -0.27969372 0.057084203
-0.39967328 -0.27967688 0.057075135
-0.39985517 -0.27965826 0.057088044
-0.400051 -0.27964729 0.05703517
-0.40025061 -0.27962717 0.057046831
-0.40044609 -0.27960885 0.057048135
-0.40063706 -0.27959317 0.057033323
-0.40081707 -0.2795791 0.05701397
-0.40101451 -0.27956405 0.056989901
-0.40120032 -0.27955198 0.05695207
-0.40138805 -0.27954289 0.056891158
-0.40158796 -0.2795155 0.056955848
-0.40178227 -0.2794998 0.056938723
-0.40198502 -0.27948081 0.056939989
-0.40218824 -0.27946761 0.056898605
-0.40236804 -0.27945372 0.056878094
-0.40255362 -0.27944168 0.05684026
-0.40274975 -0.2794162 0.056893434
-0.40294373 -0.27940732 0.056826737
-0.4031263 -0.27939445 0.056796987
-0.40332624 -0.2793746 0.056806348
-0.40352201 -0.27935043 0.056850296
-0.40371796 -0.27933773 0.056810103
-0.40390468 -0.27932921 0.056745753
-0.40409878 -0.27930817 0.056767814
-0.40429288 -0.27929834 0.056708034
-0.40449008 -0.27928331 0.056683965
-0.40467563 -0.27926543 0.056688789
-0.40486261 -0.27925593 0.056631353
-0.40506005 -0.27923521 0.056648791
-0.40526232 -0.27921754 0.056640841
-0.40544227 -0.27920836 0.056585737
-0.40562633 -0.27920291 0.056500651
-0.40581468 -0.279181 0.056533113
-0.4060218 -0.27915135 0.056609299
-0.40620822 -0.27913749 0.056584135
-0.40641764 -0.27910987 0.056644168
-0.40661344 -0.27910158 0.056571696
-0.40682727 -0.2790682 0.056670897
-0.40705335 -0.27904123 0.056714699
-0.40726992 -0.27901387 0.056767769
-0.40747377 -0.27898154 0.056865867
-0.40767998 -0.2789509 0.056950122
-0.40788278 -0.27892071 0.057033245
-0.40806708 -0.27888894 0.057140663
-0.4082565 -0.27886802 0.057165056
-0.40848497 -0.27883154 0.057276864
-0.40870878 -0.27879298 0.057407137
-0.40891856 -0.27875993 0.057506353
-0.40910634 -0.27872562 0.057629898
-0.40928093 -0.27870372 0.057671662
-0.40950376 -0.27867201 0.057752367
-0.40972671 -0.27863652 0.057860747
-0.40993547 -0.27860248 0.057968043
-0.41014817 -0.27856809 0.058075316
-0.41033855 -0.27853289 0.058203459
-0.41052476 -0.27851433 0.058212876
-0.41074988 -0.27847436 0.058352366
-0.33466452 -0.28500178 0.062259097
-0.33487397 -0.28497541 0.062309936
-0.33511761 -0.28495848 0.062268391
-0.33534396 -0.28493842 0.062261507
-0.33557296 -0.28491762 0.062258072
-0.33580974 -0.28489912 0.062232699
-0.33605132 -0.28488207 0.062193476
-0.33627918 -0.28486279 0.06217967
-0.33650386 -0.28484115 0.062185481
-0.33675367 -0.28482679 0.062120847
-0.33697951 -0.28480569 0.062122047
-0.33719605 -0.28478351 0.062137108
-0.33744162 -0.28476828 0.062081732
-0.33768722 -0.28475323 0.062025182
-0.33789906 -0.28472835 0.062063336
-0.33813274 -0.28470999 0.062039129
-0.33836326 -0.2846908 0.062023006
-0.3385722 -0.28466681 0.062056556
-0.33880991 -0.28464994 0.062018499
-0.33904016 -0.28463095 0.062001236
-0.33927569 -0.28461364 0.061967794
-0.33948606 -0.28458875 0.062007107
-0.33975497 -0.28458193 0.061874367
-0.33997339 -0.28456134 0.061876751
-0.34018981 -0.28453857 0.061896432
-0.34041351 -0.28451812 0.061894186
-0.34061033 -0.28449258 0.061947379
-0.34085065 -0.28447422 0.061918534
-0.34104657 -0.28444514 0.061998263
-0.34132817 -0.2844452 0.061806679
-0.34154737 -0.28442374 0.061814822
-0.34179625 -0.28441197 0.061731756
-0.34201083 -0.28438923 0.061752599
-0.34226164 -0.28437841 0.061661456
-0.34247243 -0.28435457 0.061692692
-0.34268796 -0.28433233 0.06170892
-0.34291077 -0.28431261 0.061702058
-0.34314704 -0.28429919 0.061639797
-0.34338218 -0.28428382 0.061592534
-0.34361044 -0.28426626 0.061566047
-0.34381086 -0.28423929 0.061627306
-0.34405896 -0.28422871 0.061536174
-0.34427357 -0.28420675 0.061551251
-0.34448835 -0.2841849 0.061565183
-0.34472656 -0.28417128 0.061502919
-0.34494659 -0.28415322 0.061485693
-0.34518486 -0.28413993 0.061421119
-0.3453908 -0.28411528 0.061461598
-0.34559807 -0.28409117 0.061497469
-0.34582338 -0.28407356 0.061473303
-0.34609178 -0.28407165 0.061304837
-0.34629017 -0.28404456 0.061368413
-0.34651229 -0.28402615 0.061352327
-0.34675074 -0.28401569 0.061267015
-0.34698513 -0.28401849 0.061087199
-0.34717512 -0.28397751 0.061258011
-0.34739941 -0.2839548 0.061271884
-0.34762484 -0.28393814 0.061240807
-0.34782195 -0.28391084 0.061306685
-0.34804043 -0.28389356 0.061284862
-0.34827185 -0.28387946 0.061230704
-0.34848651 -0.28385904 0.061234254
-0.34871149 -0.28384274 0.061200865
-0.34893656 -0.28382656 0.061166331
-0.34914681 -0.28380468 0.061183743
-0.34937337 -0.28378931 0.061142281
-0.34960029 -0.28377423 0.061098509
-0.34981093 -0.28375468 0.061098631
-0.35002628 -0.28373516 0.06109526
-0.35024399 -0.28371668 0.061082657
-0.3504568 -0.28369626 0.061087377
-0.35067728 -0.2836791 0.061063234
-0.35090128 -0.28366351 0.06102524
-0.35111898 -0.28364739 0.060995355
-0.35132864 -0.28362602 0.061009306
-0.35155806 -0.28361309 0.06094823
-0.35176226 -0.28358954 0.06098181
-0.3519876 -0.28357711 0.060919601
-0.35218376 -0.28355023 0.060983188
-0.35241735 -0.28354162 0.060887516
-0.35263595 -0.28352463 0.060863391
-0.35284576 -0.28350389 0.060872734
-0.35307017 -0.28348967 0.060824368
-0.3532764 -0.28346956 0.060831416
-0.35347939 -0.28344598 0.060866147
-0.35369739 -0.28342921 0.060840867
-0.3539333 -0.28342071 0.060742885
-0.35413867 -0.28340054 0.060751088
-0.35435259 -0.28338224 0.060739659
-0.35456437 -0.28336304 0.060736306
-0.35475254 -0.28333718 0.060797624
-0.35499173 -0.28332886 0.060696166
-0.35523671 -0.28332567 0.060553174
-0.35540926 -0.28329039 0.060694113
-0.3556335 -0.2832776 0.060635369
-0.35585171 -0.28326207 0.060600866
-0.35605475 -0.28323928 0.060629841
-0.35627148 -0.28322545 0.060583808
-0.35647377 -0.28320238 0.060615093
-0.35670024 -0.28319365 0.060525224
-0.35690629 -0.28317261 0.060539186
-0.35712042 -0.28315574 0.060517386
-0.3573294 -0.28313631 0.060517505
-0.35754797 -0.28312421 0.060457647
-0.35775819 -0.28310564 0.060450844
-0.35796103 -0.28308332 0.060476359
-0.35817537 -0.28306705 0.060449943
-0.35838619 -0.2830514 0.060421236
-0.35860088 -0.28303555 0.060391359
-0.35880658 -0.2830174 0.060384586
-0.35901168 -0.28299659 0.060397401
-0.35918918 -0.28297049 0.060467996
-0.35940629 -0.28294906 0.060477298
-0.35963437 -0.28294349 0.060363214
-0.35984805 -0.28292772 0.060333349
-0.36005357 -0.28290755 0.060341552
-0.36025733 -0.28288642 0.060357839
-0.36048108 -0.28287917 0.060258765
-0.36068928 -0.28286079 0.060251974
-0.36089641 -0.28284436 0.060231354
-0.36111346 -0.28283131 0.060179569
-0.36130723 -0.28280732 0.060223565
-0.36151516 -0.28278911 0.060215626
-0.36173725 -0.28278202 0.060116552
-0.36193573 -0.28275838 0.060154758
-0.36213961 -0.28273803 0.060165286
-0.36235482 -0.28272465 0.060116969
-0.3625527 -0.28270343 0.06013789
-0.36275041 -0.28269011 0.060101189
-0.36296594 -0.28267732 0.06004826
-0.36317739 -0.28265408 0.060074873
-0.3633886 -0.28264153 0.060023122
-0.3635647 -0.28262311 0.060038384
-0.36377788 -0.28260663 0.060014278
-0.36394837 -0.28257909 0.060099889
-0.36421233 -0.28257936 0.059918776
-0.36441967 -0.28255662 0.059944257
-0.36461398 -0.28253368 0.059980191
-0.36482227 -0.28252015 0.059937671
-0.36503568 -0.28250742 0.059885897
-0.36523795 -0.28248721 0.059896424
-0.36542362 -0.28247011 0.059895512
-0.36563694 -0.28245187 0.059884086
-0.36585253 -0.28243533 0.059858821
-0.36603883 -0.28241295 0.05989594
-0.36617136 -0.28238201 0.06003245
-0.36643961 -0.28237951 0.059868604
-0.36666167 -0.28237116 0.05977875
-0.36686122 -0.28235263 0.059778929
-0.36707807 -0.28234082 0.059717916
-0.36728492 -0.28232178 0.059716895
-0.36748582 -0.28230453 0.059706688
-0.36768341 -0.28229436 0.059646927
-0.36789089 -0.28227288 0.059663195
-0.36809611 -0.28225932 0.059622988
-0.36829627 -0.28223869 0.059638143
-0.36849779 -0.28221917 0.059644066
-0.3687008 -0.28220424 0.059615403
-0.36891416 -0.2821978 0.059517518
-0.36907923 -0.2821689 0.05961699
-0.36930859 -0.28215581 0.059557077
-0.36950445 -0.2821354 0.059573401
-0.36971086 -0.28212047 0.05954241
-0.36989924 -0.28211114 0.059482701
-0.37009767 -0.2820932 0.059479415
-0.37030885 -0.28206521 0.059540614
-0.37050861 -0.28205565 0.059475079
-0.37071908 -0.28204143 0.059436008
-0.370913 -0.28202343 0.059436202
-0.37111163 -0.28200245 0.059454821
-0.37131947 -0.2819899 0.059405386
-0.37151948 -0.28197777 0.059358291
-0.3716839 -0.28195128 0.059440471
-0.37190896 -0.28194031 0.059367895
-0.37210545 -0.28193292 0.059288546
-0.3723079 -0.28191224 0.059302539
-0.37251383 -0.28189498 0.059288844
-0.37269443 -0.28187644 0.059301786
-0.37287819 -0.2818611 0.059289351
-0.37310466 -0.28184479 0.05925481
-0.37328947 -0.28182667 0.05926197
-0.37350464 -0.28180307 0.059288573
-0.3736968 -0.28179276 0.059233449
-0.37389058 -0.28178436 0.059163336
-0.3740977 -0.28176513 0.059163466
-0.37429401 -0.28174704 0.059162498
-0.37448832 -0.28173119 0.059146553
-0.37468266 -0.28171548 0.059129454
-0.37489232 -0.28169948 0.059104215
-0.37507007 -0.28168294 0.059104487
-0.37528777 -0.28166744 0.059069999
-0.37548572 -0.28165188 0.059049428
-0.37567595 -0.28163657 0.059032351
-0.37587175 -0.28161868 0.059030235
-0.37606505 -0.28160262 0.0590166
-0.37626463 -0.28158957 0.058976419
-0.37645739 -0.28157309 0.058966257
-0.37665188 -0.28155389 0.058974512
-0.3768608 -0.28153843 0.05894582
-0.37706894 -0.2815221 0.058924049
-0.37724295 -0.28150165 0.058955465
-0.37744007 -0.28149152 0.058895707
-0.37763268 -0.28147015 0.058921263
-0.37784299 -0.28145203 0.058911018
-0.37804028 -0.28143731 0.05888468
-0.37823528 -0.28142503 0.058842227
-0.37842315 -0.28138566 0.059002675
-0.37862864 -0.28138909 0.05883798
-0.37882254 -0.28138149 0.058762096
-0.37901354 -0.28135803 0.0588038
-0.37921724 -0.28134242 0.058779754
-0.37942013 -0.28133178 0.058719959
-0.37960595 -0.28130615 0.058781296
-0.37979555 -0.28129277 0.058750384
-0.37998521 -0.28127971 0.058717176
-0.38019684 -0.28126556 0.058676951
-0.38038495 -0.28125027 0.058661029
-0.38057241 -0.28123397 0.058653191
-0.38078079 -0.28121459 0.058653317
-0.38097271 -0.28119975 0.058631621
-0.38117373 -0.28118801 0.058581073
-0.38136253 -0.28116763 0.058602042
-0.38155109 -0.28115404 0.058573447
-0.38174728 -0.28113341 0.058590919
-0.38194674 -0.28111947 0.058557659
-0.38214448 -0.28110218 0.058549769
-0.38233879 -0.2810857 0.058538437
-0.38253066 -0.28107211 0.058507521
-0.38271928 -0.28105158 0.058529649
-0.38290942 -0.28103438 0.058526404
-0.38312179 -0.2810345 0.058381274
-0.38331184 -0.28100881 0.058440275
-0.38350737 -0.28099632 0.058398973
-0.38369974 -0.28097624 0.058415309
-0.38388652 -0.28096074 0.058401715
-0.38409558 -0.28094557 0.058370713
-0.38428649 -0.28093177 0.05834211
-0.38446537 -0.28091544 0.058340069
-0.38467252 -0.28089556 0.058344819
-0.38485736 -0.28087524 0.058368113
-0.38506424 -0.28086594 0.058295626
-0.38526097 -0.28084844 0.058290049
-0.38544315 -0.28083152 0.058290303
-0.38563693 -0.28081664 0.058267444
-0.38583055 -0.28080148 0.058246888
-0.38602459 -0.28078818 0.058212515
-0.38621807 -0.28077301 0.058191963
-0.38642058 -0.28075075 0.058217473
-0.38660368 -0.28073829 0.0581843
-0.38679376 -0.28072503 0.058152243
-0.38698944 -0.2807048 0.058167409
-0.3871806 -0.28069711 0.05809385
-0.387384 -0.28067932 0.058085933
-0.38758618 -0.28065532 0.058124125
-0.38776809 -0.28063902 0.05811977
-0.3879661 -0.28063199 0.058036953
-0.3881546 -0.28061256 0.058051005
-0.38834336 -0.28059486 0.058052387
-0.38853654 -0.2805824 0.058012251
-0.38872933 -0.28056812 0.057985935
-0.38892227 -0.2805557 0.057945795
-0.38912502 -0.28053543 0.057956323
-0.38931724 -0.28051773 0.057955377
-0.38950989 -0.28050438 0.057922147
-0.38969868 -0.28048921 0.057905078
-0.38989097 -0.2804732 0.057891458
-0.39008397 -0.28046867 0.057793677
-0.39028266 -0.28044328 0.057844568
-0.39047474 -0.2804262 0.057839014
-0.39067039 -0.28040943 0.057828825
-0.39086235 -0.28038859 0.057850938
-0.39106527 -0.28038171 0.05776348
-0.3912465 -0.28035715 0.057820223
-0.39143848 -0.28034511 0.057777785
-0.39164108 -0.28032914 0.057757188
-0.39182955 -0.28030768 0.05778623
-0.3920176 -0.28030232 0.057697698
-0.39221671 -0.28028035 0.057723232
-0.39240855 -0.28026411 0.057711914
-0.39260375 -0.28024974 0.057684436
-0.39278853 -0.2802324 0.057685826
-0.39298037 -0.28021502 0.057682581
-0.3931759 -0.28019559 0.057691984
-0.3933776 -0.28018552 0.057628747
-0.39356971 -0.28016514 0.0576474
-0.39375627 -0.28016278 0.057538126
