# .PCD v0.7 - Point Cloud Data file format
VERSION 0.7
FIELDS x y z
SIZE 4 4 4
TYPE F F F
COUNT 1 1 1
WIDTH 1292
HEIGHT 1
VIEWPOINT 0 0 0 1 0 0 0
POINTS 1292
DATA ascii
-0.28372911 -0.11880126 0.059366569
-0.28391057 -0.11871874 0.059378743
-0.28411838 -0.11863857 0.05929517
-0.28429693 -0.11855431 0.059328109
-0.28449708 -0.11848415 0.059199601
-0.28466004 -0.11841918 0.059148423
-0.28484154 -0.11832227 0.059258595
-0.28503338 -0.11824345 0.059214249
-0.28520167 -0.11817492 0.059171133
-0.28534439 -0.11808474 0.059352882
-0.28555679 -0.1180054 0.059249699
-0.28573021 -0.11793697 0.059190422
-0.28590739 -0.11786366 0.059153043
-0.28609222 -0.11778438 0.059132937
-0.28627425 -0.11770704 0.05910822
-0.28645819 -0.11762326 0.059121549
-0.2866424 -0.11754376 0.059104905
-0.2868138 -0.1174747 0.059056014
-0.28698966 -0.11739283 0.059080884
-0.28719231 -0.11730361 0.059074566
-0.28735995 -0.11722758 0.059084475
-0.28753334 -0.11715645 0.059043646
-0.28771329 -0.11707816 0.059031621
-0.28789437 -0.11700092 0.05900922
-0.28808939 -0.11692744 0.05891877
-0.28826198 -0.11683838 0.059002444
-0.28845218 -0.11676537 0.05892352
-0.28861415 -0.11669355 0.058921926
-0.28878248 -0.11661401 0.058953736
-0.28897867 -0.11654272 0.058844838
-0.28917313 -0.11646071 0.058814324
-0.28935137 -0.11637692 0.058844954
-0.2895149 -0.11629255 0.058924049
-0.28969279 -0.11622281 0.058860157
-0.28986391 -0.11615117 0.058829706
-0.29005629 -0.11607245 0.058783062
-0.29023689 -0.11601149 0.058651149
-0.29041621 -0.11592399 0.058703683
-0.29059249 -0.11584328 0.05871933
-0.2907545 -0.11574606 0.058890644
-0.29093158 -0.11567125 0.058863647
-0.29112995 -0.11562204 0.058597952
-0.29130524 -0.1155294 0.058697764
-0.29147911 -0.11545128 0.05870305
-0.29166153 -0.11537834 0.058647208
-0.29185113 -0.11531491 0.058504894
-0.2920098 -0.11521154 0.058728091
-0.29219636 -0.11513285 0.058698755
-0.29238227 -0.11505938 0.058635995
-0.29255855 -0.11497883 0.058650494
-0.29273793 -0.11490876 0.058584288
-0.29291838 -0.11484059 0.058501944
-0.29310906 -0.11475636 0.058497958
-0.2932817 -0.11467709 0.058514774
-0.29345235 -0.11459465 0.058559261
-0.29363248 -0.11452035 0.058519568
-0.29380625 -0.11444278 0.058521386
-0.29397857 -0.11436281 0.058543973
-0.29416993 -0.11430774 0.058339402
-0.29435894 -0.11422848 0.058306601
-0.29452363 -0.11412837 0.058489434
-0.29469264 -0.11405715 0.05846246
-0.29488909 -0.11399152 0.058314361
-0.29506344 -0.11389287 0.058457974
-0.29524314 -0.11382705 0.058361799
-0.29542837 -0.11376472 0.058225255
-0.29559761 -0.11366292 0.058405768
-0.29579428 -0.1135921 0.058292262
-0.29596144 -0.11351816 0.058289491
-0.29614449 -0.11344459 0.058235958
-0.29632232 -0.11335964 0.058275811
-0.29649225 -0.11327429 0.0583422
-0.29666927 -0.11320526 0.058276009
-0.29685241 -0.11313268 0.058215559
-0.29703218 -0.11305211 0.058219671
-0.29720891 -0.11297358 0.05821918
-0.29738188 -0.11289534 0.058227926
-0.29756424 -0.11282175 0.058176696
-0.29773805 -0.11274587 0.058166999
-0.29791984 -0.11267134 0.058123846
-0.29810053 -0.1125939 0.058103744
-0.29827523 -0.11250966 0.05814822
-0.29845715 -0.1124361 0.058098149
-0.29863518 -0.1123502 0.058143765
-0.2988207 -0.1122769 0.058081008
-0.29899526 -0.1122044 0.058045942
-0.29917419 -0.11212133 0.058069654
-0.29934075 -0.11204661 0.058073804
-0.29951432 -0.11198507 0.057967272
-0.29969591 -0.11189809 0.05800942
-0.29987291 -0.11182181 0.057992786
-0.3000612 -0.11174811 0.057924256
-0.30024743 -0.11166552 0.057922591
-0.30041641 -0.11158551 0.057955548
-0.30058756 -0.11151639 0.057907816
-0.30077103 -0.11143806 0.057885408
-0.30095443 -0.11135943 0.057865299
-0.30111971 -0.11127751 0.057922486
-0.3012968 -0.11120321 0.057892021
-0.30147657 -0.11112367 0.057889216
-0.30164748 -0.11105566 0.057834566
-0.30183071 -0.11097677 0.057816766
-0.30200732 -0.11090015 0.057803601
-0.30219012 -0.11081821 0.057807703
-0.30237019 -0.1107421 0.057780687
-0.30254644 -0.11066241 0.057789426
-0.30272618 -0.11058337 0.05778316
-0.30288944 -0.11050963 0.057790786
-0.30307361 -0.11044708 0.057658855
-0.30325338 -0.11037091 0.057633001
-0.30342239 -0.11027972 0.057742044
-0.30360276 -0.11021633 0.057627425
-0.30377913 -0.11014047 0.057609644
-0.30395541 -0.11005977 0.057625301
-0.30413163 -0.10997315 0.0576813
-0.30431139 -0.10990274 0.057616241
-0.30448776 -0.10983266 0.057559267
-0.3046706 -0.10975359 0.057543777
-0.30484366 -0.10967736 0.057538688
-0.30502686 -0.10958562 0.0576085
-0.30520967 -0.10951014 0.057568803
-0.30538553 -0.10944519 0.057478398
-0.3055574 -0.109392 0.057319991
-0.30574086 -0.10929845 0.057401337
-0.30591771 -0.10921206 0.057453874
-0.30608743 -0.10913865 0.057439573
-0.30627647 -0.10906006 0.057402156
-0.30646303 -0.10897326 0.057428155
-0.30663326 -0.10889472 0.057447284
-0.30680299 -0.10882149 0.057431825
-0.30697969 -0.10874161 0.05744056
-0.30716109 -0.10867436 0.057348989
-0.30733931 -0.10858247 0.057434957
-0.30751291 -0.10852648 0.057290383
-0.30770171 -0.10844766 0.057255272
-0.30787253 -0.10836615 0.057292845
-0.30805218 -0.10828732 0.057285428
-0.30823687 -0.10821489 0.057219207
-0.30841073 -0.10813441 0.057240639
-0.3085902 -0.10805668 0.057226308
-0.30877262 -0.10797933 0.057200443
-0.30894512 -0.10790674 0.057172298
-0.30911866 -0.10782877 0.057177577
-0.309297 -0.10774205 0.057227809
-0.30947983 -0.10766283 0.05721347
-0.30966383 -0.1075919 0.057139184
-0.30982667 -0.10752275 0.057116833
-0.31000373 -0.10744287 0.05712441
-0.31017846 -0.10737301 0.057070903
-0.31035194 -0.1072959 0.057070419
-0.31053725 -0.10720678 0.057116017
-0.31071022 -0.1071321 0.057100557
-0.31088462 -0.10706306 0.057042427
-0.31105524 -0.10699706 0.056975096
-0.311239 -0.10692471 0.056911185
-0.31140822 -0.10684273 0.056956828
-0.31159139 -0.10676234 0.056949414
-0.31175444 -0.1067019 0.056867111
-0.31193405 -0.10661428 0.056919642
-0.31212196 -0.10651875 0.057000972
-0.3123104 -0.1064311 0.057026967
-0.31248423 -0.10637179 0.056904294
-0.31267124 -0.10628868 0.056903776
-0.31286171 -0.10617864 0.05707616
-0.31302875 -0.10613048 0.056898177
-0.31320167 -0.10605634 0.056879245
-0.31337905 -0.10598529 0.056825731
-0.31354827 -0.10590603 0.056852929
-0.31372136 -0.1058391 0.056784444
-0.31390867 -0.10575568 0.056785073
-0.3140884 -0.10567073 0.05681916
-0.31426236 -0.1056012 0.056765653
-0.31443879 -0.10552517 0.056749023
-0.31460911 -0.10545082 0.056739334
-0.31478125 -0.1053789 0.056707732
-0.31496897 -0.10529495 0.056710672
-0.31515205 -0.10521595 0.056694031
-0.31532055 -0.10514633 0.056657821
-0.31549188 -0.10506985 0.056659658
-0.31567129 -0.10499959 0.05659461
-0.31585744 -0.10491347 0.056617144
-0.31602296 -0.10485058 0.056544058
-0.31620917 -0.10476461 0.056565452
-0.31638908 -0.1046811 0.056589164
-0.31656113 -0.10460938 0.056556415
-0.31674314 -0.10453306 0.056524783
-0.31692022 -0.10445605 0.056512769
-0.31710204 -0.10436898 0.056554917
-0.31727901 -0.10429795 0.056502551
-0.31745416 -0.10421976 0.056504373
-0.3176282 -0.10414936 0.056456625
-0.31780589 -0.10407142 0.056449216
-0.31799537 -0.10398009 0.056497108
-0.3181763 -0.10390103 0.056487393
-0.31833836 -0.10384426 0.056383193
-0.3185305 -0.1037482 0.056455284
-0.31870648 -0.10367896 0.056393698
-0.31887579 -0.10360778 0.056365561
-0.31905079 -0.10353543 0.056328192
-0.31924269 -0.10344066 0.056392223
-0.31940746 -0.10338284 0.056286864
-0.31958705 -0.10330658 0.056262158
-0.31976557 -0.10322775 0.056258205
-0.3199499 -0.10313839 0.056308411
-0.32013634 -0.1030545 0.056314822
-0.32029697 -0.10300361 0.056174893
-0.32048225 -0.10291297 0.056230865
-0.32067144 -0.10282008 0.05629028
-0.32084379 -0.10275263 0.056227554
-0.32101136 -0.10269763 0.056094531
-0.32119077 -0.10261349 0.056124002
-0.32138968 -0.10250883 0.056234118
-0.32156447 -0.10244131 0.056164466
-0.32174551 -0.10236729 0.056120165
-0.32192791 -0.10228284 0.056142718
-0.3221032 -0.10220629 0.056133009
-0.32228884 -0.10213276 0.056071401
-0.32246429 -0.10205208 0.056089357
-0.32262948 -0.10199204 0.055997834
-0.32280853 -0.10191349 0.05599042
-0.32299346 -0.10182944 0.056002591
-0.32316491 -0.10175543 0.055987123
-0.32336178 -0.10165659 0.056063823
-0.32354289 -0.10158271 0.05601836
-0.32371837 -0.10150641 0.05600635
-0.32387978 -0.10144823 0.055913679
-0.32406035 -0.1013751 0.055864759
-0.32423991 -0.10128903 0.055906922
-0.32443273 -0.10119741 0.05594673
-0.32461122 -0.10112046 0.0559301
-0.32478878 -0.10104494 0.055906553
-0.32495824 -0.10098147 0.05582539
-0.32515234 -0.10088843 0.055870973
-0.32532272 -0.10082017 0.055819772
-0.32548985 -0.10074979 0.055792794
-0.32566601 -0.10068318 0.055712771
-0.32583115 -0.10062233 0.055627003
-0.32603246 -0.10051287 0.055762473
-0.32620135 -0.10044999 0.055679016
-0.32639125 -0.10035731 0.055734973
-0.32656041 -0.10029076 0.055675711
-0.32676658 -0.10018203 0.055791575
-0.32691476 -0.10014801 0.055574447
-0.32710743 -0.10004885 0.05566613
-0.3272796 -0.099981293 0.055604562
-0.32747245 -0.099885434 0.055673197
-0.32765043 -0.099810056 0.055647343
-0.32783404 -0.099730149 0.0556353
-0.32800651 -0.099662319 0.055574879
-0.32819459 -0.099573471 0.055610102
-0.32836974 -0.099502072 0.055565808
-0.32855925 -0.09941157 0.055607934
-0.32873043 -0.099345483 0.055539452
-0.32891664 -0.099262565 0.055540085
-0.3291049 -0.099177033 0.055552248
-0.32927644 -0.099107563 0.055505663
-0.32945436 -0.09903273 0.055476353
-0.32962891 -0.098962262 0.055427454
-0.32982326 -0.098866418 0.055491474
-0.33000335 -0.098791793 0.055454083
-0.33017844 -0.098720759 0.055407487
-0.33035868 -0.098643191 0.055389695
-0.33055174 -0.098552316 0.055423744
-0.3307398 -0.098467894 0.055428993
-0.33090368 -0.098410979 0.055320177
-0.33107758 -0.098341472 0.055266671
-0.33127865 -0.098238401 0.05535949
-0.33144584 -0.098177306 0.055269107
-0.33162895 -0.098096609 0.055263996
-0.33183655 -0.097988769 0.055369478
-0.33200815 -0.097922325 0.055302143
-0.33217913 -0.097859204 0.055214062
-0.33236176 -0.097779401 0.055204328
-0.33255246 -0.09769769 0.055183049
-0.33276078 -0.097587325 0.055303518
-0.33291501 -0.097544193 0.05513018
-0.33312038 -0.097440213 0.05521607
-0.33329961 -0.097367331 0.055169463
-0.33347821 -0.097292699 0.055136684
-0.33366206 -0.097209461 0.05514656
-0.33384025 -0.097137891 0.05509419
-0.33404362 -0.09704446 0.055114374
-0.33421814 -0.096972324 0.055076998
-0.33439368 -0.096894138 0.055077672
-0.33457613 -0.096817791 0.055044889
-0.3347508 -0.096745595 0.055007517
-0.33493403 -0.096666023 0.054994334
-0.33510464 -0.096603237 0.05490509
-0.33527493 -0.096531279 0.054879263
-0.33549455 -0.096415564 0.055002004
-0.33565086 -0.096361831 0.054894362
-0.33586738 -0.096247658 0.055015955
-0.33604208 -0.096182711 0.054929018
-0.33623299 -0.096099742 0.054915804
-0.33642054 -0.096018255 0.054902613
-0.33660471 -0.095938258 0.054889418
-0.33678243 -0.095863163 0.054862417
-0.33697617 -0.095779605 0.054844588
-0.33716363 -0.095698498 0.054829083
-0.33734927 -0.095617175 0.054820504
-0.33751956 -0.095543705 0.05480504
-0.3377057 -0.095461994 0.054797616
-0.33790082 -0.095381722 0.054753266
-0.33808184 -0.095299065 0.054767758
-0.33827209 -0.095215358 0.054761462
-0.33841974 -0.095166333 0.054648086
-0.33862475 -0.095071323 0.054674033
-0.3388232 -0.094974831 0.054729968
-0.33900374 -0.094901711 0.054681048
-0.33921123 -0.094806626 0.054700073
-0.33938351 -0.094738007 0.054645423
-0.33955538 -0.094667718 0.054603446
-0.3397699 -0.094561368 0.054677784
-0.33994752 -0.094487347 0.054643854
-0.34013337 -0.094408996 0.054614525
-0.34029666 -0.09434776 0.054536838
-0.34048253 -0.094267353 0.054521341
-0.34067178 -0.094185621 0.054504685
-0.34086549 -0.094099358 0.054505296
-0.3410641 -0.094006188 0.054538175
-0.34123757 -0.09393467 0.054499656
-0.34141463 -0.093863614 0.05444729
-0.34162086 -0.09376502 0.054493986
-0.34181353 -0.093682267 0.054473855
-0.34198868 -0.093613222 0.05441343
-0.34217235 -0.093535662 0.054385252
-0.34236565 -0.093446545 0.054406617
-0.34255004 -0.093370363 0.054366913
-0.34272462 -0.093300052 0.054316863
-0.34293136 -0.093201727 0.054360099
-0.34311342 -0.093126073 0.05432386
-0.34332141 -0.093034476 0.054317523
-0.34352332 -0.092948973 0.054288145
-0.34369469 -0.092878237 0.054250777
-0.34387988 -0.092797801 0.054237589
-0.344069 -0.09271358 0.054238215
-0.34426284 -0.09262675 0.054242294
-0.34444016 -0.092557937 0.054173782
-0.34463975 -0.092461959 0.054222807
-0.34482825 -0.092382416 0.054193467
-0.34501296 -0.092300996 0.054188348
-0.24673046 -0.13531075 0.059016865
-0.24695474 -0.13521954 0.058958635
-0.24719188 -0.13512482 0.058885373
-0.24742186 -0.13503498 0.058800608
-0.24765822 -0.13494347 0.058707759
-0.2478891 -0.13485101 0.058637977
-0.24815172 -0.13475546 0.058493175
-0.24836278 -0.13466878 0.058444194
-0.24857312 -0.13457936 0.058415972
-0.24878907 -0.13448828 0.058381975
-0.24901009 -0.13439852 0.058323748
-0.24922502 -0.13430774 0.058290899
-0.24943471 -0.13421878 0.058261529
-0.24966528 -0.13412748 0.058184829
-0.24988584 -0.13403827 0.0581243
-0.2501106 -0.13394752 0.058061462
-0.25033849 -0.13385826 0.057979003
-0.250545 -0.13377003 0.057954248
-0.25077343 -0.13368104 0.057868339
-0.2509951 -0.133591 0.057810105
-0.25121155 -0.13350275 0.057755355
-0.25143299 -0.13341297 0.057695974
-0.25165415 -0.13332483 0.057626218
-0.25187451 -0.13323537 0.057567999
-0.25209743 -0.13314748 0.057491321
-0.25231951 -0.13305825 0.05742617
-0.25253564 -0.13297084 0.057366803
-0.25276396 -0.13288325 0.057271667
-0.25298262 -0.13279606 0.057203081
-0.25318199 -0.13270794 0.057199094
-0.25340325 -0.13262096 0.057121262
-0.25361735 -0.13253275 0.057073437
-0.25383112 -0.1324462 0.057015229
-0.2540482 -0.13235819 0.056957018
-0.25425741 -0.13227199 0.056910343
-0.2544719 -0.13218428 0.056857903
-0.25468406 -0.13209829 0.056800857
-0.25489599 -0.13201088 0.056754187
-0.25510561 -0.13192515 0.056702904
-0.25531456 -0.13183957 0.056652784
-0.25552592 -0.1317541 0.05659458
-0.25573325 -0.13166721 0.0565583
-0.25593981 -0.13158201 0.056512795
-0.25615004 -0.13149534 0.056466121
-0.25635532 -0.13141038 0.056422926
-0.25656047 -0.13132393 0.056390114
-0.25677237 -0.13123925 0.056324989
-0.25697926 -0.13115306 0.056285251
-0.25718272 -0.13106856 0.056244362
-0.25738463 -0.13098255 0.056218464
-0.25758651 -0.13089824 0.056181047
-0.25780323 -0.13081428 0.056096312
-0.25803316 -0.13071938 0.056046132
-0.25817779 -0.13063596 0.056176037
-0.25835338 -0.13055639 0.056185946
-0.25856391 -0.13047113 0.056128904
-0.25888962 -0.13039055 0.055691101
-0.25907689 -0.13030681 0.055694062
-0.25920406 -0.13021642 0.055924311
-0.25940868 -0.13013817 0.055837311
-0.25961348 -0.13005511 0.055782586
-0.25980917 -0.12997186 0.055756703
-0.26000747 -0.12988882 0.055721596
-0.26020691 -0.12980424 0.055693407
-0.26041624 -0.12971848 0.055643283
-0.26060587 -0.12963708 0.055623189
-0.260804 -0.12955445 0.055585772
-0.26101291 -0.12946735 0.055546019
-0.26119268 -0.12938747 0.05554555
-0.26139563 -0.12930369 0.055501208
-0.26159424 -0.12922153 0.055459183
-0.26178896 -0.12913582 0.055452906
-0.26197594 -0.12905492 0.055437431
-0.26217198 -0.12897119 0.055413857
-0.26236939 -0.12888938 0.055372987
-0.26256302 -0.12880568 0.055356335
-0.26274478 -0.12872304 0.055368535
-0.26292744 -0.1286405 0.055377286
-0.26310331 -0.12855929 0.05539757
-0.26327124 -0.12847398 0.055469766
-0.26343179 -0.12838806 0.055568498
-0.26355979 -0.1282995 0.055783752
-0.26248631 -0.12768862 0.0631928
-0.26254678 -0.12758401 0.063721821
-0.26275861 -0.12750119 0.063644022
-0.26316977 -0.1272165 0.064336993
-0.265219 -0.12681231 0.060883284
-0.26543635 -0.12672739 0.060803164
-0.26561281 -0.12662949 0.060935281
-0.2658602 -0.12653461 0.060832027
-0.26604924 -0.12645245 0.060818851
-0.26621595 -0.12637345 0.060851842
-0.26643071 -0.12628275 0.060819
-0.26663417 -0.12619671 0.06078849
-0.26682127 -0.12612695 0.060696919
-0.26699212 -0.12604052 0.060767945
-0.26722437 -0.12595287 0.060661271
-0.26740289 -0.12587182 0.060672332
-0.26760727 -0.12577812 0.060691394
-0.26778686 -0.12569103 0.060740497
-0.26794541 -0.1256153 0.060775824
-0.26816422 -0.12553042 0.060691081
-0.26836902 -0.12546682 0.060503773
-0.26853144 -0.12538345 0.060579441
-0.2687583 -0.12527688 0.060618039
-0.26893771 -0.12519646 0.060622185
-0.26914531 -0.12511469 0.060550153
-0.26934233 -0.12502679 0.060551949
-0.26950943 -0.12495303 0.060548048
-0.26968259 -0.12487608 0.060547598
-0.26991439 -0.12477966 0.060502023
-0.27008671 -0.12470493 0.060488887
-0.27030405 -0.12461257 0.060459495
-0.27051014 -0.12453148 0.060387477
-0.27067304 -0.12445281 0.060429707
-0.27085268 -0.12437315 0.060428079
-0.27105445 -0.12428923 0.060388356
-0.27122453 -0.12420991 0.060413275
-0.27138957 -0.12413639 0.06041399
-0.27161124 -0.12405498 0.06029696
-0.27177516 -0.12396976 0.06038069
-0.27200416 -0.12387407 0.060338594
-0.27217591 -0.12379538 0.060354277
-0.27234739 -0.12372373 0.060322702
-0.2725592 -0.12363366 0.060294472
-0.27275023 -0.12355044 0.060282446
-0.27293849 -0.12346898 0.060266957
-0.27310455 -0.12338908 0.060308032
-0.27331284 -0.1233009 0.060277507
-0.27348495 -0.12322509 0.06027244
-0.27366841 -0.12314998 0.060228154
-0.27390808 -0.12306345 0.060091484
-0.27408355 -0.12297902 0.060134828
-0.27424762 -0.12289628 0.060201265
-0.27444875 -0.12281672 0.060133867
-0.27463362 -0.1227376 0.060112633
-0.27482453 -0.12265529 0.060094841
-0.27500984 -0.12257395 0.060087431
-0.27520803 -0.12248638 0.060083453
-0.27538967 -0.12241175 0.06004148
-0.275585 -0.12232865 0.060015596
-0.27578089 -0.12224583 0.059986264
-0.27593648 -0.12217616 0.059989303
-0.27611318 -0.12208714 0.060060322
-0.27631885 -0.12201317 0.059941038
-0.27651232 -0.1219326 0.059903637
-0.27669021 -0.12184405 0.059967734
-0.2768864 -0.12176735 0.059895739
-0.27706465 -0.12169526 0.059846848
-0.27725241 -0.12160215 0.059912067
-0.27743995 -0.12153369 0.059810124
-0.27762973 -0.12145799 0.059750825
-0.27781647 -0.12136737 0.059802219
-0.27798253 -0.12127713 0.059913613
-0.278184 -0.12120064 0.05982431
-0.27834433 -0.1211165 0.059911512
-0.27854389 -0.12104526 0.059792239
-0.27873498 -0.12097083 0.059720252
-0.27891606 -0.12088374 0.059764739
-0.27911133 -0.12079968 0.059745781
-0.27928483 -0.12071815 0.0597753
-0.27946365 -0.12064189 0.059752926
-0.2796737 -0.12056462 0.059642848
-0.2798551 -0.12049282 0.059582423
-0.28003338 -0.1204107 0.059601553
-0.28021726 -0.12032813 0.059606839
-0.28040445 -0.12024409 0.059612107
-0.28059524 -0.12016183 0.059594315
-0.28074968 -0.12008388 0.05965732
-0.2809414 -0.12001155 0.059569202
-0.28113958 -0.11993007 0.059523709
-0.28131649 -0.11984754 0.059549768
-0.28148547 -0.1197738 0.059540093
-0.28169876 -0.11969407 0.059436925
-0.28189215 -0.11961066 0.059419125
-0.28207761 -0.11952637 0.059431329
-0.28226784 -0.1194381 0.059456188
-0.28246865 -0.11935902 0.059386488
-0.28262281 -0.11928423 0.059428737
-0.28278556 -0.1192041 0.059481345
-0.28298011 -0.11913203 0.059382837
-0.28316978 -0.11904706 0.059386946
-0.28335625 -0.11897063 0.059342653
-0.28351799 -0.11890043 0.059330702
-0.28369787 -0.11881319 0.059379801
-0.28388244 -0.11873236 0.05937124
-0.28409287 -0.11865 0.0592946
-0.28426889 -0.11856754 0.059322961
-0.28447732 -0.11848795 0.059233639
-0.28463227 -0.11843213 0.05914446
-0.28482026 -0.11833197 0.059256949
-0.28501233 -0.11824932 0.059237994
-0.28518727 -0.11818139 0.059170671
-0.2853317 -0.11809602 0.0593144
-0.28552264 -0.11801269 0.059303522
-0.28571266 -0.11794823 0.05916699
-0.28588337 -0.11786997 0.059182681
-0.28606999 -0.11779568 0.059123389
-0.28625226 -0.11771433 0.059125222
-0.28643921 -0.11763259 0.059115507
-0.2866261 -0.11755088 0.059105795
-0.28679883 -0.11747853 0.059075359
-0.28697398 -0.11739999 0.059079513
-0.28717169 -0.11731061 0.05908937
-0.28735146 -0.11723173 0.059081972
-0.28752026 -0.11716076 0.059053868
-0.28769842 -0.11708497 0.059030339
-0.28787953 -0.11700752 0.059009112
-0.28806946 -0.11693361 0.05893714
-0.28825387 -0.11684606 0.058974698
-0.2884362 -0.1167701 0.058939628
-0.28860375 -0.11669868 0.058918439
-0.28876677 -0.11661844 0.058971044
-0.28896734 -0.11654641 0.058854081
-0.28915635 -0.11646816 0.058814384
-0.28934255 -0.11638252 0.058833487
-0.28950649 -0.11629832 0.058910299
-0.28967848 -0.11622712 0.058874108
-0.28985265 -0.11615344 0.058848292
-0.29004648 -0.11607593 0.058788978
-0.29022455 -0.11601187 0.058685914
-0.29040706 -0.11592754 0.058707334
-0.29058453 -0.11585306 0.058676898
-0.29075164 -0.11575102 0.058865532
-0.29092035 -0.11567146 0.058896214
-0.29111987 -0.11562325 0.058620147
-0.29129493 -0.11553546 0.058687706
-0.29147807 -0.11545186 0.058702212
-0.29165521 -0.11537755 0.058671772
-0.29184932 -0.11531955 0.058478732
-0.2920067 -0.11521421 0.05871927
-0.29218611 -0.11513735 0.058699202
-0.29237804 -0.11505984 0.058645662
-0.29255873 -0.11497902 0.058648653
-0.29273373 -0.11490853 0.058598615
-0.29291812 -0.11483946 0.058510505
-0.29310754 -0.11475933 0.058482341
-0.29327932 -0.11467841 0.058513023
-0.29344973 -0.11459523 0.058563299
-0.29362997 -0.11452071 0.05852478
-0.29380855 -0.1144437 0.058508173
-0.29397562 -0.11436166 0.058560766
-0.29416567 -0.11430395 0.058378112
-0.29435924 -0.11423197 0.058281906
-0.2945236 -0.11413098 0.058471709
-0.29469326 -0.1140532 0.0584874
-0.29488418 -0.11399189 0.058326654
-0.2950637 -0.11389484 0.05844377
-0.29523736 -0.11382476 0.058394894
-0.29542485 -0.11376633 0.058224931
-0.29560083 -0.11366153 0.058405474
-0.2957904 -0.11359201 0.058304671
-0.29596496 -0.11351646 0.058290374
-0.29614815 -0.11344267 0.058238022
-0.29633 -0.11335744 0.058267511
-0.29649925 -0.11327002 0.058350079
-0.29667333 -0.11320265 0.0582816
-0.29685354 -0.11313187 0.058217715
-0.29703701 -0.11305033 0.058217239
-0.29721394 -0.11297186 0.058215618
-0.29738712 -0.11289354 0.058224384
-0.29756933 -0.11281899 0.058180101
-0.29774359 -0.11274374 0.058164656
-0.29792514 -0.11266796 0.058130737
-0.29810679 -0.11259265 0.058093369
-0.29828104 -0.1125064 0.058152862
-0.29846323 -0.11243305 0.058100507
-0.29864129 -0.11234662 0.058149613
-0.29882759 -0.11227517 0.058071882
-0.299005 -0.11219903 0.058052972
-0.29918453 -0.11211738 0.058065176
-0.29935053 -0.11203971 0.058091257
-0.29953101 -0.11197592 0.057978958
-0.29970661 -0.11189313 0.058010776
-0.29988351 -0.11181569 0.058002241
-0.30007225 -0.11174298 0.057925649
-0.30025882 -0.11166091 0.057919398
-0.30042788 -0.11158036 0.057955842
-0.30059895 -0.11150991 0.057917345
-0.3007862 -0.11143161 0.057883419
-0.30096647 -0.11135419 0.05786451
-0.301135 -0.11126947 0.057930935
-0.30131242 -0.11119587 0.057894722
-0.30148894 -0.11111674 0.057898868
-0.30166337 -0.11104751 0.057841923
-0.30184686 -0.11096901 0.057820693
-0.30202371 -0.11089295 0.05780293
-0.30220664 -0.11080995 0.05781398
-0.30238697 -0.11073472 0.057780072
-0.30256337 -0.11065446 0.057792291
-0.30274338 -0.11057632 0.057779137
-0.30290666 -0.11050036 0.057801768
-0.30309114 -0.1104397 0.057656009
-0.30327439 -0.11036266 0.057625555
-0.30344355 -0.11027021 0.057742707
-0.30362082 -0.1102092 0.057621188
-0.30380064 -0.11013065 0.057611495
-0.30397707 -0.11004984 0.057627171
-0.30416006 -0.10996023 0.057683188
-0.3043302 -0.10989494 0.057612408
-0.30451 -0.10982248 0.057561215
-0.30469304 -0.10974298 0.057548054
-0.30486631 -0.10966564 0.057549901
-0.30504972 -0.1095738 0.057619743
-0.30522937 -0.10950174 0.05756624
-0.30540863 -0.1094363 0.057468928
-0.30558074 -0.10938166 0.057319745
-0.3057676 -0.10928725 0.057396501
-0.30593809 -0.10920403 0.057446778
-0.30610815 -0.10912845 0.057446338
-0.30629709 -0.10905311 0.057387043
-0.30649054 -0.10896172 0.057423428
-0.3066577 -0.1088842 0.057444897
-0.30683103 -0.10880801 0.057438672
-0.30700448 -0.1087311 0.057437059
-0.30718955 -0.10866053 0.057357032
-0.30736455 -0.10857106 0.057436123
-0.30754161 -0.10851355 0.057291538
-0.3077274 -0.10843537 0.057261076
-0.30789849 -0.10835341 0.057300985
-0.30807832 -0.10827467 0.057292439
-0.30826646 -0.1082007 0.057226226
-0.30843714 -0.10812231 0.057243068
-0.30861989 -0.10804413 0.057221841
-0.30879918 -0.10796817 0.057196006
-0.30897185 -0.10789549 0.05716788
-0.30914289 -0.10781591 0.057191648
-0.30932742 -0.10772899 0.057224602
-0.30950791 -0.10764776 0.057231039
-0.30969486 -0.10757754 0.057142928
-0.30985776 -0.10750887 0.057117142
-0.31003192 -0.1074296 0.057129364
-0.3102068 -0.10735966 0.057075862
-0.31038392 -0.10728043 0.057078861
-0.31056577 -0.10719419 0.057115279
-0.31074277 -0.10711587 0.0571125
-0.31091601 -0.10705192 0.057023283
-0.31109092 -0.10698112 0.056975551
-0.31126335 -0.10691904 0.056875948
-0.31144258 -0.10682245 0.056990772
-0.3116222 -0.106755 0.05690613
-0.31179106 -0.10668485 0.05687226
-0.31197187 -0.10659398 0.056943268
-0.31216282 -0.10649846 0.057015393
-0.31234634 -0.10641807 0.057006836
-0.31252038 -0.10635851 0.056885332
-0.31270793 -0.10626566 0.056949399
-0.31289858 -0.10616417 0.057063032
-0.31306574 -0.10611595 0.056885049
-0.31324515 -0.10603961 0.056861524
-0.31341425 -0.10596886 0.056831099
-0.31359178 -0.10588995 0.056830637
-0.31376219 -0.10581557 0.056820959
-0.31394631 -0.10574136 0.056768604
-0.31413063 -0.10565181 0.056819998
-0.31430504 -0.10558159 0.05676996
-0.31448117 -0.10550669 0.056746442
-0.31465572 -0.10542894 0.056747139
-0.3148239 -0.10536046 0.056704044
-0.31501591 -0.1052731 0.056717373
-0.31519046 -0.10520211 0.056671951
-0.31536481 -0.10512514 0.056668028
-0.31553867 -0.10504939 0.056657195
-0.31571853 -0.10497843 0.056595623
-0.31589991 -0.10489765 0.056596301
-0.31606853 -0.10482796 0.056560121
-0.31625468 -0.10474252 0.056578077
-0.3164314 -0.10466058 0.056600668
-0.31660482 -0.10459197 0.056542575
-0.31678459 -0.10451512 0.056521345
-0.31697005 -0.10443167 0.056527779
-0.31714991 -0.1043492 0.056544602
-0.31732738 -0.10427745 0.056495711
-0.31750053 -0.10419828 0.056510236
-0.31767496 -0.10412736 0.056464825
-0.31785679 -0.10404655 0.056464337
-0.31804597 -0.1039562 0.056506507
-0.31822452 -0.10388227 0.056469139
-0.31838793 -0.10382302 0.056377627
-0.31858107 -0.10372532 0.056457825
-0.31875452 -0.10366127 0.056368597
-0.31892857 -0.10358612 0.056353152
-0.31910488 -0.10351148 0.056327324
-0.31929645 -0.10341771 0.056385625
-0.31946209 -0.10335849 0.056287192
-0.31964129 -0.10328324 0.056256749
-0.31982303 -0.10319874 0.056281634
-0.32001057 -0.10310388 0.056359537
-0.32018521 -0.10304168 0.056254163
-0.32035422 -0.10297586 0.056190316
-0.32054144 -0.10288217 0.056261305
-0.3207278 -0.10279459 0.056293093
-0.32090217 -0.10273252 0.056187719
-0.32106557 -0.10267632 0.056075457
-0.32125553 -0.1025785 0.056166038
-0.32144833 -0.1024847 0.056220867
-0.32162851 -0.1024124 0.056167364
-0.32180977 -0.10233828 0.056123082
-0.321991 -0.10225603 0.056134135
-0.32217208 -0.10217421 0.056142878
-0.3223497 -0.1021061 0.056068629
-0.32252595 -0.10202827 0.056064714
-0.32269087 -0.10196497 0.055996247
-0.32287461 -0.10188297 0.055998079
-0.32305229 -0.10180687 0.055978015
-0.32323644 -0.10172064 0.056007501
-0.32342845 -0.1016297 0.05604504
-0.32360762 -0.10155533 0.056008831
-0.32378343 -0.10148244 0.055972628
-0.32395208 -0.10141324 0.055932991
-0.32412148 -0.10135014 0.055849541
-0.32431635 -0.10125185 0.055928573
-0.32450768 -0.10115919 0.055979948
-0.32468081 -0.10109054 0.055923004
-0.32486063 -0.10101537 0.055890251
-0.32503423 -0.10094938 0.055813707
-0.32522795 -0.10084686 0.055925027
-0.3253831 -0.10080111 0.055766672
-0.32557032 -0.1007118 0.055807684
-0.32573134 -0.10066056 0.055668913
-0.32590938 -0.10058466 0.05564655
-0.32610497 -0.10048366 0.05574172
-0.32628107 -0.10040742 0.055727422
-0.32646307 -0.10032941 0.055707347
-0.32664832 -0.1002437 0.055729922
-0.32683387 -0.10016089 0.055731736
-0.32698929 -0.10011366 0.055582605
-0.32718664 -0.10001461 0.055659331
-0.32736367 -0.099937454 0.055648487
-0.32755175 -0.099851489 0.055664137
-0.32773346 -0.099771246 0.055660196
-0.32790983 -0.099698268 0.055622846
-0.32808584 -0.099625796 0.055583186
-0.32827097 -0.09954115 0.055598833
-0.32845184 -0.099462278 0.055587988
-0.32864276 -0.099373206 0.055616304
-0.32880542 -0.099318519 0.055495981
-0.32900071 -0.099220887 0.055569254
-0.32917622 -0.099149317 0.055524979
-0.32935411 -0.099074662 0.055494539
-0.32952964 -0.099003077 0.055450261
-0.32971746 -0.098915718 0.055476289
-0.32990301 -0.098831385 0.05548849
-0.33008066 -0.098760046 0.055436142
-0.33025613 -0.098688662 0.055390716
-0.33044493 -0.098603219 0.055400595
-0.33063385 -0.098515034 0.055428918
-0.330816 -0.098435432 0.055419222
-0.33098069 -0.098377645 0.05531387
-0.33115053 -0.09831062 0.055255778
-0.33134821 -0.098214641 0.055310603
-0.33152935 -0.098136507 0.055293988
-0.33172143 -0.098045044 0.055334989
-0.33192635 -0.097940758 0.055424377
-0.33207759 -0.097901814 0.055231437
-0.33226612 -0.097814977 0.055251695
-0.33244923 -0.097742572 0.055190116
-0.33263618 -0.097655252 0.055218443
-0.33282769 -0.0975703 0.055216793
-0.33300701 -0.097494841 0.055187497
-0.33319783 -0.097408324 0.055198524
-0.33337569 -0.097337253 0.055143878
-0.33355784 -0.097253583 0.055161841
-0.33374697 -0.097169362 0.055162497
-0.33393922 -0.097088985 0.055127401
-0.33411661 -0.097016081 0.055086587
-0.33429489 -0.096939728 0.055066522
-0.33447096 -0.096863501 0.055052221
-0.33464625 -0.096790679 0.055017173
-0.33483157 -0.096708819 0.055013228
-0.33501363 -0.096633159 0.054977011
-0.33517554 -0.096575588 0.054878585
-0.33538729 -0.096459284 0.055029061
-0.33555692 -0.096400157 0.054917939
-0.33574957 -0.096308097 0.054961246
-0.33594668 -0.096213557 0.055007998
-0.33612749 -0.096146569 0.054916445
-0.33631787 -0.096064329 0.054899804
-0.336505 -0.095981166 0.054899305
-0.33668184 -0.095907144 0.054867722
-0.33687422 -0.095820613 0.054874133
-0.33705485 -0.095749311 0.054812551
-0.33725357 -0.09565828 0.05483048
-0.33742744 -0.09558101 0.054830018
-0.33760864 -0.095500313 0.054830696
-0.33780658 -0.095417067 0.054797903
-0.33797809 -0.095349148 0.054740954
-0.33818331 -0.095247269 0.05481305
-0.33834711 -0.095187686 0.054722685
-0.3385174 -0.09511894 0.054674976
-0.33871269 -0.095032319 0.054673307
-0.33891353 -0.094935596 0.054723505
-0.33910251 -0.094855838 0.054694194
-0.33928964 -0.094778091 0.054656811
-0.33946168 -0.094707727 0.054614853
-0.33966601 -0.094609976 0.054661583
-0.33986086 -0.094520152 0.05468297
-0.34003603 -0.09445297 0.05460988
-0.34021619 -0.094376445 0.054585204
-0.34039155 -0.094304949 0.054540925
-0.34057486 -0.094229415 0.054500096
-0.3407748 -0.094136819 0.05452494
-0.3409656 -0.094051681 0.054526739
-0.34115186 -0.093969233 0.054523945
-0.34132612 -0.093901098 0.054460078
-0.34152389 -0.093809143 0.054487228
-0.34172916 -0.093715705 0.054501679
-0.34190091 -0.093650207 0.054427437
-0.34209159 -0.093567669 0.054411955
-0.34227511 -0.093486443 0.054409169
-0.34246594 -0.093405865 0.054379839
-0.34264281 -0.093333349 0.05433787
-0.34282994 -0.093250684 0.054333922
-0.34302974 -0.093161374 0.054336853
-0.34321043 -0.093091071 0.054268364
-0.34342733 -0.092988916 0.054306991
-0.34361273 -0.092912093 0.054268457
-0.34378725 -0.092840299 0.054228801
-0.34399354 -0.092745051 0.054252464
-0.34417233 -0.092667282 0.054240473
-0.34434208 -0.092604034 0.054157011
-0.34455565 -0.092500135 0.054217562
-0.344742 -0.092419006 0.054205537
-0.34493142 -0.092334986 0.054203894
-0.34510201 -0.092272893 0.054110054
-0.24647148 -0.13541728 0.059075929
-0.24669246 -0.13532601 0.059028074
-0.24691623 -0.13523468 0.058972143
-0.24715273 -0.13514125 0.058891967
-0.24738421 -0.13504973 0.058814105
-0.24761811 -0.13495679 0.058738545
-0.24785183 -0.13486545 0.05865261
-0.24811402 -0.13476975 0.058510087
-0.24833372 -0.13468243 0.058439188
-0.24853903 -0.1345917 0.058435187
-0.24875772 -0.13450179 0.058385037
-0.24898069 -0.13441031 0.058332562
-0.24919401 -0.13432091 0.058295101
-0.24940321 -0.13423184 0.05826804
-0.24962369 -0.13414232 0.058209814
-0.24985231 -0.13405256 0.058128498
-0.25007787 -0.13396163 0.058064491
-0.25030658 -0.13387218 0.057980876
-0.25051543 -0.13378224 0.057960726
-0.25073588 -0.1336934 0.057897888
-0.25096309 -0.13360445 0.057815418
-0.25117907 -0.13351607 0.057762973
-0.25140214 -0.13342609 0.057700116
-0.25161791 -0.13333797 0.057646517
-0.25184646 -0.13324809 0.057566356
-0.2520673 -0.1331601 0.057496589
-0.25228897 -0.13307072 0.05743375
-0.25250667 -0.13298312 0.05737092
-0.25273088 -0.13289396 0.057298839
-0.25295839 -0.13280639 0.057206001
-0.25315458 -0.13271973 0.05720203
-0.25337255 -0.13263266 0.05713458
-0.25359103 -0.13254419 0.057075199
-0.25380361 -0.13245751 0.05702161
-0.25401825 -0.1323694 0.056971464
-0.25423259 -0.13228294 0.056910943
-0.25444782 -0.13219507 0.056857336
-0.25465643 -0.13210896 0.056811824
-0.25486678 -0.1320214 0.056770917
-0.25508541 -0.1319339 0.056704625
-0.25529903 -0.13184658 0.056652177
-0.25551036 -0.13176095 0.056595124
-0.25571305 -0.13167392 0.056573838
-0.25592455 -0.13158855 0.056514487
-0.25613552 -0.13150173 0.056466658
-0.25633961 -0.1314166 0.056428067
-0.256547 -0.13133003 0.056389477
-0.25675398 -0.13124515 0.056340501
-0.25696722 -0.13115884 0.056282297
-0.25716951 -0.13107419 0.056246016
-0.25737327 -0.13098803 0.056215513
-0.2575762 -0.1309036 0.056175776
-0.25779605 -0.13081792 0.056093331
-0.25803584 -0.13072303 0.056013145
-0.25818741 -0.13063635 0.0561442
-0.25835142 -0.13055804 0.056180671
-0.25856432 -0.13047104 0.05612823
-0.25887892 -0.13039169 0.055715758
-0.25906593 -0.13030942 0.055709504
-0.25919738 -0.13021898 0.055927087
-0.2594083 -0.13013913 0.055831991
-0.25961298 -0.13005425 0.05578994
-0.25981462 -0.12996939 0.055757135
-0.26001322 -0.1298862 0.055722017
-0.26021263 -0.12980147 0.055694975
-0.26042157 -0.12971553 0.055647153
-0.26061049 -0.12963395 0.055630516
-0.26081479 -0.12954976 0.055585019
-0.26102269 -0.12946245 0.055549882
-0.26120377 -0.12938248 0.055545945
-0.26140431 -0.12929842 0.055510834
-0.26161554 -0.12921335 0.05545032
-0.26179889 -0.12913203 0.055448696
-0.26199102 -0.12904781 0.055440113
-0.26218805 -0.12896398 0.055414237
-0.26238474 -0.12888198 0.055376828
-0.26257938 -0.12879819 0.055357866
-0.26275799 -0.12871695 0.055370085
-0.26294717 -0.12863116 0.055381116
-0.26312512 -0.12854819 0.05540717
-0.26328817 -0.12846233 0.05549784
-0.26344484 -0.12837593 0.055611588
-0.26357096 -0.12828702 0.055834949
-0.26195395 -0.12782606 0.063869178
-0.26249906 -0.12767254 0.063263543
-0.26257858 -0.12756945 0.063724563
-0.26278758 -0.12748621 0.06365829
-0.26309878 -0.12729743 0.064001091
-0.26317489 -0.12719838 0.064444833
-0.26526332 -0.12679394 0.060874067
-0.2654708 -0.12670766 0.060833171
-0.26567012 -0.1266084 0.060905289
-0.26590958 -0.12651637 0.060806654
-0.26608625 -0.12643446 0.060829256
-0.26627195 -0.12634972 0.060843766
-0.26648235 -0.12626028 0.060815539
-0.26668221 -0.12618178 0.060744688
-0.26684499 -0.12611045 0.060737342
-0.26708165 -0.12600866 0.06071366
-0.26726526 -0.12593231 0.060677435
-0.26744902 -0.12584978 0.060682714
-0.2676492 -0.12575522 0.06072025
-0.26783139 -0.12566833 0.060760126
-0.26799986 -0.12559193 0.060770065
-0.26822677 -0.12551463 0.060609192
-0.26840994 -0.12544304 0.060541838
-0.26861227 -0.12534058 0.060626637
-0.26881239 -0.12525061 0.060633034
-0.26898527 -0.1251775 0.06060721
-0.26921073 -0.12508577 0.060548976
-0.26939788 -0.12500022 0.06056463
-0.26956418 -0.12493055 0.060535364
-0.2697472 -0.1248465 0.060553338
-0.26997024 -0.12475482 0.060502015
-0.27016309 -0.12467063 0.060491137
-0.2703723 -0.12458764 0.060422555
-0.27056137 -0.12450514 0.060411684
-0.27072847 -0.12442714 0.060436621
-0.27093551 -0.12433953 0.0604061
-0.27110466 -0.12426434 0.060405664
-0.2712734 -0.12418223 0.060453646
-0.27150166 -0.12410196 0.060308911
-0.27166435 -0.12402321 0.060352303
-0.27186257 -0.12393174 0.060374856
-0.27208185 -0.12384528 0.060299333
-0.27222598 -0.1237692 0.060380824
-0.2724444 -0.1236899 0.060259178
-0.27262726 -0.12360203 0.060303669
-0.27281588 -0.12352277 0.060272038
-0.27299443 -0.12344104 0.060287721
-0.27319035 -0.12335177 0.060302198
-0.27338383 -0.12327408 0.060245194
-0.27355137 -0.12319198 0.06029664
-0.27378419 -0.12311545 0.0601127
-0.27397615 -0.12302793 0.060127184
-0.27414942 -0.12294262 0.060183235
-0.2743302 -0.12286193 0.060185067
-0.27452037 -0.12278655 0.060122304
-0.27471623 -0.12270544 0.060081437
-0.27490214 -0.12261891 0.06010747
-0.27510637 -0.1225329 0.06007465
-0.27528095 -0.12245581 0.060070738
-0.27547303 -0.12237654 0.060028724
-0.2756786 -0.12228872 0.06000397
-0.27585158 -0.12221659 0.059971236
-0.27600637 -0.12213593 0.060051546
-0.2762064 -0.12205178 0.060018733
-0.276409 -0.12197663 0.059916735
-0.27659044 -0.12188905 0.059963539
-0.2767815 -0.12180752 0.059939981
-0.27697772 -0.12173336 0.059850685
-0.2771444 -0.12164877 0.059921734
-0.27735087 -0.12156768 0.059848551
-0.27752742 -0.12150056 0.059770837
-0.27771688 -0.12140789 0.059827998
-0.27791274 -0.12131762 0.059849393
-0.27809912 -0.12123495 0.059847757
-0.27827024 -0.12115771 0.059855379
-0.27845269 -0.12107645 0.05985605
-0.27865297 -0.12100539 0.059733301
-0.27883458 -0.12092112 0.059757046
-0.27903131 -0.1208403 0.059711561
-0.27920881 -0.12075141 0.059779126
-0.27939028 -0.12067601 0.059742909
-0.27959171 -0.12059461 0.059687037
-0.27978313 -0.12052393 0.059588529
-0.27995783 -0.1204429 0.059611134
-0.28013977 -0.12035611 0.05965101
-0.28033739 -0.12027658 0.059593998
-0.28052631 -0.12019312 0.059590045
-0.2806901 -0.12011321 0.059638038
-0.2808668 -0.12003638 0.05962605
-0.28107142 -0.11996084 0.059520587
-0.28125519 -0.1198751 0.059547782
-0.28142533 -0.11979525 0.059576161
-0.28163728 -0.11972087 0.059440702
-0.281827 -0.11963519 0.059449427
-0.28201678 -0.11955287 0.059435099
-0.28221038 -0.11946277 0.059462268
-0.28240937 -0.11938567 0.059384488
-0.28258127 -0.11930707 0.059399031
-0.28273603 -0.11922558 0.059485104
-0.28293449 -0.11915196 0.059385426
-0.28311926 -0.11907067 0.059379175
-0.28331378 -0.11898828 0.059350997
-0.283476 -0.11891805 0.059337888
-0.28365523 -0.11883009 0.059393924
-0.28383902 -0.11875197 0.059369229
-0.28405109 -0.11866669 0.059307553
-0.28422961 -0.11858548 0.059319772
-0.28443518 -0.11850361 0.059254669
-0.28459829 -0.11844551 0.059156232
-0.28478876 -0.11834662 0.05925259
-0.28497207 -0.11826515 0.059252113
-0.28515959 -0.11819419 0.059167452
-0.28531712 -0.11811011 0.059262745
-0.28549081 -0.1180219 0.05933724
-0.28569221 -0.11795746 0.059166059
-0.28586033 -0.11787698 0.059204824
-0.28605026 -0.11780476 0.059121303
-0.28623462 -0.11772062 0.059135817
-0.28641695 -0.11764298 0.059112273
-0.28660774 -0.11755987 0.059100248
-0.28678533 -0.1174828 0.059087101
-0.28696522 -0.11740353 0.059082016
-0.28715566 -0.11731618 0.059099972
-0.28734463 -0.11723609 0.059072956
-0.28751189 -0.11716344 0.059060987
-0.28769457 -0.11708683 0.059029378
-0.28787494 -0.11700835 0.059017371
-0.28806862 -0.11693294 0.058944225
-0.28825828 -0.11684526 0.058966789
-0.2884424 -0.11676597 0.058949016
-0.28861046 -0.11669466 0.058925513
-0.28877968 -0.11661065 0.058985032
-0.28897479 -0.11654223 0.058859993
-0.28916812 -0.11646307 0.058813363
-0.28935122 -0.11637865 0.058833636
-0.28952548 -0.11629002 0.058909282
-0.28970072 -0.11621688 0.058876544
-0.28987724 -0.11614029 0.058863401
-0.29006588 -0.11606678 0.058792569
-0.29024619 -0.11599969 0.058703311
-0.29043064 -0.11591703 0.058707446
-0.29061371 -0.11583803 0.058690827
-0.29077959 -0.11573925 0.05886104
-0.29095218 -0.11565847 0.058888264
-0.29115361 -0.11560672 0.058630608
-0.2913363 -0.11551671 0.058690086
-0.29150984 -0.11543738 0.058704626
-0.29169035 -0.11536122 0.058676481
-0.29188803 -0.11530165 0.058483396
-0.29205224 -0.11519309 0.058725111
-0.29223552 -0.11511502 0.058701575
-0.29242578 -0.11504063 0.05863189
-0.29260582 -0.11495841 0.058646414
-0.29278454 -0.11488659 0.058594063
-0.29296839 -0.11481623 0.058516316
-0.29316178 -0.11473503 0.058483534
-0.29333368 -0.11465371 0.058516525
-0.2935082 -0.11456972 0.05855988
-0.29369166 -0.11449309 0.058525957
-0.29386961 -0.1144145 0.058522038
-0.29403725 -0.11433271 0.058571182
-0.29422873 -0.11427691 0.058371201
-0.29442117 -0.1142024 0.058295749
-0.29459119 -0.11409601 0.058505166
-0.29476365 -0.11402257 0.058482811
-0.29495597 -0.11396335 0.058303572
-0.29513329 -0.11386134 0.058461085
-0.29531071 -0.1137979 0.0583557
-0.2955015 -0.1137297 0.058242191
-0.29567567 -0.11362825 0.058405474
-0.29587016 -0.11356009 0.058280438
-0.29604307 -0.11348037 0.058299582
-0.29622713 -0.11340771 0.058236845
-0.29640791 -0.11331923 0.058291718
-0.29657924 -0.11323563 0.058341999
-0.29676113 -0.11316767 0.058253892
-0.29694358 -0.11309217 0.058215365
-0.29712459 -0.11301339 0.058203358
-0.29730073 -0.11293191 0.058224812
-0.29747882 -0.11285562 0.058204748
-0.29766071 -0.11277936 0.058173139
-0.29784119 -0.11269932 0.058171511
-0.29802036 -0.11262663 0.05812376
-0.29820022 -0.112545 0.058134831
-0.29837787 -0.11246807 0.058120526
-0.2985647 -0.11238471 0.058122344
-0.29874456 -0.1123029 0.058134563
-0.29892376 -0.11223155 0.058077589
-0.29910901 -0.112156 0.058030985
-0.2992771 -0.11207146 0.058097422
-0.29944444 -0.1119976 0.058093522
-0.2996324 -0.11193371 0.057959281
-0.29980734 -0.11184665 0.058022238
-0.29999182 -0.11176923 0.057990633
-0.30017504 -0.11170304 0.05788637
-0.30036369 -0.11161225 0.057933155
-0.3005273 -0.11153852 0.057939641
-0.30070508 -0.11146442 0.057905745
-0.30089563 -0.11138328 0.057881027
-0.30107176 -0.11130025 0.057912856
-0.30123872 -0.11122504 0.057919338
-0.30141288 -0.1111512 0.057894669
-0.30159613 -0.11106806 0.057905726
-0.30177742 -0.11099628 0.057845291
-0.30195469 -0.11092088 0.057821758
-0.30213535 -0.11084533 0.057789005
-0.30231884 -0.11076479 0.057781607
-0.30249557 -0.11068489 0.057790376
-0.30267283 -0.11061085 0.05775762
-0.30285278 -0.11052817 0.057775602
-0.3030265 -0.11045249 0.057764765
-0.30320477 -0.11039781 0.057597108
-0.30338386 -0.11029942 0.057724632
-0.30355436 -0.11022753 0.057697665
-0.30373484 -0.11015782 0.057625707
-0.30391166 -0.11007957 0.057622939
-0.30409172 -0.10999684 0.05764091
-0.3042751 -0.10991093 0.057670422
-0.30444872 -0.10984341 0.057604238
-0.30462551 -0.10977466 0.0575369
-0.30480236 -0.10969301 0.057557192
-0.30497926 -0.10961338 0.057563648
-0.30516288 -0.10952653 0.057598911
-0.30534595 -0.1094555 0.057528097
-0.30551505 -0.10940455 0.057362765
-0.30570152 -0.10932303 0.057353053
-0.30587935 -0.10922774 0.057463288
-0.30604947 -0.10915518 0.057442088
-0.30623639 -0.10906956 0.057458892
-0.306429 -0.10899174 0.057405353
-0.30660656 -0.10890639 0.0574487
-0.306777 -0.10883082 0.057447098
-0.3069481 -0.10874918 0.057484709
-0.30712911 -0.10868973 0.057341252
-0.30731431 -0.10859489 0.057426099
-0.30747971 -0.10853441 0.057336882
-0.30766755 -0.10846618 0.057232611
-0.30783936 -0.10838067 0.057294425
-0.30801949 -0.10830162 0.057287041
-0.30821106 -0.10822733 0.05721274
-0.30838251 -0.10814553 0.057250351
-0.30856219 -0.10806923 0.057225663
-0.30874184 -0.10799295 0.057200979
-0.308918 -0.10791923 0.057169385
-0.30909184 -0.1078418 0.057170082
-0.30927178 -0.10774928 0.057254948
-0.30945417 -0.10767449 0.057211801
-0.30964205 -0.10760132 0.05714098
-0.30980635 -0.10752745 0.057146315
-0.30998588 -0.10745155 0.057119317
-0.31015885 -0.10737858 0.057092354
-0.31033245 -0.10730277 0.057082675
-0.31051791 -0.10721476 0.057120234
-0.31069472 -0.10713821 0.057105944
-0.31086606 -0.10707137 0.057042077
-0.31103989 -0.10700563 0.056963213
-0.31121776 -0.10693539 0.056902785
-0.31139097 -0.10685079 0.056954224
-0.31157413 -0.10677174 0.056937601
-0.31174311 -0.10670223 0.056899104
-0.31192601 -0.10661467 0.056941297
-0.3121112 -0.10652018 0.057023838
-0.31230167 -0.10643654 0.05701641
-0.312473 -0.1063775 0.05689951
-0.31266135 -0.10629158 0.056914009
-0.31285405 -0.10618442 0.057059936
-0.3130253 -0.10613339 0.056888841
-0.31320482 -0.10605732 0.056863006
-0.31337065 -0.10598871 0.056827974
-0.31354243 -0.105911 0.056836754
-0.31371614 -0.10583583 0.05682246
-0.31390095 -0.10576047 0.05677586
-0.3140851 -0.10567201 0.056820348
-0.3142598 -0.10560166 0.056770306
-0.3144367 -0.1055254 0.056753706
-0.31461161 -0.10544733 0.05675555
-0.31478265 -0.1053791 0.056702062
-0.31497478 -0.10529201 0.056713093
-0.31514949 -0.10522132 0.056665361
-0.31531861 -0.10514446 0.056676447
-0.31549937 -0.10506564 0.056665599
-0.31567982 -0.10499391 0.056607477
-0.31585747 -0.10491614 0.056598939
-0.31603029 -0.10484339 0.056570813
-0.31621361 -0.10475886 0.056591097
-0.31639329 -0.10467681 0.056605615
-0.31657022 -0.10460681 0.056546338
-0.31674728 -0.10453065 0.056528587
-0.31693316 -0.10444687 0.056536168
-0.31711531 -0.10436557 0.056538001
-0.31728765 -0.10429405 0.056502961
-0.31747019 -0.10421207 0.056508243
-0.31764948 -0.10413696 0.056476649
-0.31782874 -0.10405661 0.056480791
-0.31801972 -0.10396834 0.056503348
-0.31819481 -0.10389662 0.056461386
-0.31836337 -0.10383272 0.056385994
-0.31855479 -0.10373884 0.056445457
-0.31872314 -0.10367519 0.056368914
-0.31890091 -0.10359822 0.056354608
-0.31908327 -0.10351733 0.056352984
-0.31927058 -0.10343206 0.056366328
-0.31944302 -0.10336524 0.056299001
-0.31961447 -0.10329548 0.056254737
-0.31980371 -0.10320678 0.056285378
-0.31999341 -0.10310843 0.056380589
-0.32016227 -0.10305709 0.056218714
-0.32034156 -0.10297774 0.056215938
-0.32053226 -0.10288265 0.056285776
-0.32071152 -0.10280366 0.056280702
-0.32088172 -0.10274918 0.056136116
-0.32105595 -0.10267887 0.056087237
-0.32125288 -0.10257372 0.056206644
-0.32143942 -0.10249098 0.056204997
-0.32161576 -0.10242142 0.05614458
-0.32180309 -0.10234155 0.056121029
-0.32198352 -0.10225695 0.056150533
-0.32216933 -0.10217572 0.056140825
-0.32234222 -0.1021038 0.05610694
-0.32251835 -0.1020345 0.056045361
-0.32268858 -0.1019668 0.055990726
-0.32287976 -0.10187709 0.05602251
-0.32305238 -0.10180562 0.055986319
-0.32324553 -0.10170927 0.0560573
-0.32342923 -0.10163186 0.056027994
-0.32360744 -0.10155554 0.056007929
-0.32378063 -0.10148703 0.055949826
-0.32396239 -0.10140896 0.055930901
-0.3241339 -0.10133934 0.055885475
-0.32432663 -0.10124826 0.055921875
-0.32451269 -0.10116031 0.055957131
-0.32469106 -0.10108764 0.055911697
-0.32486907 -0.10101548 0.055863958
-0.32505104 -0.10094086 0.055820823
-0.32523566 -0.10085203 0.055866458
-0.32540351 -0.10078793 0.05579453
-0.32558036 -0.10071746 0.055738725
-0.32574821 -0.10065659 0.055644881
-0.32594693 -0.10055454 0.055737767
-0.3261168 -0.10049073 0.055657763
-0.32631359 -0.10039192 0.0557345
-0.32648394 -0.10032418 0.055679865
-0.32669085 -0.10021476 0.055798087
