# .PCD v0.7 - Point Cloud Data file format
VERSION 0.7
FIELDS x y z
SIZE 4 4 4
TYPE F F F
COUNT 1 1 1
WIDTH 1280
HEIGHT 1
VIEWPOINT 0 0 0 1 0 0 0
POINTS 1280
DATA ascii
-0.065861344 -0.44600996 0.056249857
-0.06602601 -0.44613618 0.056242015
-0.066189922 -0.44626102 0.056238808
-0.066353701 -0.44638574 0.056235589
-0.06651675 -0.44650915 0.056236982
-0.066688031 -0.44664964 0.056174904
-0.066855296 -0.44678214 0.056141689
-0.067021176 -0.44691202 0.056117699
-0.067192562 -0.44704965 0.056072921
-0.067351788 -0.447166 0.056098565
-0.067517646 -0.44729644 0.056071118
-0.067683749 -0.44742769 0.056040209
-0.067844979 -0.44754872 0.056047384
-0.068005972 -0.44766939 0.05605571
-0.068172894 -0.44780299 0.056014419
-0.068340585 -0.44793859 0.055965051
-0.068500057 -0.44805217 0.056007985
-0.068657748 -0.44816619 0.056040559
-0.068797305 -0.44827056 0.056049012
-0.068984114 -0.44841892 0.056009911
-0.069105618 -0.44850525 0.056043841
-0.069313064 -0.44867831 0.055951569
-0.069487981 -0.44883221 0.055827193
-0.069648124 -0.44895732 0.055805549
-0.069809414 -0.44907153 0.055853091
-0.069968656 -0.44919026 0.055864889
-0.07013528 -0.44932643 0.055807449
-0.070297256 -0.44945195 0.055791561
-0.070451282 -0.44955885 0.055849515
-0.070617653 -0.4496952 0.055789776
-0.070783675 -0.44983113 0.055731189
-0.070948057 -0.44996339 0.055686451
-0.071107469 -0.4500789 0.055717856
-0.071265288 -0.45019558 0.055735432
-0.071425334 -0.45031789 0.055729926
-0.07158868 -0.4504486 0.055689812
-0.071750253 -0.45057523 0.055665847
-0.07191126 -0.45070061 0.055646498
-0.07207343 -0.45082927 0.055613302
-0.072234571 -0.45095554 0.055589341
-0.072406091 -0.45110369 0.055483442
-0.072561048 -0.45121446 0.055522941
-0.072717145 -0.45132822 0.055549756
-0.072877638 -0.45145383 0.055526949
-0.073036969 -0.45157659 0.055515688
-0.073202223 -0.45171565 0.055435188
-0.073359475 -0.45183325 0.055444695
-0.073516168 -0.45194945 0.055459969
-0.073678307 -0.45208102 0.055409472
-0.073838547 -0.45220762 0.055379756
-0.073998913 -0.45233488 0.055346571
-0.074159577 -0.45246339 0.055307612
-0.074314766 -0.45257628 0.055335585
-0.074470371 -0.45269048 0.055357791
-0.074632615 -0.45281798 0.055331513
-0.074794076 -0.45295003 0.055275261
-0.074948139 -0.45306012 0.055314768
-0.075104773 -0.45317805 0.055319663
-0.075244673 -0.45331225 0.055155113
-0.075425118 -0.45343664 0.05522792
-0.075578317 -0.45354447 0.055276662
-0.075717196 -0.45365602 0.055240143
-0.075901866 -0.45382285 0.055083424
-0.076053984 -0.45392039 0.055187527
-0.076211646 -0.45404345 0.055167045
-0.076370388 -0.45417047 0.055128098
-0.076526448 -0.45428878 0.055128384
-0.076679796 -0.45439792 0.055170208
-0.076838404 -0.45452541 0.0551278
-0.076999024 -0.45466056 0.055049643
-0.077154413 -0.45477757 0.055054545
-0.077312544 -0.45490471 0.055012144
-0.077469759 -0.45502901 0.054982435
-0.077627301 -0.45515493 0.054944657
-0.077780895 -0.45526621 0.054974943
-0.07793498 -0.45537946 0.054996002
-0.078096002 -0.45551097 0.054940902
-0.078251891 -0.45563188 0.054925043
-0.07840775 -0.45575297 0.05490803
-0.07856337 -0.45587349 0.054893322
-0.078719921 -0.45599827 0.054857858
-0.078879446 -0.45613632 0.054757781
-0.079031885 -0.45624438 0.054801915
-0.079185411 -0.45635721 0.054822978
-0.079336837 -0.45647138 0.054826751
-0.079492636 -0.456595 0.05479474
-0.079648353 -0.45671874 0.054761581
-0.079801954 -0.4568328 0.054775722
-0.079957165 -0.45695496 0.054749485
-0.08011286 -0.45708007 0.054708257
-0.080266967 -0.45719767 0.054703936
-0.080421612 -0.45731843 0.054683473
-0.080572374 -0.45743191 0.054688402
-0.080726512 -0.4575507 0.054677166
-0.080885202 -0.45769602 0.054530971
-0.08103691 -0.45780215 0.054583177
-0.081190042 -0.45791662 0.054592703
-0.081342675 -0.45802817 0.054617226
-0.081496924 -0.45815021 0.054587536
-0.081651896 -0.45827773 0.054529011
-0.081803069 -0.45839763 0.054498192
-0.081955589 -0.45850989 0.054518096
-0.082108967 -0.45862851 0.054504558
-0.082261831 -0.45874375 0.054508328
-0.082411885 -0.45885751 0.054508649
-0.082565546 -0.45898005 0.054473191
-0.082718417 -0.45909691 0.054467726
-0.082872003 -0.45922083 0.0544242
-0.083021268 -0.45932961 0.054449897
-0.083174691 -0.45945379 0.054404061
-0.083324648 -0.45957059 0.054385938
-0.083469197 -0.45968664 0.054348223
-0.083613113 -0.45979652 0.054343961
-0.0837662 -0.45992237 0.054286599
-0.083935089 -0.46004844 0.054298349
-0.084084399 -0.46016201 0.054296367
-0.084239446 -0.46028247 0.054279357
-0.084391199 -0.46039355 0.05430273
-0.084535047 -0.46050888 0.054266181
-0.084684312 -0.46062633 0.054241128
-0.084827825 -0.46073866 0.054220729
-0.084985182 -0.46085832 0.054218698
-0.085120134 -0.46096432 0.054197192
-0.085266113 -0.46107417 0.054202147
-0.085420698 -0.46120277 0.054135546
-0.085586138 -0.46132287 0.054166928
-0.085740447 -0.46145383 0.05408534
-0.085891783 -0.46155867 0.05414331
-0.086048663 -0.46168545 0.054097466
-0.086194217 -0.46180168 0.054063205
-0.086339772 -0.46191299 0.054057784
-0.086482354 -0.46202695 0.054023542
-0.086633407 -0.46214125 0.054025009
-0.086800843 -0.46227702 0.053973339
-0.086948961 -0.4623895 0.053972512
-0.087096989 -0.46250266 0.053967081
-0.087233976 -0.46260431 0.053980157
-0.087376103 -0.46271694 0.053951688
-0.08752697 -0.46282932 0.053963535
-0.087668419 -0.46294853 0.053893551
-0.0878269 -0.46307477 0.053858064
-0.087969549 -0.46317738 0.05389072
-0.088099942 -0.46328306 0.053850789
-0.088256031 -0.46340078 0.053854533
-0.088415168 -0.46354446 0.053719863
-0.088546686 -0.46366265 0.053611878
-0.088716656 -0.46376431 0.053771242
-0.088856496 -0.46386436 0.053806216
-0.089023121 -0.46399304 0.0537926
-0.089181013 -0.46411744 0.053765196
-0.089309841 -0.46422806 0.053689517
-0.089454405 -0.46433705 0.053693332
-0.089596614 -0.46444127 0.05371445
-0.089754283 -0.46456492 0.053690508
-0.089902975 -0.46468508 0.053647012
-0.090053879 -0.46479335 0.053683076
-0.09019459 -0.46490473 0.053655766
-0.09033978 -0.4650248 0.053597298
-0.090489171 -0.46513981 0.053587243
-0.09064351 -0.46526131 0.053561013
-0.09078756 -0.46537068 0.053560212
-0.090940066 -0.46548569 0.053563979
-0.091089226 -0.46560073 0.053552765
-0.091239035 -0.46571308 0.053560011
-0.091380842 -0.46583021 0.053503864
-0.091518611 -0.46596101 0.053349707
-0.091670804 -0.46606413 0.05342152
-0.091812454 -0.46616894 0.053436872
-0.09195894 -0.46628013 0.053436063
-0.092109986 -0.46639857 0.053413313
-0.09225861 -0.46651357 0.053399794
-0.09241084 -0.46662799 0.053405873
-0.09256269 -0.46674347 0.053403873
-0.092711359 -0.46685791 0.053393826
-0.092853166 -0.4669717 0.053357277
-0.093006164 -0.46708369 0.053380653
-0.093154117 -0.46720883 0.053304859
-0.093297273 -0.46732739 0.053246394
-0.093447909 -0.46743605 0.053279012
-0.093602099 -0.46754503 0.053325437
-0.093747735 -0.46766564 0.05326581
-0.093893602 -0.46777698 0.053261533
-0.094035007 -0.46789813 0.053180024
-0.094185993 -0.46800607 0.053218398
-0.094326325 -0.4681209 0.05316918
-0.094473407 -0.4682292 0.053187966
-0.094617717 -0.46835849 0.05307183
-0.094772384 -0.46846664 0.053125184
-0.094915807 -0.46857455 0.053130142
-0.095066816 -0.46869001 0.0531247
-0.09521918 -0.46881002 0.053098481
-0.095364228 -0.46892193 0.053087294
-0.09550336 -0.46903032 0.05307037
-0.095651567 -0.46914342 0.053066082
-0.095796607 -0.46926183 0.053016845
-0.095951617 -0.46937674 0.05303213
-0.09609548 -0.46948361 0.053045165
-0.096239567 -0.46960306 0.052985549
-0.096388742 -0.46972066 0.052959345
-0.096543476 -0.46982965 0.053008076
-0.096689418 -0.46994579 0.052976124
-0.096831016 -0.47006196 0.052924599
-0.096980661 -0.47018445 0.052871868
-0.09712176 -0.47029492 0.052851476
-0.097277127 -0.47040913 0.052872524
-0.097420104 -0.47052851 0.0528083
-0.097565994 -0.4706381 0.052814405
-0.097712614 -0.47075239 0.052796289
-0.097868286 -0.47086623 0.052820798
-0.098020099 -0.470974 0.052863777
-0.09816201 -0.47109398 0.052791491
-0.098308623 -0.47120804 0.052774526
-0.09845376 -0.47132376 0.052741427
-0.098596513 -0.47143686 0.052712955
-0.098749205 -0.47155416 0.052704029
-0.09889923 -0.47166926 0.052696284
-0.09904962 -0.4717789 0.05272197
-0.099190138 -0.47188914 0.05270043
-0.099335767 -0.47200876 0.05264657
-0.099483311 -0.47212139 0.05264229
-0.099633075 -0.4722414 0.052604545
-0.099786475 -0.47235295 0.052632526
-0.099927716 -0.47246689 0.052592531
-0.10007507 -0.47257954 0.052587099
-0.10022003 -0.47269905 0.052530937
-0.10037446 -0.47281432 0.05254161
-0.10051998 -0.47292402 0.052545421
-0.10067055 -0.47303382 0.052571107
-0.10081217 -0.47315139 0.052511502
-0.10095859 -0.47326472 0.052497998
-0.10110302 -0.47338837 0.052415315
-0.10125918 -0.47350219 0.052442119
-0.10141058 -0.47361141 0.052474722
-0.10155261 -0.47371966 0.05247163
-0.10169818 -0.47383353 0.052451212
-0.10184295 -0.47394797 0.052423887
-0.10198867 -0.47406983 0.052357338
-0.10212933 -0.47418708 0.052295428
-0.10227727 -0.47430295 0.052273843
-0.10243235 -0.47441381 0.052313354
-0.10257675 -0.47452816 0.05228487
-0.10272025 -0.47464696 0.052226406
-0.1028734 -0.47475538 0.052271686
-0.10302394 -0.47486946 0.052272007
-0.1031733 -0.4749805 0.052285012
-0.10331777 -0.47509846 0.052235767
-0.10346702 -0.4752171 0.052203808
-0.10362104 -0.47532535 0.052253693
-0.10376318 -0.4754445 0.052187167
-0.10390826 -0.47555447 0.052187506
-0.1040563 -0.47567001 0.052168231
-0.10420771 -0.47578004 0.052196223
-0.10435123 -0.47589806 0.052142378
-0.10449086 -0.47601452 0.052080475
-0.1046466 -0.47612587 0.052119981
-0.10478952 -0.47624049 0.052083425
-0.10493542 -0.47635698 0.052049175
-0.10508246 -0.4764694 0.052043743
-0.10522749 -0.47658622 0.052003719
-0.10537133 -0.47670016 0.05197525
-0.10553103 -0.47680998 0.052041251
-0.10567571 -0.47692022 0.052038133
-0.10581888 -0.47703779 0.051985439
-0.10596776 -0.47714943 0.051992688
-0.10611819 -0.477267 0.051972248
-0.10626022 -0.47737837 0.051950701
-0.10640434 -0.47749528 0.051906072
-0.10655539 -0.47761568 0.051871788
-0.10669784 -0.47772679 0.051853694
-0.10684302 -0.47783998 0.051835589
-0.10698919 -0.47795588 0.051805943
-0.10713954 -0.47806707 0.051822402
-0.10729071 -0.47818422 0.051807731
-0.10744002 -0.47829896 0.051798828
-0.10758369 -0.47840962 0.051788796
-0.10773171 -0.47852179 0.051789131
-0.10788538 -0.47863513 0.05180788
-0.10802407 -0.47875047 0.051748291
-0.10817415 -0.478865 0.051743995
-0.1083116 -0.4789806 0.051677495
-0.10846869 -0.47909296 0.051716991
-0.10861279 -0.47920355 0.051709272
-0.10875732 -0.47931978 0.051670406
-0.10889522 -0.47943789 0.051591214
-0.10905204 -0.4795534 0.051611107
-0.10920238 -0.47966793 0.051607955
-0.10934207 -0.47977972 0.051573742
-0.10949188 -0.4798972 0.051550996
-0.10963795 -0.48000729 0.051554792
-0.10980169 -0.48012137 0.05161386
-0.1099406 -0.48023334 0.051575027
-0.11008716 -0.4803462 0.051564984
-0.1102379 -0.48046082 0.051562991
-0.11037306 -0.48057628 0.051487274
-0.11052036 -0.48069164 0.051465694
-0.11065514 -0.48080698 0.05138883
-0.11080583 -0.4809216 0.051386837
-0.11095959 -0.481033 0.051417127
-0.11111018 -0.48114774 0.051413987
-0.11125724 -0.48126057 0.051406246
-0.11139574 -0.48137498 0.051351268
-0.11154912 -0.48148927 0.051363103
-0.11169602 -0.48160475 0.051339224
-0.11183802 -0.48171848 0.051303834
-0.11198017 -0.48183468 0.051254604
-0.11213138 -0.48194692 0.05126876
-0.11228865 -0.48206079 0.051300175
-0.11243174 -0.48217437 0.051270545
-0.1125802 -0.48228964 0.051254734
-0.11272393 -0.4824031 0.051228557
-0.1128815 -0.48251721 0.051259972
-0.11302037 -0.48263133 0.051208463
-0.11316418 -0.4827472 0.051168442
-0.11331557 -0.48285976 0.051181447
-0.11345524 -0.48297369 0.051134534
-0.11360607 -0.48308879 0.051130239
-0.11375577 -0.48320168 0.051134024
-0.11389863 -0.48331526 0.051103242
-0.11404629 -0.4834331 0.051068969
-0.11419871 -0.48354349 0.051099263
-0.11435254 -0.48365852 0.051108785
-0.11449969 -0.4837718 0.051098742
-0.11464158 -0.48388782 0.051049516
-0.11478995 -0.48400104 0.051045228
-0.11494388 -0.48411852 0.051040918
-0.11508922 -0.48423201 0.051021658
-0.11522804 -0.48434588 0.050971292
-0.11537337 -0.48445937 0.050952032
-0.11552107 -0.48457724 0.050917767
-0.11568071 -0.48469234 0.050952632
-0.1158241 -0.48480377 0.050936844
-0.11597212 -0.48492163 0.05090373
-0.11610982 -0.4850333 0.050861437
-0.1162708 -0.48515078 0.050888225
-0.11643016 -0.48527059 0.05089426
-0.11655122 -0.48538044 0.050788641
-0.11670455 -0.48549607 0.050792404
-0.11685447 -0.48560753 0.050805405
-0.11700816 -0.4857254 0.050797634
-0.11715513 -0.48583698 0.050796814
-0.1172896 -0.48595285 0.050715335
-0.11745335 -0.48606873 0.050764013
-0.11759672 -0.48618248 0.050734386
-0.11774402 -0.4862963 0.050722033
-0.11788464 -0.48641214 0.050668206
-0.1180426 -0.48652613 0.050701927
-0.1181892 -0.48664415 0.050661892
-0.11833788 -0.48675606 0.050666835
-0.11847553 -0.48687178 0.050600331
-0.11863229 -0.48698804 0.050615601
-0.11878175 -0.48710212 0.050611317
-0.11892582 -0.48721603 0.050583988
-0.11907738 -0.48733425 0.050564691
-0.11923305 -0.48744869 0.050585739
-0.11937669 -0.48756465 0.050544582
-0.11951946 -0.48767856 0.050511491
-0.11965806 -0.48779425 0.050449602
-0.11981061 -0.48790869 0.050456818
-0.11995764 -0.48802286 0.050441012
-0.12011431 -0.48813769 0.050464362
-0.12026879 -0.48825437 0.050466966
-0.12040772 -0.48836812 0.050417747
-0.1205689 -0.4884854 0.050446842
-0.12070757 -0.48859915 0.050396476
-0.12085585 -0.48871744 0.050362211
-0.12100114 -0.4888317 0.050338332
-0.12115597 -0.48894864 0.050340936
-0.12130222 -0.48906302 0.050320521
-0.12144734 -0.48917735 0.050295491
-0.12160297 -0.48929077 0.050322302
-0.12174685 -0.48940691 0.050281141
-0.12188596 -0.48952258 0.050221551
-0.12204924 -0.48964065 0.050255243
-0.12219836 -0.48975366 0.050255559
-0.12234291 -0.48986992 0.050216697
-0.12249406 -0.48998505 0.050213553
-0.12263311 -0.49009892 0.050164342
-0.12278862 -0.49021462 0.050177321
-0.12293542 -0.4903312 0.050146516
-0.12308003 -0.49044573 0.050118029
-0.12324295 -0.49056429 0.050147116
-0.12339576 -0.49067992 0.050148573
-0.12354054 -0.49079457 0.050120085
-0.12368003 -0.49091032 0.050061643
-0.12384652 -0.49102786 0.050112616
-0.1239785 -0.49114087 0.050036918
-0.12413385 -0.49125704 0.05004644
-0.12427276 -0.49137098 0.049996071
-0.12443238 -0.49148962 0.050010186
-0.12456425 -0.49160254 0.049934477
-0.12471661 -0.4917202 0.049922097
-0.12488204 -0.4918381 0.049966156
-0.12503047 -0.49195355 0.049949188
-0.12516624 -0.49206707 0.049887307
-0.12532017 -0.49218515 0.049879536
-0.12547596 -0.49230182 0.049887896
-0.1256025 -0.49241388 0.049793772
-0.12576337 -0.49253148 0.04981941
-0.12592256 -0.49265057 0.049828894
-0.12607753 -0.49276567 0.049843028
-0.12622191 -0.49288237 0.049800709
-0.12637791 -0.49299943 0.049807914
-0.12653032 -0.49311593 0.049802452
-0.12666485 -0.4932293 0.049735971
-0.12683517 -0.49335074 0.049781159
-0.12698065 -0.49346611 0.049751513
-0.12713166 -0.49358255 0.0497403
-0.12728824 -0.49370006 0.049747501
-0.12743019 -0.49381649 0.049695965
-0.12758486 -0.49393374 0.049696259
-0.12774251 -0.49405321 0.049696535
-0.12788796 -0.49416879 0.049665738
-0.12804294 -0.49428624 0.049666032
-0.12818885 -0.49440196 0.04963639
-0.12834898 -0.49452215 0.049643572
-0.12848404 -0.49463573 0.049578235
-0.12863228 -0.49475518 0.049537051
-0.12880154 -0.49487421 0.049591467
-0.12895027 -0.49499068 0.049569879
-0.1290897 -0.49510521 0.049518354
-0.12924391 -0.49522448 0.049504813
-0.12939423 -0.49534136 0.049487837
-0.12954789 -0.49546057 0.049471989
-0.1297031 -0.49557862 0.04946997
-0.12986353 -0.49569944 0.04947485
-0.13000019 -0.49581501 0.049404886
-0.13016784 -0.49593598 0.049440861
-0.13030128 -0.49604934 0.049369767
-0.1304602 -0.49616998 0.049368884
-0.13060182 -0.4962852 0.049323119
-0.13075946 -0.49640566 0.049317628
-0.13090679 -0.49652225 0.049289137
-0.1310627 -0.49664241 0.049277887
-0.13123246 -0.49676439 0.049317311
-0.13136309 -0.49688011 0.049219701
-0.13154492 -0.49700516 0.049294814
-0.13170931 -0.49712762 0.049307741
-0.13185185 -0.4972463 0.049245819
-0.1319916 -0.49735829 0.049210444
-0.13213101 -0.49747321 0.049156621
-0.13228962 -0.49759442 0.049151126
-0.13246912 -0.49772242 0.04919856
-0.13261184 -0.49783826 0.04915395
-0.13276689 -0.49795875 0.049136933
-0.13292342 -0.4980782 0.049132608
-0.13307559 -0.49819508 0.04912369
-0.13322082 -0.49831462 0.049068671
-0.13338056 -0.49843651 0.049064327
-0.13352773 -0.49855512 0.049023148
-0.13370031 -0.49867907 0.049063705
-0.13383469 -0.49879292 0.048993766
-0.13398081 -0.49891132 0.048949122
-0.1341674 -0.49904215 0.049011517
-0.13432036 -0.49915966 0.049002592
-0.1344777 -0.49928129 0.048989031
-0.13460939 -0.49939448 0.048911028
-0.13477831 -0.49951938 0.048929699
-0.13491493 -0.49963397 0.048865501
-0.13508864 -0.49976033 0.048896834
-0.13525142 -0.49988371 0.04889708
-0.1354014 -0.50000072 0.048877794
-0.13554943 -0.50011861 0.04884468
-0.1356934 -0.50023681 0.048791982
-0.13588171 -0.50036776 0.048861288
-0.13601702 -0.50048214 0.048792489
-0.13616538 -0.50060165 0.048751302
-0.13633448 -0.5007273 0.048766501
-0.13649572 -0.50085348 0.048743702
-0.13663839 -0.50096726 0.048710607
-0.13681518 -0.50109541 0.048745383
-0.13695416 -0.50121099 0.048685793
-0.13712314 -0.50133693 0.048698694
-0.1372889 -0.50146061 0.048710451
-0.1374345 -0.50157958 0.048660055
-0.13759014 -0.50170034 0.048644193
-0.13773508 -0.50181651 0.048607636
-0.13789815 -0.50194365 0.048587125
-0.056123514 -0.43848082 0.057098985
-0.056295764 -0.43861103 0.057101488
-0.056489289 -0.43877292 0.057012752
-0.056662489 -0.438905 0.057008341
-0.056839865 -0.43904403 0.056981973
-0.057012703 -0.43917584 0.056977563
-0.057185382 -0.43930754 0.056973141
-0.057366181 -0.43945268 0.056925997
-0.057557855 -0.43961594 0.056821123
-0.057719685 -0.43973035 0.056869831
-0.057891682 -0.43985876 0.056881566
-0.058062129 -0.43998757 0.056884076
-0.058244172 -0.44013584 0.056824245
-0.058415554 -0.44026655 0.056819834
-0.058580987 -0.44038743 0.056846604
-0.058760833 -0.44053262 0.056794856
-0.058941886 -0.44068015 0.056735016
-0.059103709 -0.44079533 0.056779109
-0.059279088 -0.44093359 0.056748144
-0.059452992 -0.44106957 0.056724109
-0.060138118 -0.44159722 0.056676485
-0.060313907 -0.44173741 0.056636289
-0.060481258 -0.44186309 0.056643438
-0.06066471 -0.44201398 0.056574367
-0.060828373 -0.44213352 0.056601141
-0.061008811 -0.44228274 0.056528628
-0.061179988 -0.44241583 0.056509227
-0.061352719 -0.44255191 0.056479428
-0.061521214 -0.44268063 0.056473885
-0.0616909 -0.44281164 0.05646025
-0.06185833 -0.44293875 0.056459323
-0.062031828 -0.44307697 0.0564203
-0.06219222 -0.44319165 0.056460939
-0.062365122 -0.44332588 0.056442678
-0.062540084 -0.44346741 0.056390956
-0.062708035 -0.4435963 0.056381945
-0.062886186 -0.44374415 0.056307137
-0.063062049 -0.44388813 0.056245033
-0.0632153 -0.44399029 0.056327231
-0.0633974 -0.44414294 0.056242019
-0.063565359 -0.44427282 0.056227248
-0.063729845 -0.44439632 0.056234404
-0.063898206 -0.4445273 0.056215022
-0.064064145 -0.44465387 0.056210641
-0.06423749 -0.44479474 0.056155469
-0.064408369 -0.44492763 0.056136061
-0.064566433 -0.44503957 0.056182481
-0.064733997 -0.44516993 0.056163095
-0.064905703 -0.44530857 0.056113705
-0.065070108 -0.4454332 0.05611394
-0.065240093 -0.44556898 0.056073777
-0.065410972 -0.44570303 0.056047462
-0.065566748 -0.44581106 0.056106575
-0.065741643 -0.44595724 0.056027167
-0.065907553 -0.44608578 0.05601126
-0.066078067 -0.44621995 0.055982623
-0.066240557 -0.44634193 0.055989802
-0.066401236 -0.4464604 0.056009669
-0.066572852 -0.44660133 0.055946428
-0.066739209 -0.44673178 0.055921286
-0.066897593 -0.44684592 0.05595617
-0.067070857 -0.44698712 0.055898689
-0.06723658 -0.44711688 0.055874698
-0.067400247 -0.44724253 0.055865724
-0.067563191 -0.44736683 0.055861361
-0.06773077 -0.44750115 0.0558189
-0.067902111 -0.44764385 0.055744134
-0.068062924 -0.44776005 0.05577784
-0.068225726 -0.44788483 0.055770017
-0.068387583 -0.4480077 0.055769123
-0.068551108 -0.44813442 0.055753227
-0.06872496 -0.44827983 0.055673823
-0.068880446 -0.4483892 0.055723712
-0.069049545 -0.44852901 0.055655874
-0.069211259 -0.4486526 0.055650361
-0.069372199 -0.44877458 0.055650629
-0.069535241 -0.4489015 0.055631265
-0.069701746 -0.44903207 0.055606123
-0.069867782 -0.44916642 0.055556752
-0.070021048 -0.44927135 0.055622805
-0.070187412 -0.44940692 0.055567674
-0.070355535 -0.44954225 0.055521753
-0.070511222 -0.44965315 0.055563569
-0.070676923 -0.44978803 0.055509593
-0.070840605 -0.44991842 0.055472929
-0.071000107 -0.45003891 0.055475503
-0.071166739 -0.45017704 0.055406522
-0.071327657 -0.45029646 0.055421781
-0.071494803 -0.45043659 0.055343576
-0.071658969 -0.45056969 0.055293061
-0.071810871 -0.45067221 0.055367198
-0.071977198 -0.4508113 0.055291299
-0.072131917 -0.45092109 0.055335432
-0.072289549 -0.45103839 0.055348396
-0.072444655 -0.45114926 0.055387907
-0.072614282 -0.45129284 0.055300459
-0.072778195 -0.45142734 0.055240724
-0.072930112 -0.45153576 0.055280253
-0.073095709 -0.45166978 0.055230889
-0.073253363 -0.45178828 0.055236936
-0.07341668 -0.45192254 0.055176053
-0.073576741 -0.45204228 0.055185545
-0.073735349 -0.45216408 0.05517659
-0.073893853 -0.4522858 0.055167641
-0.074052528 -0.45240825 0.055155225
-0.074211471 -0.45253167 0.055138193
-0.074369915 -0.45265394 0.05512578
-0.074529782 -0.45278063 0.055093758
-0.074688166 -0.45290327 0.055079028
-0.074847132 -0.4530279 0.055055082
-0.07500571 -0.45315164 0.055034593
-0.075168923 -0.45328325 0.054988705
-0.075328477 -0.45341069 0.054950912
-0.075483054 -0.45352983 0.054939665
-0.07563968 -0.45364165 0.05498033
-0.075798698 -0.45376828 0.054944843
-0.075957239 -0.45389378 0.054913975
-0.076112986 -0.45401046 0.054922342
-0.076270133 -0.45413193 0.054908786
-0.076433226 -0.45426619 0.054846745
-0.076588184 -0.4543809 0.054863185
-0.076742813 -0.45449454 0.05488424
-0.076902553 -0.45462626 0.054822229
-0.077058569 -0.45474532 0.054817896
-0.077215262 -0.45486704 0.054800883
-0.077364728 -0.45497933 0.054806978
-0.077526659 -0.45510405 0.054795697
-0.077682406 -0.45522308 0.054790217
-0.07784465 -0.45536736 0.054665897
-0.077996142 -0.45547074 0.054733116
-0.078152195 -0.45559198 0.054716103
-0.078307241 -0.45570952 0.054716397
-0.078430347 -0.45580178 0.054722637
-0.078616202 -0.45594054 0.054735448
-0.078775585 -0.4560771 0.054643441
-0.078934245 -0.45621157 0.054560658
-0.079081915 -0.4563089 0.054646358
-0.079240084 -0.45643154 0.054630484
-0.079393782 -0.45654508 0.054648086
-0.079550326 -0.45667201 0.05459993
-0.079706699 -0.45679882 0.054551769
-0.079861037 -0.45691639 0.054548606
-0.080008887 -0.45702609 0.054562781
-0.080155335 -0.45715344 0.054467387
-0.080326982 -0.45728633 0.054451436
-0.080480337 -0.45740038 0.05446443
-0.080634624 -0.45751968 0.054450884
-0.080788568 -0.45763755 0.054444265
-0.080943197 -0.45775968 0.054415721
-0.081096441 -0.45787427 0.054425254
-0.081252433 -0.45800591 0.054347109
-0.081408709 -0.45814052 0.054252811
-0.081562631 -0.45826131 0.054228887
-0.081712499 -0.45835558 0.054342255
-0.081866607 -0.45847812 0.054309107
-0.08202067 -0.45860118 0.054272488
-0.082173713 -0.45871758 0.054270491
-0.082326397 -0.45883152 0.054281179
-0.082479604 -0.45895001 0.054267641
-0.082624912 -0.45906764 0.054224156
-0.08278396 -0.45917085 0.054325938
-0.08293815 -0.45929974 0.054255869
-0.08309114 -0.45941886 0.054237727
-0.083245583 -0.45955366 0.054134209
-0.08339864 -0.45967618 0.054096445
-0.083550207 -0.45978296 0.054144055
-0.083702639 -0.45989987 0.054136284
-0.083854817 -0.46001422 0.054142363
-0.084007546 -0.46013689 0.054102302
-0.084160015 -0.46025759 0.054072622
-0.084312476 -0.46037984 0.054033712
-0.084464721 -0.46050054 0.054002874
-0.084616438 -0.46061218 0.054022796
-0.084768467 -0.46073195 0.053996578
-0.08492016 -0.46084476 0.054009579
-0.085072115 -0.46096683 0.053969521
-0.08522363 -0.46107653 0.053999826
-0.085375331 -0.46119487 0.053980526
-0.085510068 -0.46129775 0.05397632
-0.085675538 -0.46141058 0.054050379
-0.087254636 -0.46352452 0.048686035
-0.087392829 -0.46361703 0.048757941
-0.08754161 -0.46372169 0.048805557
-0.087701961 -0.46386021 0.048706628
-0.08784426 -0.46400431 0.048494756
-0.087984011 -0.46413976 0.048322111
-0.088116981 -0.46425295 0.048249856
-0.08825466 -0.46437442 0.048149895
-0.088392541 -0.46449211 0.048073005
-0.088536158 -0.46460903 0.048026066
-0.088676386 -0.46472833 0.04795032
-0.088820741 -0.4648377 0.047950666
-0.088964149 -0.4649533 0.047910661
-0.089107201 -0.46507037 0.047860265
-0.089250334 -0.46518594 0.0478191
-0.089396015 -0.46528593 0.047880583
-0.089539245 -0.46540019 0.047847487
-0.089690045 -0.46550599 0.047897402
-0.089836143 -0.4656049 0.047966965
-0.089981258 -0.46570936 0.047999602
-0.0901291 -0.46580112 0.048118751
-0.090273008 -0.46589777 0.048191775
-0.09150479 -0.4659664 0.05325678
-0.091654353 -0.46607918 0.053260572
-0.091794014 -0.4661909 0.053226348
-0.091942616 -0.46630651 0.053209368
-0.09209092 -0.46641201 0.053250078
-0.092243344 -0.46653679 0.053196169
-0.092389658 -0.46664828 0.053193055
-0.092537366 -0.46676573 0.053161092
-0.092687428 -0.46687633 0.053179864
-0.092838094 -0.46700451 0.053098287
-0.092984855 -0.46711415 0.053107858
-0.093133084 -0.46722925 0.05309204
-0.093280718 -0.46734568 0.053065848
-0.093433917 -0.46746594 0.053041924
-0.093581527 -0.46757329 0.053068791
-0.093735851 -0.46769065 0.053066786
-0.093883991 -0.4678053 0.053053271
-0.094025791 -0.46791747 0.053025961
-0.094169252 -0.4680258 0.053028625
-0.094315343 -0.46813652 0.053028967
-0.094465248 -0.46825486 0.053001601
-0.094605327 -0.4683699 0.052950077
-0.094755992 -0.46848625 0.052937705
-0.094900019 -0.46860054 0.052908074
-0.095053799 -0.46871808 0.052902605
-0.09520518 -0.46883282 0.052902922
-0.095352538 -0.46895474 0.05284328
-0.09549471 -0.46906465 0.052830961
-0.095643632 -0.46917653 0.052837048
-0.095797807 -0.469293 0.052839655
-0.095941693 -0.46940657 0.052813485
-0.096090153 -0.46951258 0.052851874
-0.096238323 -0.46962568 0.052847598
-0.096382469 -0.46975127 0.052752212
-0.096530415 -0.4698644 0.052746784
-0.096679136 -0.46997634 0.052751724
-0.096813649 -0.47009677 0.052643705
-0.096967027 -0.47021383 0.052639395
-0.097120851 -0.47031838 0.052710053
-0.097265452 -0.47043586 0.052664269
-0.097414277 -0.47054747 0.052671518
-0.09755864 -0.47066495 0.052624576
-0.097706467 -0.47077778 0.052620299
-0.09785074 -0.47088397 0.052639104
-0.098001294 -0.4710044 0.052602518
-0.098144121 -0.47111776 0.052572895
-0.098288536 -0.4712345 0.052530561
-0.09844245 -0.47134525 0.05256547
-0.09858375 -0.47146532 0.052489705
-0.098733284 -0.47157592 0.052506182
-0.098881692 -0.47168267 0.052539971
-0.099028848 -0.47180602 0.052471094
-0.099177659 -0.47191742 0.052479506
-0.0993177 -0.47202808 0.052453347
-0.09946429 -0.47214174 0.052438688
-0.099619247 -0.47225663 0.05245398
-0.099766485 -0.47236961 0.05244625
-0.099905841 -0.47248074 0.052414324
-0.10003527 -0.47260579 0.052256737
-0.10019741 -0.47270921 0.052371193
-0.10035585 -0.47280723 0.052500658
-0.10050324 -0.47292012 0.052494064
-0.10063547 -0.4730463 0.052342232
-0.10077534 -0.47316986 0.052239947
-0.10092708 -0.47328743 0.052225262
-0.10107417 -0.47339576 0.05224406
-0.10122557 -0.47350064 0.052302051
-0.10137175 -0.47361419 0.052286249
-0.10151573 -0.47372943 0.052250847
-0.10166483 -0.4738448 0.052237324
-0.10181078 -0.47395009 0.052268818
-0.1019438 -0.47406921 0.052161958
-0.10208922 -0.47418711 0.052117318
-0.10223811 -0.47429836 0.052126877
-0.10238433 -0.47441155 0.052113384
-0.10252754 -0.47452679 0.052074518
-0.10268521 -0.47463998 0.052111711
-0.10282651 -0.47474864 0.052102856
-0.10297306 -0.47486544 0.052069739
-0.10312245 -0.47497648 0.052082755
-0.1032726 -0.47508714 0.052101538
-0.10341579 -0.47520214 0.05206383
-0.10355186 -0.47531393 0.052013479
-0.10369825 -0.47542685 0.052002281
-0.10384669 -0.47553858 0.052007236
-0.10398991 -0.47564968 0.051992595
-0.10413875 -0.47576484 0.051979076
-0.1042827 -0.47587553 0.051970214
-0.10441618 -0.47599185 0.051881809
-0.10455728 -0.47610745 0.051831424
-0.10469968 -0.47622225 0.051791415
-0.10484264 -0.47633672 0.051756021
-0.10498226 -0.47645277 0.051696416
-0.10513218 -0.47656363 0.051712889
-0.10528696 -0.47667563 0.051744334
-0.10544215 -0.47678754 0.051778071
-0.10558921 -0.47689664 0.051792249
-0.10573953 -0.47701097 0.051790271
-0.10587969 -0.47711995 0.051774491
-0.10602483 -0.47723329 0.051755235
-0.10616413 -0.4773491 0.051695645
-0.10631645 -0.47746256 0.05170748
-0.10646287 -0.47757533 0.051697444
-0.10660878 -0.47768509 0.051702403
-0.10675437 -0.47779819 0.0516866
-0.10689824 -0.47791198 0.051659271
-0.10704919 -0.47802302 0.051679194
-0.10719632 -0.47813869 0.051655315
-0.10734251 -0.47824848 0.051661421
-0.10747883 -0.47836185 0.051602997
-0.10763758 -0.47847036 0.051672474
-0.10778127 -0.47858417 0.051643994
-0.10792795 -0.47869396 0.051652417
-0.10807324 -0.47880721 0.051634308
-0.10821707 -0.47892097 0.051606975
-0.10835552 -0.47903633 0.051546231
-0.10849704 -0.47915065 0.051505074
-0.10863812 -0.47926506 0.051461615
-0.10877408 -0.47938091 0.051387042
-0.10891426 -0.47949541 0.051338963
-0.10906865 -0.47960594 0.051377326
-0.10923827 -0.47972092 0.051457129
-0.10938562 -0.47983357 0.051451698
-0.10952795 -0.47994757 0.051416308
-0.1096544 -0.48005992 0.051319875
-0.1097958 -0.4801712 0.051296018
-0.10994527 -0.48028332 0.051303264
-0.11010649 -0.48039547 0.051362358
-0.11025816 -0.48051536 0.05133383
-0.11039721 -0.48062724 0.051296152
-0.11053834 -0.48073596 0.051286135
-0.11068233 -0.48084942 0.051261116
-0.11083123 -0.48096189 0.051263753
-0.11097131 -0.48107612 0.051216837
-0.11111715 -0.48118919 0.051202185
-0.11125672 -0.48130345 0.051152971
-0.11140275 -0.48141649 0.051139466
-0.11154963 -0.48152938 0.051130578
-0.11169845 -0.48164198 0.051132068
-0.11186221 -0.48175725 0.051184215
-0.1120016 -0.48186642 0.05116383
-0.1121385 -0.48198101 0.051100783
-0.11229073 -0.48209324 0.051119551
-0.11243349 -0.48221186 0.05105878
-0.11257614 -0.48232058 0.051055685
-0.11272685 -0.48243558 0.051051386
-0.11287096 -0.48255149 0.051012523
-0.11303103 -0.48266298 0.051070463
-0.1131751 -0.48277649 0.05104544
-0.11331664 -0.48288789 0.051021583
-0.11345027 -0.48300257 0.050943568
-0.11360548 -0.48311725 0.050961159
-0.1137555 -0.48322779 0.050979942
-0.11388854 -0.48334005 0.050913457
-0.11403582 -0.4834556 0.050890725
-0.11418826 -0.4835684 0.050907183
-0.11433583 -0.48368397 0.050885603
-0.11448794 -0.48379689 0.050899751
-0.11462696 -0.48390856 0.050863218
-0.11478014 -0.48402151 0.050881982
-0.11492637 -0.48413727 0.050853487
-0.11507188 -0.48425305 0.050821539
-0.11521823 -0.48436654 0.05080688
-0.11536145 -0.4844802 0.050777256
-0.11550564 -0.48459381 0.050752234
-0.11565401 -0.48470724 0.050746799
-0.11581008 -0.48482043 0.050777081
-0.11594023 -0.4849346 0.050686385
-0.11609244 -0.485048 0.050698236
-0.11623947 -0.48516378 0.050673194
-0.11638199 -0.4852775 0.050640102
-0.11653613 -0.48539096 0.05066001
-0.11667693 -0.4855026 0.050631549
-0.11683092 -0.48561832 0.050637618
-0.11697403 -0.48573211 0.050606832
-0.11712144 -0.48584798 0.050582953
-0.11727153 -0.48596174 0.050583273
-0.11741796 -0.48607764 0.050554778
-0.11756041 -0.48618934 0.050533224
-0.11770779 -0.48630735 0.050496645
-0.1178562 -0.4864212 0.050488908
-0.11800149 -0.48653504 0.050467338
-0.11814748 -0.48664689 0.050460763
-0.11829775 -0.48676294 0.050448395
-0.1184485 -0.48687699 0.050449863
-0.1185923 -0.4869909 0.050421383
-0.11874262 -0.48710504 0.050420556
-0.11889116 -0.48722115 0.050400116
-0.11903886 -0.48733526 0.050387762
-0.11918141 -0.4874512 0.050341994
-0.11932803 -0.48756328 0.050336566
-0.11948308 -0.48768181 0.05033109
-0.11962564 -0.48779574 0.050296847
-0.11978026 -0.48791039 0.050312139
-0.1199358 -0.4880271 0.050319351
-0.12007311 -0.48813882 0.05027476
-0.12021035 -0.48825249 0.050218631
-0.1203706 -0.48836964 0.050244272
-0.12051759 -0.488484 0.050227311
-0.12066376 -0.48859832 0.0502069
-0.1208171 -0.48871511 0.050203741
-0.12096421 -0.48882958 0.050186772
-0.12111504 -0.48894626 0.050173249
-0.12126154 -0.48906261 0.050142445
-0.12141172 -0.48917744 0.050136995
-0.12155739 -0.48929 0.050124653
-0.12172075 -0.48940614 0.050169896
-0.12185581 -0.4895215 0.050094169
-0.12200236 -0.48963609 0.050073743
-0.12215204 -0.48975289 0.050054461
-0.1222899 -0.48986661 0.050000638
-0.12244227 -0.48998192 0.050002106
-0.12259724 -0.49009937 0.050002396
-0.12273328 -0.49021292 0.049941655
-0.12289352 -0.49032927 0.049971916
-0.12304106 -0.49044776 0.049933035
-0.12319596 -0.4905636 0.049942557
-0.12335221 -0.49067968 0.049956683
-0.12348706 -0.49079308 0.049891349
-0.12363438 -0.49090809 0.049872067
-0.12377481 -0.49102399 0.049817078
-0.1239288 -0.49114168 0.049811617
-0.12408261 -0.49125591 0.049825758
-0.1242457 -0.491375 0.049852531
-0.12440094 -0.49149305 0.049850523
-0.12454703 -0.49160811 0.04982549
-0.1246996 -0.49172413 0.049823489
-0.12484255 -0.49183878 0.049786944
-0.124967 -0.4919506 0.049684741
-0.12508959 -0.49206379 0.04956641
-0.12527399 -0.49218488 0.049676128
-0.12542205 -0.49229866 0.049667232
-0.12558706 -0.49241862 0.049697451
-0.12571663 -0.49253118 0.049613692
-0.12587535 -0.49264854 0.04963126
-0.12601803 -0.49276495 0.049583178
-0.12618467 -0.49288377 0.049627241
-0.12634358 -0.49300304 0.049634442
-0.12648153 -0.49311706 0.049579456
-0.12663846 -0.49323443 0.049588967
-0.12679154 -0.4933528 0.049575433
-0.12693466 -0.49346778 0.049537726
-0.12708502 -0.4935841 0.04952421
-0.1272462 -0.49370411 0.049537156
-0.12740329 -0.4938218 0.049545515
-0.12754004 -0.49393567 0.049485929
-0.12767328 -0.49404886 0.049414836
-0.12783518 -0.49416921 0.049428925
-0.1279842 -0.49428549 0.049409647
-0.12814879 -0.49440652 0.049431801
-0.12829939 -0.49452323 0.049417131
-0.12844583 -0.49464074 0.049379405
-0.12858802 -0.49475577 0.049337097
-0.1287488 -0.49487627 0.049345426
-0.12890288 -0.49499384 0.049341112
-0.1290499 -0.49510998 0.049313765
-0.12920308 -0.49522749 0.049305998
-0.12937264 -0.49535012 0.049340814
-0.12950931 -0.4954657 0.04927085
-0.12966204 -0.49558324 0.049260776
-0.12981993 -0.49570349 0.049257595
-0.12995519 -0.49581721 0.049192257
-0.13011213 -0.49593735 0.049185619
-0.13028398 -0.49606094 0.049225032
-0.13042676 -0.49617645 0.049182717
-0.13058476 -0.496297 0.049178384
-0.1307134 -0.49640924 0.049092315
-0.13088705 -0.49653202 0.049144406
-0.13102362 -0.49664614 0.049082521
-0.13118839 -0.49676847 0.049097758
-0.13134815 -0.49688822 0.049106091
-0.13148949 -0.49700654 0.04904072
-0.13164264 -0.49712777 0.049011033
-0.13182856 -0.49725255 0.049105741
-0.13195312 -0.49736685 0.048989698
-0.13211633 -0.49748918 0.048998024
-0.13226226 -0.49761021 0.048937231
-0.1324362 -0.49773243 0.048993953
-0.13258189 -0.49784756 0.048966613
-0.1327298 -0.4979648 0.048936959
-0.132863 -0.49807972 0.048855472
-0.13303185 -0.49820238 0.048886836
-0.1332168 -0.49833375 0.04893887
-0.13337889 -0.49846214 0.048906822
-0.13351841 -0.49857301 0.048877217
-0.13364853 -0.49868283 0.048811901
-0.13382204 -0.49880567 0.048862841
-0.13395478 -0.4989177 0.048796359
-0.13411151 -0.49903905 0.048781652
-0.13426745 -0.49915883 0.048772711
-0.13442753 -0.49928549 0.048741836
-0.1345738 -0.49940127 0.048713341
-0.13472658 -0.49951747 0.048711337
-0.13488868 -0.49963915 0.04871852
-0.13505352 -0.4997645 0.048716456
-0.13521633 -0.49988654 0.048724774
-0.13536739 -0.50000811 0.048683573
-0.13550353 -0.50012547 0.04860092
-0.13565785 -0.50024384 0.048593137
-0.13580561 -0.50036174 0.048558876
-0.13597357 -0.50048411 0.048587929
-0.13611439 -0.5006001 0.048534088
-0.13630764 -0.50073558 0.048598766
-0.13646391 -0.50086313 0.048545994
-0.13660747 -0.50097585 0.048523284
-0.13675496 -0.50108981 0.048510935
-0.13690463 -0.50120991 0.048472039
-0.13705955 -0.50132895 0.048463102
-0.13722013 -0.50145245 0.048452985
-0.13737525 -0.50157297 0.048435979
-0.13754939 -0.50170475 0.04843732
-0.1376922 -0.50182033 0.048395008
-0.1378544 -0.5019486 0.048364118
-0.13802022 -0.50206852 0.048397798
-0.055564638 -0.43808183 0.056953929
-0.055739231 -0.43821537 0.056947168
-0.055926841 -0.43836984 0.056875724
-0.056104507 -0.43850869 0.05685164
-0.056284938 -0.43864942 0.056828693
-0.056489017 -0.43883118 0.056670628
-0.056632292 -0.43891513 0.056815185
-0.056816921 -0.43906593 0.056751836
-0.057001237 -0.43921378 0.05670464
-0.057178035 -0.43935233 0.05667825
-0.057339594 -0.43946338 0.05674541
-0.057526771 -0.4396193 0.05666358
-0.057709839 -0.43976873 0.056601394
-0.057876728 -0.4398917 0.056622364
-0.058051057 -0.44002426 0.056620225
-0.058224678 -0.44015864 0.05660424
-0.059097957 -0.44083607 0.05651506
-0.059271283 -0.44097102 0.056494456
-0.059448183 -0.44110927 0.056470383
-0.059626076 -0.44125244 0.056422066
-0.059796154 -0.4413794 0.056433789
-0.059966858 -0.44151059 0.05642359
-0.060142878 -0.44165114 0.056382213
-0.060309391 -0.44177538 0.056393959
-0.060486916 -0.44191587 0.056359492
-0.060654532 -0.44204235 0.05636315
-0.060833436 -0.44218567 0.056318298
-0.061010741 -0.44232956 0.056263067
-0.061164569 -0.44242901 0.05636372
-0.061339777 -0.44256952 0.056318875
-0.061505888 -0.44269407 0.056327164
-0.061673999 -0.44282231 0.05632275
-0.061840884 -0.44294527 0.056343723
-0.06194216 -0.4429985 0.056481592
-0.062190361 -0.44322324 0.056267902
-0.062365443 -0.44336483 0.056216143
-0.062559575 -0.44353825 0.056062747
-0.062720135 -0.44365385 0.056098755
-0.062886804 -0.44377744 0.056115109
-0.063056976 -0.44391099 0.056088768
-0.063221797 -0.44403139 0.056115519
-0.063393064 -0.44416735 0.056079932
-0.063564658 -0.44430411 0.056040891
-0.063730866 -0.44442755 0.056056097
-0.06390503 -0.44456965 0.05599742
-0.064065143 -0.44468531 0.056031123
-0.064230159 -0.44480684 0.056052104
-0.064409181 -0.44495893 0.055956483
-0.064578444 -0.44508901 0.055946283
-0.06475085 -0.44522899 0.05589224
-0.064918593 -0.44535655 0.055890128
-0.065082029 -0.44547945 0.055896122
-0.065257847 -0.44562319 0.055835139
-0.065420009 -0.44574395 0.055848058
-0.065590888 -0.44587845 0.0558194
-0.065751702 -0.44599679 0.055840407
-0.065923691 -0.44613388 0.055801354
-0.066089459 -0.44626248 0.055784255
-0.066261679 -0.44640055 0.055740591
-0.066428944 -0.44653267 0.055709645
-0.066593558 -0.44665569 0.055720251
-0.066757187 -0.44678071 0.055714704
-0.066924438 -0.44690946 0.055703368
-0.067092262 -0.4470436 0.055663187
-0.067260377 -0.44717458 0.055642627
-0.067420505 -0.44729301 0.055660177
-0.067595303 -0.44743854 0.055584189
-0.06775517 -0.44755676 0.055601746
-0.067925364 -0.44769308 0.05555924
-0.068089008 -0.44781557 0.055568691
-0.068257183 -0.44794798 0.055540051
-0.068419822 -0.44807282 0.055531051
-0.068591081 -0.44821253 0.055473544
-0.068750158 -0.44832996 0.055492252
-0.068916313 -0.44845885 0.05547516
-0.069079205 -0.44858509 0.055459239
-0.069247186 -0.44871855 0.055423666
-0.069405079 -0.44883391 0.055449311
-0.069574431 -0.44897097 0.055398732
-0.069736749 -0.44909677 0.055382818
-0.069904953 -0.44923177 0.055339176
-0.070067041 -0.44935286 0.055349786
-0.070227191 -0.44946954 0.055377718
-0.070392072 -0.44960222 0.055332944
-0.070555098 -0.44972599 0.055332012
-0.070720837 -0.44986129 0.055275697
-0.070886925 -0.44999292 0.055242449
-0.071045049 -0.45011041 0.055256549
-0.071207002 -0.45023239 0.055261403
-0.071377844 -0.45037648 0.05517621
-0.071539737 -0.45049882 0.05517875
-0.071698487 -0.45061857 0.055182464
-0.071859196 -0.45073822 0.055195391
-0.072023056 -0.45087129 0.055143695
-0.072184324 -0.45099276 0.055148553
-0.072345927 -0.45111525 0.055148788
-0.072510205 -0.45124492 0.055119008
-0.072670341 -0.45136946 0.055100791
-0.072836891 -0.45150575 0.055042163
-0.072998412 -0.45162898 0.055037778
-0.073158927 -0.45174968 0.055043787
-0.073320314 -0.45187873 0.055004805
-0.073480524 -0.45199898 0.055011969
-0.073639669 -0.45211646 0.055030677
-0.073803008 -0.4522458 0.054998603
-0.07396619 -0.45238113 0.054930761
-0.074123278 -0.45249331 0.054971401
-0.074282378 -0.45261133 0.054986648
-0.074423119 -0.45271367 0.055012383
-0.074607566 -0.45287481 0.054887883
-0.074767783 -0.45299685 0.054884665
-0.074931748 -0.45313039 0.05483067
-0.075090438 -0.45324832 0.054844763
-0.075249299 -0.45337367 0.054816175
-0.075408004 -0.45349199 0.054827966
-0.075568944 -0.45361754 0.054807436
-0.075730078 -0.45374402 0.054782294
-0.075894415 -0.4538812 0.054708667
-0.076051548 -0.45399541 0.054737777
-0.07620962 -0.45412013 0.054709196
-0.076375887 -0.4542653 0.05459749
-0.076530963 -0.45437318 0.054654296
-0.076690182 -0.45449525 0.054646466
-0.076846212 -0.45460644 0.054688271
-0.077008545 -0.45473993 0.054627355
-0.077165075 -0.45486134 0.054611459
-0.077324651 -0.45498586 0.054590948
-0.077484503 -0.45511177 0.054563504
-0.077643499 -0.45523486 0.054548755
-0.077801883 -0.45535588 0.054543242
-0.077960037 -0.45547637 0.054540034
-0.078118213 -0.45560631 0.054481443
-0.078276217 -0.45572686 0.054477088
-0.078433894 -0.4558464 0.054477349
-0.078593478 -0.45597407 0.054438367
-0.078750461 -0.45609128 0.054449014
-0.078908011 -0.45621109 0.054446965
-0.079067215 -0.45633847 0.054407988
-0.079204872 -0.45643371 0.054461427
-0.079377756 -0.45656991 0.05443161
-0.079537719 -0.45670223 0.054367244
-0.079697482 -0.45683438 0.054302875
-0.07985425 -0.45695278 0.054305449
-0.080010027 -0.45706654 0.054331105
-0.080168694 -0.45719507 0.0542829
-0.080318831 -0.45731795 0.054230124
-0.08043737 -0.45741624 0.054180995
-0.080608808 -0.45754996 0.054159254
-0.080794305 -0.45768034 0.054219346
-0.080947444 -0.45778045 0.054313082
-0.081570104 -0.4592891 0.048246682
-0.081707455 -0.45938528 0.048293203
-0.081853762 -0.45949283 0.048313148
-0.081997372 -0.45959851 0.048331939
-0.082151353 -0.45972627 0.04826761
-0.082298338 -0.45983964 0.04825639
-0.082448982 -0.45996287 0.048203625
-0.082598776 -0.46008056 0.048179697
-0.082743682 -0.46019945 0.048126955
-0.082895815 -0.46031791 0.048108786
-0.083048329 -0.46044061 0.048067536
-0.083195366 -0.46055993 0.048021708
-0.083341844 -0.46067491 0.047998954
-0.08349441 -0.46080238 0.047930013
-0.083643235 -0.46091813 0.047913015
-0.083789848 -0.46103871 0.047857963
-0.083938643 -0.46115661 0.047828272
-0.084084176 -0.46126613 0.047833212
-0.084233135 -0.46138927 0.047773533
-0.084381551 -0.4615061 0.047748458
-0.084524795 -0.46162492 0.047688805
-0.084673218 -0.46174687 0.047633737
-0.084818341 -0.46185607 0.047638677
-0.084966332 -0.46197316 0.047610145
-0.085117057 -0.46209744 0.047551606
-0.085262209 -0.46221614 0.047501169
-0.085407197 -0.4623341 0.047454193
-0.085554674 -0.46245021 0.047429133
-0.085699387 -0.4625662 0.047392551
-0.085846655 -0.46268374 0.047358248
-0.085991144 -0.46279857 0.047327437
-0.086138174 -0.4629167 0.047288518
-0.086285047 -0.46303648 0.047239233
-0.086431615 -0.46316236 0.047153022
-0.086572371 -0.4632917 0.047020696
-0.086716756 -0.4633899 0.047086798
-0.086863399 -0.46350124 0.047085959
-0.08700759 -0.46360579 0.047113985
-0.087152459 -0.46369922 0.047210082
-0.087302111 -0.4638077 0.047239225
-0.087459356 -0.4639281 0.047232565
-0.087608822 -0.46403903 0.047246709
-0.087755129 -0.46415344 0.047226265
-0.087906606 -0.46424264 0.047376551
-0.088055663 -0.46433038 0.047524527
-0.088197038 -0.46441171 0.047676023
-0.088354699 -0.46450576 0.047825109
-0.088512652 -0.46460009 0.047974199
-0.088649124 -0.46468103 0.0481061
-0.08878646 -0.46477899 0.048142247
-0.088938028 -0.46488166 0.048214063
-0.089092627 -0.46498504 0.048295107
-0.089245081 -0.46510255 0.048283853
-0.089389712 -0.46521237 0.048283037
-0.089535967 -0.46532992 0.048244126
-0.089685306 -0.46546301 0.048127908
-0.089818344 -0.46558353 0.048012938
-0.089957647 -0.46568695 0.048025981
-0.090100288 -0.46580392 0.047974411
-0.090238601 -0.46591151 0.047958631
-0.090380244 -0.46601787 0.047964744
-0.090530314 -0.46612844 0.047983505
-0.090669565 -0.46623161 0.047997721
-0.090817325 -0.46633887 0.048025724
-0.090957455 -0.46643877 0.048062991
-0.091096245 -0.46653193 0.048133735
-0.091242313 -0.46663433 0.048182517
-0.091396883 -0.46674144 0.048241638
-0.091542542 -0.4668349 0.048341181
-0.091692433 -0.46692604 0.048473015
-0.091844045 -0.46702319 0.048577145
-0.092640996 -0.46687213 0.052998334
-0.092774957 -0.46697816 0.05297219
-0.092925817 -0.46709567 0.052954029
-0.093074486 -0.46720934 0.052948572
-0.093221165 -0.46731892 0.052958123
-0.093363449 -0.46743938 0.052884623
-0.093514092 -0.46754783 0.052918382
-0.093660519 -0.46767497 0.052824099
-0.09381438 -0.46779278 0.052817449
-0.093965739 -0.46789962 0.0528639
-0.094106987 -0.4680126 0.052829638
-0.09425392 -0.46812907 0.052799959
-0.094409585 -0.4682506 0.052779458
-0.094553769 -0.46835694 0.052797105
-0.094691731 -0.46847567 0.052714404
-0.094844617 -0.46858722 0.052740067
-0.094992645 -0.4687008 0.052732311
-0.095142148 -0.46881154 0.052747607
-0.095291987 -0.46892178 0.05276753
-0.095433548 -0.46903279 0.052745953
-0.095583372 -0.4691568 0.052685108
-0.095728584 -0.46927476 0.052639291
-0.095879249 -0.46938342 0.052671891
-0.096023187 -0.46950316 0.052609932
-0.096168034 -0.46960819 0.052637953
-0.096312732 -0.46972635 0.052588671
-0.096466333 -0.46984315 0.052586641
-0.09661109 -0.46995464 0.052576594
-0.09676069 -0.47005898 0.052629966
-0.096899204 -0.47018543 0.052504573
-0.097039066 -0.47029161 0.052503787
-0.097197406 -0.47040749 0.05252827
-0.097340979 -0.47052026 0.05250553
-0.097490661 -0.47063628 0.052490834
-0.097635023 -0.47075909 0.052412715
-0.097773582 -0.47086114 0.052430384
-0.097921751 -0.47097322 0.052431859
-0.098071977 -0.47108829 0.052425228
-0.098214798 -0.47120145 0.052396737
-0.098359779 -0.47131723 0.052362449
-0.09850952 -0.47142738 0.052382361
-0.098655201 -0.47155258 0.052296165
-0.098799765 -0.47165307 0.052349567
-0.0989464 -0.47176164 0.052364886
-0.09909042 -0.47187808 0.052322537
-0.09923555 -0.47199321 0.052292868
-0.099387661 -0.47210595 0.05230815
-0.099532373 -0.47222134 0.052275024
-0.099672973 -0.4723407 0.052200388
-0.099820703 -0.47245288 0.052199554
-0.099969938 -0.47256362 0.052213699
-0.10011764 -0.47268048 0.052185178
-0.10025981 -0.47279316 0.052156679
-0.10041072 -0.47290242 0.052186973
-0.10056789 -0.47301525 0.052224152
-0.10070286 -0.47312522 0.052179545
-0.10084987 -0.47323802 0.052171785
-0.10099253 -0.47335008 0.05214905
-0.10112953 -0.47347105 0.052049056
-0.10126621 -0.47359198 0.051947903
-0.10142677 -0.4736979 0.05204045
-0.10156692 -0.47381163 0.051996961
-0.10171983 -0.47392377 0.052019164
-0.1018659 -0.47403705 0.05200449
-0.10200989 -0.47415996 0.051924065
-0.10215691 -0.47426429 0.051965922
