# .PCD v0.7 - Point Cloud Data file format
VERSION 0.7
FIELDS x y z
SIZE 4 4 4
TYPE F F F
COUNT 1 1 1
WIDTH 1007
HEIGHT 1
VIEWPOINT 0 0 0 1 0 0 0
POINTS 1007
DATA ascii
-0.39875835 -0.26046491 0.058010895
-0.39894462 -0.26044518 0.057984594
-0.3991406 -0.26042131 0.057980172
-0.39934036 -0.26039681 0.057976879
-0.39953482 -0.26037097 0.05798861
-0.39972919 -0.26035315 0.057940353
-0.39991921 -0.26032895 0.05794403
-0.40010995 -0.2603116 0.057895787
-0.40029514 -0.26029691 0.057832576
-0.400493 -0.26027483 0.057813138
-0.4007003 -0.26024184 0.057866342
-0.40088037 -0.26022565 0.057819303
-0.40106997 -0.26020581 0.057790678
-0.40126827 -0.26017258 0.057854313
-0.40146732 -0.26014939 0.057841785
-0.40167391 -0.26012143 0.057858076
-0.40185958 -0.26010609 0.057799473
-0.40205085 -0.26009142 0.057730462
-0.40224299 -0.26007235 0.057693757
-0.40243822 -0.26004657 0.057704333
-0.4026238 -0.26003107 0.057646882
-0.40281999 -0.26001105 0.057613611
-0.40301454 -0.25998613 0.057618424
-0.4031992 -0.25997475 0.057530992
-0.40339619 -0.25994414 0.057576165
-0.40357816 -0.25993216 0.057495665
-0.40378359 -0.25989959 0.057547718
-0.40398145 -0.25987163 0.057572119
-0.40418577 -0.25984365 0.05759073
-0.40437445 -0.25982809 0.057530962
-0.4045791 -0.2597999 0.057550713
-0.40475836 -0.25978735 0.057477154
-0.40496141 -0.25975782 0.057508454
-0.40516165 -0.25973111 0.057521306
-0.4053691 -0.25969768 0.057577964
-0.40556413 -0.2596702 0.057601232
-0.40577224 -0.25963944 0.057637122
-0.40599602 -0.25959426 0.057766378
-0.40621436 -0.25954866 0.057903744
-0.40641302 -0.25951862 0.057943143
-0.4066236 -0.25948355 0.058009014
-0.40683606 -0.25944698 0.058084108
-0.40705121 -0.25940827 0.058173031
-0.40726444 -0.25936869 0.058270048
-0.40748757 -0.25932345 0.05840046
-0.40770274 -0.25928548 0.058483616
-0.40790966 -0.25925502 0.058518361
-0.40813082 -0.25921232 0.058631472
-0.40835032 -0.25917134 0.058733068
-0.40855938 -0.25913692 0.058795489
-0.40878177 -0.25909668 0.058888998
-0.40900773 -0.2590563 0.058980167
-0.40922499 -0.259013 0.059101388
-0.40945151 -0.25897008 0.059211027
-0.40964669 -0.2589457 0.059211217
-0.40986016 -0.25890887 0.059287451
-0.32446745 -0.26893151 0.064041436
-0.32469967 -0.26890531 0.064020634
-0.32495254 -0.26888254 0.063954718
-0.32515579 -0.26884976 0.06401021
-0.32539693 -0.26882446 0.063974366
-0.32564512 -0.26880243 0.063907325
-0.32587326 -0.26877427 0.063905001
-0.32610425 -0.26874837 0.063883051
-0.32634455 -0.26872331 0.063846052
-0.32656574 -0.26869527 0.063849531
-0.32681298 -0.26867211 0.063791722
-0.32701045 -0.26863837 0.06385994
-0.32728153 -0.26862136 0.063733935
-0.32748076 -0.26858816 0.063796371
-0.32772431 -0.26856455 0.063745514
-0.32795602 -0.26853964 0.063715488
-0.32818955 -0.26851374 0.063691206
-0.3284041 -0.2684831 0.0637201
-0.32863513 -0.26845673 0.063701615
-0.32884333 -0.26842612 0.063736312
-0.32909432 -0.26840514 0.063658878
-0.3293221 -0.26837978 0.063635781
-0.32954258 -0.26835105 0.063645035
-0.32979518 -0.26833248 0.063547976
-0.33002421 -0.2683062 0.063530654
-0.33023679 -0.2682772 0.063549176
-0.33047009 -0.26825225 0.063517973
-0.33068931 -0.26822519 0.0635157
-0.33094335 -0.26820615 0.063420936
-0.33116785 -0.26818073 0.063401327
-0.33140075 -0.26815614 0.063367829
-0.33158427 -0.26811948 0.063470721
-0.33180684 -0.26810357 0.063381895
-0.33203846 -0.26806745 0.063436083
-0.33228821 -0.26804799 0.063348278
-0.33249143 -0.26801708 0.063389912
-0.33263996 -0.26798201 0.063513771
-0.33287424 -0.26794675 0.063558713
-0.33314145 -0.26793286 0.063413121
-0.33336201 -0.26790717 0.0633993
-0.3335849 -0.26788059 0.063390076
-0.33382732 -0.26786157 0.063305758
-0.33404899 -0.26783484 0.063298859
-0.33429796 -0.26781812 0.063191429
-0.33456841 -0.26780811 0.063013516
-0.33476996 -0.26780298 0.062863648
-0.33498356 -0.2677452 0.063096762
-0.33519077 -0.26771623 0.063119926
-0.3354086 -0.2676889 0.063121125
-0.33563283 -0.26766539 0.063087657
-0.33584464 -0.2676363 0.063107342
-0.33606461 -0.26761162 0.063086607
-0.33629769 -0.26758948 0.063034639
-0.33650818 -0.26756197 0.063043945
-0.33673796 -0.26753899 0.06300123
-0.33693954 -0.26750872 0.063039429
-0.33717024 -0.26748624 0.062992081
-0.3373889 -0.26746175 0.062971354
-0.33759746 -0.26743215 0.062997967
-0.33783144 -0.26741111 0.062936768
-0.33805239 -0.26738584 0.062919483
-0.33831441 -0.26737645 0.062745079
-0.33850694 -0.26734176 0.06282486
-0.33871141 -0.267313 0.062849186
-0.33893973 -0.26729065 0.062803023
-0.33913252 -0.26725796 0.062867798
-0.33932003 -0.26723453 0.062867984
-0.33958247 -0.26721334 0.062781259
-0.33979952 -0.26718748 0.062772073
-0.34005117 -0.26717597 0.062623098
-0.34024382 -0.26714158 0.062700562
-0.34045988 -0.26711753 0.062678687
-0.34066451 -0.26708752 0.06271226
-0.34087282 -0.26705888 0.062731951
-0.34111935 -0.26704448 0.062609538
-0.34130949 -0.26701117 0.062681258
-0.34154791 -0.26699406 0.062586568
-0.34175202 -0.2669661 0.062605143
-0.34197304 -0.26694268 0.062574007
-0.34218901 -0.2669194 0.062546365
-0.34239841 -0.26689172 0.062557988
-0.34260833 -0.26686627 0.062552288
-0.34283182 -0.26684424 0.062508456
-0.34304199 -0.26681909 0.062500454
-0.34325701 -0.26679394 0.062487815
-0.34345457 -0.26676187 0.062543333
-0.34367347 -0.26673838 0.062514514
-0.34389642 -0.26671875 0.062453378
-0.34413618 -0.26670408 0.062339082
-0.34432629 -0.26667124 0.062407326
-0.34455431 -0.26665202 0.062338084
-0.34474859 -0.26662096 0.062389009
-0.34495974 -0.26659492 0.06238677
-0.34518093 -0.26657531 0.062326796
-0.34539005 -0.2665486 0.06233149
-0.34561965 -0.2665329 0.062234547
-0.34581238 -0.26649925 0.062306248
-0.34602335 -0.26647568 0.062285557
-0.34624064 -0.26645288 0.062253289
-0.34645283 -0.26643008 0.062225658
-0.34665516 -0.26640081 0.06225577
-0.34686947 -0.26637915 0.062217746
-0.3470844 -0.26635569 0.062192421
-0.34729269 -0.26633155 0.062178656
-0.34750992 -0.26630935 0.062141772
-0.34771237 -0.26628268 0.062152274
-0.34794742 -0.26626909 0.06203454
-0.34814593 -0.26624075 0.062061209
-0.34834713 -0.26621145 0.062092487
-0.34856293 -0.26619145 0.062040612
-0.34877211 -0.26616842 0.062017612
-0.34897456 -0.26614219 0.062024657
-0.34918472 -0.26611751 0.062013194
-0.34938648 -0.26609108 0.062022541
-0.3496033 -0.26606986 0.061978735
-0.34980965 -0.26604825 0.061947674
-0.35001194 -0.26601762 0.061988175
-0.35022202 -0.26599568 0.061955944
-0.3504343 -0.26597503 0.061912164
-0.35063943 -0.2659508 0.06190189
-0.35084984 -0.26592702 0.061883502
-0.3510491 -0.2659072 0.061845563
-0.35126173 -0.26587743 0.061869852
-0.3514654 -0.26585275 0.061864186
-0.35168308 -0.26583576 0.061788075
-0.35188618 -0.265811 0.061783575
-0.35208994 -0.26578417 0.061794065
-0.35229284 -0.26575947 0.061789565
-0.35250229 -0.26573592 0.061770029
-0.35270917 -0.26571363 0.061743584
-0.35292038 -0.2656939 0.061694041
-0.35313267 -0.26567495 0.061637573
-0.35333505 -0.26564783 0.061651535
-0.3535367 -0.26562294 0.061649345
-0.35373873 -0.2655957 0.061664458
-0.35393977 -0.26557061 0.061664581
-0.35414818 -0.26554996 0.061624289
-0.35435662 -0.26552948 0.061582837
-0.35457003 -0.26550949 0.061533272
-0.3547726 -0.2654857 0.061521858
-0.35497776 -0.26546088 0.061516188
-0.35517311 -0.26543278 0.061544027
-0.35535467 -0.26540715 0.061566174
-0.35557961 -0.26538664 0.061509639
-0.35578796 -0.26536417 0.061483189
-0.35599345 -0.2653428 0.061450981
-0.35619536 -0.26531637 0.061460327
-0.35639781 -0.26529324 0.061444294
-0.35660228 -0.26527157 0.061415553
-0.35680157 -0.26524651 0.061416831
-0.3570146 -0.26522794 0.061356902
-0.35721594 -0.26520449 0.061344333
-0.35741642 -0.26518053 0.061336376
-0.35761937 -0.26515841 0.061312266
-0.35782072 -0.26513219 0.061320461
-0.35801813 -0.26510629 0.06132983
-0.35823593 -0.26509205 0.061232951
-0.35843128 -0.2650649 0.061253868
-0.35863715 -0.26504549 0.061206661
-0.35883558 -0.2650207 0.061206795
-0.35903814 -0.26499587 0.06120345
-0.35923117 -0.26496714 0.061238226
-0.35939938 -0.26494226 0.061267357
-0.35964212 -0.26492891 0.061140358
-0.35984904 -0.26490787 0.061104674
-0.360044 -0.2648809 0.061124444
-0.36024296 -0.26485711 0.061116505
-0.36044317 -0.26483443 0.061099324
-0.36065477 -0.26481771 0.061026704
-0.36085004 -0.26479471 0.061016474
-0.36104628 -0.26476559 0.061051235
-0.36124206 -0.26473957 0.061062917
-0.36144695 -0.26471785 0.06103418
-0.36164588 -0.26469469 0.061021619
-0.36184701 -0.26467359 0.060991749
-0.36204571 -0.26465046 0.06097918
-0.36221969 -0.26462764 0.060987517
-0.36244842 -0.26460555 0.060939044
-0.36265182 -0.26458326 0.060916077
-0.36285231 -0.26456222 0.060886208
-0.36304787 -0.26453671 0.060894437
-0.36324841 -0.26451597 0.060862254
-0.36344248 -0.26449311 0.060852021
-0.36362848 -0.26447049 0.06084761
-0.36383918 -0.26444402 0.060848832
-0.36404207 -0.26442209 0.060823567
-0.364245 -0.26440445 0.060765989
-0.36444411 -0.26437896 0.060770735
-0.36463609 -0.26435035 0.060805518
-0.36485004 -0.26434475 0.06064751
-0.36500436 -0.26430649 0.060789786
-0.36520857 -0.2642867 0.060747199
-0.36541587 -0.26427484 0.060642302
-0.36560181 -0.26425761 0.060597494
-0.36581928 -0.26421738 0.060695611
-0.36598206 -0.26419684 0.060697086
-0.36619347 -0.26417693 0.060648687
-0.36637041 -0.26414511 0.060721621
-0.36657947 -0.26413211 0.060623638
-0.36678213 -0.26411188 0.060585678
-0.36696324 -0.26408017 0.06065397
-0.36716586 -0.26406008 0.060614858
-0.36736241 -0.26403755 0.060600001
-0.36756623 -0.26401934 0.06054588
-0.36774099 -0.26398948 0.060606137
-0.36795998 -0.26397076 0.060541555
-0.36813322 -0.26393354 0.060658351
-0.36834732 -0.26392978 0.060486488
-0.36855176 -0.26390812 0.060457759
-0.36874279 -0.2638844 0.060456768
-0.36894691 -0.26386261 0.060429186
-0.36915582 -0.26384223 0.060386587
-0.36934111 -0.26382184 0.06036602
-0.36955261 -0.26380005 0.060331471
-0.36973587 -0.263771 0.060377836
-0.36992714 -0.26374817 0.060369931
-0.37012553 -0.26373664 0.060270838
-0.370334 -0.26371077 0.060269773
-0.37051308 -0.26369378 0.060229622
-0.37071371 -0.26366147 0.060283974
-0.37090757 -0.26364374 0.060235679
-0.37110984 -0.26362079 0.060218491
-0.37130696 -0.2636025 0.060171328
-0.37149647 -0.26357079 0.060231507
-0.37168804 -0.26354966 0.06021091
-0.37188792 -0.26352993 0.060171802
-0.37208372 -0.26350269 0.060192727
-0.37228838 -0.26347774 0.060188212
-0.37247801 -0.26346099 0.060136475
-0.37267232 -0.26343855 0.060122788
-0.37286183 -0.26342213 0.060068741
-0.37306795 -0.263401 0.060034223
-0.37325293 -0.26336712 0.060115196
-0.37345186 -0.26334706 0.060079549
-0.3736667 -0.26332918 0.060012691
-0.37385428 -0.26330081 0.060049795
-0.37403846 -0.26328224 0.06001655
-0.37423661 -0.26326135 0.059987836
-0.37442973 -0.26323739 0.059986852
-0.37463185 -0.26321754 0.059946589
-0.3748346 -0.26318961 0.059966311
-0.3750293 -0.26317036 0.059928387
-0.37522009 -0.26315099 0.059895106
-0.37541646 -0.26312646 0.059895255
-0.3756128 -0.26310179 0.059896559
-0.37580234 -0.2630792 0.059888657
-0.37599561 -0.26305673 0.059876129
-0.37620518 -0.26303965 0.059808135
-0.37639117 -0.26301828 0.059794486
-0.37659034 -0.26299125 0.059810776
-0.3767871 -0.26296899 0.05979361
-0.37699428 -0.26294464 0.059782162
-0.37720934 -0.26292259 0.059746448
-0.37740245 -0.26290137 0.059724692
-0.37759882 -0.26287854 0.059712149
-0.37778071 -0.2628566 0.059706599
-0.37799123 -0.26283199 0.059693985
-0.37819567 -0.26281402 0.059637547
-0.37836966 -0.26278934 0.059659731
-0.3785516 -0.2627686 0.059644949
-0.37874669 -0.26273948 0.059680864
-0.37895095 -0.26272273 0.05961521
-0.37914604 -0.26269314 0.059654597
-0.37934986 -0.26267445 0.05960393
-0.37952757 -0.26265025 0.059619181
-0.37970957 -0.2626318 0.059587091
-0.37988862 -0.26262084 0.059501946
-0.38008815 -0.26259992 0.05947208
-0.38032636 -0.26256976 0.059475474
-0.38050425 -0.26254889 0.05946533
-0.38069239 -0.26251999 0.059505902
-0.38088828 -0.26250106 0.059464514
-0.38109818 -0.26247796 0.059441514
-0.38128656 -0.26245365 0.059447471
-0.38147146 -0.26243207 0.059436135
-0.38165641 -0.26241684 0.059377495
-0.38186961 -0.26239067 0.059374094
-0.38205442 -0.26236758 0.059374299
-0.38223553 -0.26235035 0.059334148
-0.38242039 -0.26232338 0.059363194
-0.38262287 -0.26230058 0.059344854
-0.38281086 -0.26228356 0.059296578
-0.3829985 -0.26227075 0.059217159
-0.38319433 -0.26223841 0.059276149
-0.3833968 -0.26221299 0.059277423
-0.38358101 -0.26219568 0.059234932
-0.38377294 -0.26217046 0.059244338
-0.38397142 -0.26214951 0.059215628
-0.38414118 -0.26213431 0.059170913
-0.38435027 -0.26211113 0.059149079
-0.38453171 -0.26208583 0.059168916
-0.38473395 -0.26206166 0.059160952
-0.38494289 -0.2620391 0.059134498
-0.38514113 -0.26201773 0.059109248
-0.38533673 -0.26199162 0.059122093
-0.38552523 -0.26196638 0.059134968
-0.38572207 -0.2619521 0.059057809
-0.3859168 -0.26193023 0.059039503
-0.38610539 -0.26190469 0.059054688
-0.38628992 -0.2618821 0.059051432
-0.3864986 -0.26185942 0.059026137
-0.38668305 -0.26183712 0.059020575
-0.38686925 -0.26182157 0.058963079
-0.38707069 -0.26179981 0.058937822
-0.38728279 -0.26177642 0.05891481
-0.38745436 -0.26175079 0.058946237
-0.38762721 -0.26173306 0.058917657
-0.3878189 -0.26172081 0.058830138
-0.38802919 -0.26170287 0.058767911
-0.38821673 -0.26167005 0.058838479
-0.38841254 -0.26164389 0.058851324
-0.3886185 -0.26161802 0.058852572
-0.38881505 -0.26159993 0.058804262
-0.38899395 -0.2615836 0.058759503
-0.38916653 -0.2615751 0.058661703
-0.38936356 -0.26154557 0.058698758
-0.38954893 -0.26152042 0.058713965
-0.3897498 -0.26149023 0.058752164
-0.38993782 -0.26145872 0.058812343
-0.39013728 -0.26143274 0.058820549
-0.39035168 -0.26141152 0.058779068
-0.39052483 -0.26140019 0.058702033
-0.39072806 -0.26137328 0.058713682
-0.39092648 -0.26134974 0.058704585
-0.39113787 -0.26133475 0.058619279
-0.39133862 -0.26131338 0.058591716
-0.39150554 -0.26129267 0.058590852
-0.39170367 -0.2612696 0.058578297
-0.39189723 -0.26124913 0.058550771
-0.39207011 -0.26122996 0.058532577
-0.39225841 -0.2612066 0.058531612
-0.39246103 -0.26118129 0.058531728
-0.39263982 -0.26116356 0.058497343
-0.39282256 -0.26114458 0.058468722
-0.3930105 -0.26112819 0.058415838
-0.39321131 -0.26109403 0.058484029
-0.3934119 -0.26106066 0.058546454
-0.39360544 -0.26103431 0.05856277
-0.39379591 -0.26101932 0.058497187
-0.39398274 -0.26101616 0.058346231
-0.39417899 -0.26100194 0.058269076
-0.39435858 -0.26098228 0.058248542
-0.39454955 -0.26096013 0.058236025
-0.39474612 -0.26092878 0.058286931
-0.39494759 -0.26089516 0.058350511
-0.39514697 -0.26085994 0.058427949
-0.39535126 -0.26082763 0.058478817
-0.3955403 -0.26080912 0.058440924
-0.39574614 -0.26077986 0.05846756
-0.39594775 -0.26075715 0.05844922
-0.39613977 -0.26073903 0.058405541
-0.39632004 -0.26073804 0.058244243
-0.39651015 -0.26072231 0.058184426
-0.39669323 -0.26070252 0.058161572
-0.39689222 -0.26067397 0.058189392
-0.3970882 -0.26065889 0.058119155
-0.39727265 -0.26064169 0.058075517
-0.39746097 -0.26061463 0.05810225
-0.39765254 -0.26059207 0.058092032
-0.397843 -0.26057106 0.058071438
-0.3980276 -0.26055786 0.057997804
-0.39822981 -0.26052135 0.058082148
-0.39842772 -0.26049495 0.058094982
-0.39862758 -0.26047862 0.058030501
-0.39881399 -0.26047105 0.057913013
-0.39900804 -0.2604374 0.057983547
-0.39920998 -0.26040217 0.058058664
-0.39940625 -0.26038611 0.057995349
-0.3995896 -0.26037398 0.057914801
-0.39978021 -0.26035681 0.057865363
-0.39997837 -0.26032665 0.057905883
-0.40017554 -0.26029786 0.057937168
-0.40036857 -0.26028162 0.057878498
-0.40055394 -0.26026678 0.057816386
-0.40074626 -0.26024014 0.057836171
-0.400947 -0.26021492 0.057837453
-0.40113866 -0.26019281 0.057823773
-0.40133813 -0.2601656 0.057841212
-0.40151572 -0.2601628 0.057696082
-0.40170145 -0.26014021 0.057691664
-0.40191421 -0.26009855 0.057804797
-0.40211391 -0.26007485 0.057795696
-0.40230343 -0.26005873 0.057739343
-0.40249619 -0.26003572 0.057731427
-0.40268761 -0.26001751 0.057688914
-0.40287206 -0.26000324 0.05762336
-0.40306678 -0.25997493 0.057653509
-0.40326941 -0.25994837 0.057662852
-0.40345773 -0.25993007 0.057623811
-0.40364915 -0.25990865 0.057605524
-0.40384376 -0.25988403 0.057607986
-0.40404749 -0.25985351 0.05764617
-0.40425238 -0.25982821 0.057643961
-0.40443853 -0.25981528 0.057566859
-0.40462437 -0.25979638 0.057534754
-0.40482417 -0.25977004 0.057545267
-0.40501949 -0.2597481 0.057526961
-0.40520722 -0.25973344 0.057461381
-0.40539441 -0.25971329 0.057437345
-0.40559301 -0.25969419 0.057394795
-0.40578076 -0.25967351 0.057374217
-0.40597874 -0.25964338 0.057414737
-0.40616998 -0.25962535 0.057371065
-0.40637094 -0.25959837 0.057385035
-0.40657148 -0.25957197 0.057395548
-0.40676314 -0.25955078 0.057374947
-0.40695047 -0.25953355 0.057328984
-0.40715361 -0.25950494 0.057353321
-0.40735087 -0.2594817 0.057343084
-0.40755069 -0.25945351 0.057367437
-0.40776995 -0.25941119 0.057479389
-0.40797955 -0.25937486 0.057555616
-0.40819439 -0.25933957 0.057619121
-0.4084031 -0.2593044 0.057687271
-0.40862611 -0.25925994 0.057811894
-0.40883869 -0.259222 0.057897337
-0.4090569 -0.25918475 0.057972368
-0.4092772 -0.259146 0.058056608
-0.40949047 -0.25911075 0.05812129
-0.40973049 -0.25905877 0.058286197
-0.40992859 -0.2590237 0.058363635
-0.41013446 -0.25899768 0.058366038
-0.41036823 -0.2589542 0.0584733
-0.41059029 -0.25891292 0.05857484
-0.41081068 -0.25887078 0.058684476
-0.41101974 -0.25883543 0.058753777
-0.41124359 -0.25879839 0.058821864
-0.41148329 -0.25875401 0.058930233
-0.41169676 -0.25871825 0.058998372
-0.41191477 -0.25867918 0.059087247
-0.41214329 -0.25863943 0.059171453
-0.41236702 -0.25859639 0.059284523
-0.41261616 -0.25854376 0.059445929
-0.32451129 -0.26893336 0.063986503
-0.32472277 -0.26890236 0.064021155
-0.32495764 -0.26887536 0.06400378
-0.32518983 -0.26884931 0.063981809
-0.32541606 -0.26882046 0.063986391
-0.32566389 -0.26879832 0.06392049
-0.3258892 -0.26876944 0.063926235
-0.32614437 -0.26874933 0.063838385
-0.32636535 -0.26871958 0.06385453
-0.3266046 -0.26869437 0.063819826
-0.32683897 -0.26866806 0.063797839
-0.32704899 -0.26863736 0.063831352
-0.32728496 -0.26861164 0.063803576
-0.32750499 -0.26858357 0.063808203
-0.32773343 -0.26855612 0.063800074
-0.32796329 -0.26853067 0.063775808
-0.328199 -0.26850528 0.063745737
-0.32843277 -0.26848105 0.063708752
-0.3286691 -0.26845601 0.06367521
-0.32888901 -0.26842842 0.063676372
-0.32913762 -0.26840681 0.06360586
-0.32935426 -0.26837853 0.063615113
-0.32957557 -0.26835001 0.063622028
-0.32981333 -0.26832587 0.063580409
-0.33005941 -0.26830411 0.063513361
-0.33027679 -0.26827636 0.063517988
-0.33050269 -0.26824942 0.063508734
-0.33071655 -0.26822087 0.063522622
-0.33096644 -0.26820064 0.063440561
-0.33118337 -0.2681731 0.063444033
-0.33141029 -0.26814678 0.063429013
-0.33163407 -0.26812133 0.063410535
-0.33188447 -0.26810181 0.063322701
-0.33209369 -0.26807246 0.063346989
-0.33230194 -0.26804119 0.063386276
-0.33256 -0.26802427 0.06327188
-0.33276638 -0.26799265 0.063315786
-0.33297652 -0.2679638 0.063335456
-0.33320755 -0.26793945 0.063301951
-0.33345383 -0.26792136 0.063207217
-0.33365345 -0.26788795 0.063270777
-0.33388263 -0.26786336 0.063240737
-0.3340959 -0.26783413 0.063260384
-0.33432531 -0.26781151 0.063215353
-0.33453289 -0.26778066 0.063252345
-0.33476973 -0.26776052 0.063181885
-0.33499056 -0.26773387 0.063174963
-0.3352176 -0.26770926 0.063147239
-0.33543375 -0.26768133 0.063154183
-0.3356581 -0.26765782 0.063120708
-0.33587849 -0.26763138 0.063112639
-0.336117 -0.26761255 0.063030645
-0.33632544 -0.26758254 0.063060701
-0.33655071 -0.26755795 0.063034147
-0.33677301 -0.26753253 0.063016832
-0.33697745 -0.26750314 0.063045748
-0.33719054 -0.26747486 0.063058488
-0.33743003 -0.26745716 0.062967241
-0.33764574 -0.26742992 0.06296958
-0.33786476 -0.26740566 0.062946513
-0.33810681 -0.26738748 0.062856421
-0.33830896 -0.26735592 0.062903821
-0.33853257 -0.26733172 0.06287612
-0.33874115 -0.2673043 0.062886566
-0.33896074 -0.26727888 0.062871575
-0.33918923 -0.26725852 0.062810399
-0.3394061 -0.26723239 0.062803492
-0.3396205 -0.26720732 0.062790833
-0.33982739 -0.26717779 0.062818594
-0.34005198 -0.26715654 0.062767811
-0.34027323 -0.26713231 0.062742434
-0.3404935 -0.26710975 0.062705524
-0.34070832 -0.26708341 0.06270209
-0.3409355 -0.26706168 0.062652454
-0.34114867 -0.26703492 0.062653638
-0.34135848 -0.26700887 0.062652543
-0.34157938 -0.26698518 0.062623702
-0.34177691 -0.26695463 0.062667668
-0.34200844 -0.26693514 0.06259723
-0.34222484 -0.26691198 0.062568419
-0.34243587 -0.26688489 0.06257423
-0.34264827 -0.26686037 0.062559277
-0.34287721 -0.26684043 0.062494636
-0.34307945 -0.26681209 0.062517807
-0.34329343 -0.26678646 0.06250976
-0.3435283 -0.26677132 0.06240356
-0.34373802 -0.26674423 0.062410537
-0.34393162 -0.26671264 0.062466055
-0.34415936 -0.266693 0.062400263
-0.34436139 -0.26666501 0.062421128
-0.34458435 -0.26664364 0.062372662
-0.34478533 -0.26661533 0.062396988
-0.34500137 -0.26659128 0.062375091
-0.34518236 -0.26656929 0.062370688
-0.34542763 -0.26654315 0.062337104
-0.34565288 -0.26652551 0.062258638
-0.34583908 -0.26650178 0.062262282
-0.34601873 -0.26648381 0.062229037
-0.3462936 -0.26645401 0.062195301
-0.34648108 -0.26642674 0.062224314
-0.34667224 -0.26640332 0.062221006
-0.34690684 -0.26637545 0.062210549
-0.34711918 -0.26635078 0.062196754
-0.3473416 -0.26633304 0.06212176
-0.34755069 -0.26630709 0.062120661
-0.34775111 -0.26627943 0.062140383
-0.34796646 -0.26625657 0.062110417
-0.3481698 -0.2662304 0.062116273
-0.34838584 -0.26620805 0.062081695
-0.34859174 -0.26618329 0.06207484
-0.34880334 -0.26616132 0.062041435
-0.3490223 -0.26614308 0.061973386
-0.34918898 -0.26611331 0.062040582
-0.34941918 -0.26609153 0.061988611
-0.3496328 -0.26606163 0.062012877
-0.34984452 -0.26604027 0.061974861
-0.35005271 -0.2660149 0.061970301
-0.35026768 -0.26599547 0.061914962
-0.35047615 -0.26597282 0.061889648
-0.35068443 -0.2659502 0.061864331
-0.35088965 -0.26592365 0.061871335
-0.35109693 -0.2659007 0.06184949
-0.35130501 -0.26587582 0.06184148
-0.35150892 -0.26585126 0.061834648
-0.35172015 -0.26583076 0.061790854
-0.35191798 -0.2658056 0.061794437
-0.35213977 -0.26578608 0.061733298
-0.35234177 -0.26576084 0.061733391
-0.35255077 -0.26573706 0.061716143
-0.35275412 -0.26571277 0.061708167
-0.35296226 -0.26569125 0.061674766
-0.35316265 -0.26566544 0.061680637
-0.35337004 -0.26564109 0.061669182
-0.35356024 -0.2656121 0.061708562
-0.3537854 -0.2655957 0.061620861
-0.35398734 -0.26557112 0.06161635
-0.35419023 -0.26554716 0.061606057
-0.35438985 -0.26552132 0.06161309
-0.35460189 -0.26550037 0.061571606
-0.35480297 -0.26547557 0.061569404
-0.35502541 -0.26546139 0.061467871
-0.35522348 -0.26543495 0.061480679
-0.35541642 -0.2654053 0.061522353
-0.35562009 -0.2653825 0.061502837
-0.35582551 -0.26535806 0.061493684
-0.35603905 -0.26534188 0.061415274
-0.35623431 -0.26531103 0.061463866
-0.35643879 -0.26528919 0.061436258
-0.35664937 -0.26527154 0.061371706
-0.3568435 -0.26524296 0.06140415
-0.35705143 -0.26522088 0.06137538
-0.3572512 -0.26519623 0.061373174
-0.35744631 -0.26516846 0.061398696
-0.35765377 -0.26514935 0.061348002
-0.3578645 -0.26512966 0.061298452
-0.35805336 -0.26509759 0.061362065
-0.35826319 -0.26508066 0.061292902
-0.35846794 -0.26506016 0.061254919
-0.35866454 -0.26503068 0.061291959
-0.35887238 -0.26501274 0.061232034
-0.3590714 -0.26498836 0.061228696
-0.35927412 -0.26497012 0.061175719
-0.35948023 -0.26494485 0.061172333
-0.35967788 -0.2649197 0.06117592
-0.35988009 -0.26489815 0.061148331
-0.36006308 -0.26487836 0.06112545
-0.36028498 -0.26485252 0.061111607
-0.36048347 -0.26482835 0.061107099
-0.36068234 -0.2648046 0.061099142
-0.36088344 -0.26478627 0.061048482
-0.36109167 -0.2647635 0.061024331
-0.36129209 -0.26474139 0.061002515
-0.36148363 -0.26471177 0.061045349
-0.36166912 -0.26469138 0.061024766
-0.36185306 -0.26468796 0.060878456
-0.36205325 -0.26465881 0.060909703
-0.36229217 -0.26462716 0.060923453
-0.3624858 -0.26459956 0.060948975
-0.36268455 -0.26457289 0.060962938
-0.36289266 -0.26455879 0.060874175
-0.36308873 -0.26453367 0.06087891
-0.36328384 -0.26451162 0.060861744
-0.36349091 -0.26448932 0.06083528
-0.36368439 -0.2644619 0.06085965
-0.36388427 -0.26443678 0.060860917
-0.36407822 -0.26441395 0.060850672
-0.36428955 -0.26440051 0.060753815
-0.36449274 -0.26438332 0.060692765
-0.36468104 -0.26435933 0.06069639
-0.36489257 -0.26433846 0.060654916
-0.36507437 -0.26431206 0.060682803
-0.36527491 -0.26429272 0.060640231
-0.3654795 -0.26426038 0.060691066
-0.36568195 -0.26423895 0.060662322
-0.36584657 -0.26421592 0.060681075
-0.36601761 -0.26419097 0.060707867
-0.36621752 -0.26416695 0.060701057
-0.36641398 -0.26414365 0.060691953
-0.36663213 -0.26412243 0.060646974
-0.36682278 -0.26410675 0.060585998
-0.36702558 -0.26409161 0.06050995
-0.36722752 -0.26406592 0.060513504
-0.36741707 -0.26403964 0.060533285
-0.36761934 -0.26402456 0.060457237
-0.36780411 -0.26398712 0.060564719
-0.36800027 -0.26396957 0.06051293
-0.36819664 -0.26394197 0.060536131
-0.36839536 -0.26392823 0.060453176
-0.36859509 -0.26390544 0.060437135
-0.36881891 -0.26388353 0.06039213
-0.36901024 -0.26385468 0.060429204
-0.36918482 -0.2638298 0.060452517
-0.36938107 -0.26380804 0.060431875
-0.36957669 -0.26379132 0.060374334
-0.36977804 -0.26377174 0.060332898
-0.36997855 -0.26374516 0.06034454
-0.37019038 -0.26373026 0.060258068
-0.37038144 -0.26370114 0.060297444
-0.37058219 -0.26368147 0.060257174
-0.37078625 -0.26366109 0.060219187
-0.3709785 -0.263634 0.060242407
-0.37118328 -0.26360857 0.060241342
-0.37136552 -0.26358411 0.060254224
-0.37156451 -0.26356912 0.060180519
-0.37176841 -0.26354951 0.060136762
-0.37197658 -0.26352382 0.060134526
-0.37215841 -0.26349896 0.060150877
-0.37234709 -0.26348001 0.060116433
-0.37256297 -0.26346245 0.060046092
-0.37276575 -0.26343405 0.060069256
-0.37294105 -0.26340368 0.060132943
-0.37313548 -0.26338971 0.060055789
-0.3733353 -0.26336306 0.060068585
-0.37352818 -0.26334637 0.060013365
-0.37372169 -0.2633228 0.060008883
-0.37391901 -0.26329941 0.059999786
-0.37411466 -0.26328129 0.059952609
-0.37430719 -0.26325569 0.059964295
-0.37450287 -0.26323819 0.059912518
-0.37469837 -0.26321068 0.059935715
-0.3748897 -0.26319218 0.059895493
-0.37509307 -0.26316586 0.059902512
-0.3752799 -0.2631456 0.059879616
-0.37547925 -0.26311854 0.059895873
-0.37567613 -0.2630952 0.059886768
-0.37587985 -0.26308209 0.059794568
-0.37607968 -0.26305696 0.059795838
-0.3762742 -0.26303899 0.059748668
-0.37647176 -0.26300615 0.059809938
-0.37667203 -0.2629827 0.059798509
-0.37686586 -0.26296309 0.059764039
-0.37706012 -0.26294562 0.059713412
-0.37725097 -0.2629298 0.059653584
-0.37742001 -0.26291558 0.059601944
-0.3776353 -0.26287901 0.059674643
-0.37784198 -0.26285306 0.059675876
-0.37805697 -0.26283222 0.059630912
-0.37822187 -0.26281714 0.059589673
-0.37841785 -0.26279327 0.059585191
-0.37861067 -0.26277229 0.059562266
-0.37882009 -0.26274166 0.059595782
-0.37902367 -0.26272041 0.059564725
-0.37919775 -0.26269573 0.059586879
-0.37938607 -0.26266882 0.059612431
-0.37956801 -0.26264885 0.059591874
-0.3797687 -0.26263627 0.05949853
-0.37997523 -0.26261172 0.059489373
-0.38016069 -0.26259363 0.059451491
-0.38033399 -0.2625584 0.059553258
-0.38053486 -0.26255658 0.059379164
-0.3807306 -0.26253566 0.059352756
-0.38094673 -0.26249236 0.059475072
-0.3811534 -0.26247549 0.059408236
-0.3813349 -0.26245761 0.059372671
-0.38151279 -0.26244321 0.059314068
-0.38171542 -0.26242316 0.059274938
-0.38192153 -0.26239172 0.059317697
-0.38212425 -0.26235932 0.05937086
-0.38231617 -0.26233891 0.059344474
-0.382494 -0.26231405 0.059364311
-0.38269982 -0.2622979 0.059292868
-0.38289833 -0.26228267 0.059221454
-0.38308346 -0.26225337 0.059267789
-0.38327166 -0.26223201 0.059251808
-0.38347057 -0.26220825 0.059243839
-0.38364425 -0.26219147 0.059207175
-0.38383603 -0.26216829 0.059201553
-0.38403904 -0.26213849 0.0592351
-0.38424161 -0.26211318 0.059235204
-0.38442919 -0.2620959 0.05918923
-0.38461566 -0.26208556 0.059092499
-0.38479355 -0.26208457 0.05893353
-0.38502628 -0.26204246 0.059031527
-0.38521153 -0.26201576 0.059058245
-0.38539308 -0.26199061 0.059076905
-0.3855989 -0.26196584 0.059070058
-0.38580376 -0.26194611 0.059026308
-0.38599938 -0.2619203 0.059036817
-0.38618565 -0.26188993 0.059090067
-0.3863546 -0.2618759 0.059037268
-0.38655216 -0.26185691 0.05899471
-0.38676074 -0.26183474 0.058965929
-0.38694802 -0.26181504 0.058938414
-0.3871288 -0.26179367 0.058929399
-0.38733763 -0.26177022 0.058909845
-0.38753706 -0.26174331 0.058924962
-0.3877168 -0.26172563 0.058889408
-0.38789696 -0.26170635 0.058865398
-0.38810647 -0.26168036 0.058864295
-0.38830215 -0.261655 0.058871351
-0.38847873 -0.26163602 0.058848511
-0.38868001 -0.26161441 0.058822077
-0.38886589 -0.26158795 0.058846489
-0.38906762 -0.26155537 0.058901958
-0.38924977 -0.26153985 0.058847945
-0.38944599 -0.26153183 0.058724627
-0.38966653 -0.26150355 0.058730401
-0.38986018 -0.26148367 0.058698244
-0.39003053 -0.26146284 0.058695041
-0.3902097 -0.26143688 0.058721799
-0.39040086 -0.26141486 0.058708102
-0.39058593 -0.26139128 0.058711756
-0.39077306 -0.26137853 0.058632329
-0.3909761 -0.26135981 0.058582816
-0.39116108 -0.26135117 0.058474563
-0.3913393 -0.2613349 0.058429789
-0.39152014 -0.26131999 0.058372319
-0.39172173 -0.26128235 0.058465865
-0.39194018 -0.26124492 0.058542017
-0.39214149 -0.26122239 0.0585225
-0.39231583 -0.26120046 0.058523897
-0.39252436 -0.26115733 0.058652021
-0.39272296 -0.26114038 0.058593296
-0.39290825 -0.26112956 0.058501188
-0.39310211 -0.26110858 0.058477111
-0.39328277 -0.26109356 0.058420792
-0.39348167 -0.26106331 0.058461279
-0.39366561 -0.2610482 0.058402635
-0.39386192 -0.26102862 0.058365848
-0.39405718 -0.26101068 0.058317535
-0.39422846 -0.261011 0.058155131
-0.39444283 -0.26097715 0.058208227
-0.39463544 -0.26094154 0.058294896
-0.39482775 -0.26091751 0.058295041
-0.39502016 -0.2609092 0.058177523
-0.39519385 -0.26089382 0.058130473
-0.39538163 -0.26086649 0.058159485
-0.3955746 -0.26084146 0.058166549
-0.3957721 -0.26081464 0.058182824
-0.3959699 -0.26078254 0.058238313
-0.39616129 -0.26076511 0.058190022
-0.39636371 -0.2607218 0.058325086
-0.39656919 -0.26068875 0.058380548
-0.39677081 -0.26067561 0.05829066
-0.39694399 -0.26067013 0.058169778
-0.39714593 -0.26064229 0.058189481
-0.39733756 -0.26062438 0.058144648
-0.39752719 -0.26060468 0.058114812
-0.39771801 -0.26058331 0.058096517
-0.39790544 -0.26056221 0.058079381
-0.39809737 -0.26053515 0.058102604
-0.39830023 -0.26051506 0.058063481
-0.39846522 -0.26052308 0.057849199
-0.39866748 -0.26048273 0.057962347
-0.39886945 -0.26045135 0.058008585
-0.39907917 -0.26041853 0.058058254
-0.39925978 -0.26041016 0.057952326
-0.39945093 -0.26038459 0.057965174
-0.39963496 -0.26036775 0.057919219
-0.39982197 -0.26035115 0.057868641
-0.4000138 -0.26032874 0.057857249
-0.40018886 -0.26032242 0.057740979
-0.40039939 -0.2602855 0.057820633
-0.4006013 -0.26025891 0.057831109
-0.40078431 -0.26023942 0.057805922
-0.40095484 -0.26023781 0.057658531
-0.40116304 -0.26020414 0.057716276
-0.40138406 -0.26015991 0.057840861
-0.40157437 -0.26014307 0.057789113
-0.40174741 -0.26013824 0.057663616
-0.40193039 -0.26011875 0.057638429
-0.40212703 -0.26009142 0.057659321
-0.40233353 -0.260057 0.057723995
-0.40252507 -0.2600354 0.057706848
-0.40272892 -0.26000747 0.057725392
-0.40291238 -0.26000103 0.057602152
-0.4031038 -0.25997296 0.057633456
-0.40331009 -0.25994274 0.057666987
-0.40350592 -0.25992015 0.057653267
-0.40370196 -0.25989735 0.057640705
-0.4038837 -0.25988266 0.057580922
-0.40408012 -0.2598595 0.057570666
-0.40427074 -0.25984216 0.057522371
-0.40444672 -0.25982678 0.057473004
-0.40465155 -0.25979245 0.057538837
-0.40486586 -0.25975522 0.057617322
-0.40505525 -0.25974217 0.057537884
-0.40524164 -0.25972891 0.05746308
-0.40544036 -0.25969794 0.057509337
-0.40562615 -0.25968811 0.05740916
-0.40582091 -0.25966394 0.057408139
-0.40602332 -0.25963852 0.057409387
-0.40621755 -0.25961211 0.057425678
-0.40641758 -0.25959191 0.057390019
-0.40659848 -0.25958055 0.057306018
-0.40679428 -0.25955287 0.05733037
-0.40699762 -0.25951853 0.057397373
-0.40719417 -0.25950155 0.057340972
-0.40737987 -0.25948033 0.057326164
-0.40757927 -0.25945807 0.057306658
-0.40775302 -0.25945005 0.057204232
-0.40796259 -0.25941357 0.05728158
-0.40816173 -0.25939161 0.057259772
-0.40836507 -0.25936344 0.05728063
-0.40855306 -0.25934845 0.057217356
-0.40874466 -0.25932512 0.057212897
-0.40894464 -0.25930262 0.057194546
-0.40911821 -0.25929186 0.057112888
-0.40932277 -0.25926554 0.05711874
-0.40951616 -0.25924093 0.057122339
-0.40973249 -0.25920513 0.057188116
-0.40996149 -0.25916177 0.057298828
-0.41018391 -0.25912154 0.057392258
-0.41039926 -0.25909466 0.057392288
-0.41061065 -0.25905871 0.057463855
-0.41082552 -0.25902513 0.057514649
-0.41103831 -0.25898117 0.057645053
-0.41125333 -0.25894785 0.057693537
-0.41147777 -0.25891215 0.057751194
-0.41169459 -0.2588706 0.057859659
-0.41189754 -0.25884002 0.057898976
-0.41213 -0.25879636 0.058008511
-0.4123455 -0.25875652 0.058105443
-0.41255945 -0.25871813 0.058193147
-0.41276664 -0.25868502 0.05824744
-0.41299969 -0.25864422 0.058335047
-0.41321689 -0.25860402 0.05843313
-0.41343015 -0.25856924 0.058494315
-0.41369191 -0.25851935 0.058623299
-0.41391757 -0.25847363 0.058754787
-0.41414627 -0.25843722 0.058813579
-0.41437334 -0.25839549 0.058913916
-0.41457394 -0.25836197 0.05897747
-0.41478789 -0.25833234 0.058999423
-0.41503248 -0.25828087 0.059156191
-0.32448214 -0.26892996 0.064039178
-0.32472789 -0.26890549 0.06399291
-0.32496592 -0.26887932 0.063966289
-0.3251878 -0.26884949 0.063982427
-0.32542363 -0.268823 0.063960433
-0.32565787 -0.26879624 0.063941896
-0.32594359 -0.26878187 0.063782401
-0.32613614 -0.26874533 0.063875951
-0.32636827 -0.26871839 0.063860901
-0.32659599 -0.26869044 0.063857391
-0.32683057 -0.26866424 0.06383425
-0.32706362 -0.26863778 0.063814573
-0.32731211 -0.26861525 0.06375099
-0.32750422 -0.2685788 0.063844554
-0.32766145 -0.26855972 0.06384027
-0.32800746 -0.26853588 0.063695446
-0.32824078 -0.26850846 0.06368269
-0.32846534 -0.26848045 0.063682668
-0.32868767 -0.26845193 0.06368842
-0.32894272 -0.26843199 0.06359943
-0.32915053 -0.26839989 0.063645624
-0.32939094 -0.26837635 0.063597083
-0.32962903 -0.26835236 0.063554309
-0.32987195 -0.26832977 0.063496515
-0.33007595 -0.2682969 0.063551962
-0.33031243 -0.26827279 0.063511513
-0.33053648 -0.26824543 0.063506871
-0.33076307 -0.26821885 0.063494153
-0.33098984 -0.26819241 0.06348028
-0.33116516 -0.26816481 0.063523188
-0.33144706 -0.26813921 0.063451357
-0.33166817 -0.26811147 0.063452497
-0.33188415 -0.26808235 0.063468665
-0.3320815 -0.26805785 0.063467629
-0.33233789 -0.26803049 0.063432835
-0.33257958 -0.26800898 0.063368142
-0.33282089 -0.26798749 0.063303433
-0.33302879 -0.26795647 0.063341558
-0.33325401 -0.26793051 0.06332539
-0.33347717 -0.26790404 0.063314989
-0.33370817 -0.26787999 0.063279174
-0.33393961 -0.26785621 0.063241057
-0.33416241 -0.26782826 0.063242197
-0.33440346 -0.26780757 0.063171737
-0.33461642 -0.26777852 0.063190222
-0.33481497 -0.26774511 0.063254923
-0.33507764 -0.26773146 0.063111678
-0.33529469 -0.26770389 0.063115157
-0.33551759 -0.26767823 0.063098989
-0.33573678 -0.2676515 0.063094378
-0.33594424 -0.26762113 0.063127898
-0.33618188 -0.26760042 0.06306091
-0.33642021 -0.26758009 0.062990464
-0.33662063 -0.26754767 0.063045919
-0.33684641 -0.2675235 0.063015901
-0.33706987 -0.26749867 0.062992826
-0.3372843 -0.26747099 0.062999763
-0.33750871 -0.2674467 0.062972061
-0.3377302 -0.26742151 0.062953599
-0.3379381 -0.26739186 0.062981345
-0.33814722 -0.26736268 0.063004464
-0.33839375 -0.26734623 0.062897071
-0.33861998 -0.26732311 0.062858976
-0.33884761 -0.26730055 0.062815115
-0.33906353 -0.26727405 0.062811665
-0.33928317 -0.26724896 0.062794365
-0.33950555 -0.26722491 0.062766671
-0.33971673 -0.26719698 0.062778249
-0.33993387 -0.26717126 0.062767886
-0.34016582 -0.26715097 0.062703237
-0.34037018 -0.26712084 0.062737912
-0.34059498 -0.26709816 0.062697522
-0.34082171 -0.26707634 0.062649056
