# .PCD v0.7 - Point Cloud Data file format
VERSION 0.7
FIELDS x y z
SIZE 4 4 4
TYPE F F F
COUNT 1 1 1
WIDTH 1283
HEIGHT 1
VIEWPOINT 0 0 0 1 0 0 0
POINTS 1283
DATA ascii
-0.15771003 -0.38028783 0.059456281
-0.15794362 -0.38042217 0.059225146
-0.15809208 -0.38045022 0.059553001
-0.15828623 -0.38053891 0.05955103
-0.15848656 -0.3806324 0.059532844
-0.15879187 -0.38070652 0.060070544
-0.15932989 -0.38091099 0.060407177
-0.15952402 -0.38099408 0.06045147
-0.16068377 -0.38198021 0.056663368
-0.16086087 -0.38204896 0.056762099
-0.16109344 -0.38216177 0.056705602
-0.16130121 -0.38226044 0.05667235
-0.16147557 -0.38233691 0.056697063
-0.16167584 -0.38243204 0.056665
-0.16187426 -0.38252214 0.056667641
-0.16206259 -0.38262227 0.056548875
-0.1622238 -0.38268799 0.056612976
-0.16246709 -0.38281015 0.056519426
-0.16264714 -0.38289157 0.056524463
-0.16284335 -0.38297939 0.05653752
-0.16302599 -0.38305545 0.056596898
-0.16319253 -0.3831282 0.056622803
-0.16339329 -0.3832252 0.056576848
-0.16360036 -0.38334608 0.056357391
-0.16376486 -0.3834165 0.056394875
-0.16399033 -0.38351041 0.05646795
-0.16417183 -0.38359138 0.056482222
-0.16436411 -0.3836872 0.056414343
-0.16456947 -0.38378212 0.056403074
-0.16474313 -0.38386217 0.0563954
-0.16491486 -0.38394287 0.056375027
-0.16513912 -0.38404837 0.056347482
-0.16530941 -0.38412732 0.056336366
-0.16552168 -0.38422608 0.056319285
-0.16572125 -0.38432705 0.05623633
-0.16589107 -0.38439891 0.05628188
-0.16606981 -0.3844803 0.056282297
-0.1662778 -0.38458034 0.056238629
-0.1664471 -0.38465506 0.056258738
-0.16660839 -0.38472849 0.056259219
-0.16682561 -0.38484281 0.05613225
-0.16699496 -0.3849107 0.056209028
-0.16720843 -0.38500905 0.056200035
-0.16739637 -0.3850942 0.056203883
-0.16755791 -0.38517222 0.056167349
-0.16776657 -0.38527104 0.0561364
-0.16795519 -0.38535762 0.05613099
-0.16814192 -0.38544518 0.056110546
-0.16831613 -0.38552073 0.056142196
-0.16852251 -0.38561654 0.056127459
-0.16869146 -0.38569558 0.056110561
-0.16887611 -0.38578427 0.056072772
-0.16910391 -0.38590369 0.055943437
-0.1692802 -0.38597906 0.055984341
-0.16945104 -0.38604945 0.056046084
-0.16963825 -0.38614324 0.055975907
-0.16983314 -0.38623336 0.055964686
-0.17001562 -0.38631955 0.05593963
-0.17020696 -0.38640821 0.055927262
-0.1704036 -0.3864975 0.05592991
-0.17058413 -0.38658515 0.055885203
-0.17076969 -0.386673 0.055857822
-0.17096919 -0.38676792 0.055824608
-0.17112124 -0.38683671 0.055828594
-0.17130785 -0.38691288 0.055901833
-0.17150152 -0.38701648 0.055774964
-0.1716933 -0.38710731 0.055746406
-0.17187366 -0.38718146 0.055812728
-0.17206623 -0.38727909 0.055730958
-0.17224167 -0.38736385 0.055690903
-0.17243706 -0.38744727 0.055737503
-0.17261177 -0.38754132 0.055617645
-0.17280412 -0.38762936 0.055614527
-0.17300153 -0.38771716 0.055632204
-0.17316379 -0.38777566 0.055759907
-0.17335933 -0.38787603 0.055666562
-0.17352396 -0.38793927 0.055764191
-0.17372358 -0.38804904 0.055608369
-0.17390573 -0.38813883 0.055552084
-0.17408775 -0.38821682 0.055592969
-0.1742783 -0.38830194 0.055607207
-0.17445403 -0.3883839 0.055591431
-0.17463912 -0.38846901 0.05558487
-0.1748417 -0.38857639 0.055460278
-0.17500833 -0.38865685 0.055422567
-0.17519088 -0.38873664 0.055450715
-0.17537762 -0.3888267 0.055409454
-0.17556284 -0.38890645 0.055448003
-0.17574315 -0.38898757 0.055456504
-0.17590779 -0.3890568 0.055504393
-0.17609611 -0.3891592 0.05536712
-0.17628942 -0.38924596 0.055377886
-0.17646241 -0.38932291 0.055393353
-0.17664266 -0.3894124 0.05533246
-0.17684197 -0.38950875 0.055286508
-0.17703071 -0.38959932 0.055248715
-0.17722298 -0.38968396 0.055273358
-0.17741628 -0.3897717 0.055276021
-0.17759557 -0.38986033 0.055218592
-0.17775559 -0.38992438 0.055291951
-0.17793657 -0.39000973 0.05526806
-0.17811875 -0.39009941 0.055212937
-0.17831509 -0.39018866 0.05521442
-0.17847683 -0.39026845 0.055164017
-0.1786523 -0.39034584 0.055185258
-0.17883849 -0.39043048 0.055186793
-0.17903091 -0.39051673 0.055198707
-0.17922288 -0.39061296 0.055126194
-0.17940499 -0.39069378 0.055143937
-0.17959224 -0.39079639 0.055000894
-0.17975816 -0.39087221 0.054999046
-0.17995141 -0.39095029 0.055081513
-0.18013881 -0.39104262 0.05502405
-0.18030152 -0.39111781 0.055015281
-0.18045934 -0.39116842 0.05519158
-0.1806656 -0.39128137 0.055034578
-0.18082783 -0.39135453 0.055040829
-0.18100192 -0.39144358 0.054960303
-0.18118376 -0.39152512 0.054971114
-0.18136679 -0.39161435 0.054922923
-0.18155505 -0.39169812 0.05493949
-0.18173413 -0.39178273 0.054914441
-0.18190335 -0.39186412 0.05487904
-0.18208449 -0.39194143 0.054922234
-0.18228309 -0.39203411 0.054904055
-0.18244846 -0.39211094 0.054891795
-0.18262403 -0.39219579 0.054851741
-0.1828025 -0.39227873 0.05483827
-0.18298095 -0.39236251 0.054817859
-0.18317942 -0.39246002 0.054759197
-0.18335366 -0.39252901 0.054845214
-0.18352583 -0.39262 0.054741554
-0.18369056 -0.39269206 0.054766312
-0.18387203 -0.39278001 0.05472276
-0.18405673 -0.39287263 0.054652594
-0.18424775 -0.39296031 0.054647163
-0.18442228 -0.3930335 0.054699644
-0.1845969 -0.39310658 0.05475327
-0.18476471 -0.39319125 0.054685488
-0.18494217 -0.39328212 0.054602623
-0.18512291 -0.39336917 0.054563701
-0.18529996 -0.39346012 0.054478526
-0.18547742 -0.39354077 0.054480098
-0.18565941 -0.39360604 0.054626226
-0.18583141 -0.39367205 0.054728448
-0.18600698 -0.39377534 0.054535717
-0.18618682 -0.39386591 0.054464415
-0.1863683 -0.39394072 0.054529581
-0.186542 -0.39402315 0.054502252
-0.18672028 -0.39412224 0.054354616
-0.18690625 -0.39419085 0.054488003
-0.1870774 -0.39426583 0.054512732
-0.18726085 -0.3943519 0.054492302
-0.18744375 -0.39444062 0.054447584
-0.18761739 -0.39452109 0.054436449
-0.18779215 -0.39461324 0.054332789
-0.18797445 -0.39470255 0.054281134
-0.18815252 -0.39477831 0.054325491
-0.18832727 -0.39485314 0.054365244
-0.18850386 -0.39493537 0.054350626
-0.1886833 -0.39502043 0.054323271
-0.18885534 -0.39509219 0.05437807
-0.18902551 -0.39518335 0.054265164
-0.18920304 -0.39528602 0.054085147
-0.18939482 -0.39535421 0.054243956
-0.18956506 -0.3954204 0.05433809
-0.18973629 -0.39551738 0.054181237
-0.18992798 -0.39559853 0.054232482
-0.19010253 -0.39567465 0.054260667
-0.19026715 -0.39577669 0.054036751
-0.19045882 -0.39584818 0.0541678
-0.19064113 -0.39593375 0.054147374
-0.19081792 -0.39602292 0.05407609
-0.19099069 -0.39610296 0.054064956
-0.19117354 -0.3961868 0.054060724
-0.19135472 -0.39625728 0.05416058
-0.19152535 -0.3963418 0.054104351
-0.19169438 -0.39642924 0.054018058
-0.19188111 -0.39651316 0.054027684
-0.19206043 -0.39659581 0.054019995
-0.19223817 -0.3966738 0.054044705
-0.19240876 -0.39675733 0.05399657
-0.19258384 -0.39684001 0.053972702
-0.19276161 -0.396925 0.05393957
-0.1929415 -0.39701319 0.053887933
-0.19311945 -0.39708418 0.053971618
-0.19329509 -0.39717224 0.053904958
-0.1934737 -0.3972491 0.053942382
-0.19366364 -0.39734092 0.053898789
-0.19383124 -0.39742142 0.053864546
-0.19401678 -0.39750689 0.053856831
-0.19418225 -0.39757818 0.053890839
-0.19434623 -0.39766333 0.053804561
-0.19452885 -0.39774674 0.053802647
-0.19470118 -0.39782634 0.053793821
-0.19488728 -0.39791653 0.053749092
-0.19507402 -0.39800578 0.053714778
-0.19524992 -0.39808097 0.053755682
-0.19541934 -0.39816386 0.053708702
-0.19559325 -0.39824665 0.053679068
-0.19578148 -0.39833391 0.053666707
-0.1959492 -0.39840314 0.053726148
-0.19612558 -0.39848822 0.053687241
-0.19629815 -0.39856735 0.053683054
-0.19647098 -0.39865106 0.053641848
-0.19665147 -0.39873648 0.053615652
-0.19682992 -0.39881915 0.053604495
-0.19701241 -0.39890251 0.053602573
-0.1971935 -0.39898723 0.053584464
-0.19736652 -0.39906585 0.053586058
-0.19754873 -0.39914954 0.053580668
-0.19771546 -0.39922503 0.053584591
-0.19788764 -0.39931738 0.053469371
-0.19806188 -0.39940342 0.053414281
-0.19824988 -0.39947367 0.053541876
-0.19841525 -0.39956281 0.053427838
-0.19858903 -0.39964488 0.053403988
-0.19876987 -0.39972541 0.053419419
-0.19895791 -0.39980447 0.053474151
-0.19912477 -0.39988783 0.053413313
-0.19929849 -0.39997378 0.053357061
-0.19947915 -0.40005845 0.053337805
-0.19965181 -0.40013734 0.05333592
-0.19984153 -0.40021563 0.05340337
-0.20001629 -0.40030065 0.053358685
-0.20018652 -0.40038863 0.053272385
-0.20034467 -0.40048075 0.05310633
-0.2005368 -0.40055764 0.053194586
-0.20071846 -0.40063435 0.053244725
-0.20089 -0.40071398 0.053232431
-0.20107418 -0.40080333 0.053187709
-0.20126715 -0.40088728 0.053220451
-0.20143878 -0.40096349 0.053237081
-0.2016063 -0.40104213 0.053217869
-0.20178579 -0.401124 0.05321712
-0.20196056 -0.40121183 0.053149313
-0.20214553 -0.40128738 0.053221405
-0.20230371 -0.40137756 0.053071536
-0.20249078 -0.401465 0.053053401
-0.20266473 -0.40154013 0.053087376
-0.20284978 -0.40162551 0.05307851
-0.20302808 -0.40171427 0.053016461
-0.20320253 -0.40179244 0.053027295
-0.20338327 -0.40187684 0.053010345
-0.20355952 -0.40196031 0.052984171
-0.20372877 -0.40204099 0.05295454
-0.20390488 -0.40211853 0.05297694
-0.20408791 -0.40219894 0.05300162
-0.20427588 -0.40228316 0.053013559
-0.20445442 -0.40237439 0.052931845
-0.20460975 -0.40244943 0.0528965
-0.20478892 -0.40252876 0.052915417
-0.20496029 -0.40261421 0.052854553
-0.20513806 -0.40269417 0.052863065
-0.20532262 -0.4027743 0.052895829
-0.20549579 -0.40285343 0.052893952
-0.20566249 -0.40294051 0.052801877
-0.2058304 -0.40302157 0.052764162
-0.20600046 -0.40311256 0.052652419
-0.20618978 -0.40318313 0.052782327
-0.20635694 -0.40327236 0.05267407
-0.20652039 -0.40335223 0.05262943
-0.2067098 -0.40342844 0.052713066
-0.20691001 -0.40350899 0.052801292
-0.20708901 -0.40359414 0.052771624
-0.2072552 -0.40368336 0.052659899
-0.20745891 -0.40376315 0.052767761
-0.20765419 -0.40384328 0.052840978
-0.20780168 -0.40393305 0.052654147
-0.2079757 -0.40401465 0.052634906
-0.20814681 -0.40409467 0.052617997
-0.20831627 -0.40417516 0.052590694
-0.20849787 -0.40425465 0.052617695
-0.20866588 -0.40434036 0.052541811
-0.20885783 -0.40442193 0.052590739
-0.20902711 -0.40450487 0.052542608
-0.20920332 -0.40458831 0.052516431
-0.20937052 -0.40466473 0.052514572
-0.20954904 -0.40474993 0.052482598
-0.20973574 -0.40483314 0.052498013
-0.20990677 -0.40491784 0.052441772
-0.21007821 -0.40499562 0.052444525
-0.2102489 -0.40507588 0.052424148
-0.21042475 -0.40516168 0.052377153
-0.2106014 -0.40524504 0.052353282
-0.21077357 -0.40532497 0.052340999
-0.21096087 -0.40540829 0.052357566
-0.21113902 -0.40548706 0.052377641
-0.2113086 -0.40557194 0.052314468
-0.21148671 -0.40565726 0.05228018
-0.21167445 -0.40573853 0.052315257
-0.21185079 -0.40581995 0.052306417
-0.21201801 -0.40590099 0.052266397
-0.21219946 -0.40598363 0.052266791
-0.21237172 -0.40606582 0.052235998
-0.21255572 -0.40614808 0.052249111
-0.21275046 -0.40623271 0.052282996
-0.2129128 -0.40631458 0.052217543
-0.21307458 -0.40639648 0.052149791
-0.21327603 -0.40647817 0.052233376
-0.21343184 -0.40656099 0.052135572
-0.2136091 -0.40664449 0.052112851
-0.21379009 -0.40672746 0.052108623
-0.21397819 -0.40681145 0.052122872
-0.21414143 -0.40689304 0.052063204
-0.21431074 -0.40697768 0.052001193
-0.2144962 -0.40705821 0.052033965
-0.21469922 -0.40713853 0.052134894
-0.2148505 -0.40722737 0.051970027
-0.21502495 -0.40730751 0.051964667
-0.21521863 -0.40738732 0.052034408
-0.21540092 -0.40747046 0.052033648
-0.21556021 -0.40755808 0.051909223
-0.21572347 -0.40763953 0.051850718
-0.21592921 -0.40772024 0.051958576
-0.2161148 -0.40780506 0.051956639
-0.21629013 -0.40789089 0.051907327
-0.21647784 -0.40797552 0.051914636
-0.21665469 -0.4080576 0.051902335
-0.21683826 -0.4081409 0.05190504
-0.21700722 -0.40822372 0.051856913
-0.21716867 -0.40830532 0.051790312
-0.21734037 -0.40838963 0.051739853
-0.21752784 -0.40847096 0.051773768
-0.2176986 -0.4085536 0.051733736
-0.21789747 -0.40863425 0.05181618
-0.21807824 -0.40871978 0.051789973
-0.21825197 -0.40880057 0.051776521
-0.21840824 -0.40888247 0.051687971
-0.21858811 -0.40896633 0.051672176
-0.21875322 -0.40904763 0.051621757
-0.21895292 -0.40913218 0.051675286
-0.21914482 -0.40921384 0.051723063
-0.21931647 -0.40929827 0.051671453
-0.21948168 -0.40938133 0.051607143
-0.21966189 -0.40946701 0.051577479
-0.21985516 -0.40954721 0.051642597
-0.22000489 -0.4096292 0.051528625
-0.22018304 -0.40971172 0.051517472
-0.2203308 -0.40979365 0.051396564
-0.22053067 -0.40987715 0.051459342
-0.22070351 -0.40995988 0.051426224
-0.2209013 -0.41004199 0.05149249
-0.22106279 -0.4101235 0.051427044
-0.22128025 -0.41020855 0.051542953
-0.22141784 -0.41029215 0.051370043
-0.22160447 -0.41037476 0.051390074
-0.22177789 -0.41045764 0.051358122
-0.22197579 -0.41054022 0.051420912
-0.22215298 -0.41062313 0.051402815
-0.2223372 -0.41070759 0.051398575
-0.22250482 -0.41079062 0.051343512
-0.22269128 -0.41087356 0.051360086
-0.22286353 -0.41095662 0.05132236
-0.22305636 -0.41104123 0.051349305
-0.22323211 -0.41112432 0.051324282
-0.22339983 -0.41120738 0.051269226
-0.22360082 -0.41129223 0.051325057
-0.22376619 -0.41137379 0.051273473
-0.22394027 -0.41145697 0.051241517
-0.22410986 -0.41154161 0.051180661
-0.22431253 -0.41162524 0.051252682
-0.22448775 -0.41170853 0.051224191
-0.22465873 -0.4117932 0.051167961
-0.224829 -0.41187495 0.051133707
-0.22502711 -0.41196027 0.051174514
-0.22521828 -0.41204551 0.051189914
-0.2253772 -0.41212848 0.051102497
-0.22554354 -0.41221163 0.051041663
-0.22574341 -0.41229582 0.051098648
-0.22590521 -0.41237885 0.051021636
-0.22608985 -0.41246262 0.051024336
-0.22629961 -0.41254741 0.051113676
-0.22647491 -0.41263101 0.051082868
-0.22662842 -0.41271654 0.050953846
-0.22681755 -0.4128007 0.050970405
-0.22700515 -0.41288909 0.050946485
-0.22722116 -0.41297463 0.051053148
-0.22735602 -0.41305777 0.050873309
-0.22757347 -0.41314495 0.050971873
-0.22774914 -0.41323012 0.050929502
-0.22792622 -0.41331536 0.05089175
-0.22810735 -0.41339672 0.050901402
-0.22827825 -0.41348165 0.050842855
-0.22848439 -0.41357276 0.050866283
-0.2286545 -0.41365498 0.050827403
-0.22882915 -0.41373476 0.050825514
-0.22900695 -0.41382021 0.050788917
-0.22917756 -0.41390249 0.050751191
-0.22936386 -0.41398719 0.050752722
-0.22952165 -0.41407132 0.050651439
-0.22969197 -0.41415098 0.050634529
-0.2299203 -0.41424143 0.050746925
-0.23006375 -0.41432056 0.050632976
-0.23029724 -0.41441029 0.050770793
-0.23046458 -0.41449779 0.050677564
-0.23065804 -0.41458729 0.050666347
-0.2308352 -0.41467035 0.050647106
-0.23102161 -0.41475677 0.050634757
-0.23120019 -0.41484129 0.050608568
-0.23138651 -0.41492909 0.050584655
-0.23156524 -0.41501367 0.050558455
-0.23175161 -0.41509897 0.050555371
-0.23192424 -0.415178 0.050552335
-0.23211358 -0.41526493 0.050546911
-0.23229855 -0.41535529 0.050496407
-0.23247999 -0.41543654 0.050508365
-0.23266469 -0.41552314 0.050487932
-0.23280807 -0.41559958 0.050395966
-0.23301846 -0.41569373 0.050410118
-0.2332277 -0.41577911 0.050492518
-0.23338979 -0.41586241 0.050414354
-0.23360667 -0.41595742 0.050445829
-0.23377006 -0.41603965 0.050381526
-0.23395079 -0.41612488 0.050357647
-0.23416078 -0.41621199 0.050428472
-0.23432544 -0.41629562 0.050357237
-0.23452045 -0.41638374 0.050363362
-0.23467371 -0.41646373 0.050279438
-0.23486127 -0.41655108 0.050263621
-0.23504652 -0.41663823 0.050240867
-0.23523283 -0.41672435 0.050230835
-0.23543686 -0.41681251 0.050270464
-0.23560768 -0.41689575 0.050225798
-0.23578289 -0.41698068 0.05018343
-0.23598978 -0.4170706 0.050219581
-0.23617287 -0.41715774 0.050188743
-0.23635894 -0.41724527 0.050165981
-0.23653139 -0.41732883 0.050124787
-0.23673716 -0.41742003 0.050145902
-0.23690364 -0.41750407 0.050078116
-0.23708038 -0.41758707 0.050057713
-0.23729412 -0.41767827 0.050108865
-0.23746945 -0.41776466 0.050054934
-0.23768716 -0.41786468 0.05004824
-0.23787142 -0.41795459 0.049998894
-0.23804639 -0.41803524 0.049991224
-0.23824263 -0.41812336 0.050001968
-0.23841807 -0.41820645 0.049975783
-0.23859376 -0.4182919 0.049931105
-0.2387858 -0.41838187 0.049910635
-0.2389904 -0.41846794 0.049969923
-0.23917395 -0.41855571 0.049935609
-0.23934962 -0.4186413 0.049889769
-0.23953736 -0.41873083 0.049856607
-0.1419818 -0.3736735 0.054888166
-0.14220747 -0.37378538 0.054813188
-0.14242536 -0.37389371 0.054738227
-0.14264688 -0.37400386 0.054662108
-0.14286995 -0.37411553 0.054579038
-0.14309645 -0.37423044 0.054482073
-0.14334041 -0.37435791 0.054346856
-0.14354675 -0.37445679 0.054306652
-0.14374797 -0.37454957 0.054297708
-0.14395842 -0.37465072 0.054254033
-0.14417511 -0.37475768 0.054186027
-0.14438307 -0.37485686 0.054149289
-0.14459103 -0.37495619 0.054111391
-0.14480826 -0.37506241 0.054051481
-0.14502208 -0.37516734 0.053989276
-0.14524318 -0.3752791 0.053898118
-0.14545751 -0.37538484 0.053831279
-0.14566332 -0.37548292 0.05379571
-0.14587729 -0.37558863 0.05372772
-0.14609036 -0.37569195 0.053675916
-0.14630482 -0.37579843 0.053603299
-0.14651746 -0.3759034 0.053536467
-0.14672503 -0.37600383 0.053488165
-0.14693856 -0.3761082 0.053429432
-0.14715746 -0.37621951 0.053333648
-0.14736784 -0.37632301 0.053270295
-0.14757788 -0.3764264 0.05320695
-0.14779663 -0.37653637 0.053121582
-0.14800769 -0.37664104 0.053051285
-0.14820671 -0.37673265 0.053043514
-0.14841604 -0.37683594 0.052977845
-0.14862531 -0.37693939 0.052911036
-0.14883035 -0.37703893 0.052860431
-0.1490384 -0.37713969 0.052810967
-0.14924754 -0.37724346 0.052740678
-0.14945059 -0.37734154 0.052694712
-0.14965117 -0.37743735 0.052658014
-0.14985886 -0.37753838 0.052605078
-0.15006162 -0.37763661 0.052556798
-0.15026952 -0.37773815 0.052500397
-0.15047544 -0.37783977 0.052435905
-0.15067664 -0.37793502 0.052406143
-0.1508767 -0.37803116 0.052364815
-0.15108094 -0.3781316 0.052303802
-0.1512866 -0.3782317 0.052250888
-0.15148273 -0.37832439 0.052223451
-0.1516833 -0.3784216 0.052175183
-0.15188555 -0.37851876 0.052133843
-0.15208532 -0.37861547 0.05208673
-0.15228553 -0.37871084 0.052052338
-0.15248302 -0.37880555 0.052013338
-0.1527065 -0.37892088 0.05190134
-0.15288435 -0.37898803 0.052016273
-0.15325394 -0.37916222 0.051968452
-0.15347964 -0.37927258 0.051906198
-0.15393034 -0.37952751 0.051495943
-0.15405795 -0.37955284 0.051767256
-0.15426224 -0.37965792 0.051668078
-0.15446126 -0.37975359 0.051626749
-0.15465446 -0.37984535 0.051595859
-0.15485254 -0.37994033 0.051556855
-0.15504968 -0.38003233 0.051538676
-0.15524386 -0.38012761 0.051482327
-0.1554348 -0.38021752 0.051458396
-0.15562806 -0.38031 0.051421717
-0.15583232 -0.38040808 0.05138037
-0.15601195 -0.38049042 0.051376149
-0.15620413 -0.38058212 0.051341794
-0.1564106 -0.38068303 0.051285394
-0.15658996 -0.38076538 0.051280014
-0.15677968 -0.38085264 0.051273435
-0.15696995 -0.38094276 0.05124487
-0.15716366 -0.38103464 0.051215142
-0.1573514 -0.38112223 0.051198151
-0.15753449 -0.38120475 0.051205479
-0.15772027 -0.38128811 0.051216267
-0.15789834 -0.38136512 0.051250219
-0.15806846 -0.38143322 0.051328171
-0.15823367 -0.38149112 0.051472079
-0.15838334 -0.38153115 0.051705122
-0.15758845 -0.38019857 0.059736665
-0.15803477 -0.38044825 0.059353046
-0.15819052 -0.38049248 0.059574492
-0.15839204 -0.38059264 0.059505399
-0.15872014 -0.3806892 0.059943605
-0.15884377 -0.38069415 0.06036878
-0.1591979 -0.38081962 0.060665753
-0.16057487 -0.381926 0.056701392
-0.16077577 -0.38202155 0.056668155
-0.16097184 -0.38210037 0.056755252
-0.16120194 -0.38221595 0.056666363
-0.16138323 -0.3822985 0.056666758
-0.16157331 -0.38238379 0.056677528
-0.16177133 -0.38247356 0.056681324
-0.16196814 -0.38257328 0.056598362
-0.16212739 -0.38264522 0.056603484
-0.16235988 -0.38275656 0.056558549
-0.16255058 -0.38284901 0.056512624
-0.16273494 -0.38293046 0.056533828
-0.16292752 -0.38301381 0.056570038
-0.16311395 -0.38309509 0.056600485
-0.1632798 -0.38317019 0.056604415
-0.16350596 -0.38329527 0.056421854
-0.1636734 -0.38337892 0.056360994
-0.16387758 -0.3834599 0.056460775
-0.16407311 -0.38354769 0.056471519
-0.16424161 -0.38362694 0.056451149
-0.16446592 -0.38373539 0.056399312
-0.16465211 -0.38382018 0.056399688
-0.16482365 -0.38390401 0.05635269
-0.16500589 -0.38398349 0.056382004
-0.16521846 -0.38408607 0.056334835
-0.16538854 -0.38416168 0.056350313
-0.1656085 -0.3842718 0.056268416
-0.16579437 -0.38435686 0.056265324
-0.16596073 -0.3844308 0.056280814
-0.16616724 -0.38452891 0.056247562
-0.16633923 -0.38460776 0.05624336
-0.16651416 -0.38468406 0.056271553
-0.16672584 -0.38479739 0.05613184
-0.16688725 -0.38486794 0.056156613
-0.16708231 -0.38494965 0.056215949
-0.16729935 -0.38505381 0.056172237
-0.1674487 -0.38511705 0.056212097
-0.16765985 -0.38522735 0.056095526
-0.1678317 -0.38529944 0.05614686
-0.16803135 -0.38539609 0.056099754
-0.16820692 -0.38547409 0.056116365
-0.16840191 -0.38555983 0.056142151
-0.16858979 -0.38565376 0.056073114
-0.16875717 -0.3857227 0.056133717
-0.16896884 -0.38583994 0.05596162
-0.16917571 -0.38593361 0.055966534
-0.16934299 -0.38600251 0.056027137
-0.16951965 -0.38608295 0.056027554
-0.1697133 -0.38617966 0.05595734
-0.16990814 -0.38627023 0.055942636
-0.17008896 -0.38635397 0.055931464
-0.17028773 -0.38644728 0.05590865
-0.17046006 -0.38652518 0.055913705
-0.17065349 -0.38661832 0.055872403
-0.1708456 -0.38670927 0.055843838
-0.17103182 -0.38679898 0.055803727
-0.17118856 -0.38686278 0.055866688
-0.17137814 -0.38694954 0.055863574
-0.17157777 -0.38705528 0.05574128
-0.17175601 -0.38713071 0.055789109
-0.17194629 -0.38721931 0.055773273
-0.17213163 -0.38731351 0.055692676
-0.17230406 -0.38738781 0.055727817
-0.17250367 -0.38748518 0.055674918
-0.17267416 -0.38757664 0.055560835
-0.17287001 -0.38765645 0.055638678
-0.17306609 -0.38774198 0.055670243
-0.17323872 -0.38781697 0.055700749
-0.17342138 -0.38790196 0.055686098
-0.17359464 -0.38797832 0.055707354
-0.17378756 -0.3880859 0.055544585
-0.17396706 -0.3881647 0.055569284
-0.17416289 -0.38825613 0.055551112
-0.17434047 -0.3883307 0.055603564
-0.17452464 -0.38842028 0.055556528
-0.17471111 -0.38850924 0.055523351
-0.17490216 -0.38860941 0.055414967
-0.17507213 -0.38868552 0.055425823
-0.17526045 -0.38876668 0.055464365
-0.17545439 -0.38886172 0.055409171
-0.17564048 -0.38894421 0.055428058
-0.17580542 -0.38901484 0.055465542
-0.17598316 -0.38909718 0.055454377
-0.17617287 -0.38919684 0.05534485
-0.17636362 -0.38927743 0.05539725
-0.17653432 -0.3893564 0.055387285
-0.17672707 -0.3894583 0.055270795
-0.17691688 -0.38954446 0.055273473
-0.17710748 -0.38963309 0.055258788
-0.17729585 -0.38971522 0.055289224
-0.1775047 -0.38981679 0.055236299
-0.17767455 -0.38989455 0.055233262
-0.17783128 -0.38995779 0.055300862
-0.17801838 -0.39005473 0.05520406
-0.17819828 -0.39013791 0.055194054
-0.17840144 -0.39023185 0.055182785
-0.1785562 -0.39030844 0.055132389
-0.17873284 -0.3903805 0.055202208
-0.17892 -0.39046979 0.055169038
-0.17912285 -0.39056355 0.055157773
-0.17930263 -0.39064765 0.055139661
-0.17949596 -0.39073935 0.055109933
-0.17966294 -0.39083284 0.054965779
-0.17985578 -0.3909106 0.055049427
-0.18004091 -0.39099351 0.055061366
-0.18021815 -0.39108175 0.054999314
-0.18038498 -0.39114892 0.055072647
-0.18055098 -0.39121106 0.055184159
-0.18075083 -0.39132431 0.055000551
-0.18091878 -0.391397 0.055032231
-0.18109952 -0.3914912 0.0549343
-0.18128066 -0.39157018 0.054963611
-0.18146995 -0.39166227 0.054915387
-0.18165152 -0.39174452 0.05491925
-0.18182705 -0.39182821 0.054888442
-0.18199892 -0.39190829 0.054873839
-0.18219626 -0.39199287 0.054918118
-0.18238454 -0.39208013 0.054905761
-0.18254657 -0.39215767 0.054875009
-0.18272498 -0.39224255 0.054845333
-0.18290645 -0.39232701 0.054830696
-0.18308815 -0.39241618 0.054777868
-0.18328242 -0.39250326 0.054789774
-0.18345687 -0.3925806 0.054807559
-0.18362521 -0.39266631 0.054732807
-0.18379295 -0.39273906 0.054763336
-0.18398076 -0.39283437 0.054682735
-0.18416828 -0.39292353 0.054651871
-0.18435898 -0.39300996 0.054655693
-0.18453 -0.39307931 0.054726698
-0.18470755 -0.39316171 0.054714382
-0.18487506 -0.39324468 0.054659307
-0.1850588 -0.39333561 0.054599535
-0.18523227 -0.39342719 0.054495849
-0.1854195 -0.39350936 0.054521672
-0.18559314 -0.39359277 0.054486241
-0.18577529 -0.39365378 0.054668244
-0.18594976 -0.39372858 0.054706849
-0.1861206 -0.39383978 0.054430805
-0.18630482 -0.39391768 0.054480933
-0.18649222 -0.3939988 0.05451601
-0.18666528 -0.39408335 0.054469008
-0.18683943 -0.39418349 0.054297067
-0.18702379 -0.39423835 0.054538071
-0.18720686 -0.39432508 0.05451069
-0.18738611 -0.39441285 0.05446019
-0.18756957 -0.39449653 0.054459423
-0.18774197 -0.39458159 0.054405488
-0.18791977 -0.3946743 0.054308724
-0.18810935 -0.39476162 0.054300983
-0.18827979 -0.39483783 0.054312997
-0.1884546 -0.39491126 0.054364324
-0.18863353 -0.39499721 0.054327704
-0.18881007 -0.39507815 0.054323498
-0.18898126 -0.39515191 0.054358631
-0.18915485 -0.39525485 0.054161243
-0.18933916 -0.39534578 0.054103784
-0.18952164 -0.3954075 0.054281168
-0.18969443 -0.39548784 0.054267719
-0.18987551 -0.3955875 0.054125823
-0.19006398 -0.39565572 0.054271951
-0.19023356 -0.39574423 0.054178692
-0.19040693 -0.39584193 0.054024108
-0.19059417 -0.39590481 0.054209568
-0.19077908 -0.39600188 0.05410352
-0.19094834 -0.39608034 0.054092392
-0.19112563 -0.3961671 0.054043066
-0.19131009 -0.39624661 0.054080464
-0.19148603 -0.39631933 0.054142196
-0.19165593 -0.3964045 0.05407786
-0.19183232 -0.39649236 0.054015808
-0.19201224 -0.39657319 0.054025456
-0.19219175 -0.39665478 0.054027021
-0.19236493 -0.39673308 0.054032076
-0.19254133 -0.39682013 0.053976968
-0.19271663 -0.39690176 0.053962346
-0.19289361 -0.39698738 0.053921111
-0.19307268 -0.39706948 0.053916894
-0.19324721 -0.39714545 0.053946231
-0.19342694 -0.39723301 0.05389921
-0.19360849 -0.39731136 0.053935468
-0.19378419 -0.39739835 0.053878047
-0.19396064 -0.397484 0.053834498
-0.19413915 -0.39756069 0.053873084
-0.19429627 -0.39763698 0.053834248
-0.19447242 -0.3977285 0.053740963
-0.19465558 -0.39780492 0.053799182
-0.19482927 -0.39788792 0.053767219
-0.1950136 -0.39797968 0.053702824
-0.19520102 -0.39806211 0.053727493
-0.19536795 -0.39813685 0.053738356
-0.19553356 -0.39821839 0.053687915
-0.19572617 -0.39830542 0.053694051
-0.19590029 -0.39838749 0.05367133
-0.19606788 -0.39846155 0.053690299
-0.19623889 -0.39854193 0.053669907
-0.19642152 -0.39862484 0.053672615
-0.19658819 -0.39870951 0.0536002
-0.19677076 -0.39879239 0.053602893
-0.19694409 -0.39887494 0.053573251
-0.19712688 -0.39895761 0.053578261
-0.19730115 -0.39903921 0.053560175
-0.19747987 -0.39912114 0.053555958
-0.19765672 -0.39920041 0.053566784
-0.19782645 -0.39927727 0.053570699
-0.19799282 -0.39937413 0.053396475
-0.19818145 -0.39944759 0.053499803
-0.19835095 -0.39952463 0.053501397
-0.19851682 -0.39961284 0.053396583
-0.19870071 -0.39969465 0.053413164
-0.19887288 -0.3997736 0.053408977
-0.19906239 -0.39985123 0.05348105
-0.19922467 -0.39993769 0.053377423
-0.19939804 -0.40002349 0.05332116
-0.19958101 -0.4001061 0.053327337
-0.19975123 -0.40018642 0.053304635
-0.19994384 -0.40026239 0.053402156
-0.20011635 -0.40034863 0.05333896
-0.20027424 -0.40044078 0.053171724
-0.20044978 -0.40052462 0.053139754
-0.20063978 -0.40059912 0.053239591
-0.20080522 -0.40067878 0.053204194
-0.20098883 -0.40075764 0.053243913
-0.2011718 -0.40084738 0.053191092
-0.20136179 -0.40092942 0.053228464
-0.20152685 -0.40100583 0.05321851
-0.20169979 -0.40108109 0.053247862
-0.2018652 -0.40117067 0.053130332
-0.2020582 -0.40125129 0.053190827
-0.20221996 -0.40133277 0.053126525
-0.20239793 -0.40142483 0.05303555
-0.20257281 -0.40150237 0.053053319
-0.20275314 -0.40158352 0.053061821
-0.20293009 -0.40166953 0.053017121
-0.20311034 -0.40175077 0.05302446
-0.20328262 -0.40182978 0.053020261
-0.20346855 -0.40191752 0.052995186
-0.20363723 -0.40199825 0.052963246
-0.20381142 -0.40207937 0.052948628
-0.20398259 -0.40215003 0.053009227
-0.20415875 -0.40223628 0.052959893
-0.2043512 -0.40232405 0.052959092
-0.20451626 -0.40240338 0.052924845
-0.20468424 -0.40248436 0.052888282
-0.20485586 -0.40256375 0.052878302
-0.20503093 -0.40264738 0.052846335
-0.2052163 -0.40272689 0.052887205
-0.20538586 -0.40280718 0.052862197
-0.20556428 -0.40288955 0.052853353
-0.20572518 -0.4029758 0.052746251
-0.20591207 -0.40306035 0.052751247
-0.20606647 -0.40314069 0.05266846
-0.20626113 -0.40321189 0.052813407
-0.20641144 -0.40330154 0.052638099
-0.20659053 -0.40338099 0.052655853
-0.20678216 -0.40345889 0.052733704
-0.20698614 -0.40354064 0.052826546
-0.20715056 -0.40363032 0.052704398
-0.20732829 -0.40371808 0.05264812
-0.20753472 -0.40378681 0.05285779
-0.20770742 -0.40388122 0.052727506
-0.20786217 -0.40396103 0.052650504
-0.2080338 -0.40404561 0.052597731
-0.20820537 -0.40412039 0.052625924
-0.20836669 -0.40420544 0.052530393
-0.20856066 -0.40428847 0.05257469
-0.20874232 -0.40437022 0.05258318
-0.2089144 -0.40445456 0.052533872
-0.20909147 -0.40453756 0.05251462
-0.20925623 -0.40461439 0.052500047
-0.20942579 -0.40469468 0.052475039
-0.20961283 -0.40477985 0.052475411
-0.20979725 -0.40486342 0.052479263
-0.20996143 -0.40494502 0.052423041
-0.21013628 -0.40502408 0.052428097
-0.21030919 -0.40511036 0.052366063
-0.21049808 -0.40519303 0.052394185
-0.21065405 -0.40527409 0.052311394
-0.21084161 -0.40535712 0.052331429
-0.21102418 -0.4054369 0.052359577
-0.21119502 -0.40551916 0.052323006
-0.21137308 -0.4056043 0.05228987
-0.21155317 -0.40568686 0.052285638
-0.21174045 -0.4057681 0.052319553
-0.21191202 -0.40585238 0.052269097
-0.21208614 -0.40593192 0.052267209
-0.21225898 -0.40601593 0.052223675
-0.21243711 -0.40609902 0.052207887
-0.21263325 -0.40618107 0.052268371
-0.21281198 -0.40626413 0.0522549
-0.21296361 -0.40634757 0.052136265
-0.21316695 -0.40642869 0.052231427
-0.21333185 -0.40651399 0.052147441
-0.21350528 -0.40659589 0.052123584
-0.21367642 -0.40667814 0.052088164
-0.21387556 -0.40676031 0.052159041
-0.21403086 -0.40684485 0.052045025
-0.21420577 -0.40692854 0.052011892
-0.21438804 -0.4070093 0.052030794
-0.21458375 -0.40709034 0.052098222
-0.21476088 -0.40717772 0.05204311
-0.21491387 -0.40726036 0.051936042
-0.2151102 -0.40734151 0.052004628
-0.21530336 -0.4074232 0.052057028
-0.21546932 -0.40750992 0.051964939
-0.21562283 -0.4075942 0.051846307
-0.21581616 -0.40767416 0.051913742
-0.21601436 -0.40775743 0.051971912
-0.21618889 -0.4078432 0.05192028
-0.21637581 -0.40792957 0.051910233
-0.21655107 -0.40801162 0.051892139
-0.21673021 -0.40809333 0.051891394
-0.21690418 -0.40818092 0.051822416
-0.21707724 -0.40826139 0.051808953
-0.21724343 -0.40834603 0.051735375
-0.21742463 -0.40842587 0.051757757
-0.21760155 -0.40850964 0.051731564
-0.21779332 -0.40859237 0.051770084
-0.21798488 -0.40867695 0.05179242
-0.2181623 -0.40876082 0.051767379
-0.21832447 -0.40884221 0.05170539
-0.21849748 -0.40892461 0.051675737
-0.21865828 -0.40900773 0.051594086
-0.21886198 -0.40909183 0.051666111
-0.21906182 -0.40917629 0.051720794
-0.21923093 -0.40925902 0.051673818
-0.21940143 -0.40934336 0.051618725
-0.21957493 -0.40942919 0.051562473
-0.21978155 -0.40951031 0.051670346
-0.21991864 -0.40959269 0.051505499
-0.22011028 -0.40967619 0.051537082
-0.22025575 -0.40975973 0.051394183
-0.22044018 -0.40984192 0.05140961
-0.220635 -0.40992546 0.051452748
-0.22081828 -0.4100078 0.051462382
-0.22099401 -0.41009203 0.051428106
-0.22120231 -0.41017711 0.051509358
-0.22136588 -0.41026166 0.051426545
-0.22152235 -0.41034308 0.051342595
-0.22171842 -0.41042861 0.05137416
-0.2219055 -0.41050962 0.051409237
-0.2220896 -0.41059387 0.051406141
-0.22227381 -0.41067818 0.051403057
-0.22244543 -0.41076261 0.051351435
-0.22262397 -0.41084543 0.05133912
-0.22280537 -0.41092986 0.051324472
-0.22299418 -0.41101432 0.051337563
-0.22318099 -0.41109881 0.051342558
-0.22334006 -0.41118327 0.051243566
-0.22354752 -0.41126797 0.051324822
-0.22371286 -0.41135094 0.051261667
-0.2238903 -0.41143551 0.05123084
-0.22405684 -0.41151845 0.051172301
-0.22426128 -0.41160345 0.051239692
-0.22444594 -0.41168827 0.051234286
-0.22461537 -0.41177279 0.051173419
-0.22478616 -0.41185588 0.051129907
-0.22498311 -0.41194251 0.051155679
-0.2251759 -0.41202766 0.051178008
-0.22534671 -0.41211227 0.051121771
-0.22551244 -0.41219527 0.051059756
-0.22569625 -0.41227883 0.051061306
-0.22586937 -0.41236353 0.051013149
-0.22605601 -0.41244727 0.05102393
-0.22626793 -0.41253483 0.051098228
-0.22645903 -0.41262034 0.051111311
-0.22659948 -0.41270384 0.05094992
-0.22679304 -0.41278946 0.050971083
-0.22698204 -0.41287777 0.050952934
-0.2271916 -0.41296288 0.051038817
-0.22734392 -0.41305095 0.050884325
-0.22754396 -0.41313297 0.050959837
-0.22772786 -0.41322118 0.050923198
-0.22790807 -0.41330785 0.05088542
-0.22809371 -0.41339073 0.050899688
-0.2282616 -0.41347402 0.050843451
-0.22846602 -0.41356486 0.05086226
-0.22864103 -0.41364864 0.050829131
-0.22882061 -0.41372997 0.050833002
-0.22899398 -0.41381365 0.050794102
-0.22917175 -0.41390035 0.050747082
-0.22935109 -0.41398314 0.05073823
-0.22952209 -0.41406938 0.05066926
-0.22967914 -0.414148 0.050610762
-0.22991657 -0.41423896 0.050753206
-0.23005846 -0.41431922 0.050624199
-0.23028688 -0.41440845 0.050747026
-0.23046309 -0.41449651 0.050682664
-0.2306533 -0.41458565 0.05066219
-0.23083216 -0.41467002 0.050638299
-0.23101714 -0.41475621 0.050622486
-0.23119803 -0.41484082 0.050604381
-0.23139127 -0.41493037 0.05059199
-0.23156859 -0.41501474 0.05056233
-0.2317555 -0.41510126 0.050551131
-0.23192406 -0.41517982 0.050536547
-0.23211539 -0.41526681 0.050538056
-0.23230195 -0.41535723 0.050493315
-0.23248351 -0.41543961 0.050496012
-0.23267138 -0.41552645 0.050485972
-0.23280558 -0.41560191 0.050367422
-0.23302495 -0.4156968 0.050409295
-0.23323351 -0.41578326 0.050480146
-0.23339799 -0.41586792 0.050399635
-0.2336095 -0.41596106 0.050426509
-0.23378398 -0.41604555 0.050385289
-0.23395738 -0.4161287 0.050351009
-0.23417217 -0.41621745 0.050426457
-0.23434085 -0.41630262 0.050357491
-0.23453115 -0.41639012 0.050350912
-0.23468654 -0.41647023 0.050273906
-0.23487583 -0.4165577 0.050263859
-0.23505917 -0.41664454 0.050236478
-0.23525156 -0.41673243 0.050234511
-0.23544633 -0.41681945 0.050248735
-0.2356199 -0.41690171 0.050222557
-0.23579729 -0.41698682 0.050187107
-0.23600246 -0.4170776 0.050209388
-0.23618692 -0.4171648 0.050183155
-0.23636645 -0.41725147 0.050143074
-0.23654655 -0.41733584 0.050123811
-0.2367516 -0.41742685 0.050143763
-0.23692134 -0.41751239 0.050075956
-0.23709017 -0.41759428 0.050034754
-0.23731339 -0.41768661 0.050112486
-0.23748332 -0.41777223 0.050044674
-0.23770411 -0.41787252 0.050047215
-0.2378898 -0.41796252 0.050002474
-0.23805591 -0.41804194 0.049971707
-0.2382592 -0.41813087 0.050002087
-0.23843384 -0.41821265 0.049983997
-0.23860359 -0.4182972 0.049924284
-0.23880196 -0.41838908 0.049911883
-0.23899533 -0.41847351 0.049942303
-0.23919088 -0.41856286 0.049940333
-0.23936273 -0.41864783 0.049885232
-0.14201725 -0.37369186 0.054869775
-0.14223419 -0.37379768 0.054812148
-0.1424599 -0.37391141 0.054722097
-0.14268598 -0.37402403 0.054642461
-0.14290795 -0.37413478 0.054562833
-0.14313659 -0.37424845 0.054484338
-0.14337239 -0.37437195 0.054351427
-0.14358434 -0.3744759 0.054290358
-0.14378451 -0.37456775 0.054284878
-0.14399755 -0.3746697 0.05424463
-0.1442101 -0.37477294 0.054191656
-0.14442259 -0.37487629 0.054137528
-0.14463294 -0.37497783 0.054090351
-0.14484878 -0.37508285 0.054035045
-0.14506309 -0.37518829 0.053970501
-0.14528161 -0.37529609 0.053902462
-0.14550036 -0.37540594 0.053818226
-0.14570457 -0.37550259 0.053788424
-0.1459178 -0.37560767 0.053722717
-0.14613165 -0.3757118 0.053667434
-0.14634302 -0.37581548 0.053606361
-0.14656094 -0.37592369 0.053532533
-0.14677162 -0.37602705 0.053471476
-0.14698473 -0.37613112 0.053413868
-0.14719884 -0.37623802 0.053336598
-0.14741316 -0.37634528 0.053257003
-0.14762221 -0.37644777 0.053197101
-0.14784083 -0.37655771 0.053111702
-0.14804894 -0.3766596 0.053052969
-0.14825095 -0.37675413 0.053032443
-0.14845818 -0.37685552 0.052974857
-0.14867036 -0.37695998 0.05291032
-0.14887695 -0.37706107 0.052852739
-0.14908214 -0.37716097 0.052799799
-0.14928702 -0.37726071 0.052746866
-0.14949736 -0.37736407 0.052684642
-0.14969838 -0.37746036 0.052645609
-0.14990674 -0.37756214 0.052589171
-0.15010831 -0.37765923 0.05254551
-0.15031287 -0.37775758 0.052502979
-0.15052214 -0.37786254 0.05242341
-0.15071914 -0.37795562 0.052395955
-0.15092014 -0.37805277 0.052349977
-0.15112334 -0.37815034 0.052308619
-0.15132849 -0.37825188 0.052241795
-0.15152855 -0.37834665 0.052212007
-0.15172771 -0.37844253 0.052169509
-0.1519306 -0.3785404 0.052124679
-0.15212695 -0.37863374 0.052092601
-0.15232736 -0.37873128 0.052040841
-0.15252474 -0.37882593 0.052001808
-0.15274109 -0.37893608 0.051906019
-0.15293553 -0.37901625 0.051975764
-0.15329181 -0.37917891 0.051973082
-0.15350337 -0.37927878 0.051944423
-0.1539671 -0.37954327 0.051503923
-0.15410104 -0.3795732 0.05176137
-0.15430292 -0.37967789 0.051656384
-0.15449792 -0.37977144 0.051617362
-0.15469399 -0.37986422 0.051588766
-0.15488712 -0.3799561 0.051556703
-0.15508577 -0.38004979 0.051530398
-0.15528077 -0.380146 0.051469397
-0.15547369 -0.38023597 0.051452376
-0.15566593 -0.38032743 0.051420327
-0.15587011 -0.38042545 0.05137895
-0.15604755 -0.38050765 0.05136779
-0.1562424 -0.38060015 0.05133687
-0.15644667 -0.38070089 0.051273521
-0.15662692 -0.38078213 0.051280852
-0.15681422 -0.38086897 0.051268488
-0.15700847 -0.38096136 0.051236421
-0.15719932 -0.38105232 0.051203202
-0.15738951 -0.38114047 0.051190823
-0.15757039 -0.38122061 0.051209725
-0.15775862 -0.38130674 0.0512066
-0.15793571 -0.381385 0.051226683
-0.15810427 -0.3814514 0.051312741
-0.15827015 -0.3815124 0.051433522
-0.15842055 -0.38155332 0.051661979
-0.15761304 -0.38020778 0.059753165
-0.15807535 -0.38048127 0.059232838
-0.15821792 -0.38050255 0.059594382
-0.15842223 -0.38060862 0.059487067
-0.15888044 -0.38072062 0.060288105
-0.15919712 -0.38080394 0.060792379
-0.16058333 -0.38192725 0.056722932
-0.16079417 -0.38203236 0.056647982
-0.16098112 -0.3821027 0.056770988
-0.16121416 -0.382222 0.056662396
-0.16139627 -0.38230562 0.056656994
-0.16157755 -0.38238552 0.056679361
-0.16178244 -0.38248122 0.056659974
-0.16196986 -0.38257188 0.056616358
-0.16214198 -0.38265458 0.056580923
-0.16233735 -0.38274425 0.056575455
-0.16254279 -0.38284707 0.056499377
-0.16273318 -0.38293055 0.056526341
-0.16292864 -0.38301775 0.056541696
-0.16311119 -0.38309696 0.056574479
-0.16326994 -0.38316575 0.056603882
-0.16349249 -0.38328305 0.056472186
-0.16367573 -0.38338172 0.056346446
-0.16384287 -0.38344678 0.056438304
-0.16406426 -0.38354486 0.056461655
-0.16423149 -0.38362238 0.056450527
-0.16444767 -0.38372925 0.056381345
-0.16463542 -0.38381305 0.056395583
-0.16480286 -0.38389447 0.056353215
-0.16497171 -0.38396829 0.056379102
-0.1652019 -0.38407931 0.056328375
-0.16535859 -0.38414922 0.056340434
-0.16557775 -0.38425493 0.056292057
-0.16577134 -0.38435107 0.056226436
-0.16593905 -0.38442364 0.056258127
-0.16612238 -0.38450867 0.05624577
-0.16631328 -0.38459799 0.05622644
-0.16648334 -0.38467067 0.056266211
-0.16665755 -0.38475657 0.056212246
-0.16685562 -0.38485697 0.056128107
-0.16703463 -0.384929 0.056207173
-0.16725439 -0.3850337 0.056169212
-0.16741763 -0.38510355 0.056206696
-0.16760457 -0.38520253 0.056092508
-0.16779208 -0.38528401 0.056125268
-0.16798133 -0.38537201 0.05611058
-0.16816033 -0.38545549 0.056094769
-0.16833079 -0.38552931 0.056126438
-0.16853555 -0.38562691 0.056090858
-0.16870017 -0.38569933 0.05611214
-0.16889286 -0.38579759 0.056025699
-0.16911843 -0.38590986 0.055947214
-0.16928384 -0.38597983 0.055991635
-0.16945088 -0.38605255 0.056019846
-0.16964543 -0.38615081 0.055940345
-0.169834 -0.38623917 0.055919871
-0.17001401 -0.38632157 0.055916794
-0.1702053 -0.38641065 0.055900931
-0.17039303 -0.38649362 0.055922121
-0.17057419 -0.38658282 0.055866957
-0.17076267 -0.38667187 0.055840701
-0.17095894 -0.38676602 0.055801682
-0.17110904 -0.3868317 0.055824183
-0.17128871 -0.38690498 0.055895157
-0.17149031 -0.38701427 0.055750828
-0.17166942 -0.38709626 0.055747747
-0.17185475 -0.38717547 0.055790924
-0.1720435 -0.38727123 0.055710282
-0.17221411 -0.38735211 0.055684108
-0.17241341 -0.38743871 0.05571913
-0.17257737 -0.38752732 0.05560388
-0.17276491 -0.38761148 0.05561465
-0.17296621 -0.38770247 0.05562073
-0.17312898 -0.38776258 0.055736899
-0.17332298 -0.3878603 0.055659711
-0.17348695 -0.38792267 0.055761989
-0.17367995 -0.38803014 0.055600338
-0.17385916 -0.38811985 0.055533625
-0.17405009 -0.38820049 0.055586029
-0.17423116 -0.38828295 0.055586413
-0.17441332 -0.38836801 0.05556944
-0.17459145 -0.38845009 0.055561736
-0.17479236 -0.38855419 0.055457905
-0.17495906 -0.3886354 0.055414394
-0.17513922 -0.38871661 0.055421725
-0.17532504 -0.38880512 0.055389687
-0.17551644 -0.38888741 0.055430528
-0.17569299 -0.38896668 0.055440187
-0.17585731 -0.38903576 0.05548808
-0.17604013 -0.38913161 0.055384327
-0.17623204 -0.38922277 0.055353433
-0.17640758 -0.3892999 0.055376977
-0.17657638 -0.38938153 0.055338077
-0.17677684 -0.3894819 0.055263169
-0.17697419 -0.38957387 0.05524613
-0.17715673 -0.38965562 0.05525808
-0.17733526 -0.38973382 0.055283934
-0.17753525 -0.38983458 0.055204395
-0.17768931 -0.38989869 0.055254653
-0.17786139 -0.38997465 0.055274747
-0.17804728 -0.39006799 0.055203371
-0.17823692 -0.39015505 0.055197939
-0.17840806 -0.39023829 0.055154406
-0.1785744 -0.39031515 0.055145595
-0.17875879 -0.39039436 0.055185299
-0.17894107 -0.39047652 0.05519262
-0.17913966 -0.39057675 0.055111945
-0.17932096 -0.39065555 0.055143572
-0.17952034 -0.39076048 0.055027016
-0.17966843 -0.39083695 0.054952331
-0.17986034 -0.39091095 0.055063754
-0.1800466 -0.39099926 0.055035185
-0.18021688 -0.39108321 0.054982387
-0.18037786 -0.39113653 0.055148326
-0.18057807 -0.39123511 0.055087298
-0.18074587 -0.39132342 0.054989398
-0.18091826 -0.39140442 0.05496899
-0.18110411 -0.39149338 0.054933488
-0.18128602 -0.39157763 0.054922298
-0.18146433 -0.39165866 0.054923847
-0.18164933 -0.39174363 0.054918431
-0.18181874 -0.3918283 0.054856397
-0.18199658 -0.39190704 0.054875307
-0.1821944 -0.39199629 0.054882564
-0.18236573 -0.39207277 0.054895718
-0.18253438 -0.39215404 0.054859124
-0.18271258 -0.39223742 0.054841012
-0.1828908 -0.3923218 0.054814793
-0.1830792 -0.39241627 0.054743417
-0.18325987 -0.39249238 0.05479471
-0.18344465 -0.39258409 0.054732606
-0.183606 -0.3926599 0.054713402
-0.18377358 -0.39273021 0.054763593
-0.18396474 -0.39283165 0.054644767
-0.18415545 -0.39292172 0.054618496
-0.18433619 -0.39300039 0.054648973
-0.18451042 -0.39307094 0.054722272
-0.18467796 -0.39315391 0.054667179
-0.18484874 -0.39323518 0.054638688
-0.18503572 -0.39332703 0.054583505
-0.1852057 -0.3934201 0.054454349
-0.18538643 -0.3934961 0.054506809
-0.18556699 -0.3935765 0.054522231
-0.18574558 -0.39363882 0.05467999
-0.18591613 -0.39371884 0.054660745
-0.18609345 -0.39383313 0.054383457
-0.18628165 -0.39390501 0.05449836
-0.18645549 -0.39398345 0.054504562
-0.18663153 -0.39407131 0.054441329
-0.18680963 -0.39416793 0.054313302
-0.18699016 -0.39422429 0.054527741
-0.18717304 -0.39431176 0.054493405
-0.1873554 -0.39440149 0.054438248
-0.18753262 -0.39448011 0.05445601
-0.18770474 -0.3945663 0.054391634
-0.18787591 -0.39465612 0.054293714
-0.18806882 -0.3947444 0.054290585
-0.18823957 -0.39481893 0.054317616
-0.18841721 -0.39489534 0.054355048
-0.18859594 -0.39498192 0.054312631
-0.18877277 -0.39506146 0.054321129
-0.1889431 -0.39513791 0.054330818
-0.18911344 -0.3952392 0.054134555
-0.18929859 -0.39532718 0.054104842
-0.1894848 -0.39538863 0.054298431
-0.18965282 -0.39547184 0.054243334
-0.18983392 -0.39557123 0.054103717
-0.19001915 -0.39563754 0.05425334
-0.19018476 -0.3957262 0.054143872
-0.19036251 -0.39582241 0.054018155
-0.19055256 -0.39588755 0.054195534
-0.19073084 -0.39598173 0.054088321
-0.19090651 -0.39606327 0.054076008
-0.19108053 -0.39614838 0.054027826
-0.19126518 -0.3962273 0.054071009
-0.19143738 -0.39629927 0.054124653
-0.19161016 -0.39638662 0.054053344
-0.19178367 -0.39647204 0.054000534
-0.19197004 -0.39655581 0.054010153
-0.19214362 -0.39663318 0.05402445
-0.19231869 -0.39671525 0.054005198
-0.19249265 -0.39679924 0.053966276
-0.19267114 -0.39688233 0.053951629
-0.192845 -0.3969661 0.053913862
-0.19302779 -0.39704877 0.053918861
-0.19320415 -0.3971284 0.053925056
-0.19338472 -0.39721453 0.053893045
-0.19356577 -0.39729348 0.053922363
-0.19374089 -0.39738119 0.05385682
-0.19391195 -0.39746216 0.053831786
-0.1940935 -0.39754048 0.05386804
-0.19425452 -0.39761728 0.053839594
-0.19443023 -0.39770934 0.053740494
-0.19460975 -0.39778465 0.053794108
-0.19478704 -0.3978686 0.053767893
-0.19496325 -0.39795932 0.053681526
-0.19515742 -0.39804426 0.053710781
-0.19532102 -0.39811748 0.053721651
-0.19549067 -0.39819947 0.053682745
-0.19567311 -0.39828241 0.053684279
-0.19585393 -0.39836714 0.053665005
-0.19601929 -0.39843851 0.053697858
-0.19618943 -0.39851975 0.053667042
-0.19637153 -0.39860308 0.053663954
-0.19653863 -0.39868727 0.053597294
-0.19672161 -0.39876965 0.053605765
-0.19689786 -0.39885396 0.053572617
-0.19707721 -0.3989352 0.053576481
-0.19725753 -0.39902011 0.053553727
-0.19743061 -0.39909822 0.053559933
-0.19761276 -0.39918143 0.053557999
-0.19778064 -0.39925548 0.053578116
-0.19794743 -0.39935198 0.053408474
-0.19813156 -0.39942914 0.053464387
-0.19830446 -0.39950326 0.053502984
-0.19847266 -0.39959368 0.053388886
-0.19865537 -0.39967632 0.053393885
-0.19882913 -0.3997539 0.053407028
-0.19901034 -0.39982983 0.053461801
-0.19918057 -0.39991814 0.053373132
-0.19935124 -0.40000197 0.053322658
-0.19953366 -0.40008491 0.053324193
-0.1997043 -0.40016484 0.053306114
-0.1998973 -0.40024045 0.053408269
-0.20007291 -0.40032822 0.053343885
-0.20023379 -0.4004184 0.05320435
-0.20040326 -0.40050617 0.053116851
-0.20059365 -0.40058032 0.053221334
-0.20076419 -0.40066019 0.05320324
-0.20094292 -0.40073851 0.053229101
-0.20112503 -0.40082869 0.053169314
-0.20131612 -0.40090999 0.053217094
-0.20148504 -0.40098748 0.053212907
-0.20165627 -0.40106362 0.053228367
-0.2018252 -0.40114781 0.053168647
