# .PCD v0.7 - Point Cloud Data file format
VERSION 0.7
FIELDS x y z
SIZE 4 4 4
TYPE F F F
COUNT 1 1 1
WIDTH 1280
HEIGHT 1
VIEWPOINT 0 0 0 1 0 0 0
POINTS 1280
DATA ascii
-0.14829768 -0.46952882 0.054974131
-0.14846444 -0.46963525 0.055012636
-0.14862016 -0.46974942 0.05495305
-0.14877222 -0.46986344 0.054878481
-0.14894503 -0.46997413 0.054915801
-0.14909187 -0.4700821 0.054857418
-0.14925343 -0.47019255 0.054847457
-0.14942528 -0.47029954 0.054904398
-0.14958464 -0.47041383 0.054859817
-0.14972109 -0.47052521 0.054734513
-0.14989856 -0.4706403 0.054763734
-0.15006649 -0.47074929 0.054790679
-0.1502101 -0.47085333 0.054743864
-0.15038161 -0.47097206 0.054723464
-0.15057437 -0.47108084 0.054859981
-0.15071003 -0.47119382 0.054720826
-0.15085256 -0.47130337 0.054633602
-0.15102395 -0.47140738 0.05470787
-0.15116714 -0.47151881 0.054611396
-0.15132642 -0.4716295 0.054589905
-0.15149736 -0.47174108 0.054613374
-0.15164989 -0.47185129 0.054565355
-0.15181477 -0.47196433 0.054553073
-0.15198573 -0.47207609 0.054575391
-0.1521371 -0.47218445 0.054534301
-0.15231498 -0.47229695 0.054581985
-0.15246704 -0.47240901 0.054520115
-0.15261786 -0.47251916 0.054465178
-0.1527964 -0.47263193 0.054514013
-0.1529482 -0.4727422 0.054462533
-0.15310837 -0.4728533 0.05444219
-0.15330392 -0.47296807 0.054552138
-0.15344231 -0.47307876 0.054439522
-0.1536071 -0.47319046 0.05443532
-0.15378021 -0.47330314 0.054461092
-0.15394394 -0.47341484 0.054452278
-0.15408114 -0.47352529 0.054336205
-0.15424746 -0.47363731 0.054336619
-0.15442599 -0.47375259 0.054369289
-0.15458563 -0.47386563 0.054333933
-0.15475211 -0.47397617 0.054344736
-0.15491202 -0.47408763 0.054320928
-0.15508175 -0.47420374 0.054309763
-0.15524738 -0.474316 0.054305557
-0.15539989 -0.47442657 0.054255225
-0.15555106 -0.47453699 0.054200284
-0.15574513 -0.47465324 0.05429408
-0.15588516 -0.47476381 0.054189544
-0.15604168 -0.47487333 0.054163441
-0.15621489 -0.47498858 0.05417306
-0.15638918 -0.47510239 0.05419651
-0.15652125 -0.47521168 0.054065462
-0.15666673 -0.47532129 0.053990923
-0.15688568 -0.47544199 0.054164264
-0.15703824 -0.47555763 0.054081604
-0.15720797 -0.47567749 0.054046202
-0.15737152 -0.47578996 0.054031618
-0.15755117 -0.47590509 0.054070055
-0.15774064 -0.47602987 0.054088831
-0.1578984 -0.47613522 0.054095052
-0.15803514 -0.47623876 0.054021705
-0.15820812 -0.47635937 0.053995524
-0.15836236 -0.47646898 0.053959034
-0.15853241 -0.47658601 0.053943265
-0.15868595 -0.47669712 0.053894088
-0.15886325 -0.47681081 0.053931378
-0.15900837 -0.47691891 0.05386493
-0.15916333 -0.47702721 0.053839985
-0.15933788 -0.4771437 0.053847276
-0.15949939 -0.47725484 0.053832699
-0.15967457 -0.47737157 0.053841144
-0.15981209 -0.4774783 0.053750474
-0.16003893 -0.47760487 0.053920321
-0.16020817 -0.4777253 0.053879146
-0.16033502 -0.47783303 0.05373542
-0.16051877 -0.47795326 0.053758837
-0.16068572 -0.47806874 0.053739611
-0.16088006 -0.47819272 0.053784918
-0.1610311 -0.47830516 0.053716127
-0.16120249 -0.47841719 0.053738445
-0.16134942 -0.47852436 0.053685825
-0.16152239 -0.47864428 0.053664267
-0.16167404 -0.47875392 0.053616252
-0.16185339 -0.47887081 0.053641994
-0.16205058 -0.47899741 0.05368267
-0.16217609 -0.47909871 0.053574741
-0.16233659 -0.47921324 0.053533606
-0.16252394 -0.47933355 0.053572021
-0.16267911 -0.47944555 0.053523988
-0.16286896 -0.47955933 0.053615488
-0.16300635 -0.47967187 0.053486716
-0.16320351 -0.47979754 0.053533167
-0.16337086 -0.47991672 0.053492002
-0.16353905 -0.48002893 0.053499334
-0.16369462 -0.48013979 0.053460535
-0.16385265 -0.48024979 0.053437889
-0.16403115 -0.48036879 0.053446319
-0.16420576 -0.48048836 0.053433992
-0.16437367 -0.48060504 0.053411298
-0.1645297 -0.48071334 0.053390961
-0.16468355 -0.4808268 0.053327933
-0.16490766 -0.48095545 0.053472385
-0.16504292 -0.48106459 0.053356331
-0.16521406 -0.48117808 0.053368259
-0.16538572 -0.48129871 0.053336311
-0.16552757 -0.481408 0.053247929
-0.16571584 -0.48152858 0.05328865
-0.16587515 -0.48164767 0.053212885
-0.16603047 -0.48175478 0.053197175
-0.16616085 -0.48185435 0.053121552
-0.16638422 -0.48198807 0.053230226
-0.1665363 -0.48210406 0.053142946
-0.16669889 -0.48221591 0.053128365
-0.16690142 -0.4823488 0.053151701
-0.16706692 -0.48246419 0.053126708
-0.16722389 -0.48257473 0.053095981
-0.1673829 -0.48268721 0.053061791
-0.16758096 -0.48281652 0.053088602
-0.16775489 -0.48293296 0.05309359
-0.16791293 -0.48304531 0.053055935
-0.16807145 -0.48316047 0.053002119
-0.16826946 -0.48328745 0.053043943
-0.1684635 -0.48341745 0.053048838
-0.080550656 -0.42391622 0.054685123
-0.080721408 -0.42402554 0.054722436
-0.080540851 -0.42340305 0.057956532
-0.0807321 -0.423538 0.057917543
-0.080934152 -0.42368555 0.057843857
-0.081140101 -0.42384115 0.05773551
-0.08134038 -0.42398682 0.057666458
-0.081540979 -0.42413557 0.057578914
-0.081741802 -0.42428249 0.05750408
-0.081953093 -0.42444184 0.057394557
-0.082150668 -0.42458963 0.057300106
-0.082328096 -0.424707 0.057314299
-0.082525358 -0.42484993 0.057249866
-0.082717739 -0.42498866 0.057191245
-0.082904689 -0.42511746 0.057173058
-0.083095796 -0.42525479 0.057117894
-0.083288744 -0.42539248 0.057068501
-0.083480462 -0.42553112 0.057007574
-0.083674937 -0.42567146 0.056947771
-0.083867691 -0.42581204 0.056878753
-0.084061101 -0.42595127 0.056821279
-0.084247701 -0.42608094 0.056796163
-0.084445842 -0.42622748 0.056712095
-0.08464101 -0.42637256 0.056624588
-0.084835701 -0.42651463 0.056554399
-0.085019298 -0.42664334 0.056522373
-0.085216522 -0.42678961 0.056436006
-0.085404977 -0.4269259 0.056376245
-0.085599959 -0.4270694 0.056297965
-0.085788906 -0.4272069 0.05623243
-0.085984103 -0.4273513 0.056149535
-0.086176984 -0.4274925 0.056077052
-0.086357415 -0.42761528 0.056069292
-0.086546473 -0.42775393 0.055996813
-0.086735472 -0.42789003 0.055940513
-0.086920947 -0.42802373 0.055884227
-0.087108538 -0.42815816 0.05583255
-0.087292835 -0.42829055 0.055779733
-0.087483622 -0.42843035 0.055707246
-0.087670803 -0.42856485 0.055653267
-0.087855242 -0.42869538 0.055613149
-0.088036612 -0.42882419 0.055570737
-0.088221796 -0.42895627 0.05552369
-0.088414952 -0.42909533 0.05546622
-0.088596374 -0.42922774 0.055400707
-0.088775761 -0.42935431 0.055364072
-0.088977739 -0.42950809 0.055249974
-0.089137733 -0.42960727 0.055305824
-0.089325704 -0.42974517 0.055233352
-0.089507774 -0.42986801 0.05523251
-0.08968889 -0.43000433 0.055140443
-0.089870661 -0.43013304 0.055100344
-0.090052024 -0.43026131 0.055061389
-0.090233728 -0.43039033 0.055018984
-0.090407744 -0.430507 0.055022795
-0.090572551 -0.43061176 0.055063598
-0.09074381 -0.43072408 0.055083591
-0.090921253 -0.43084362 0.055083919
-0.091287017 -0.43110129 0.055011787
-0.091502279 -0.43127853 0.054804087
-0.091850907 -0.43153787 0.054646589
-0.092028767 -0.43166268 0.054614581
-0.092206419 -0.43178737 0.054582581
-0.092380226 -0.43190894 0.054554056
-0.09256275 -0.43204242 0.054486237
-0.09274482 -0.43217546 0.054419581
-0.092919603 -0.43229607 0.054401446
-0.093092412 -0.43241337 0.054396026
-0.093265235 -0.43253085 0.054389451
-0.093439043 -0.43265367 0.054352846
-0.093613356 -0.43277413 0.054333568
-0.093786538 -0.43289274 0.054321215
-0.093961954 -0.43301556 0.054291531
-0.094137028 -0.43313795 0.054263007
-0.094309755 -0.43325987 0.054227561
-0.094479337 -0.43337625 0.054214075
-0.094650514 -0.43349209 0.054210972
-0.09482497 -0.4336105 0.054205541
-0.094991744 -0.43372211 0.054210544
-0.095158413 -0.43383366 0.054215543
-0.095322445 -0.4339329 0.054288682
-0.095476843 -0.43402132 0.054389592
-0.095628388 -0.43409657 0.054563247
-0.095192045 -0.43256557 0.062551424
-0.095361717 -0.43268004 0.062550634
-0.095547862 -0.43280599 0.06254746
-0.095736615 -0.43295425 0.062411487
-0.096177727 -0.43311918 0.063266248
-0.09647496 -0.43323478 0.063813373
-0.097628526 -0.43463868 0.059767604
-0.097817391 -0.43478164 0.059666269
-0.097981587 -0.43487704 0.059764817
-0.098152071 -0.43500459 0.059683196
-0.098351195 -0.43515196 0.059597969
-0.098542541 -0.43528286 0.059585541
-0.098706111 -0.43537694 0.059689865
-0.09887781 -0.43549868 0.059650958
-0.099038549 -0.43560606 0.059657142
-0.099213228 -0.435745 0.059520073
-0.099367306 -0.43583769 0.059592113
-0.099567741 -0.43597522 0.059576169
-0.09976095 -0.43611184 0.059534859
-0.099932805 -0.43624082 0.05944977
-0.10008244 -0.43633911 0.059466392
-0.1002504 -0.43645421 0.059454069
-0.10042684 -0.43657896 0.05941629
-0.10062391 -0.43670458 0.059462722
-0.10080098 -0.43682584 0.059450354
-0.1009533 -0.43693128 0.059432328
-0.10114545 -0.437062 0.059424512
-0.10131893 -0.43718064 0.059413306
-0.10146672 -0.43728107 0.059408009
-0.10162185 -0.4373886 0.059388809
-0.10183879 -0.43754247 0.059339307
-0.10200617 -0.43765217 0.05935932
-0.10218433 -0.43778431 0.059281126
-0.10234499 -0.43789524 0.059264209
-0.1025019 -0.43800253 0.059254248
-0.10268985 -0.43814343 0.059162155
-0.10284755 -0.43824697 0.059179891
-0.10301591 -0.43835396 0.059221838
-0.10318772 -0.43847737 0.059172545
-0.10334977 -0.43858689 0.059170637
-0.10351869 -0.43870264 0.059158303
-0.10369814 -0.43882138 0.059172485
-0.1038699 -0.43895316 0.059068918
-0.10402861 -0.43904629 0.059158258
-0.10422107 -0.43918312 0.059112329
-0.10440917 -0.43932199 0.059034087
-0.10455935 -0.43942654 0.059012607
-0.1047229 -0.43951935 0.059125014
-0.10488026 -0.4396314 0.059086177
-0.10508643 -0.43979108 0.058952421
-0.10526006 -0.4399091 0.058945842
-0.10541025 -0.43999827 0.059023675
-0.10557529 -0.44011265 0.059003279
-0.10573865 -0.44022143 0.059011761
-0.10589783 -0.44033331 0.058982156
-0.10608661 -0.44047084 0.058915455
-0.1062398 -0.4405801 0.058876641
-0.10641302 -0.44069859 0.058865435
-0.10658087 -0.44080645 0.058899313
-0.10674393 -0.44091558 0.05890432
-0.1069169 -0.44104388 0.058828462
-0.10708869 -0.44116819 0.058773395
-0.10725892 -0.44127607 0.058817644
-0.10741699 -0.44137609 0.058859631
-0.1075874 -0.44149572 0.058828816
-0.10775195 -0.44162443 0.058713734
-0.10792275 -0.44173536 0.058740657
-0.10809141 -0.44184864 0.058743343
-0.1082599 -0.44196123 0.058749489
-0.10842558 -0.44208604 0.058664426
-0.10859475 -0.44218963 0.058731765
-0.10876931 -0.44232064 0.058645509
-0.10894418 -0.44244021 0.058634304
-0.1091059 -0.44256166 0.058553882
-0.10927617 -0.4426567 0.058681272
-0.10942771 -0.44276732 0.058626287
-0.10960592 -0.4428924 0.058594286
-0.10977583 -0.44301739 0.05852652
-0.10993939 -0.44312021 0.058574263
-0.11009795 -0.44322613 0.058580458
-0.11026028 -0.44333923 0.058556609
-0.1104256 -0.44345468 0.058530435
-0.11059407 -0.44357371 0.058495019
-0.11078369 -0.44370663 0.0584618
-0.11094552 -0.44381905 0.058440268
-0.11110443 -0.44393125 0.058407202
-0.11127441 -0.44404253 0.058428355
-0.11144485 -0.44415823 0.058422938
-0.11160971 -0.44427592 0.058380604
-0.11176802 -0.44438556 0.058361404
-0.11193208 -0.44449642 0.058359481
-0.11210886 -0.44462356 0.058307856
-0.11225455 -0.44472203 0.058306023
-0.1124121 -0.44482493 0.058327235
-0.11257789 -0.4449189 0.058441941
-0.11273076 -0.44504279 0.058307279
-0.11290789 -0.4451907 0.058122855
-0.11307386 -0.44528872 0.058212161
-0.11323096 -0.44538328 0.058285333
-0.11339528 -0.44552544 0.058082491
-0.11356111 -0.44560924 0.058263015
-0.11373976 -0.44573727 0.058213685
-0.11391221 -0.445869 0.058113579
-0.11406635 -0.44597101 0.05812557
-0.11422351 -0.44607455 0.058141008
-0.11439259 -0.44619381 0.058106728
-0.11455585 -0.44629696 0.058151014
-0.11472181 -0.44641304 0.058123685
-0.11488762 -0.44653028 0.058088273
-0.11504659 -0.44665757 0.057958204
-0.11520057 -0.4467566 0.05798867
-0.11538793 -0.4468748 0.058040913
-0.11554501 -0.44697595 0.058071367
-0.11570695 -0.44709611 0.058000181
-0.11586671 -0.44720244 0.058008671
-0.11602289 -0.44731265 0.057976775
-0.11617553 -0.44742492 0.057916015
-0.11634117 -0.44753507 0.057925638
-0.1165038 -0.44764316 0.05793529
-0.11666273 -0.4477545 0.057907984
-0.11683344 -0.44787505 0.057872556
-0.11699047 -0.44797528 0.057908781
-0.11715306 -0.4480828 0.057921879
-0.11731078 -0.44819996 0.057851858
-0.11747782 -0.44832015 0.057802588
-0.11764197 -0.4484368 0.057763718
-0.11780445 -0.44854373 0.057780296
-0.11796654 -0.44866988 0.057670999
-0.118126 -0.44877425 0.057691041
-0.11829092 -0.44888517 0.057692595
-0.11845659 -0.44899264 0.057719529
-0.11862024 -0.44910896 0.057680659
-0.11877725 -0.44920897 0.057718046
-0.11894093 -0.44932458 0.057683796
-0.11909535 -0.44943467 0.057644974
-0.11925389 -0.44954216 0.057640772
-0.11941537 -0.44963914 0.057717398
-0.11956552 -0.44975099 0.057648573
-0.11973394 -0.44988516 0.057514995
-0.11989824 -0.44998494 0.057585828
-0.12006305 -0.45008361 0.057665892
-0.12021913 -0.45019802 0.057606272
-0.12037926 -0.45032161 0.057505075
-0.12053928 -0.45043421 0.057474315
-0.1207001 -0.45053414 0.057528995
-0.12086991 -0.4506503 0.057517812
-0.1210287 -0.45074618 0.057589822
-0.12118017 -0.45086089 0.057508286
-0.12134171 -0.45098758 0.057393216
-0.12150454 -0.45109224 0.057425953
-0.12166844 -0.45119458 0.057478309
-0.12182821 -0.45130649 0.05745101
-0.12198662 -0.45141265 0.057454899
-0.12214723 -0.45153084 0.057390645
-0.12229551 -0.45164964 0.057268701
-0.12245647 -0.45175806 0.057269111
-0.12262353 -0.45187023 0.057271805
-0.12278621 -0.45195979 0.057401538
-0.12293982 -0.45208237 0.057278425
-0.12310009 -0.45219943 0.057219937
-0.12327098 -0.45229721 0.057332307
-0.12342736 -0.45240647 0.057307336
-0.12358514 -0.4525274 0.057213075
-0.12375186 -0.45263988 0.057212293
-0.12391026 -0.45274529 0.057220802
-0.12406816 -0.45286506 0.057134613
-0.12422576 -0.45297158 0.057132736
-0.12439552 -0.45307913 0.057176977
-0.12454828 -0.45318648 0.057148565
-0.12471342 -0.45329466 0.057168581
-0.1248711 -0.45341358 0.057087015
-0.1250342 -0.45351842 0.057119749
-0.12519017 -0.45361489 0.057175606
-0.12534036 -0.45373732 0.057038657
-0.12550448 -0.45385268 0.057007864
-0.12566477 -0.45394957 0.057079874
-0.12581885 -0.45406604 0.056998331
-0.12598339 -0.45418063 0.056974471
-0.12614107 -0.45429218 0.056940246
-0.12630361 -0.45439789 0.056964897
-0.12646073 -0.45450997 0.056924913
-0.12662013 -0.45461932 0.056912627
-0.12677601 -0.45473254 0.05685994
-0.12694106 -0.45484602 0.056845315
-0.12710424 -0.45495629 0.056843411
-0.12726054 -0.45506352 0.056831129
-0.12742242 -0.45517007 0.056847706
-0.12757447 -0.45528159 0.05678926
-0.12774466 -0.4553898 0.0568312
-0.12790206 -0.45550564 0.056768112
-0.12806541 -0.45561084 0.056799687
-0.12821379 -0.45571578 0.056767818
-0.12838241 -0.4558163 0.05685249
-0.12854268 -0.4559339 0.056790549
-0.12870364 -0.45605072 0.056736685
-0.12886362 -0.45615453 0.056762498
-0.12902451 -0.45626217 0.056767531
-0.12917651 -0.45636386 0.056772597
-0.12933901 -0.45647025 0.056792632
-0.12949914 -0.45657864 0.056789581
-0.12963924 -0.45669839 0.056626108
-0.12980205 -0.45680875 0.056621894
-0.12995054 -0.45692146 0.056540366
-0.13011757 -0.4570286 0.056575395
-0.13027918 -0.45713979 0.056560785
-0.13043925 -0.45725617 0.056505773
-0.13060227 -0.4573622 0.056530423
-0.13076273 -0.45747009 0.056531984
-0.13091983 -0.45758826 0.056452736
-0.13108587 -0.45769241 0.056502771
-0.13123663 -0.45779878 0.056472056
-0.13140179 -0.45791146 0.056463204
-0.13157208 -0.45802096 0.056497056
-0.13172691 -0.45813239 0.056451306
-0.13187997 -0.45824477 0.056391701
-0.13203323 -0.45834944 0.056382909
-0.13219418 -0.45845336 0.056412183
-0.13235442 -0.45856148 0.056411445
-0.13251035 -0.45868295 0.056305639
-0.13267748 -0.45879444 0.056312945
-0.13284154 -0.45890048 0.056342214
-0.13300644 -0.45900261 0.056400336
-0.13315585 -0.45911288 0.056338441
-0.13330925 -0.45922801 0.056262676
-0.13347369 -0.45933753 0.056271143
-0.13363659 -0.45944437 0.056290027
-0.1337949 -0.45955691 0.056252338
-0.13396353 -0.45966458 0.05629082
-0.1341124 -0.45977467 0.056227773
-0.13426875 -0.45988464 0.05619818
-0.13442619 -0.45999408 0.056176659
-0.13458519 -0.46009955 0.056187473
-0.13473809 -0.46021417 0.056112863
-0.13490532 -0.46031949 0.056160588
-0.13505247 -0.46043307 0.056067519
-0.13522634 -0.46053588 0.056160249
-0.13539454 -0.46065059 0.056151383
-0.13554487 -0.46076274 0.056081407
-0.13570234 -0.46086898 0.056080673
-0.13585605 -0.46098593 0.055994514
-0.13603209 -0.46109164 0.056077987
-0.13619073 -0.46120366 0.056044921
-0.13634193 -0.46131819 0.05596339
-0.13651609 -0.46143389 0.055974133
-0.13666253 -0.4615379 0.055939965
-0.13681588 -0.46164849 0.05589306
-0.13699216 -0.46175188 0.055992704
-0.13716188 -0.46186334 0.056011558
-0.13730322 -0.46196887 0.055945076
-0.13744637 -0.46208531 0.055816233
-0.13760881 -0.46219882 0.055790085
-0.13777462 -0.46231142 0.055784695
-0.13792762 -0.46241623 0.055773593
-0.13810259 -0.46252641 0.055823583
-0.13825618 -0.46263397 0.055797476
-0.13842157 -0.4627468 0.055788614
-0.13857242 -0.46285501 0.055746347
-0.13874543 -0.46296602 0.055782497
-0.1388998 -0.46307337 0.055761002
-0.13906091 -0.46318188 0.055761408
-0.13923399 -0.46329582 0.055779081
-0.13938585 -0.46340111 0.055759899
-0.13953182 -0.46351033 0.055689942
-0.13969171 -0.46362445 0.055648781
-0.13985828 -0.46373719 0.055645701
-0.14002642 -0.46384186 0.055701498
-0.14016868 -0.46395162 0.055611923
-0.14033315 -0.4640674 0.05557999
-0.14049031 -0.46417683 0.055557318
-0.14065517 -0.46427983 0.05560967
-0.14080562 -0.46438795 0.055566255
-0.14095773 -0.46449324 0.055548221
-0.14112285 -0.46460643 0.055535905
-0.14127702 -0.46472135 0.055464759
-0.14143378 -0.46483088 0.055439778
-0.14158528 -0.46493378 0.055434458
-0.14176098 -0.46504551 0.055477522
-0.14191374 -0.46515808 0.055415615
-0.14208044 -0.46526393 0.05545757
-0.14223933 -0.46537328 0.055442978
-0.14239579 -0.46548292 0.055415686
-0.14255381 -0.46559241 0.055396482
-0.14271216 -0.46570656 0.055348404
-0.14287564 -0.4658131 0.055371899
-0.14303489 -0.46592483 0.055343442
-0.14320752 -0.46603754 0.055366896
-0.14337337 -0.46614408 0.055400766
-0.14349794 -0.46625906 0.055200417
-0.14363521 -0.46636578 0.055108555
-0.14382058 -0.46647295 0.055223167
-0.1440134 -0.46657979 0.055372395
-0.14418265 -0.46669096 0.055391237
-0.1442973 -0.46680602 0.055147059
-0.14444838 -0.46691385 0.055108257
-0.14463302 -0.46702179 0.055214785
-0.14480513 -0.4671329 0.055246327
-0.1449499 -0.46724561 0.055148654
-0.14510824 -0.46735314 0.0551433
-0.14527908 -0.46746445 0.05516791
-0.14546247 -0.46757317 0.055264056
-0.14560962 -0.46768782 0.055164069
-0.14575812 -0.46780017 0.055084854
-0.14590582 -0.4679082 0.055029903
-0.14607367 -0.46802199 0.055025652
-0.14623788 -0.46813169 0.055031821
-0.14640756 -0.46824133 0.055062212
-0.14654924 -0.4683516 0.054966874
-0.14672025 -0.46846339 0.054989174
-0.14688331 -0.46857536 0.054975711
-0.14703618 -0.46868333 0.054943834
-0.14720038 -0.46879536 0.054934986
-0.14737149 -0.46890742 0.054956134
-0.14752215 -0.46901745 0.054901157
-0.14768302 -0.46912348 0.054916579
-0.1478543 -0.46923977 0.054911163
-0.14801516 -0.46934792 0.054912731
-0.14816041 -0.46945789 0.054834694
-0.14832407 -0.46956617 0.054847788
-0.14846951 -0.46967608 0.054770898
-0.14863494 -0.46979037 0.054752812
-0.1487833 -0.46990028 0.054688618
-0.14895132 -0.47000885 0.054719016
-0.14913864 -0.47012395 0.054790895
-0.14928319 -0.47023183 0.054723248
-0.14944556 -0.47034425 0.054704014
-0.14962156 -0.47045726 0.054740161
-0.14979289 -0.47057018 0.054756679
-0.14995313 -0.47068453 0.054715518
-0.15011206 -0.47079122 0.054718249
-0.15025496 -0.47089711 0.054656383
-0.15039596 -0.47100848 0.054550651
-0.15058646 -0.47113022 0.054593645
-0.15074283 -0.47123876 0.054573286
-0.1509048 -0.47134769 0.054574851
-0.15103486 -0.47145081 0.054474939
-0.15122186 -0.47156337 0.054561831
-0.15139465 -0.47167692 0.054580666
-0.15153891 -0.47178835 0.054488771
-0.15168631 -0.47189817 0.054421112
-0.15185833 -0.47200996 0.054448027
-0.15202387 -0.47212127 0.054449573
-0.15218979 -0.47223088 0.054463811
-0.15235613 -0.47234419 0.054456115
-0.15251583 -0.47245693 0.054423042
-0.15268388 -0.4725669 0.054444205
-0.15283319 -0.47267693 0.054383457
-0.15300633 -0.47279108 0.054399982
-0.15317935 -0.47290349 0.054426894
-0.15331492 -0.47301212 0.054315403
-0.1534771 -0.47312349 0.054301955
-0.15365914 -0.47323883 0.054349609
-0.15381613 -0.47334972 0.05431655
-0.15397429 -0.47346252 0.054276552
-0.15413739 -0.47357416 0.054265399
-0.15430763 -0.4736867 0.054279625
-0.15445898 -0.47379702 0.054225806
-0.15462309 -0.4739106 0.054206572
-0.1547907 -0.47402298 0.054210413
-0.15494667 -0.47413391 0.054172736
-0.1551218 -0.47424904 0.05419156
-0.15527567 -0.47436142 0.054135416
-0.1554314 -0.4744724 0.054096587
-0.15562689 -0.47458711 0.054206539
-0.15577093 -0.47469825 0.054115795
-0.15593493 -0.47481209 0.054094251
-0.15611096 -0.47492442 0.05413501
-0.15626538 -0.47503701 0.054080017
-0.15643975 -0.47515249 0.05409307
-0.15659451 -0.47526354 0.054049622
-0.15677285 -0.47537813 0.054085746
-0.15695965 -0.47549736 0.054128766
-0.15709367 -0.4756085 0.053994194
-0.15726101 -0.47572321 0.05398187
-0.15742224 -0.47583216 0.053979967
-0.15758967 -0.47595334 0.053926073
-0.15773976 -0.47606531 0.053856097
-0.15791385 -0.47617489 0.053906091
-0.15807585 -0.47629207 0.053854533
-0.15825385 -0.47641036 0.053865254
-0.15842307 -0.47652096 0.053887561
-0.15857935 -0.47663409 0.053837191
-0.15873718 -0.47674593 0.053801816
-0.15890422 -0.47685629 0.05381605
-0.15904801 -0.4769626 0.053755339
-0.1592402 -0.47708225 0.053819109
-0.15937194 -0.47718793 0.053709961
-0.15957017 -0.47731042 0.053781785
-0.1596863 -0.47741163 0.05363344
-0.15990888 -0.4775373 0.053790607
-0.16008076 -0.47765666 0.053767867
-0.16024274 -0.47777417 0.053714007
-0.16041332 -0.4778873 0.053725909
-0.16056573 -0.47799996 0.053661697
-0.16075137 -0.47812214 0.053680468
-0.16090666 -0.47822943 0.053663582
-0.16108851 -0.47835997 0.053611927
-0.16125314 -0.47846621 0.05364234
-0.1613978 -0.47857293 0.05358278
-0.16155991 -0.47868767 0.053547382
-0.16175257 -0.47880727 0.053613465
-0.16192985 -0.47893116 0.053584933
-0.16206434 -0.47903728 0.053484995
-0.16222827 -0.47915253 0.053454213
-0.1624072 -0.47926664 0.053496111
-0.16256568 -0.47937497 0.053486142
-0.16269352 -0.47948107 0.053357378
-0.1629217 -0.47961479 0.053486794
-0.16306487 -0.47972426 0.05340299
-0.16323051 -0.47984299 0.053357191
-0.16340688 -0.47995985 0.053370237
-0.16357309 -0.48007303 0.053362533
-0.16373658 -0.48018998 0.053319052
-0.16390985 -0.48030061 0.053358663
-0.16409115 -0.48042452 0.053347424
-0.16425057 -0.4805378 0.053309739
-0.16439793 -0.48064688 0.053246703
-0.16455756 -0.48075601 0.053236719
-0.16473587 -0.48087379 0.053252056
-0.16489711 -0.48098901 0.053209737
-0.16504389 -0.4811036 0.053108603
-0.16523302 -0.48122135 0.05317124
-0.16541356 -0.48133993 0.053191178
-0.16558176 -0.481457 0.053167302
-0.16576283 -0.48157862 0.053169936
-0.16588657 -0.48168069 0.053049266
-0.16605061 -0.48178995 0.053057745
-0.16627403 -0.48192224 0.053175651
-0.16644815 -0.48204651 0.053130955
-0.16659418 -0.48215827 0.053044826
-0.16678135 -0.48228043 0.053070519
-0.16694701 -0.4823972 0.05303742
-0.16710904 -0.48250902 0.0530205
-0.16727871 -0.4826242 0.053015098
-0.16744767 -0.48274195 0.05299006
-0.16762322 -0.48286146 0.052982323
-0.16781555 -0.48298943 0.052992977
-0.16798516 -0.48310348 0.052994497
-0.1681318 -0.48321155 0.052934922
-0.16831139 -0.48333237 0.052936405
-0.168478 -0.48344976 0.052903298
-0.080446884 -0.4238241 0.054828439
-0.080682501 -0.42402098 0.054582462
-0.080871195 -0.42415473 0.054539964
-0.080677643 -0.42351109 0.057854246
-0.080874354 -0.42365131 0.057804786
-0.081079245 -0.42380065 0.05773218
-0.081278801 -0.42394763 0.05765152
-0.081478849 -0.42409316 0.057582408
-0.08168482 -0.42424715 0.057484388
-0.081887394 -0.42439669 0.057400249
-0.08209639 -0.42455307 0.057299919
-0.082296558 -0.42470226 0.057207704
-0.08247567 -0.42481971 0.057228774
-0.082672924 -0.42496279 0.057163145
-0.082871556 -0.42510808 0.057089414
-0.083058044 -0.4252364 0.057072338
-0.083248869 -0.42537105 0.0570333
-0.083440617 -0.42550722 0.056988478
-0.083638966 -0.42565304 0.056910131
-0.083834127 -0.42579454 0.056845665
-0.08402501 -0.42593011 0.056800853
-0.084217936 -0.42606887 0.056744471
-0.084416345 -0.4262158 0.056659203
-0.084609784 -0.42635578 0.056597047
-0.084804073 -0.42649722 0.05652912
-0.084998474 -0.42663914 0.056458883
-0.085189044 -0.42677826 0.056389812
-0.085378781 -0.4269138 0.056340382
-0.085574627 -0.42705593 0.056274753
-0.085769773 -0.42719993 0.056194123
-0.085959718 -0.42733648 0.056138918
-0.086151123 -0.42747545 0.056074455
-0.086346351 -0.42762041 0.055988051
-0.086534321 -0.42775476 0.055938631
-0.086722255 -0.42788923 0.055888049
-0.086909048 -0.42802224 0.055842098
-0.087098755 -0.42815989 0.055778816
-0.087287955 -0.42829701 0.055716679
-0.087475404 -0.42843172 0.055662647
-0.087663405 -0.4285675 0.055603981
-0.087848037 -0.42869833 0.05556266
-0.088035077 -0.4288331 0.055506319
-0.088221028 -0.42896643 0.055454597
-0.088405713 -0.42909801 0.055408653
-0.088592783 -0.42922494 0.055403121
-0.08877176 -0.4293566 0.055331808
-0.088964432 -0.42949858 0.055253491
-0.089155927 -0.4296419 0.05516132
-0.089313224 -0.42972514 0.055308372
-0.089487195 -0.42984378 0.055299442
-0.089734808 -0.43006611 0.054941379
-0.089881048 -0.4301526 0.0550192
-0.090061218 -0.43027899 0.05498714
-0.09024249 -0.43040738 0.054946989
-0.090422973 -0.43053469 0.054910313
-0.090610251 -0.43067339 0.054829709
-0.090830684 -0.43086091 0.054578032
-0.090999871 -0.43097669 0.054566812
-0.09117163 -0.43109059 0.054578677
-0.091345243 -0.43120772 0.054577824
-0.091522075 -0.43132722 0.054575816
-0.091696844 -0.43144655 0.05456572
-0.091869548 -0.43156254 0.054568343
-0.092045426 -0.43168408 0.054549005
-0.092224754 -0.43181169 0.054505412
-0.092402488 -0.43193677 0.054471049
-0.092578501 -0.43205911 0.054447088
-0.092753373 -0.432183 0.054408129
-0.092933983 -0.4323104 0.054371443
-0.093109734 -0.43243292 0.054345179
-0.093289115 -0.4325586 0.054314286
-0.093465656 -0.43268287 0.054279931
-0.09364102 -0.4328053 0.054252509
-0.093816534 -0.4329282 0.054222785
-0.093991853 -0.43305096 0.054193057
-0.094166517 -0.43317273 0.054166801
-0.094336808 -0.4332903 0.054148648
-0.094513461 -0.43341255 0.054128155
-0.094688386 -0.4335354 0.054096121
-0.094857119 -0.43365067 0.054086056
-0.095031634 -0.43376949 0.054078273
-0.095200673 -0.43388191 0.054087847
-0.0953677 -0.43399069 0.054112438
-0.095532209 -0.43409094 0.054180924
-0.095688589 -0.43417946 0.054289881
-0.095835626 -0.43424988 0.054475095
-0.095747441 -0.43291858 0.062689006
-0.095941491 -0.43307328 0.062534459
-0.096239105 -0.43320167 0.063000739
-0.096409127 -0.43330815 0.063053027
-0.096701846 -0.43338707 0.063817285
-0.096923083 -0.43359894 0.063411996
-0.097132623 -0.43376929 0.063223884
-0.098023236 -0.43492186 0.059656754
-0.098230265 -0.43508136 0.059527561
-0.098371327 -0.43515992 0.059634268
-0.098554097 -0.43529594 0.059551377
-0.098756492 -0.43544662 0.059459161
-0.098947704 -0.43557295 0.059475549
-0.099119201 -0.43568489 0.059498966
-0.099297628 -0.43581262 0.059450749
-0.099455506 -0.43591914 0.059449986
-0.099637657 -0.43604061 0.059458323
-0.09980081 -0.43615443 0.059433281
-0.09998133 -0.43627766 0.059423164
-0.10017134 -0.43641821 0.059342548
-0.10033248 -0.43650654 0.059473418
-0.10051076 -0.43663576 0.059414808
-0.1006749 -0.43674758 0.05940707
-0.10085888 -0.43688029 0.059350744
-0.10103148 -0.43699655 0.059351057
-0.10120763 -0.43712184 0.059308633
-0.10138551 -0.43725187 0.059243087
-0.10153154 -0.43734807 0.059257388
-0.1017278 -0.43747851 0.059269138
-0.10190425 -0.43761188 0.059175886
-0.10207438 -0.43772918 0.059158884
-0.10221982 -0.43782443 0.059176661
-0.10238263 -0.43792874 0.05921166
-0.10256808 -0.43806261 0.059154175
-0.10274081 -0.43818149 0.059138313
-0.10288583 -0.4382695 0.059201129
-0.10306935 -0.43841228 0.05907781
-0.10324651 -0.43851748 0.059169345
-0.1034281 -0.43864894 0.059110716
-0.10358898 -0.43876928 0.059033707
-0.1037702 -0.43890068 0.058973927
-0.10393483 -0.43901175 0.058973119
-0.10410327 -0.43912718 0.058960751
-0.10428487 -0.43924615 0.058982968
-0.10446057 -0.4393695 0.058950931
-0.10462452 -0.43947154 0.059005558
-0.10479834 -0.43959722 0.058950432
-0.10497448 -0.439715 0.0589565
-0.10512381 -0.43980947 0.058996197
-0.10528335 -0.43992981 0.058913425
-0.10546661 -0.44005561 0.058898672
-0.1056404 -0.4401834 0.058829688
-0.10581607 -0.44030085 0.05883576
-0.1059745 -0.44040167 0.058874249
-0.10614413 -0.44052488 0.058816843
-0.10630748 -0.44063473 0.058818348
-0.10648373 -0.44075528 0.058807097
-0.10665462 -0.44087505 0.058777392
-0.10681917 -0.44099036 0.058748871
-0.10698986 -0.44109997 0.05878384
-0.1071602 -0.44120809 0.058826897
-0.10731712 -0.44132471 0.058756839
-0.10751468 -0.44146085 0.058737397
-0.10766757 -0.44157261 0.05868122
-0.10783361 -0.4416855 0.058674634
-0.1079955 -0.44179168 0.058693476
-0.10817979 -0.44194144 0.058528591
-0.10834596 -0.4420439 0.058590144
-0.1085162 -0.44215304 0.058626264
-0.10867959 -0.44226775 0.0585966
-0.10884831 -0.44238299 0.05858653
-0.10901071 -0.44250777 0.058487587
-0.10918145 -0.44262064 0.058501758
-0.10935408 -0.44272906 0.058552891
-0.10952108 -0.44285193 0.058486246
-0.10969744 -0.44296664 0.058513101
-0.10986443 -0.44309109 0.05843607
-0.11002357 -0.44320133 0.058416814
-0.11019208 -0.44330108 0.058506075
-0.11036802 -0.44343302 0.058419757
-0.11051845 -0.44354185 0.058371674
-0.11068193 -0.44364518 0.058415912
-0.11084883 -0.44375312 0.058445126
-0.1110432 -0.44390431 0.05831483
-0.11119692 -0.44399619 0.058390304
-0.11138101 -0.44413435 0.058299333
-0.11154076 -0.44425842 0.05819346
-0.11168936 -0.44435671 0.058205433
-0.11187395 -0.44447482 0.058246113
-0.1120408 -0.44458595 0.05825454
-0.11219285 -0.44469246 0.058228388
-0.11235639 -0.44479907 0.058251847
-0.11253559 -0.44492373 0.058226719
-0.11269633 -0.44503343 0.05821785
-0.11285378 -0.44513625 0.058239028
-0.11300487 -0.44522783 0.058305271
-0.11317538 -0.44536558 0.058157776
-0.11335433 -0.4454999 0.058069125
-0.11351427 -0.44558957 0.058186144
-0.1136689 -0.44571716 0.058035262
-0.11384727 -0.44584858 0.05796279
-0.11401341 -0.44593939 0.058099411
-0.11418261 -0.44605732 0.058074333
-0.11434568 -0.44617036 0.058053903
-0.11450865 -0.44628391 0.058030009
-0.11467163 -0.44639423 0.05802691
-0.11485867 -0.44652185 0.058016755
-0.11501206 -0.44663534 0.057951335
-0.11517499 -0.44674259 0.057967864
-0.11536168 -0.44687158 0.057947323
-0.11552997 -0.44699174 0.057903774
-0.11568038 -0.44709539 0.057889182
-0.11584559 -0.4472115 0.057858344
-0.11599794 -0.44732699 0.057775609
-0.11616205 -0.44741964 0.057891451
-0.11631767 -0.44753286 0.057837564
-0.11648492 -0.44765624 0.057768617
-0.11664761 -0.44776246 0.057790913
-0.11681569 -0.44787747 0.057779707
-0.11698111 -0.44798765 0.057788145
-0.11714891 -0.44810387 0.057767693
-0.11731683 -0.44821879 0.057756476
-0.11747426 -0.44833592 0.057685256
-0.11763135 -0.44843513 0.05772838
-0.11779907 -0.44855008 0.057716016
-0.11795993 -0.44866502 0.057673648
-0.11813171 -0.4487761 0.057704002
-0.11829174 -0.44889408 0.057638541
-0.11845335 -0.4490042 0.05763083
-0.11861902 -0.44911149 0.057658888
-0.11878755 -0.44923595 0.057588775
-0.11895529 -0.44934875 0.057590272
-0.11911735 -0.44946972 0.057514414
-0.11927357 -0.44957227 0.057532128
-0.11944666 -0.4496783 0.057600573
-0.11960357 -0.44980332 0.057476241
-0.11975944 -0.44990686 0.057485871
-0.11992711 -0.45000747 0.057565905
-0.12008395 -0.45013082 0.05745196
-0.12025109 -0.45025522 0.057376079
-0.12041711 -0.45035022 0.057484977
-0.12058156 -0.45046082 0.057486489
-0.12074403 -0.45057672 0.05744528
-0.1209074 -0.45069981 0.057361327
-0.12108116 -0.4508149 0.057374336
-0.12123651 -0.45092866 0.057315834
-0.12140489 -0.45103815 0.057341579
-0.12156571 -0.45112947 0.057451665
-0.12171926 -0.45124686 0.05736199
-0.12189101 -0.45137507 0.057281472
-0.12205706 -0.45148119 0.057318766
-0.12220749 -0.45159554 0.057234883
-0.12237491 -0.45169887 0.057296433
-0.12253808 -0.45180306 0.057333749
-0.12269267 -0.45192418 0.05722443
-0.12285319 -0.45204106 0.057168216
-0.12301768 -0.45215774 0.057130456
-0.12318631 -0.45226669 0.057160825
-0.123357 -0.45236486 0.0572697
-0.12351029 -0.45248654 0.057151154
-0.12367591 -0.45260078 0.057134174
-0.12383839 -0.45270631 0.057159945
-0.12399309 -0.45282444 0.057070274
-0.12416018 -0.4529427 0.057033654
-0.12433163 -0.45304748 0.057103269
-0.12449171 -0.45315674 0.057094403
-0.12465659 -0.45327801 0.057028931
-0.1248191 -0.45338979 0.057014279
-0.12498416 -0.45349795 0.057034254
-0.12513973 -0.45360702 0.057006937
-0.12530279 -0.45371792 0.057000369
-0.12547041 -0.45382869 0.057014566
-0.12563106 -0.453931 0.057053048
-0.12578876 -0.45404294 0.057016473
-0.1259446 -0.45416275 0.05692102
-0.12611639 -0.454274 0.056950208
-0.12627696 -0.45438215 0.056950577
-0.12643215 -0.45449653 0.056887455
-0.12659553 -0.45461211 0.056852013
-0.12675139 -0.45471996 0.05683393
-0.12691699 -0.45483813 0.056791551
-0.12707669 -0.45494694 0.05678384
-0.12724166 -0.45506039 0.056769177
-0.12740417 -0.45517129 0.056760304
-0.12756944 -0.4552744 0.056813773
-0.12773004 -0.45538723 0.056784119
-0.12789792 -0.4554978 0.05680063
-0.12804945 -0.45561436 0.056707498
-0.12821068 -0.45572153 0.056717101
-0.12837744 -0.45583314 0.056722067
-0.12853396 -0.45594928 0.056653172
-0.12869677 -0.45605969 0.056648906
-0.12884958 -0.45617869 0.056545381
-0.12901597 -0.45629042 0.056548037
-0.12917097 -0.45640269 0.056497622
-0.12933208 -0.45651424 0.056478355
-0.12949941 -0.45662516 0.056490242
-0.12966922 -0.45672992 0.056552928
-0.12982978 -0.45683768 0.05655561
-0.1299918 -0.45694861 0.056544434
-0.13015401 -0.45705521 0.056562122
-0.13032168 -0.45716208 0.056601718
-0.13049166 -0.45726335 0.056687515
-0.13065417 -0.45736602 0.056731761
-0.13080718 -0.45748338 0.056639772
-0.13095276 -0.45760146 0.056510873
-0.13109851 -0.45772302 0.056360032
-0.13127458 -0.45782858 0.056444637
-0.13143222 -0.45794603 0.056372263
-0.1315925 -0.4580617 0.056322973
-0.13175555 -0.45816794 0.056346431
-0.1319095 -0.45828345 0.056270611
-0.13208678 -0.45838517 0.056385234
-0.13225324 -0.45849711 0.056386739
-0.13239457 -0.4586159 0.056234758
-0.1325686 -0.45873082 0.056250077
-0.13272914 -0.45883143 0.056298956
-0.13287351 -0.45894438 0.056197781
-0.13303423 -0.45905569 0.056178518
-0.13320352 -0.45917314 0.056156907
-0.13337031 -0.45927438 0.056228846
-0.13352564 -0.45939529 0.056124158
-0.133687 -0.45949593 0.056176484
-0.13383631 -0.45961261 0.056072976
-0.13400732 -0.45971903 0.056129895
-0.13418177 -0.45982742 0.056189094
-0.13433716 -0.45993781 0.05615253
-0.13451123 -0.4600499 0.056186333
-0.13466623 -0.46015716 0.056168254
-0.13481653 -0.4602761 0.056054343
-0.13497405 -0.46038541 0.056033939
-0.13515444 -0.46049511 0.056110438
-0.13530034 -0.46060589 0.056030042
-0.1354697 -0.46071696 0.056050006
-0.13562453 -0.46082732 0.056011133
-0.13577639 -0.46093872 0.05595265
-0.13594359 -0.46105063 0.055957612
-0.13611121 -0.46116856 0.055925611
-0.13626517 -0.46127599 0.055901766
-0.136427 -0.4613868 0.055890583
-0.13657288 -0.4614999 0.055795174
-0.13674669 -0.46161267 0.055823192
-0.13691953 -0.46171999 0.055882402
-0.13707981 -0.46183136 0.055860836
-0.13723242 -0.46194792 0.055772323
-0.13739777 -0.46205768 0.055783071
-0.13755502 -0.46216699 0.055761509
-0.13771465 -0.46227846 0.055736482
-0.13789837 -0.46238613 0.055840679
-0.13806748 -0.46249238 0.055890664
-0.13820265 -0.46260485 0.055752575
-0.13837406 -0.46272445 0.055726334
-0.13854209 -0.46283385 0.055750929
-0.13868947 -0.46294564 0.055670518
-0.13884439 -0.46305552 0.055635117
-0.13901886 -0.46316895 0.055661984
-0.13918075 -0.46328264 0.055632323
-0.13934422 -0.4633933 0.055629216
-0.13949195 -0.4634994 0.055586923
-0.13965708 -0.46360976 0.055593047
-0.13982423 -0.46372235 0.055593386
-0.13997695 -0.46383002 0.055562619
-0.14013469 -0.46393931 0.055543367
-0.14029127 -0.4640514 0.055501033
-0.14045283 -0.46416256 0.055486389
-0.14061812 -0.46426797 0.055524845
-0.14077744 -0.46437958 0.055497497
-0.14094763 -0.4644919 0.055512846
-0.14109242 -0.46460336 0.055423208
-0.14126481 -0.46471539 0.055450086
-0.14142503 -0.46482688 0.055427369
-0.14159918 -0.46493635 0.055478483
-0.14175737 -0.46504575 0.055460393
-0.14192484 -0.4651539 0.055490755
-0.14207976 -0.46526864 0.055424176
-0.14224519 -0.46538436 0.055396803
-0.14240979 -0.46549541 0.055396006
-0.14255637 -0.46560863 0.055302896
-0.14272332 -0.46570998 0.055374842
-0.14288194 -0.46582648 0.055312864
-0.14303176 -0.46594152 0.055222049
-0.14320108 -0.46604985 0.055259332
-0.14336683 -0.46616095 0.055263147
-0.14353715 -0.46626711 0.055318907
-0.14371695 -0.46637717 0.055390783
-0.14385146 -0.46649563 0.055211123
-0.14400585 -0.46660551 0.055173412
-0.14418454 -0.46670911 0.055282254
-0.14430593 -0.46682587 0.05505646
-0.14446528 -0.46693537 0.055042986
-0.14466225 -0.46704698 0.055179451
-0.14482379 -0.4671565 0.055175204
-0.1449762 -0.46727094 0.05509939
-0.14513743 -0.46738705 0.05505126
-0.14528312 -0.46749517 0.054987028
-0.14547142 -0.46760792 0.055078499
-0.14561237 -0.46772054 0.054964632
-0.1457791 -0.46783 0.054983459
-0.14593658 -0.46793982 0.054959584
-0.14611715 -0.46805325 0.055012994
-0.146275 -0.46816316 0.054990277
-0.1464202 -0.46827543 0.054897178
-0.14661205 -0.4683868 0.055012889
-0.14675555 -0.46850115 0.054899011
-0.146917 -0.46861312 0.054878592
-0.14707756 -0.46872306 0.054867413
-0.14724451 -0.468833 0.054883923
-0.14739984 -0.46894711 0.054823112
-0.14754997 -0.46905914 0.054753084
-0.14772572 -0.46917126 0.054793805
-0.14789094 -0.46927738 0.054827653
-0.14804274 -0.46939144 0.054751843
-0.14820772 -0.46950364 0.054745257
-0.14837764 -0.469612 0.054784853
-0.14852938 -0.46972603 0.054709043
-0.14870197 -0.46984246 0.054708205
-0.14887388 -0.46995112 0.054754719
-0.14901701 -0.47006091 0.054668553
-0.14918934 -0.4701736 0.054690816
-0.14934416 -0.47028378 0.054653104
-0.14950709 -0.47039622 0.054636139
-0.14966601 -0.47051042 0.05459033
-0.14983176 -0.47062492 0.054572191
-0.15001771 -0.47073859 0.054647513
-0.15015975 -0.47084817 0.054557897
-0.15034893 -0.47096598 0.054620493
-0.15049279 -0.47107753 0.054526247
-0.15064807 -0.47118786 0.054489683
-0.15081131 -0.47129494 0.054508526
-0.15097137 -0.47140563 0.054490425
-0.15113826 -0.47151679 0.05449884
-0.15130347 -0.47162789 0.054500349
-0.15144472 -0.47173911 0.054396879
-0.15159413 -0.47184902 0.054337256
-0.15176159 -0.47196221 0.054335281
-0.15194604 -0.47207502 0.054409444
-0.15209527 -0.47218859 0.054325562
-0.15226422 -0.47229844 0.054351304
-0.15242931 -0.47241163 0.054338954
-0.15260586 -0.47252592 0.054369271
-0.15275262 -0.47263744 0.05428772
-0.15293004 -0.47275019 0.054331899
-0.15310822 -0.47286487 0.05436682
-0.15323934 -0.47297478 0.054227598
-0.15342775 -0.47309065 0.054299437
-0.15358329 -0.47320309 0.054250181
-0.15374081 -0.47331402 0.05421938
-0.15390505 -0.47342572 0.054212805
-0.15406767 -0.47353902 0.054188918
-0.15423448 -0.47365281 0.054180022
-0.15439366 -0.47376576 0.054143436
-0.15456498 -0.4738785 0.054161083
-0.15473792 -0.47399318 0.054172941
-0.15489811 -0.47410467 0.054150224
-0.15506175 -0.47421831 0.054128632
-0.15521605 -0.47433242 0.054063212
-0.15538692 -0.47444537 0.054077394
-0.15555274 -0.4745594 0.054062728
-0.15570164 -0.47467113 0.053989246
-0.15587941 -0.47478357 0.054036882
-0.15604143 -0.47489718 0.054008372
-0.15620416 -0.4750109 0.053982168
-0.15637033 -0.47512516 0.053967502
-0.15655114 -0.47523999 0.05401282
-0.15671209 -0.4753536 0.053979695
-0.15687174 -0.47547024 0.053921171
-0.15703169 -0.4755837 0.053884596
-0.15721101 -0.47570667 0.053871013
-0.15737733 -0.47581637 0.053886369
-0.15754963 -0.47593352 0.05387976
-0.15770611 -0.47604176 0.053861674
-0.15787448 -0.47615519 0.053862005
-0.15802802 -0.47627094 0.053782728
-0.15819994 -0.47638819 0.053773805
-0.15834893 -0.47649372 0.053740744
-0.15855166 -0.47661638 0.053830985
-0.15868224 -0.47672504 0.053697541
-0.15884742 -0.47683504 0.053705975
-0.15900466 -0.47694525 0.05367865
-0.15917209 -0.47706199 0.053653575
-0.15935645 -0.47717565 0.053721968
-0.15946087 -0.47727937 0.053506657
-0.15965131 -0.47739425 0.053593494
-0.15984525 -0.47751454 0.053660687
-0.16000651 -0.47763336 0.05359523
-0.16019271 -0.47775543 0.053617418
-0.16034503 -0.47786498 0.053572789
-0.16052541 -0.47798455 0.053585775
-0.16070081 -0.47810018 0.053602241
-0.16085872 -0.47821245 0.053564511
-0.16102923 -0.47832876 0.053555597
-0.16118209 -0.47844154 0.053492494
-0.16133365 -0.47855702 0.053406287
-0.16153489 -0.47867528 0.053518482
-0.16168751 -0.47878808 0.053454228
-0.16187292 -0.47890478 0.053507604
-0.16201255 -0.4790149 0.053404141
-0.16218321 -0.47912863 0.053412542
-0.1623643 -0.479249 0.053423211
-0.16250382 -0.47935763 0.053328987
-0.16264923 -0.47945878 0.053308643
-0.16285074 -0.47958812 0.053350389
-0.16299415 -0.47969612 0.053276934
-0.16318768 -0.47981957 0.053322181
-0.16336805 -0.47994304 0.053309757
-0.16353381 -0.48005614 0.053300865
-0.16367655 -0.48016548 0.053215861
-0.1638533 -0.48027831 0.053256579
-0.16402051 -0.48039612 0.053223431
-0.16417988 -0.48050651 0.053204171
-0.16434152 -0.4806245 0.05314564
-0.16451412 -0.48073524 0.053181753
-0.16467866 -0.48084697 0.053176336
-0.16484754 -0.48096538 0.053146634
-0.16500437 -0.48107815 0.053100836
-0.16518641 -0.48119563 0.05313459
-0.16534948 -0.48131138 0.053096838
-0.16552722 -0.48143488 0.053072877
-0.1657066 -0.48155051 0.053106643
-0.16586116 -0.48166019 0.053071246
-0.16600952 -0.48176831 0.053018551
-0.16624546 -0.48189962 0.053197563
-0.16636725 -0.48201218 0.05300064
-0.16652137 -0.48212457 0.052945618
-0.16667525 -0.48223555 0.052898664
-0.1668496 -0.48235175 0.052907057
-0.16705522 -0.48248279 0.052955717
-0.16721675 -0.48260126 0.052893724
-0.16740361 -0.4827182 0.052951705
-0.167569 -0.48283371 0.05292549
-0.16772345 -0.48294508 0.052878544
-0.16791046 -0.48306766 0.052900732
-0.16806009 -0.4831765 0.052849185
-0.16823666 -0.48330045 0.052817143
-0.16842385 -0.48342729 0.05281277
-0.080496058 -0.42387336 0.054724388
-0.080689847 -0.42401144 0.054676082
-0.080923587 -0.4242017 0.05446475
-0.081109688 -0.42433441 0.054417633
-0.080912903 -0.42368829 0.057733871
-0.081105724 -0.42382339 0.057700574
-0.081310637 -0.42397773 0.057595626
-0.081511185 -0.42412394 0.057524189
-0.081708774 -0.42426872 0.057449304
-0.081909373 -0.4244155 0.057374399
-0.082102805 -0.42455494 0.057315692
-0.082319364 -0.42472216 0.057178356
-0.082520738 -0.42487574 0.057063028
-0.082701564 -0.42499578 0.05707483
-0.082889028 -0.4251253 0.057054266
-0.08308354 -0.42526746 0.056982856
-0.083276495 -0.42540514 0.056933392
-0.083462507 -0.42553315 0.056916296
-0.083652794 -0.42566994 0.05686108
-0.083845869 -0.42580843 0.056806989
-0.084036291 -0.42594585 0.056748312
-0.084232032 -0.42608866 0.056678046
-0.084423006 -0.42622733 0.056613591
-0.084615573 -0.42636603 0.056556039
-0.084805459 -0.42650363 0.05649389
-0.085001752 -0.42664823 0.056414396
-0.085193276 -0.42678872 0.056340687
-0.085383713 -0.42692524 0.056287773
-0.085573278 -0.42706335 0.056221008
-0.085764691 -0.42720178 0.056160003
-0.085955404 -0.42734209 0.056084
-0.086146869 -0.42748111 0.05601953
-0.086333886 -0.42761642 0.055959705
-0.086526893 -0.42775825 0.055883687
-0.086712897 -0.42789251 0.05582618
-0.086899102 -0.42802459 0.055783674
-0.087082669 -0.4281556 0.055736575
-0.087274872 -0.42829725 0.055658244
-0.08746092 -0.42842975 0.055612285
-0.08764939 -0.42856622 0.055551302
-0.087832496 -0.42869744 0.055500731
-0.088019386 -0.42883193 0.055445522
-0.088204004 -0.42896599 0.055383399
-0.08838772 -0.42909601 0.055343226
-0.088573799 -0.42922997 0.055288028
-0.088764384 -0.42937127 0.055205088
-0.088977091 -0.42953622 0.055065457
-0.089126363 -0.4296214 0.055165172
-0.089304738 -0.42975283 0.055092689
-0.089494534 -0.42989394 0.05500745
-0.089697614 -0.43005672 0.054840151
-0.089874059 -0.430177 0.054831188
-0.090035059 -0.43027544 0.054896209
-0.090215035 -0.43040171 0.054864131
-0.090392008 -0.43052629 0.054829754
-0.09057416 -0.43065652 0.054781504
-0.090749413 -0.43077871 0.054755233
-0.090931654 -0.43090954 0.054703508
-0.091112912 -0.43103898 0.05465642
-0.091289639 -0.43116108 0.05463706
-0.091468364 -0.43128991 0.05458305
-0.091643319 -0.43141258 0.054552153
-0.091823146 -0.43154055 0.05450853
-0.092002049 -0.43166715 0.05446953
-0.092180401 -0.43179303 0.054432847
-0.092359051 -0.43191963 0.054392695
-0.092533164 -0.43204194 0.054360647
-0.092711896 -0.43216914 0.054317035
-0.092886262 -0.43229234 0.05428037
-0.093061902 -0.43241459 0.054255236
-0.093234569 -0.4325352 0.054227818
-0.093410999 -0.43265927 0.054194607
-0.093583301 -0.43277961 0.054167189
-0.093759492 -0.43290371 0.054132827
-0.093930796 -0.43302268 0.054110024
-0.094102398 -0.43314239 0.054083761
-0.094278045 -0.43326607 0.054049402
-0.094453022 -0.4333888 0.054018509
-0.094626129 -0.43350828 0.054000326
-0.094800442 -0.43363017 0.053971738
-0.094969518 -0.43374622 0.053958196
-0.09514185 -0.4338648 0.053942326
-0.095307395 -0.43397829 0.053929955
-0.095476791 -0.43409169 0.053934876
-0.095645331 -0.43420738 0.053921334
-0.095805608 -0.4342998 0.054022148
-0.095960833 -0.43439004 0.054114908
-0.096109197 -0.43446296 0.054289691
-0.095687278 -0.43292218 0.062403835
-0.095893942 -0.43313619 0.061921276
-0.096016452 -0.43312749 0.062510729
-0.096213639 -0.4332979 0.062268414
-0.096377492 -0.43337965 0.062453508
-0.096532322 -0.43346035 0.06260632
-0.096685186 -0.43354112 0.062749892
-0.098287813 -0.43512791 0.059477456
-0.098452426 -0.43523863 0.059478939
-0.098632216 -0.43537316 0.059392598
-0.098791562 -0.43547264 0.059443764
-0.098973066 -0.43559688 0.059431314
-0.099164754 -0.43573928 0.059346057
-0.099344648 -0.43586546 0.059313986
-0.099494308 -0.43595842 0.059365198
-0.099656194 -0.43606406 0.059387483
-0.099839233 -0.43619293 0.059351929
-0.10004324 -0.43633968 0.059292022
-0.10021482 -0.43645278 0.059308492
-0.10035321 -0.4365406 0.059343584
-0.10055452 -0.43669268 0.05923751
-0.10072349 -0.43679991 0.059280545
-0.10090798 -0.43693405 0.059217267
-0.10108251 -0.43706092 0.059157502
-0.10124704 -0.43718034 0.059102409
