# .PCD v0.7 - Point Cloud Data file format
VERSION 0.7
FIELDS x y z
SIZE 4 4 4
TYPE F F F
COUNT 1 1 1
WIDTH 1311
HEIGHT 1
VIEWPOINT 0 0 0 1 0 0 0
POINTS 1311
DATA ascii
-0.072931617 -0.31237933 0.0573215
-0.073078103 -0.31247994 0.057270177
-0.073254615 -0.31259429 0.057252213
-0.073404141 -0.31269121 0.057236653
-0.073567249 -0.31279927 0.057204891
-0.073739216 -0.31290802 0.057204247
-0.073910311 -0.3130177 0.057194378
-0.074067034 -0.31312206 0.057160333
-0.074215941 -0.31321442 0.057171319
-0.074390121 -0.31332585 0.057162583
-0.074540958 -0.31342125 0.05716202
-0.074695401 -0.31353235 0.057076056
-0.07486587 -0.31363761 0.057091575
-0.075020932 -0.31373841 0.057073686
-0.075170286 -0.31383502 0.057059288
-0.075340971 -0.31394479 0.057047103
-0.075496681 -0.31404945 0.05700729
-0.075680986 -0.31416091 0.057038911
-0.075847514 -0.31426969 0.057016369
-0.076006904 -0.31436232 0.057067703
-0.07616704 -0.31446758 0.057041716
-0.076326966 -0.31457725 0.056986883
-0.076482557 -0.3146731 0.057002459
-0.076666616 -0.31478098 0.057056002
-0.076824971 -0.31487912 0.057068106
-0.076978609 -0.31498083 0.057038691
-0.077122159 -0.3150816 0.056974687
-0.077299356 -0.31516623 0.05714827
-0.077451527 -0.31528518 0.057003457
-0.077615045 -0.31539184 0.056982078
-0.077764362 -0.31549627 0.056918055
-0.077925958 -0.31560409 0.056881677
-0.078083739 -0.31571823 0.056789931
-0.078227691 -0.3158218 0.056709774
-0.078397907 -0.31592762 0.056720674
-0.078551419 -0.31603631 0.056646254
-0.078706123 -0.31615159 0.056534894
-0.078872994 -0.31625929 0.056520425
-0.079049133 -0.31636524 0.056554385
-0.07922177 -0.31647697 0.056537591
-0.079381213 -0.31656727 0.05660392
-0.079565652 -0.31667611 0.056652851
-0.079727776 -0.31678662 0.056601472
-0.079890087 -0.31686875 0.056731265
-0.080052637 -0.31698608 0.056638341
-0.080202445 -0.31709245 0.056563932
-0.080351837 -0.31718856 0.056552988
-0.0805315 -0.31729347 0.056607708
-0.080695622 -0.31739599 0.05661517
-0.080864608 -0.31751302 0.056549922
-0.081008837 -0.31761494 0.056481298
-0.081172474 -0.31772098 0.056464538
-0.081341475 -0.31783113 0.05644314
-0.08149232 -0.31793958 0.056359485
-0.081660375 -0.31803387 0.056435023
-0.081845336 -0.31814361 0.056480493
-0.081996553 -0.31825176 0.056400299
-0.082165599 -0.31834921 0.05645968
-0.082307108 -0.31845179 0.056376062
-0.082516074 -0.31853038 0.056715693
-0.082631357 -0.31865576 0.056381777
-0.082802907 -0.31875882 0.056415755
-0.082968459 -0.31886423 0.056410521
-0.083119705 -0.31897494 0.056314185
-0.083251834 -0.3190774 0.056193676
-0.083402656 -0.31917894 0.056153879
-0.083564393 -0.31928849 0.056107126
-0.083725579 -0.31938934 0.056113444
-0.083913304 -0.31948718 0.056245446
-0.084085129 -0.31959349 0.056259811
-0.084237874 -0.31969735 0.056213077
-0.084383972 -0.31979465 0.056181379
-0.084556937 -0.31990638 0.056165736
-0.084720567 -0.32000116 0.056220505
-0.084882013 -0.32010236 0.056225676
-0.085046545 -0.32020551 0.056230836
-0.085214555 -0.32031047 0.056238282
-0.085403934 -0.32042062 0.056298733
-0.085573919 -0.32052249 0.056333873
-0.085728295 -0.32063138 0.056261752
-0.085853726 -0.32074231 0.056060508
-0.086009473 -0.32084244 0.056049533
-0.086167425 -0.3209554 0.055965856
-0.086333618 -0.32105559 0.055996396
-0.086502127 -0.32115799 0.056022312
-0.086669147 -0.32126871 0.055989377
-0.086836383 -0.32136628 0.056040674
-0.086981699 -0.32146889 0.055972055
-0.087152518 -0.32157621 0.055976029
-0.087322906 -0.32167852 0.056010015
-0.087481536 -0.32178336 0.055980578
-0.087651238 -0.32189107 0.055977628
-0.087821759 -0.3220087 0.055914689
-0.087958112 -0.32210529 0.055848401
-0.088131018 -0.32221735 0.055830449
-0.088252842 -0.32231402 0.055705365
-0.088412486 -0.32241607 0.055697851
-0.088577792 -0.32251716 0.05571916
-0.088783801 -0.32263583 0.055792239
-0.088940799 -0.32274091 0.055754732
-0.08907631 -0.32283497 0.055701137
-0.089229457 -0.32293582 0.055675186
-0.089414671 -0.32303897 0.055763349
-0.089587584 -0.32314649 0.055774242
-0.089767389 -0.32325548 0.055803567
-0.089902848 -0.32335895 0.055689979
-0.090072349 -0.32346705 0.055683579
-0.090229027 -0.32357687 0.055614907
-0.090387635 -0.3236748 0.05562932
-0.090569526 -0.32377458 0.055725567
-0.090713434 -0.32387903 0.055639639
-0.090880573 -0.32397619 0.055693258
-0.091060437 -0.32409248 0.055676427
-0.091210097 -0.32420748 0.055546634
-0.091360688 -0.32430652 0.055521831
-0.091518424 -0.32440263 0.055544328
-0.0916906 -0.32451081 0.055548299
-0.091848664 -0.32461366 0.055529252
-0.092004202 -0.32471457 0.05551251
-0.092154697 -0.3248181 0.055458874
-0.092303865 -0.3249217 0.055399459
-0.092486054 -0.32502276 0.055488788
-0.092669085 -0.32513905 0.055484649
-0.092811659 -0.32524955 0.055354871
-0.092971273 -0.32534814 0.05536928
-0.093117185 -0.3254455 0.055336423
-0.093306303 -0.32555729 0.055385336
-0.093455724 -0.32566506 0.055300541
-0.093611099 -0.32576403 0.055295341
-0.093782686 -0.32586437 0.055346631
-0.093945824 -0.32597354 0.05530794
-0.094109267 -0.32607853 0.055296954
-0.094269969 -0.32618162 0.055287115
-0.094429739 -0.32629502 0.05520805
-0.094578579 -0.32639441 0.05517403
-0.094730258 -0.32649776 0.05512616
-0.09488757 -0.32659289 0.055153258
-0.095067658 -0.3267017 0.055184908
-0.09524148 -0.32680872 0.055202715
-0.095407583 -0.32691595 0.055188246
-0.095585257 -0.32702705 0.055195671
-0.095757537 -0.32714617 0.055130403
-0.095901847 -0.32724178 0.05510217
-0.096049078 -0.32734525 0.055035844
-0.096197531 -0.32744476 0.054999515
-0.096358247 -0.32755402 0.054950453
-0.096503414 -0.32764965 0.05492568
-0.096686214 -0.32775909 0.054964226
-0.09686961 -0.3278667 0.055016626
-0.097030774 -0.32797608 0.054968722
-0.097190902 -0.32807589 0.054977346
-0.097371772 -0.32818756 0.05499398
-0.097531751 -0.32828182 0.055037238
-0.09769614 -0.32838762 0.055025086
-0.097874209 -0.32849568 0.055053271
-0.098041534 -0.32862219 0.054921094
-0.098186977 -0.32871997 0.054883629
-0.098330207 -0.32881585 0.054849628
-0.098516583 -0.32892627 0.054896243
-0.098680407 -0.32903403 0.054869093
-0.098841526 -0.32914355 0.054820031
-0.098993562 -0.32924169 0.054806761
-0.099173963 -0.32934853 0.054852247
-0.099339858 -0.32945836 0.054820471
-0.099492371 -0.32956207 0.054773744
-0.099655256 -0.32966635 0.054765061
-0.099824958 -0.3297675 0.054803662
-0.099979356 -0.32987493 0.054740772
-0.10013449 -0.32997885 0.054703269
-0.10028179 -0.33007872 0.054660026
-0.10043813 -0.33018452 0.054615587
-0.10062127 -0.33029217 0.054666836
-0.10079545 -0.33040103 0.054674264
-0.10097899 -0.33051765 0.054670114
-0.10111644 -0.33061168 0.054624595
-0.10128386 -0.33072191 0.054596279
-0.10146236 -0.33083478 0.054595619
-0.10161188 -0.33093843 0.054537363
-0.10176645 -0.33103564 0.05454025
-0.10191859 -0.33113438 0.05452352
-0.10209499 -0.33125067 0.054492865
-0.10226741 -0.33135644 0.054512985
-0.10242446 -0.33146086 0.054480091
-0.10261922 -0.3315824 0.05448975
-0.10278566 -0.33168948 0.054477591
-0.10292633 -0.33178896 0.054410137
-0.10311437 -0.33189499 0.054491363
-0.10326369 -0.33200702 0.054378875
-0.10343516 -0.33211148 0.054403618
-0.10360363 -0.33221403 0.054428376
-0.10373881 -0.33231622 0.054321717
-0.1038987 -0.33241788 0.054317653
-0.1040464 -0.33251983 0.054262865
-0.10426736 -0.3326385 0.054395899
-0.10443486 -0.3327575 0.054312199
-0.10456935 -0.3328498 0.05426554
-0.10476182 -0.33296862 0.05428328
-0.10492 -0.3330752 0.054241147
-0.10508235 -0.33317751 0.054242853
-0.10524293 -0.33328125 0.054228406
-0.10542479 -0.33339098 0.054261185
-0.10558946 -0.33350331 0.054208647
-0.10575473 -0.33361253 0.054178033
-0.10590769 -0.33371383 0.054148607
-0.10607273 -0.33381364 0.054176837
-0.1062564 -0.3339287 0.054183081
-0.10638782 -0.33403015 0.054066043
-0.10657504 -0.33413804 0.054132268
-0.10674267 -0.33425403 0.054068178
-0.10691568 -0.33436 0.054089461
-0.10707362 -0.33446842 0.054034635
-0.10725986 -0.33458421 0.054046631
-0.10740641 -0.33468631 0.053986087
-0.10756113 -0.33478817 0.053960118
-0.10773636 -0.33489934 0.053957157
-0.10794295 -0.33502617 0.053980619
-0.10809745 -0.33512661 0.05396273
-0.10824353 -0.33522573 0.053919494
-0.1084272 -0.33534151 0.053921111
-0.10859011 -0.33544943 0.053889353
-0.10876909 -0.33556008 0.053904843
-0.10892795 -0.33566892 0.053851165
-0.10907663 -0.33576855 0.053814836
-0.10926647 -0.33587828 0.053879902
-0.10944299 -0.33599174 0.053867705
-0.10957412 -0.33608991 0.053770285
-0.10974614 -0.3361938 0.053800799
-0.10993752 -0.33631882 0.0537747
-0.11008866 -0.33642203 0.053725671
-0.11028215 -0.33653876 0.053760719
-0.11044313 -0.33664531 0.053730115
-0.11061797 -0.33675587 0.05372946
-0.11080267 -0.33687267 0.053728778
-0.11096552 -0.33698255 0.053684317
-0.11114955 -0.33710366 0.053653631
-0.11129221 -0.33720115 0.053606942
-0.11148047 -0.33731312 0.053651243
-0.1116523 -0.33742487 0.053630985
-0.11182783 -0.33754024 0.053602628
-0.11203075 -0.33766532 0.053622641
-0.11220029 -0.33777252 0.053622015
-0.11236318 -0.33788553 0.05355794
-0.11251776 -0.33798981 0.053515822
-0.11265512 -0.33807942 0.053497996
-0.1128723 -0.33820912 0.05354565
-0.11302558 -0.33831188 0.053508155
-0.11322686 -0.33843154 0.053555869
-0.11335576 -0.33853486 0.053416919
-0.11355969 -0.33865383 0.053479623
-0.11370234 -0.33875585 0.053404082
-0.11389911 -0.33887902 0.053411428
-0.11404564 -0.33897913 0.053363577
-0.11424375 -0.3390986 0.053399757
-0.11443095 -0.33921444 0.053415217
-0.11459994 -0.33932641 0.053382277
-0.11476615 -0.33943644 0.053350493
-0.11492167 -0.33954003 0.053316452
-0.11510129 -0.33965582 0.053301934
-0.023981437 -0.28072116 0.061960939
-0.024196807 -0.28087133 0.061871313
-0.024384201 -0.28098765 0.061884463
-0.024589207 -0.28112474 0.061836407
-0.024783187 -0.28124997 0.061819542
-0.024974871 -0.28136992 0.061826903
-0.02517451 -0.2815029 0.061783493
-0.025365714 -0.28162491 0.061775852
-0.025565371 -0.28175825 0.061730132
-0.025767449 -0.28189257 0.061687849
-0.025965232 -0.28202382 0.061647892
-0.026150808 -0.28213647 0.061677203
-0.026322819 -0.28223345 0.061751552
-0.026547655 -0.28239906 0.061601907
-0.026737366 -0.28252012 0.061594285
-0.026933141 -0.28264701 0.061573952
-0.027119711 -0.28276411 0.061579026
-0.027320035 -0.2828975 0.061535604
-0.027510688 -0.28302044 0.061519898
-0.027698189 -0.2831392 0.061518051
-0.027880996 -0.28325933 0.061488532
-0.028084405 -0.28338999 0.061475091
-0.028280046 -0.2835204 0.061431684
-0.028463263 -0.28363121 0.061463311
-0.028664432 -0.28376967 0.061391048
-0.028851382 -0.2838859 0.061403036
-0.029034767 -0.28399989 0.061415054
-0.029236522 -0.28413981 0.061335865
-0.029433042 -0.28427264 0.061280914
-0.02967459 -0.28446677 0.061016992
-0.029792074 -0.2844879 0.061354574
-0.029987708 -0.28461725 0.061318085
-0.030183315 -0.28474948 0.061263144
-0.030377313 -0.28487688 0.061232433
-0.03056071 -0.28499195 0.061237518
-0.030747756 -0.28511244 0.061222985
-0.030937493 -0.28523695 0.061193448
-0.031128436 -0.2853606 0.061174281
-0.031309433 -0.28547272 0.061188612
-0.031506762 -0.28560603 0.061133653
-0.031691764 -0.28572431 0.061124898
-0.03188451 -0.2858513 0.061091885
-0.03207 -0.2859706 0.061078507
-0.032248966 -0.28607741 0.06111823
-0.032440055 -0.28620535 0.061072528
-0.03262483 -0.28632402 0.061060309
-0.032823969 -0.28646448 0.060967281
-0.033002611 -0.28657126 0.061005846
-0.033179671 -0.2866787 0.061034035
-0.033368982 -0.28680187 0.061011411
-0.033557143 -0.28692651 0.060974948
-0.033742629 -0.28704417 0.060971964
-0.033925809 -0.28716147 0.060962059
-0.034115143 -0.28728539 0.060934823
-0.03430092 -0.28740704 0.060907602
-0.034495849 -0.28754321 0.060824975
-0.034670122 -0.28764725 0.060863551
-0.034858279 -0.28777006 0.060838632
-0.035039641 -0.28788549 0.06083335
-0.035229884 -0.28801197 0.060793422
-0.035408475 -0.28812328 0.060803138
-0.03559757 -0.2882483 0.060767837
-0.035783119 -0.28837109 0.060732536
-0.035971962 -0.28849614 0.060696084
-0.036152698 -0.28861153 0.060688496
-0.036336977 -0.28872952 0.060678579
-0.036517777 -0.2888453 0.060668677
-0.036697533 -0.28895953 0.060664557
-0.036877345 -0.28907397 0.060659274
-0.037058737 -0.28918779 0.060664378
-0.037250299 -0.2893222 0.060579449
-0.037432056 -0.28943694 0.060579933
-0.037616897 -0.28956056 0.060536563
-0.037810434 -0.28969565 0.060455102
-0.037981942 -0.28979704 0.06049946
-0.03816076 -0.2899074 0.0605161
-0.038337521 -0.29001793 0.060523517
-0.038529675 -0.2901516 0.060445517
-0.038701721 -0.29025424 0.060484104
-0.038881898 -0.29036745 0.060488056
-0.039066061 -0.29049155 0.06043892
-0.039257258 -0.29062462 0.060360923
-0.03943342 -0.29074258 0.060318734
-0.039607286 -0.29083765 0.06041269
-0.039803095 -0.2909798 0.060295455
-0.039976511 -0.29108185 0.060343266
-0.040147118 -0.29118267 0.060387619
-0.04033383 -0.29130909 0.06033387
-0.040515564 -0.29143456 0.060266282
-0.040696733 -0.2915473 0.060277149
-0.040874816 -0.29166248 0.060260341
-0.041058332 -0.29178396 0.060225055
-0.041223392 -0.29188308 0.060257897
-0.041384064 -0.29198217 0.060273454
-0.04159883 -0.29213905 0.060138844
-0.041772217 -0.29224196 0.060180888
-0.041956276 -0.29236564 0.060134061
-0.042089928 -0.29244253 0.060182013
-0.042309612 -0.2925891 0.060132749
-0.042480327 -0.29268706 0.060195573
-0.042662393 -0.29281202 0.0601326
-0.042848624 -0.29294121 0.060059234
-0.043021388 -0.29304358 0.06010244
-0.04320474 -0.29316753 0.060050994
-0.043392465 -0.29330531 0.059929173
-0.043564536 -0.29340667 0.059975833
-0.043738231 -0.29351145 0.060007494
-0.043902524 -0.29363424 0.059886917
-0.044050567 -0.29371369 0.059976347
-0.044225395 -0.29383549 0.05990418
-0.044407733 -0.29394954 0.059911579
-0.044624694 -0.29409438 0.059862319
-0.044802085 -0.29419804 0.059915893
-0.044979811 -0.29431242 0.059902541
-0.045144003 -0.29441735 0.059895009
-0.045329511 -0.29453412 0.059897784
-0.04550945 -0.2946541 0.05985789
-0.045690529 -0.29477695 0.059804164
-0.045848414 -0.29487354 0.05982434
-0.046004605 -0.29496089 0.059896447
-0.046222869 -0.29512778 0.059712213
-0.046390969 -0.29522139 0.059792347
-0.04656323 -0.29533032 0.059791707
-0.046734996 -0.29543823 0.059795685
-0.046908051 -0.29555511 0.059747748
-0.047091946 -0.29567575 0.059719384
-0.047276638 -0.29580453 0.059642561
-0.047433898 -0.29591268 0.059586607
-0.047618128 -0.29602322 0.059623986
-0.047802329 -0.29614589 0.059584092
-0.047971435 -0.2962423 0.059650376
-0.048119821 -0.2963472 0.059579454
-0.04832251 -0.29647502 0.059581012
-0.048507892 -0.29661494 0.05943612
-0.048675217 -0.29670697 0.05952318
-0.048833892 -0.29681495 0.059474144
-0.049001634 -0.29690796 0.059556581
-0.049179144 -0.29702803 0.059506319
-0.049364164 -0.29715592 0.059436414
-0.049544878 -0.29726496 0.059469208
-0.049719062 -0.29737657 0.059459332
-0.049894247 -0.29749134 0.059433311
-0.050067145 -0.29760703 0.059392296
-0.050233543 -0.29771101 0.059399746
-0.050392091 -0.29780635 0.059430312
-0.050588489 -0.29794148 0.059360366
-0.050763026 -0.29805583 0.059334345
-0.050934114 -0.29815948 0.059362546
-0.05110427 -0.29826838 0.059353843
-0.051260162 -0.29835552 0.059425954
-0.051450521 -0.29848972 0.059337571
-0.051623866 -0.29860151 0.059323084
-0.051796529 -0.29872015 0.059262458
-0.051968113 -0.29882649 0.059275672
-0.05212491 -0.29892617 0.05927163
-0.052312061 -0.29904237 0.059284776
-0.052484132 -0.29916063 0.059224151
-0.052657399 -0.29927418 0.059198134
-0.052830044 -0.29938573 0.059182495
-0.053003401 -0.29950044 0.059149556
-0.053173766 -0.29961416 0.059110861
-0.053345956 -0.29972506 0.059097528
-0.053516373 -0.29982886 0.059122279
-0.053688616 -0.2999405 0.059104338
-0.053848416 -0.30003303 0.059157975
-0.053992622 -0.30013946 0.059060536
-0.054203544 -0.30028212 0.059000917
-0.054373655 -0.30039841 0.058944911
-0.054529946 -0.30047455 0.059088536
-0.054663643 -0.30054531 0.059175715
-0.054838277 -0.30068535 0.058987036
-0.055041421 -0.30083397 0.058858231
-0.05520473 -0.30093181 0.058892239
-0.055400558 -0.30107307 0.05878076
-0.055570852 -0.30118003 0.058784753
-0.055737875 -0.3012675 0.058899492
-0.055893283 -0.30136833 0.058882765
-0.056081731 -0.30150259 0.058786325
-0.05624618 -0.30159023 0.058889538
-0.056417961 -0.30170849 0.058827765
-0.056588471 -0.3018187 0.058812141
-0.056758832 -0.30192843 0.058798812
-0.056902811 -0.30203253 0.058715228
-0.057067182 -0.30216572 0.058528885
-0.057266653 -0.3022581 0.058742717
-0.057430312 -0.30236197 0.058739804
-0.057600591 -0.30247474 0.058706872
-0.057776686 -0.30258882 0.058688916
-0.057943247 -0.30269489 0.058683686
-0.05810954 -0.30279824 0.058694609
-0.058282387 -0.30291098 0.058672056
-0.058452249 -0.30302477 0.058631055
-0.058612697 -0.30313206 0.058593541
-0.058791187 -0.30324531 0.058590569
-0.058960669 -0.30335864 0.058550715
-0.059126705 -0.30346382 0.05854895
-0.05929555 -0.30356461 0.058586396
-0.059442818 -0.30364814 0.058646999
-0.059597127 -0.30377439 0.058464162
-0.059802748 -0.30390117 0.058484163
-0.059971556 -0.3040092 0.058475465
-0.060140304 -0.30411536 0.0584783
-0.060308971 -0.30422693 0.05844653
-0.06045289 -0.30433011 0.058368705
-0.060630735 -0.30443642 0.058407269
-0.060768709 -0.3045204 0.058427516
-0.060963947 -0.30466637 0.058283757
-0.061144795 -0.30477387 0.058326922
-0.061307371 -0.30486923 0.058373615
-0.06146032 -0.30496722 0.058364972
-0.061652429 -0.30509833 0.058303125
-0.061820358 -0.30520779 0.058281742
-0.061979167 -0.30530986 0.058270767
-0.062144525 -0.30541044 0.058295541
-0.062300522 -0.30550748 0.058305338
-0.062465169 -0.30561486 0.058283962
-0.062638469 -0.30573171 0.058237188
-0.062807873 -0.30585212 0.058152337
-0.06299182 -0.30596098 0.058198962
-0.063141301 -0.30605552 0.058198407
-0.063313581 -0.30617592 0.058125097
-0.063494317 -0.30628404 0.058163654
-0.063643686 -0.30637851 0.058163099
-0.063830383 -0.30649167 0.05819355
-0.06399297 -0.30660647 0.058116816
-0.064158842 -0.30672082 0.058056213
-0.06431517 -0.30681369 0.058093704
-0.06446933 -0.30690083 0.058158889
-0.064623661 -0.30701911 0.058026813
-0.064806305 -0.30713409 0.058029596
-0.064994693 -0.30725414 0.058023129
-0.065152757 -0.30735445 0.058020238
-0.065303318 -0.30744261 0.058064673
-0.065474987 -0.30755842 0.058017891
-0.065644875 -0.30766732 0.05800803
-0.065798461 -0.30778259 0.057892106
-0.065974735 -0.30788136 0.0579722
-0.066159405 -0.30798888 0.058030352
-0.066309005 -0.30809221 0.057974428
-0.06647072 -0.30820283 0.057920761
-0.066631168 -0.30831665 0.057841726
-0.066816591 -0.30843264 0.05784912
-0.066984974 -0.30853388 0.057881951
-0.067119144 -0.30862653 0.057831854
-0.067282394 -0.30873141 0.057820864
-0.067440107 -0.30883095 0.05782143
-0.067607187 -0.30894497 0.057767753
-0.067770541 -0.30903992 0.057820212
-0.067937925 -0.30914378 0.057832282
-0.068123937 -0.30927575 0.057740465
-0.068267673 -0.30937138 0.057709932
-0.068461329 -0.30949423 0.057706907
-0.068629891 -0.30960354 0.057688981
-0.068773843 -0.30969819 0.057665378
-0.068928331 -0.30980352 0.057616357
-0.069097042 -0.30991203 0.05760419
-0.069259606 -0.31001684 0.057590906
-0.069466554 -0.310137 0.057658199
-0.069624066 -0.31025097 0.057566483
-0.069782883 -0.31034759 0.057590127
-0.069940083 -0.31045425 0.057543393
-0.070086643 -0.31055057 0.057519786
-0.070282534 -0.31066883 0.057554819
-0.070441052 -0.3107729 0.057530005
-0.070576653 -0.31085956 0.057523735
-0.070753291 -0.3109749 0.057500008
-0.070908807 -0.3110767 0.057477519
-0.071054295 -0.3111805 0.057401996
-0.071234204 -0.3112843 0.057464778
-0.071393788 -0.31139249 0.057418048
-0.071560644 -0.31150255 0.057388585
-0.071742155 -0.3116166 0.057392534
-0.071888864 -0.31171772 0.057338919
-0.072069146 -0.31182158 0.05740286
-0.072227262 -0.31193101 0.057342283
-0.072392672 -0.31203672 0.057334751
-0.072573841 -0.31215674 0.057299472
-0.072728515 -0.31225309 0.05730813
-0.072873175 -0.31235039 0.057270683
-0.073067769 -0.31247073 0.057287268
-0.073230423 -0.31257939 0.057249751
-0.073391758 -0.31267887 0.057265304
-0.073521346 -0.31276628 0.057230212
-0.073694125 -0.31287411 0.057238802
-0.073880501 -0.31299305 0.057231192
-0.074027047 -0.31309789 0.057153355
-0.074172243 -0.31319389 0.057126291
-0.074350663 -0.31330091 0.057162546
-0.074517839 -0.31340936 0.057144623
-0.074678198 -0.31351948 0.057088658
-0.074836574 -0.31362182 0.05707423
-0.075007483 -0.31372193 0.05712435
-0.075156115 -0.31380993 0.057161875
-0.075323075 -0.31392768 0.057083964
-0.075498909 -0.31405103 0.05700602
-0.075664572 -0.31415147 0.057033099
-0.075824142 -0.31425709 0.057002515
-0.075986058 -0.31436512 0.056966156
-0.076136485 -0.31445625 0.056990981
-0.076297693 -0.31456473 0.056948844
-0.076463707 -0.31466085 0.057004765
-0.07663013 -0.31477371 0.056955691
-0.076794088 -0.3148841 0.056912407
-0.076948829 -0.31498468 0.05689453
-0.077114046 -0.31508991 0.056889303
-0.077287912 -0.31520113 0.05688059
-0.077439092 -0.31530818 0.056807347
-0.077606879 -0.31540358 0.056874793
-0.077772997 -0.31552008 0.056801498
-0.077917024 -0.31561586 0.056770977
-0.078070804 -0.31572074 0.056721948
-0.078245267 -0.31583524 0.056694776
-0.078410544 -0.31593269 0.056739151
-0.078578293 -0.31604004 0.056730457
-0.078728557 -0.31613562 0.056726448
-0.078907885 -0.31624722 0.056737315
-0.079055846 -0.31634787 0.056691777
-0.079225399 -0.31645057 0.056719989
-0.07938946 -0.31654924 0.056751683
-0.079580151 -0.31667981 0.056687534
-0.079730503 -0.3167825 0.056638528
-0.079896316 -0.31687686 0.056704819
-0.080049217 -0.31698516 0.056630421
-0.080199406 -0.31708431 0.056603339
-0.080349252 -0.31718361 0.056573946
-0.080516383 -0.31729132 0.056560636
-0.080682114 -0.31739631 0.05655887
-0.080841109 -0.31750792 0.05648791
-0.081002541 -0.31760493 0.056519613
-0.0811693 -0.31770951 0.056524765
-0.081339456 -0.31781256 0.056552976
-0.081496745 -0.31792474 0.056471642
-0.08164987 -0.31801593 0.056506835
-0.081813358 -0.31812206 0.056488927
-0.081960849 -0.31823495 0.056363791
-0.08212018 -0.31833315 0.056379352
-0.082257129 -0.31845626 0.056146972
-0.082459241 -0.31853724 0.056443851
-0.082593694 -0.31865785 0.056217249
-0.08274588 -0.31876808 0.056127865
-0.082914278 -0.31887203 0.056143388
-0.083056726 -0.31898263 0.056012504
-0.083224446 -0.31908378 0.056043033
-0.083398245 -0.31918588 0.056091994
-0.083549872 -0.31928995 0.056039523
-0.083726078 -0.3193914 0.056102321
-0.083888575 -0.31949472 0.056098256
-0.084045812 -0.31960559 0.056025002
-0.084219895 -0.31970516 0.056091264
-0.084394902 -0.31980747 0.056143682
-0.084551811 -0.3199127 0.056105033
-0.084708296 -0.32001802 0.056064077
-0.084849589 -0.32012498 0.055951655
-0.085039712 -0.32022035 0.056108989
-0.085217208 -0.3203308 0.056119874
-0.085384801 -0.32044405 0.056073107
-0.085523933 -0.32054582 0.055984925
-0.085688561 -0.32064885 0.055991236
-0.085857742 -0.32074532 0.056057516
-0.086024225 -0.32084534 0.056090362
-0.086210459 -0.32094586 0.056199268
-0.086273849 -0.32108197 0.055588763
-0.086445786 -0.32117257 0.055703491
-0.086602241 -0.3212775 0.055664845
-0.086787 -0.32137853 0.055764522
-0.08694794 -0.32147995 0.055766236
-0.087127164 -0.32158259 0.055833638
-0.087287039 -0.32168952 0.055796131
-0.087455317 -0.32178956 0.055835892
-0.087666094 -0.32188621 0.056068134
-0.087845273 -0.32199463 0.056098625
-0.087983146 -0.32211357 0.055896234
-0.08813978 -0.32222369 0.055825282
-0.088277251 -0.32232735 0.055718634
-0.088447608 -0.32242745 0.05576646
-0.088634573 -0.32252973 0.055867288
-0.088798508 -0.32263121 0.055880524
-0.088974699 -0.32274047 0.055893719
-0.089130983 -0.32285056 0.055821612
-0.089291036 -0.32295758 0.05578411
-0.089440271 -0.32305667 0.055753563
-0.089604929 -0.32316065 0.05575411
-0.08976496 -0.32326764 0.0557166
-0.089937188 -0.32337764 0.055709042
-0.090082884 -0.32347724 0.055661201
-0.090253621 -0.3235921 0.055616733
-0.090395018 -0.32369676 0.055519313
-0.09057571 -0.32379889 0.055595934
-0.090756543 -0.32390344 0.055657562
-0.090904176 -0.32401189 0.055561259
-0.09105403 -0.32411319 0.055519175
-0.091226123 -0.3242144 0.055566993
-0.091414727 -0.3243342 0.055562835
-0.091592498 -0.32444844 0.055550646
-0.091730185 -0.32454205 0.055508606
-0.091896288 -0.32464856 0.055498756
-0.092069291 -0.32475668 0.0555062
-0.092217416 -0.32485381 0.055483732
-0.092374966 -0.32496107 0.0554347
-0.092528433 -0.3250643 0.055394903
-0.092671387 -0.32516178 0.055349387
-0.092872337 -0.32528105 0.055398248
-0.093026742 -0.32538 0.055389605
-0.093185686 -0.3254914 0.055319794
-0.093327768 -0.32558471 0.055297352
-0.093503579 -0.32568464 0.05536823
-0.093676969 -0.32578903 0.055401038
-0.093867645 -0.32589272 0.055507619
-0.094015583 -0.32600263 0.055403244
-0.09415292 -0.32611489 0.055241231
-0.094252706 -0.3262201 0.05497323
-0.094419613 -0.32631457 0.055042978
-0.094611675 -0.32641861 0.055153023
-0.094806001 -0.32652283 0.055271119
-0.094984949 -0.32662964 0.055310842
-0.09512987 -0.32673725 0.05520878
-0.09529195 -0.32684249 0.055190884
-0.095446199 -0.32695183 0.05511532
-0.095612854 -0.32705304 0.055141244
-0.095793448 -0.32715818 0.055198252
-0.095959619 -0.32726943 0.055158421
-0.096107364 -0.32737485 0.055081729
-0.096285559 -0.32747829 0.055139907
-0.096424907 -0.32758367 0.055029802
-0.096593186 -0.32769299 0.055010717
-0.096763596 -0.32779658 0.055036619
-0.096911646 -0.32790381 0.054949556
-0.097090155 -0.32800764 0.055006571
-0.097268 -0.32811159 0.055060141
-0.097410545 -0.32822061 0.054939631
-0.09758009 -0.32832637 0.054948233
-0.09776552 -0.32843637 0.054993697
-0.097920679 -0.32854375 0.054934289
-0.098072857 -0.32865289 0.054851811
-0.09827657 -0.32877299 0.054906439
-0.098438919 -0.32887694 0.054897763
-0.09858679 -0.328973 0.054881059
-0.098747596 -0.32906961 0.054912768
-0.098930873 -0.32917464 0.054981306
-0.099028535 -0.32928124 0.054696009
-0.099202566 -0.32938766 0.054718439
-0.099385202 -0.32949281 0.054783519
-0.09958595 -0.32960272 0.054891214
-0.09971641 -0.329707 0.054752298
-0.099899873 -0.32981431 0.054806992
-0.10005276 -0.32992697 0.054704912
-0.10020511 -0.3300342 0.05463513
-0.10036334 -0.33013827 0.054609165
-0.10053197 -0.33024836 0.054586627
-0.10070611 -0.33036411 0.054550216
-0.10084476 -0.33045632 0.054520868
-0.10103785 -0.3305701 0.054573219
-0.1012174 -0.33068293 0.054577164
-0.10138801 -0.33078301 0.054626137
-0.10155068 -0.33089459 0.054570165
-0.10174198 -0.33101377 0.05458099
-0.10190335 -0.33111674 0.054574631
-0.1020587 -0.33122259 0.054525606
-0.10222781 -0.33132973 0.054523829
-0.10239559 -0.33143508 0.054527815
-0.10253873 -0.33153814 0.054447692
-0.10271744 -0.33164299 0.054498944
-0.10288163 -0.33175319 0.054457963
-0.10306139 -0.33186832 0.054448064
-0.1031964 -0.33196387 0.054382961
-0.10339262 -0.33207089 0.054490682
-0.10354675 -0.33218506 0.054383975
-0.10369918 -0.33228254 0.054376483
-0.10385729 -0.33238563 0.054356292
-0.10402425 -0.33249632 0.054323371
-0.1041983 -0.3326062 0.054323886
-0.10436646 -0.33271545 0.054304808
-0.10455126 -0.33283323 0.054298356
-0.10469356 -0.33292648 0.054277062
-0.10485496 -0.33303019 0.05426608
-0.10500209 -0.33313212 0.054209016
-0.10522676 -0.33325842 0.054308549
-0.1053812 -0.33336934 0.054223765
-0.10553788 -0.33347258 0.054196648
-0.10569616 -0.3335745 0.054184526
-0.10585088 -0.33367598 0.054160878
-0.10604113 -0.3337934 0.054178637
-0.10620211 -0.33390209 0.054134205
-0.10636021 -0.33400571 0.054110542
-0.10654451 -0.33411938 0.054128323
-0.1066955 -0.33422047 0.054092009
-0.10688178 -0.3343392 0.054085545
-0.10704041 -0.33444151 0.054072268
-0.10721284 -0.33455056 0.054071635
-0.10738637 -0.33465829 0.054083683
-0.10756545 -0.33478227 0.054014951
-0.10770163 -0.33487818 0.053952157
-0.10786403 -0.33497673 0.053978086
-0.10804941 -0.33508506 0.054033928
-0.108183 -0.3351897 0.053905383
-0.10836874 -0.33530426 0.053923156
-0.10854736 -0.33541322 0.053947877
-0.10872424 -0.33552799 0.053928759
-0.10890776 -0.3356424 0.053938471
-0.10906163 -0.33574444 0.053907905
-0.10920972 -0.33584699 0.053850826
-0.10939412 -0.33596468 0.053843223
-0.10956571 -0.33607283 0.053844895
-0.10976568 -0.33619931 0.053844161
-0.1099179 -0.33629975 0.053817071
-0.11007383 -0.33640382 0.053781874
-0.11026204 -0.33651811 0.053811181
-0.11042498 -0.33661771 0.05383249
-0.11059172 -0.33672532 0.05381804
-0.11077802 -0.33684388 0.053812727
-0.11092862 -0.33695292 0.053724498
-0.11111439 -0.33706713 0.053744581
-0.11125533 -0.33716717 0.053674839
-0.11140613 -0.33726907 0.053632751
-0.11154622 -0.33736891 0.053560708
-0.11175617 -0.33748662 0.053655688
-0.11192106 -0.33759707 0.053615849
-0.11209068 -0.33770704 0.05359792
-0.11226925 -0.33782452 0.053568423
-0.11245497 -0.33793926 0.053585038
-0.11263674 -0.33805749 0.053563602
-0.11279631 -0.33816001 0.053552628
-0.1129414 -0.33826104 0.053493258
-0.11312531 -0.33837426 0.05351219
-0.11329884 -0.33848816 0.053485014
-0.113482 -0.3386111 0.053439341
-0.11365613 -0.3387183 0.053457156
-0.11381557 -0.33882385 0.053426571
-0.11399095 -0.33893421 0.053429391
-0.11416958 -0.33904809 0.053422958
-0.11435981 -0.33917275 0.053394571
-0.11452641 -0.33927596 0.053407796
-0.11468067 -0.3393833 0.053344935
-0.11483145 -0.33948445 0.053307459
-0.11501491 -0.3395983 0.05332062
-0.024168301 -0.28085995 0.061829276
-0.024356447 -0.28097728 0.061839003
-0.024554387 -0.28110754 0.061806016
-0.024757419 -0.28124464 0.06174995
-0.024950616 -0.28136662 0.061750434
-0.025142774 -0.28148979 0.061739385
-0.025333226 -0.2816084 0.061750259
-0.025524471 -0.28173062 0.061741523
-0.025723327 -0.28186306 0.061698154
-0.025917508 -0.28198951 0.061674412
-0.026102856 -0.28210181 0.061704908
-0.026302017 -0.28223521 0.06165693
-0.026493002 -0.28235778 0.061644737
-0.026695166 -0.28249562 0.061580591
-0.026886649 -0.2826167 0.061579928
-0.027069978 -0.28272936 0.061600059
-0.027277075 -0.28287449 0.061509371
-0.027462754 -0.28299063 0.061516799
-0.027645119 -0.28309977 0.061555386
-0.027844239 -0.2832346 0.061498176
-0.02803503 -0.28335816 0.061479054
-0.028221261 -0.28347555 0.061480716
-0.028421361 -0.28360972 0.061431579
-0.028608888 -0.28372923 0.061425168
-0.02880064 -0.2838521 0.061414115
-0.028997727 -0.28398526 0.061359219
-0.029204529 -0.28412965 0.061271995
-0.029373702 -0.28422394 0.061352149
-0.029561918 -0.28434512 0.061337661
-0.029745579 -0.28446001 0.061345093
-0.02993802 -0.28458479 0.06132482
-0.030130688 -0.28471279 0.06128493
-0.030326538 -0.28484282 0.061245039
-0.030512415 -0.28496146 0.061237473
-0.030695736 -0.28507376 0.061259903
-0.030886639 -0.28519991 0.061224636
-0.031086124 -0.28533876 0.061143208
-0.031283077 -0.28547421 0.061073326
-0.031458519 -0.28557554 0.061133839
-0.031638976 -0.28568712 0.061149366
-0.031834122 -0.28581759 0.061103705
-0.032024123 -0.28594354 0.061066136
-0.032212608 -0.28606746 0.061035499
-0.032399416 -0.28618613 0.061031386
-0.032567244 -0.28629407 0.061019272
-0.032769389 -0.28642136 0.061022025
-0.032952763 -0.28653824 0.061015625
-0.033134226 -0.28664938 0.061038066
-0.033308771 -0.28675303 0.061080135
-0.033515163 -0.28690243 0.060959458
-0.033707712 -0.28703398 0.060896508
-0.03388238 -0.28713518 0.060954727
-0.034069546 -0.2872588 0.060920626
-0.034264177 -0.28739113 0.060861133
-0.03443525 -0.28749007 0.060919352
-0.034626927 -0.28761819 0.060874857
-0.034810975 -0.28773764 0.060854614
-0.035000678 -0.28786305 0.060819361
-0.035179976 -0.28797534 0.060825657
-0.035365138 -0.28809389 0.060815781
-0.035547741 -0.28821173 0.06080015
-0.035730351 -0.28832647 0.060804136
-0.035919089 -0.28845453 0.060748123
-0.036106687 -0.28857771 0.060718633
-0.036286037 -0.28869095 0.060719159
-0.036474343 -0.28881565 0.060682759
-0.036655188 -0.28893164 0.060671747
-0.036841325 -0.28905317 0.060646873
-0.037026595 -0.28917685 0.060604714
-0.037204135 -0.28928787 0.060612164
-0.037388179 -0.28940642 0.060597692
-0.037576169 -0.28953183 0.06055551
-0.037755176 -0.28964576 0.060550276
-0.037932124 -0.28975275 0.060580805
-0.038119297 -0.28988093 0.060517874
-0.038303509 -0.29000068 0.060496472
-0.038469244 -0.29009223 0.060580097
-0.038659595 -0.29022658 0.060490619
-0.038855013 -0.2903665 0.060386144
-0.039018787 -0.29045483 0.060482457
-0.039196238 -0.29056722 0.060480691
-0.039382223 -0.2906912 0.060439676
-0.039557066 -0.29080683 0.060406774
-0.039735638 -0.29091793 0.060417682
-0.039926179 -0.29104698 0.060362808
-0.040111817 -0.29117125 0.060318336
-0.040284134 -0.29127532 0.060348883
-0.040470023 -0.29140049 0.060299799
-0.040645294 -0.29151025 0.060306109
-0.04082888 -0.29163161 0.060272016
-0.041008428 -0.29174969 0.060242567
-0.041186433 -0.29186097 0.060250022
-0.041363098 -0.29197398 0.060241334
-0.041544437 -0.29209191 0.060219936
-0.041719563 -0.29220229 0.060221635
-0.041902151 -0.29232302 0.060187556
-0.042072542 -0.29243731 0.060145441
-0.042253044 -0.29254583 0.060180578
-0.042436361 -0.29267299 0.060108431
-0.042615958 -0.29278874 0.060093962
-0.042787142 -0.29289228 0.060123358
-0.042969394 -0.29301372 0.060083508
-0.043147057 -0.29313061 0.060054056
-0.043326356 -0.29324651 0.060037281
-0.043506235 -0.29336843 0.059984758
-0.043682449 -0.29347843 0.059993379
-0.043855485 -0.29358658 0.060000844
-0.044034488 -0.29370266 0.059981771
-0.044195756 -0.2938101 0.059946604
-0.044385612 -0.29392561 0.059974786
-0.044561833 -0.29404125 0.059947651
-0.044743679 -0.29416931 0.059863966
-0.044901758 -0.29427072 0.059854195
-0.045089699 -0.29438266 0.059897367
-0.04526132 -0.29449919 0.059846021
-0.04542955 -0.29461354 0.059794694
-0.045598172 -0.29471347 0.059836783
-0.045762137 -0.29482388 0.059793536
-0.04592979 -0.2949377 0.05974336
-0.04611972 -0.29504964 0.059794601
-0.046304006 -0.29516473 0.059803192
-0.046455383 -0.29526845 0.05975192
-0.046629723 -0.29538813 0.059691336
-0.046835016 -0.29551485 0.059710231
-0.047023173 -0.2956402 0.059669208
-0.047193248 -0.29575628 0.059614409
-0.047334943 -0.29583752 0.059666969
-0.047505528 -0.29595539 0.059602939
-0.047686324 -0.29606935 0.059604615
-0.047898144 -0.29622018 0.059496623
-0.048066586 -0.2963089 0.05960907
-0.048240401 -0.29641774 0.059615389
-0.04841521 -0.29653573 0.059567492
-0.04858052 -0.29662213 0.059682257
-0.048737198 -0.29675061 0.05949486
-0.048898961 -0.29684725 0.059530061
-0.049105331 -0.29697287 0.059560485
-0.049281728 -0.29709694 0.05948028
-0.049446471 -0.29720241 0.059471637
-0.049603201 -0.29730621 0.059441108
-0.049795158 -0.29741946 0.059492342
-0.049969442 -0.29753166 0.059479047
-0.050139621 -0.29763928 0.059478454
-0.050315656 -0.2977573 0.059435166
-0.050479081 -0.29786772 0.059389625
-0.050654888 -0.29797021 0.059444379
-0.050827011 -0.29808486 0.059406865
-0.051003523 -0.29820591 0.059346285
-0.051175103 -0.29831967 0.059312232
-0.051330574 -0.29842252 0.059282862
-0.051489487 -0.29852012 0.059300762
-0.051659126 -0.298637 0.059239045
-0.051828571 -0.29875377 0.059177328
-0.051993623 -0.2988556 0.059192896
-0.0521615 -0.29893982 0.059331879
-0.052370489 -0.29907906 0.059286173
-0.052544512 -0.29920489 0.059185226
-0.052710742 -0.29931182 0.059173107
-0.052882906 -0.29942179 0.05916559
-0.053056501 -0.29953775 0.059125781
-0.053223643 -0.29963872 0.059155181
-0.0533925 -0.29974675 0.059146523
-0.053561717 -0.29985669 0.059127484
-0.053735375 -0.29997465 0.059074976
-0.053904727 -0.30008611 0.059046701
-0.054072946 -0.30019286 0.059043817
-0.054239016 -0.3002899 0.059093982
-0.05440601 -0.30040401 0.059039198
-0.054579608 -0.30051145 0.059053592
-0.054748401 -0.30062217 0.059027627
-0.054918073 -0.30073801 0.058972828
-0.055090398 -0.30085424 0.058926094
-0.05525763 -0.30095837 0.058935896
-0.055425949 -0.30106878 0.058909938
-0.055594489 -0.30118117 0.058872446
-0.055765629 -0.30129319 0.058847629
-0.055932149 -0.30139434 0.058873583
-0.056103222 -0.30150688 0.058845304
-0.056270003 -0.30161017 0.058858566
-0.056438319 -0.3017244 0.058808386
-0.056605104 -0.30182841 0.058817036
-0.056775637 -0.30193973 0.058794528
-0.056942225 -0.30204287 0.058807783
-0.057100259 -0.30214646 0.058784172
-0.057259969 -0.30226576 0.058667123
-0.057421945 -0.30235478 0.058751911
-0.057612907 -0.30247208 0.058773167
-0.05774653 -0.30253518 0.058908805
-0.057891283 -0.30265594 0.0587226
-0.058072314 -0.30279636 0.058557041
-0.058278225 -0.30292222 0.058584005
-0.058452547 -0.30301648 0.0586849
-0.058612902 -0.30312172 0.05866012
-0.058764178 -0.30322573 0.058606543
-0.058936339 -0.3033326 0.058618635
-0.059102766 -0.30344653 0.058562689
-0.059287421 -0.30357075 0.058514759
-0.059452999 -0.30366513 0.058579929
-0.059619062 -0.30377847 0.0585263
-0.059787959 -0.30388838 0.058506101
-0.059953697 -0.30399537 0.058491684
-0.060119364 -0.30409884 0.058499187
-0.060285039 -0.30419907 0.058527447
-0.060429148 -0.30429384 0.058503874
-0.060606278 -0.30443779 0.058300264
-0.060783952 -0.30454579 0.058327328
-0.060949612 -0.30464041 0.05839134
-0.061091349 -0.30470899 0.058524646
-0.061283559 -0.30484632 0.058423635
-0.061442368 -0.30495292 0.058383867
-0.061598372 -0.30505192 0.058381017
-0.061780907 -0.30518115 0.05829272
-0.061936427 -0.30528384 0.058264509
-0.062105518 -0.30537844 0.058342349
-0.062279388 -0.30549183 0.058319829
-0.062443044 -0.30560839 0.058236212
-0.062607639 -0.30571485 0.058220647
-0.062774837 -0.30582619 0.058184315
-0.062940001 -0.30592701 0.058206804
-0.063082553 -0.30602351 0.058165945
-0.063257277 -0.3061271 0.058209166
-0.063424058 -0.3062391 0.05816707
-0.063599065 -0.30636159 0.058091491
-0.063758269 -0.30645698 0.058124382
-0.063932277 -0.30656466 0.05813878
-0.064092956 -0.30667064 0.058110539
-0.064240567 -0.30677289 0.058053501
-0.064427815 -0.30688256 0.058108225
-0.064591885 -0.30698779 0.058098424
-0.064755194 -0.30709612 0.058065563
-0.064913005 -0.30719775 0.058053486
-0.06507872 -0.30730981 0.058006763
-0.065229587 -0.3074103 0.057973947
-0.065411791 -0.30752605 0.057969853
-0.065571323 -0.30763328 0.057928935
-0.065732591 -0.30773401 0.057936445
-0.065904409 -0.30783558 0.057980832
-0.066048257 -0.30793417 0.057931893
-0.066222005 -0.30805293 0.057874769
-0.066377491 -0.30814853 0.057891533
-0.066540703 -0.30825409 0.057875972
-0.066727757 -0.30837601 0.057852257
-0.066889048 -0.30848655 0.05779748
-0.067044251 -0.30858269 0.057809636
-0.067194492 -0.30868205 0.057781432
-0.067363583 -0.30879098 0.057768162
-0.067526802 -0.30889547 0.057759516
-0.067679457 -0.30898839 0.057782058
-0.067857184 -0.30910385 0.057761826
-0.068008147 -0.30920076 0.05775208
-0.068177372 -0.30930889 0.057744574
-0.068334326 -0.30940959 0.057734799
-0.068525277 -0.30953813 0.057684533
-0.068674915 -0.30962914 0.05770709
-0.068841822 -0.30974159 0.057662677
-0.068994537 -0.30984232 0.05763562
-0.0691742 -0.30996066 0.057605013
-0.069325693 -0.31006336 0.057560652
-0.069496103 -0.31017584 0.057530079
-0.069674082 -0.31028184 0.057570983
-0.069826752 -0.31037477 0.057593517
-0.069979787 -0.31047428 0.057575684
-0.070152834 -0.31058896 0.057541639
-0.070333838 -0.31070414 0.057536401
-0.070496365 -0.31080839 0.057526603
-0.070658945 -0.31091246 0.057517968
-0.070810936 -0.3110131 0.057488598
-0.070956573 -0.31111029 0.0574558
-0.071114033 -0.31120896 0.057461023
-0.071285382 -0.31131893 0.057450049
-0.071440987 -0.31142026 0.057431057
-0.071594745 -0.31152403 0.057388999
-0.071777582 -0.3116422 0.057372209
-0.071936458 -0.31173885 0.057395883
-0.07209342 -0.31183809 0.057395335
-0.072257228 -0.31195167 0.057331331
-0.072423235 -0.31205085 0.057367668
-0.072585031 -0.3121497 0.057389017
-0.072750255 -0.31225565 0.057379216
-0.072897792 -0.31236601 0.057270288
-0.073044673 -0.31248212 0.057122145
-0.073241584 -0.31261009 0.057099544
-0.073410317 -0.31270102 0.057199299
-0.073567756 -0.31279421 0.05723913
-0.073741689 -0.31290075 0.057260435
-0.073893242 -0.31301057 0.057171099
-0.074044146 -0.31311071 0.057140585
-0.0742158 -0.31321454 0.057169981
-0.074379832 -0.31331629 0.057182092
-0.074543744 -0.31342301 0.05716192
-0.074710108 -0.31353694 0.057105977
-0.074871935 -0.313636 0.057126179
-0.075050935 -0.31375211 0.057107102
-0.075208627 -0.3138411 0.057174601
-0.075390413 -0.31397766 0.057036724
-0.07554543 -0.31407371 0.057048865
-0.07568296 -0.31416231 0.057038009
-0.075860165 -0.31427526 0.057031635
-0.076038644 -0.31439593 0.056981415
-0.076182142 -0.31448832 0.05697054
-0.076336659 -0.31458911 0.05695039
-0.076498404 -0.31469703 0.056914076
-0.076671414 -0.31480461 0.056925006
-0.076835819 -0.31491041 0.056912903
-0.077008069 -0.31502277 0.056890391
-0.077161252 -0.31510803 0.056963678
-0.077318236 -0.31520295 0.056990817
-0.077490523 -0.31530735 0.057019055
-0.077662639 -0.31540403 0.057095736
-0.077809282 -0.31552997 0.056884151
-0.077968493 -0.31562358 0.056928582
-0.078129932 -0.3157391 0.056842662
-0.078290164 -0.31584752 0.056797132
-0.07845749 -0.31595895 0.056760795
-0.078612305 -0.3160592 0.056745257
-0.078777708 -0.31616798 0.056718159
-0.078937687 -0.31627622 0.056672618
-0.079084158 -0.31637394 0.056639817
-0.079258889 -0.31647354 0.056708418
-0.079426236 -0.31657392 0.05674243
-0.07958965 -0.31668016 0.056723412
-0.079738632 -0.3167907 0.056619093
-0.079902768 -0.31689996 0.056583919
-0.080061942 -0.31700823 0.05653492
-0.080219299 -0.31711045 0.056517072
-0.080408752 -0.31721702 0.056600612
-0.080562845 -0.31731755 0.056580476
-0.080722988 -0.31742862 0.056517635
-0.08087448 -0.31752697 0.056500956
-0.081038855 -0.31763256 0.056490004
-0.081208184 -0.31773254 0.056534402
-0.081360094 -0.31784385 0.056436993
-0.081521265 -0.3179476 0.056424905
-0.081690393 -0.3180511 0.056446228
-0.081858955 -0.31816131 0.056422569
-0.082025521 -0.31826919 0.05640585
-0.082180709 -0.31836915 0.05639378
-0.082346834 -0.31847093 0.056413963
-0.082511656 -0.31857643 0.05640531
-0.082693025 -0.31868786 0.056425441
-0.082847379 -0.31879434 0.056368388
-0.083004028 -0.31889686 0.056345932
-0.083166532 -0.31900325 0.056322295
-0.083329655 -0.3191064 0.056321733
-0.083487578 -0.31920844 0.056307353
-0.083649889 -0.3193149 0.056282565
-0.083823837 -0.31940857 0.056385763
-0.083992325 -0.31952184 0.056342501
-0.084139012 -0.31962767 0.056258954
-0.084301896 -0.31973395 0.056237627
-0.084462807 -0.31984368 0.056186311
-0.084628932 -0.31994891 0.056184582
-0.084790602 -0.32004988 0.056192093
-0.0849583 -0.32015193 0.056216896
-0.085104078 -0.32026318 0.056095276
-0.085258819 -0.3203634 0.056079745
-0.085418686 -0.32047319 0.056023825
-0.085577831 -0.32057494 0.056016352
-0.085747108 -0.32067671 0.05604922
-0.08590734 -0.32078093 0.056030199
-0.086073689 -0.32088631 0.05602847
-0.086238697 -0.3209894 0.056035981
-0.086416282 -0.32109481 0.056079186
-0.086581782 -0.32120055 0.056071691
-0.086725168 -0.32130882 0.055959314
-0.086878709 -0.32141462 0.055903424
-0.087052912 -0.32152098 0.055927031
-0.087208115 -0.32162639 0.055880357
-0.087381184 -0.32173565 0.055880915
-0.087530263 -0.32184225 0.055801958
-0.087711915 -0.32194227 0.055895917
-0.087884784 -0.3220492 0.055910308
-0.088036202 -0.32215533 0.055844039
-0.088194132 -0.32226261 0.055796202
-0.08835464 -0.32236448 0.055793334
-0.088540822 -0.32247171 0.055859584
-0.088713892 -0.32258132 0.055857833
-0.088861316 -0.32268798 0.055771969
-0.088998333 -0.32278895 0.055680379
-0.089177467 -0.32289281 0.055739731
-0.089346364 -0.32299599 0.055762216
-0.089526132 -0.32310477 0.055792734
-0.089684524 -0.32321674 0.055717207
-0.089812055 -0.32332116 0.05556567
-0.089987256 -0.32342359 0.055618115
-0.090163305 -0.32352838 0.05565903
-0.090338908 -0.32362872 0.055726476
-0.090510502 -0.32373434 0.055744331
-0.090672404 -0.32385033 0.055657268
-0.090834305 -0.323948 0.05568669
-0.090997063 -0.32405928 0.055633068
-0.091173813 -0.32416451 0.055673979
-0.091340467 -0.32428658 0.055567287
-0.091480136 -0.32438889 0.055477992
-0.091616571 -0.32448697 0.055402543
-0.091801375 -0.32459602 0.055451497
-0.091976546 -0.32470608 0.055455506
-0.092133701 -0.32480454 0.055460721
-0.09229067 -0.32490963 0.055423275
-0.092434317 -0.32501352 0.055339728
-0.092603117 -0.32511336 0.055382974
-0.092787743 -0.32521868 0.055454999
-0.09295959 -0.32532501 0.055469394
-0.093128711 -0.32543793 0.055430744
-0.09329354 -0.32554689 0.055400185
-0.093461953 -0.32565776 0.055371918
-0.093618192 -0.32577342 0.055264112
-0.093767762 -0.32586637 0.055273965
-0.09393625 -0.32596892 0.055298764
-0.094105512 -0.32607362 0.05531317
-0.094275162 -0.32618451 0.055289514
-0.094420366 -0.32629013 0.055201352
-0.094585352 -0.32639301 0.055210002
-0.094749175 -0.32650006 0.05518752
-0.09492743 -0.32660881 0.055212274
-0.095082127 -0.32671008 0.055189822
-0.09525755 -0.326821 0.055189211
-0.095430523 -0.32693201 0.05517824
-0.095588967 -0.3270393 0.055132702
-0.095756054 -0.32713461 0.055197872
-0.095920511 -0.32725567 0.055088878
-0.096062846 -0.32734731 0.055078004
-0.096244387 -0.32745069 0.055150032
-0.096395575 -0.32756189 0.055050313
-0.096579731 -0.32767707 0.055057753
-0.096734531 -0.32777861 0.055034146
-0.09689799 -0.32788217 0.055032428
-0.097070836 -0.32799545 0.055006452
-0.097238109 -0.32810485 0.0549828
-0.09737996 -0.32819673 0.054968469
-0.097545236 -0.32830617 0.054936748
-0.097720705 -0.32841584 0.054944217
-0.097905189 -0.3285296 0.054962028
-0.09806224 -0.32863328 0.054933809
-0.098213397 -0.32874048 0.054859459
-0.098389082 -0.32884669 0.054889999
-0.098557636 -0.32895455 0.054881334
-0.098714516 -0.32905829 0.054851957
-0.098839268 -0.32915333 0.054748874
-0.099044219 -0.32927385 0.054805826
-0.099207431 -0.32937798 0.054799497
-0.099364772 -0.32948184 0.054771267
-0.099572182 -0.32960284 0.054835141
-0.099713519 -0.32970944 0.054725081
-0.099866338 -0.32980955 0.054702628
-0.10004176 -0.32991993 0.054705478
-0.10019222 -0.33001816 0.054685354
-0.10036658 -0.33012152 0.054728575
-0.10055466 -0.33024353 0.054708313
-0.10070024 -0.33034503 0.054647833
-0.10086897 -0.33044648 0.054680701
-0.10105794 -0.33056 0.054718107
-0.10120798 -0.33067229 0.054606855
-0.10137017 -0.33077341 0.05461552
-0.10155705 -0.33088869 0.054633323
-0.10173226 -0.3310082 0.054577358
-0.10188157 -0.33111006 0.054529544
-0.10203473 -0.33120546 0.054538243
-0.10220951 -0.33131307 0.054556087
-0.10236723 -0.33141917 0.054515176
-0.10254329 -0.33153379 0.0544938
-0.10271494 -0.33163959 0.054510504
-0.1028896 -0.33174914 0.054515667
-0.10302678 -0.33184823 0.054436758
-0.10322289 -0.33197007 0.054449923
-0.10338659 -0.33207032 0.054470107
-0.10355064 -0.33218223 0.05441764
-0.10371395 -0.33228913 0.054393999
-0.1038689 -0.33239183 0.054363482
-0.1040674 -0.33250776 0.054423925
-0.10419963 -0.3326079 0.054318495
-0.10436213 -0.33271319 0.054301791
-0.10451905 -0.33281624 0.054277025
-0.10468726 -0.33292714 0.054247607
-0.10487074 -0.3330448 0.054236583
-0.10506265 -0.33316198 0.054262448
-0.10524584 -0.33326858 0.054320637
-0.10540072 -0.33337796 0.054247431
-0.10557626 -0.33349004 0.05423991
-0.10573289 -0.33359489 0.054202452
-0.10587671 -0.33368856 0.054184653
-0.10601824 -0.33378822 0.054119565
-0.10623625 -0.33390486 0.054253757
-0.10639853 -0.33402473 0.054143623
-0.10656185 -0.33412603 0.054155745
-0.10672274 -0.33423012 0.054140195
-0.1068856 -0.33433762 0.054110795
-0.10706598 -0.33445552 0.054085948
-0.10723348 -0.33456379 0.054070372
-0.1074032 -0.33467093 0.054070935
-0.10754703 -0.33477262 0.054002389
-0.10772293 -0.33488384 0.054001775
-0.10793363 -0.33501127 0.054037951
-0.10808872 -0.33511478 0.05400281
-0.10825075 -0.33522397 0.053959571
-0.10842057 -0.33533445 0.05393938
-0.10859366 -0.33544099 0.053957231
-0.10876556 -0.33555043 0.05395202
-0.10893477 -0.33566543 0.053900678
-0.10908426 -0.33576667 0.053857483
-0.10925931 -0.33587083 0.053898402
-0.10940357 -0.33597568 0.05381139
-0.10962538 -0.33610141 0.053902894
-0.10977925 -0.33620653 0.053852767
-0.10995889 -0.33632502 0.053821005
-0.11013331 -0.33643678 0.053811166
-0.11031388 -0.33654824 0.053827841
-0.11047484 -0.3366591 0.053769615
-0.11063746 -0.33676448 0.053752899
-0.11080713 -0.33686689 0.053783454
-0.11096947 -0.33697951 0.053719454
-0.11114135 -0.33708823 0.053718854
-0.11133121 -0.33720902 0.05371359
-0.11148401 -0.33731416 0.053658843
-0.11166577 -0.33742493 0.053684745
-0.11182726 -0.33753467 0.053635739
-0.11199102 -0.33764204 0.053610947
-0.11217502 -0.33775911 0.053605694
