# .PCD v0.7 - Point Cloud Data file format
VERSION 0.7
FIELDS x y z
SIZE 4 4 4
TYPE F F F
COUNT 1 1 1
WIDTH 1305
HEIGHT 1
VIEWPOINT 0 0 0 1 0 0 0
POINTS 1305
DATA ascii
-0.35610497 -0.25218263 0.054412629
-0.35629246 -0.25216818 0.054349642
-0.35650301 -0.25214195 0.05435228
-0.35670891 -0.25211817 0.054341104
-0.24909599 -0.26417044 0.062926963
-0.2493415 -0.26414809 0.062869504
-0.24957848 -0.2641238 0.062833987
-0.24979587 -0.26409486 0.062850438
-0.25002632 -0.26406917 0.062831096
-0.25026032 -0.26404446 0.062801361
-0.25120059 -0.26394781 0.062662788
-0.2514098 -0.26391736 0.062697724
-0.25163841 -0.26389191 0.062678389
-0.25185561 -0.26386362 0.062690228
-0.25211501 -0.26384631 0.062583134
-0.25233296 -0.26381838 0.062591515
-0.25254625 -0.26378933 0.062612593
-0.25276911 -0.26376286 0.062605962
-0.2529473 -0.26372463 0.062726334
-0.25322479 -0.26371118 0.062574208
-0.25345063 -0.26368576 0.062557183
-0.2536906 -0.26366425 0.062498599
-0.25391391 -0.26363835 0.062487349
-0.25414968 -0.26361594 0.062439166
-0.25435668 -0.26358575 0.062474102
-0.25458211 -0.26356068 0.062454779
-0.25482172 -0.26353967 0.062392734
-0.25502673 -0.26350912 0.062432289
-0.25525299 -0.2634846 0.062408354
-0.2554566 -0.26345375 0.062451374
-0.25570285 -0.26343507 0.06236624
-0.25591648 -0.2634072 0.062378101
-0.25615057 -0.2633853 0.062327601
-0.2563796 -0.26336044 0.062303647
-0.25658891 -0.26333153 0.06232705
-0.25682402 -0.26331031 0.06227079
-0.25703299 -0.26328146 0.062294196
-0.2572962 -0.26326713 0.062161718
-0.25752029 -0.26324299 0.062136628
-0.25774008 -0.26321769 0.062124245
-0.25795561 -0.26319116 0.062124565
-0.25816947 -0.26316249 0.062142182
-0.25838616 -0.26313648 0.062137879
-0.25861862 -0.26311541 0.062082779
-0.25883415 -0.26308921 0.062080786
-0.259038 -0.26305768 0.062128425
-0.25923514 -0.26303452 0.062120743
-0.25949293 -0.26301146 0.062057473
-0.25972193 -0.26298985 0.062009305
-0.25993967 -0.26296479 0.061996929
-0.26017058 -0.26294407 0.061940677
-0.26038098 -0.26291505 0.06196408
-0.26059672 -0.26288959 0.06195632
-0.26082301 -0.26286772 0.061912782
-0.26103801 -0.26284221 0.061906174
-0.2612516 -0.26281452 0.061916877
-0.26146728 -0.2627894 0.061906822
-0.26168194 -0.26276219 0.061912898
-0.2619257 -0.26274678 0.061805867
-0.26212308 -0.26271388 0.061869673
-0.26233062 -0.26268631 0.061885007
-0.26255608 -0.262665 0.061838016
-0.2627829 -0.26264429 0.06178524
-0.26299053 -0.26261514 0.06181211
-0.26320767 -0.26259124 0.061791658
-0.26343638 -0.2625697 0.06174349
-0.26366737 -0.26255101 0.061672255
-0.26387537 -0.26252228 0.061695665
-0.26409516 -0.26249978 0.061662525
-0.26429066 -0.26246852 0.061715961
-0.26449096 -0.26243901 0.061752077
-0.26474497 -0.26242751 0.061606959
-0.26494998 -0.26239994 0.061624613
-0.26516852 -0.26237556 0.061606467
-0.26539204 -0.26235512 0.061554853
-0.26558122 -0.26231974 0.061644062
-0.2658152 -0.2623035 0.061552055
-0.26603174 -0.26227874 0.061538532
-0.26623258 -0.26224995 0.061568893
-0.26646808 -0.26223478 0.061467648
-0.2666744 -0.26220828 0.061476074
-0.26688868 -0.26218301 0.061468318
-0.26711181 -0.2621634 0.061410952
-0.2673263 -0.26213843 0.061400898
-0.26754713 -0.26211816 0.061350457
-0.26775151 -0.26208925 0.061378486
-0.26795989 -0.26206407 0.06137538
-0.2681638 -0.26203504 0.061404563
-0.26836556 -0.26200724 0.061426837
-0.26858458 -0.26198673 0.061379861
-0.26881567 -0.26197147 0.061283257
-0.26903105 -0.26194763 0.061263971
-0.26921946 -0.2619144 0.061338194
-0.26944181 -0.26189584 0.061273903
-0.26967579 -0.26188037 0.061176136
-0.26986831 -0.26185119 0.061216902
-0.2700457 -0.26182181 0.061272711
-0.27027237 -0.26179266 0.06128221
-0.27049467 -0.26177472 0.061213311
-0.27070302 -0.26174846 0.061218265
-0.27092072 -0.26172873 0.061166681
-0.2711339 -0.26170483 0.061149713
-0.27136049 -0.26168951 0.061057739
-0.27155593 -0.26165763 0.061115783
-0.2717841 -0.26164332 0.061014585
-0.27198008 -0.26161402 0.061053023
-0.27218556 -0.26159611 0.060999189
-0.27238017 -0.26155713 0.061110273
-0.2726045 -0.26154158 0.061021764
-0.2728135 -0.26151648 0.061017502
-0.27301452 -0.26148987 0.061031707
-0.27323753 -0.26147419 0.060945507
-0.27344403 -0.2614505 0.06093318
-0.27365646 -0.26142749 0.060910441
-0.27385423 -0.26139954 0.060937352
-0.27407277 -0.26137987 0.06088461
-0.27427968 -0.26135674 0.06086766
-0.27448827 -0.26133218 0.06085993
-0.27469659 -0.26130998 0.060834911
-0.27486762 -0.26129267 0.06080772
-0.27507997 -0.2612581 0.06087032
-0.27531359 -0.26123735 0.060811751
-0.27550992 -0.2612091 0.060842119
-0.27573115 -0.2611919 0.060768619
-0.27593058 -0.26116547 0.060782835
-0.2761302 -0.26113918 0.060795896
-0.27635461 -0.26112679 0.060684323
-0.27655971 -0.26110122 0.060686983
-0.27675849 -0.26107472 0.060702357
-0.27696195 -0.26105094 0.060693499
-0.27717894 -0.26103505 0.060614243
-0.27737713 -0.26100579 0.060650371
-0.27758127 -0.26098269 0.060635742
-0.27778006 -0.26095384 0.060668405
-0.27799228 -0.26093572 0.060609933
-0.27818492 -0.26091138 0.060614944
-0.27841869 -0.26090392 0.06045837
-0.27860689 -0.26086619 0.06056603
-0.27881092 -0.26084358 0.06054794
-0.27901918 -0.26082376 0.060505621
-0.27921203 -0.26079437 0.060547531
-0.27940968 -0.26076519 0.060583659
-0.2796315 -0.26075435 0.060462885
-0.27983215 -0.26073012 0.060459796
-0.28004321 -0.26071277 0.060396709
-0.28024831 -0.26068878 0.060387835
-0.28043473 -0.26065829 0.06044361
-0.28061634 -0.26064798 0.060355276
-0.28082725 -0.26061937 0.060375206
-0.28105411 -0.26059571 0.06034435
-0.28123686 -0.26057476 0.060333259
-0.28145042 -0.26053908 0.060402766
-0.28162107 -0.26052496 0.060352519
-0.28184322 -0.2604984 0.060347043
-0.28207001 -0.26048148 0.060266599
-0.28226027 -0.26044771 0.060343117
-0.28247264 -0.26043317 0.060258117
-0.28267562 -0.26041195 0.06023081
-0.28287002 -0.26039085 0.060210444
-0.28307551 -0.26036209 0.060236171
-0.28327766 -0.26034379 0.060188107
-0.28346416 -0.26032022 0.060193144
-0.28367892 -0.26029551 0.060180783
-0.28387907 -0.26027274 0.06016732
-0.28407612 -0.26025099 0.06014926
-0.28428727 -0.26023051 0.060109235
-0.28448477 -0.26021275 0.060061187
-0.28466493 -0.26019135 0.060055874
-0.28487563 -0.26016402 0.060066588
-0.28508857 -0.2601386 0.060061149
-0.2852833 -0.26011556 0.06005463
-0.28548369 -0.26009387 0.060033087
-0.28569603 -0.26007542 0.059976913
-0.28586757 -0.26005429 0.059977405
-0.28606233 -0.26003534 0.059940904
-0.28627479 -0.26001012 0.059934311
-0.28648046 -0.25998262 0.05995081
-0.28666663 -0.25996 0.059948929
-0.28687876 -0.25994235 0.059886988
-0.28707457 -0.25992122 0.059865467
-0.28726488 -0.25990674 0.059800159
-0.28745922 -0.2598767 0.059845526
-0.28766724 -0.25985187 0.059840105
-0.28786662 -0.25982672 0.059845097
-0.28808415 -0.25980338 0.059820041
-0.28828728 -0.25978622 0.059762746
-0.28846037 -0.25975534 0.059833571
-0.28866962 -0.25974056 0.059753187
-0.28889269 -0.2597194 0.059707351
-0.28909034 -0.25969726 0.059691593
-0.28928888 -0.25967187 0.059698887
-0.28949389 -0.25965792 0.059616223
-0.28968656 -0.25963074 0.059641998
-0.2898863 -0.25961587 0.059570882
-0.29006252 -0.25958836 0.059614018
-0.29028296 -0.25956094 0.059616622
-0.29048342 -0.25954285 0.059568562
-0.29067725 -0.25951725 0.059581645
-0.29086682 -0.25948656 0.059636258
-0.29106891 -0.25946608 0.059604336
-0.29124138 -0.25943869 0.059649792
-0.29142922 -0.25943029 0.059541821
-0.29166502 -0.25940788 0.059493639
-0.29183769 -0.25939098 0.059461825
-0.29203153 -0.25937605 0.059396502
-0.29221019 -0.25934151 0.059489205
-0.29245818 -0.25932044 0.059420206
-0.29265746 -0.25930294 0.059368696
-0.2928535 -0.25928664 0.059311438
-0.29304236 -0.25926057 0.059332609
-0.29324532 -0.25923228 0.059357189
-0.29343382 -0.25921127 0.059341464
-0.29360151 -0.25919423 0.05931545
-0.29379228 -0.25916526 0.059356213
-0.29400721 -0.25914335 0.059323091
-0.29417858 -0.25912631 0.059293605
-0.29437611 -0.25910184 0.059295136
-0.29462162 -0.25907993 0.059234224
-0.29480594 -0.25905943 0.059218522
-0.29499432 -0.25903296 0.05924315
-0.29517636 -0.25901523 0.059209004
-0.29537219 -0.25900161 0.059132144
-0.29560918 -0.25897309 0.05912777
-0.29578537 -0.2589387 0.059221625
-0.29594603 -0.25892454 0.059180651
-0.29614317 -0.25889307 0.059234072
-0.29638228 -0.25886869 0.059197396
-0.29657882 -0.25885075 0.059151664
-0.29676586 -0.25883695 0.059084058
-0.29694462 -0.25882214 0.059031472
-0.29716146 -0.25878435 0.059113652
-0.29734808 -0.25876245 0.059106015
-0.29752216 -0.25875449 0.059007324
-0.29771534 -0.25873086 0.059006564
-0.2979323 -0.25870997 0.058964215
-0.2981346 -0.25868145 0.058991104
-0.29830223 -0.25865987 0.058998521
-0.29852667 -0.2586396 0.058944605
-0.29873547 -0.25861815 0.058913816
-0.29892603 -0.25858843 0.058960356
-0.29910302 -0.25856209 0.058994263
-0.29927096 -0.25855172 0.058918655
-0.29947063 -0.25852636 0.058924802
-0.29966113 -0.2585068 0.058896385
-0.29986233 -0.25848612 0.058866773
-0.30007714 -0.25846204 0.058849789
-0.30028096 -0.25843853 0.058838625
-0.30047593 -0.2584103 0.058870152
-0.30063555 -0.25840017 0.05880034
-0.30084515 -0.25837156 0.058821436
-0.30104592 -0.25835106 0.05879068
-0.30123273 -0.25833386 0.058748446
-0.30142671 -0.2583164 0.058701564
-0.30162218 -0.25829047 0.058715798
-0.30180359 -0.25826687 0.058725473
-0.30198684 -0.25825182 0.058670558
-0.30217716 -0.25821882 0.058741309
-0.30239156 -0.25819573 0.058717415
-0.30259931 -0.25817674 0.058669336
-0.30277461 -0.25816 0.058634054
-0.30296329 -0.25813708 0.058632173
-0.30314264 -0.25812408 0.058565751
-0.30336326 -0.25809741 0.058562592
-0.30354434 -0.25807276 0.058580335
-0.30373994 -0.25804821 0.058584183
-0.30392894 -0.25802884 0.058555774
-0.30412897 -0.25801235 0.058496192
-0.30433604 -0.25799567 0.058431961
-0.3045308 -0.25796402 0.058488861
-0.30471188 -0.25793874 0.058511224
-0.30491412 -0.2579079 0.058555406
-0.30508861 -0.25789014 0.058528207
-0.30528128 -0.25788006 0.058428295
-0.30547324 -0.2578586 0.058412556
-0.30566871 -0.25783658 0.058397956
-0.30586061 -0.25781515 0.058382228
-0.30606315 -0.25779507 0.058346845
-0.30625492 -0.25777224 0.058341481
-0.30646801 -0.25774586 0.05834296
-0.3066456 -0.25772321 0.058349192
-0.30683345 -0.257714 0.058246993
-0.30702493 -0.25769624 0.058204737
-0.3072134 -0.25766426 0.058269728
-0.3074156 -0.25764203 0.058250491
-0.3076005 -0.25761488 0.05828321
-0.30778834 -0.25759646 0.058249038
-0.30798656 -0.25757879 0.058199838
-0.3081823 -0.25754905 0.05824174
-0.30835795 -0.25751129 0.058360983
-0.30854219 -0.25752461 0.058096208
-0.30874741 -0.25750375 0.058064282
-0.30895412 -0.25747079 0.058119982
-0.30913559 -0.25744483 0.05814695
-0.30932975 -0.25742781 0.058096606
-0.30952165 -0.2574023 0.058110848
-0.30972672 -0.25738162 0.058077771
-0.30990401 -0.2573604 0.058073621
-0.31009763 -0.25734472 0.058014058
-0.31027842 -0.25732306 0.0580099
-0.31048715 -0.25730005 0.057990633
-0.31065536 -0.25728887 0.057920799
-0.31087056 -0.25725174 0.057999525
-0.31106192 -0.25722927 0.057991866
-0.31123608 -0.25720671 0.058000412
-0.31142589 -0.25719041 0.05794894
-0.31162122 -0.25716573 0.057953939
-0.31181046 -0.25715104 0.057890944
-0.31199998 -0.25713491 0.057838313
-0.31219542 -0.25710958 0.057847928
-0.31239998 -0.25707674 0.057904787
-0.31258669 -0.25706941 0.057789914
-0.31278649 -0.25705218 0.057736091
-0.31298289 -0.25702393 0.057766456
-0.31313795 -0.25700778 0.057745103
-0.31333223 -0.25696617 0.057875805
-0.3135418 -0.25694993 0.057805795
-0.31375641 -0.25692871 0.057768065
-0.31395578 -0.25690261 0.057779975
-0.31414378 -0.25687993 0.057776939
-0.31431943 -0.25686297 0.057742815
-0.31451675 -0.25684229 0.057716683
-0.31467661 -0.25682241 0.05771837
-0.31487396 -0.25680986 0.057632271
-0.31505966 -0.25679249 0.05759234
-0.31524771 -0.25676948 0.05759161
-0.31544331 -0.25673693 0.057654276
-0.31564397 -0.25670096 0.057737671
-0.31584495 -0.25668705 0.057658471
-0.3160297 -0.25667167 0.057604712
-0.31620201 -0.25664681 0.057631716
-0.31641984 -0.25663191 0.057544392
-0.31661257 -0.25661337 0.05750674
-0.31679615 -0.25658619 0.057540625
-0.31700206 -0.25656134 0.057537515
-0.31719619 -0.25653994 0.057519462
-0.31739771 -0.25651717 0.057504844
-0.3175666 -0.25649324 0.057528406
-0.31772962 -0.2564927 0.057384782
-0.31794736 -0.25645825 0.0574416
-0.31814623 -0.25644019 0.057394695
-0.31831795 -0.25642326 0.057364047
-0.31850228 -0.2563957 0.05740023
-0.31869933 -0.25636926 0.057416767
-0.31887823 -0.25636259 0.057304215
-0.31906942 -0.25634044 0.05729425
-0.31925243 -0.25632635 0.057232428
-0.31943339 -0.2563155 0.057148695
-0.3196398 -0.25627929 0.057228617
-0.3198294 -0.25625971 0.057201356
-0.32002917 -0.25622931 0.057244398
-0.32023531 -0.25619942 0.057278182
-0.32041368 -0.25618714 0.057207156
-0.3206062 -0.25615829 0.057245612
-0.3207832 -0.25614792 0.057161905
-0.32097697 -0.25612217 0.057176135
-0.32116967 -0.25609812 0.057178847
-0.32135695 -0.25608197 0.057128534
-0.3215479 -0.25606048 0.05711396
-0.32174951 -0.25602862 0.057166215
-0.32193068 -0.25602087 0.057059433
-0.32211241 -0.2560032 0.057025284
-0.32229811 -0.25598001 0.057028018
-0.32249975 -0.25594422 0.057109106
-0.32269505 -0.25592583 0.057067987
-0.32287279 -0.25592193 0.056935847
-0.32306209 -0.25589001 0.056999676
-0.32326072 -0.25585884 0.057049643
-0.32346421 -0.25582582 0.057108816
-0.3236638 -0.25580204 0.057103422
-0.32384917 -0.25579202 0.057009306
-0.32403046 -0.25577894 0.056941725
-0.32421193 -0.25576943 0.056847617
-0.32441053 -0.25574672 0.05683532
-0.32460463 -0.25572172 0.056843784
-0.3248055 -0.2556926 0.056876447
-0.32497725 -0.25568664 0.056765076
-0.3251549 -0.25568104 0.056645621
-0.32535127 -0.25564605 0.056725573
-0.32556263 -0.25560519 0.056835454
-0.32578069 -0.25556067 0.056966051
-0.32598037 -0.25554454 0.056904163
-0.32616121 -0.2555351 0.056810059
-0.32635754 -0.25551891 0.056751639
-0.32655227 -0.25550088 0.056708224
-0.32673249 -0.25548136 0.056689065
-0.3269296 -0.25546759 0.056612201
-0.32710618 -0.25544849 0.05659306
-0.32730302 -0.255418 0.056639574
-0.32750946 -0.25537756 0.056750625
-0.32770395 -0.25535661 0.056729108
-0.32789931 -0.25533801 0.056689147
-0.32806942 -0.25533241 0.056576632
-0.32826871 -0.25530648 0.056587394
-0.32845828 -0.25528407 0.056580894
-0.32865015 -0.25525621 0.056612436
-0.32883793 -0.25523889 0.056570187
-0.32902786 -0.25522256 0.056518711
-0.32921836 -0.2551994 0.056516826
-0.32943022 -0.25517082 0.056535602
-0.3296288 -0.2551522 0.05649332
-0.32983097 -0.25513309 0.056451019
-0.33000186 -0.25511986 0.056393858
-0.33020058 -0.25508618 0.056462266
-0.3303878 -0.25506938 0.056416571
-0.33059704 -0.25503784 0.056459576
-0.33076772 -0.25503355 0.056336686
-0.33093855 -0.25502315 0.05625876
-0.33116108 -0.25497106 0.05644124
-0.33138567 -0.25492322 0.056590267
-0.3315863 -0.25490871 0.05651569
-0.33176246 -0.25490487 0.056384705
-0.33197212 -0.25488484 0.056342378
-0.33212638 -0.25488353 0.056212638
-0.33232617 -0.25485563 0.056237228
-0.33253491 -0.25482824 0.056250248
-0.33272362 -0.2548075 0.056232218
-0.33291426 -0.25478247 0.056244165
-0.33310139 -0.25476584 0.056197308
-0.3333016 -0.25474072 0.056201149
-0.33349323 -0.25472292 0.056158893
-0.33368734 -0.25470045 0.056148916
-0.33388302 -0.25467148 0.056185052
-0.33407837 -0.2546584 0.056104727
-0.33427089 -0.2546297 0.056142032
-0.33445409 -0.25461638 0.056074437
-0.33465391 -0.25458694 0.056110565
-0.33486414 -0.2545642 0.056087833
-0.33506745 -0.25453714 0.056103185
-0.33523566 -0.25453582 0.0559607
-0.33543229 -0.25450677 0.055996843
-0.33563921 -0.25447455 0.056046773
-0.33583251 -0.25445813 0.055992976
-0.33602175 -0.25443998 0.055955343
-0.33620119 -0.25442713 0.05588777
-0.33640078 -0.25440335 0.055882376
-0.33659053 -0.25438249 0.055864349
-0.33678907 -0.25435725 0.055870492
-0.33699387 -0.25432736 0.055905439
-0.33718875 -0.25430745 0.055875856
-0.33738837 -0.25428396 0.055868164
-0.33759174 -0.25426003 0.055860445
-0.33779517 -0.25423154 0.055886183
-0.33800384 -0.25420383 0.055901513
-0.33819035 -0.25418806 0.055848897
-0.33841425 -0.25415379 0.055898767
-0.33859485 -0.25414017 0.055835798
-0.3387953 -0.25412318 0.055779673
-0.33894652 -0.2541219 0.055652242
-0.33916461 -0.25407892 0.055771317
-0.33932221 -0.25408176 0.055608116
-0.33955833 -0.25404143 0.055691373
-0.33973509 -0.25403047 0.055612277
-0.33993897 -0.25399816 0.055665679
-0.34015962 -0.25396493 0.055710945
-0.340334 -0.25395566 0.055621482
-0.34055457 -0.25392899 0.055618312
-0.34073529 -0.25391313 0.055571496
-0.34093863 -0.25388592 0.055587996
-0.34112939 -0.25386947 0.05553652
-0.34133363 -0.25384593 0.055525351
-0.34150991 -0.25382906 0.055490065
-0.34172449 -0.25379655 0.055535357
-0.34192169 -0.25378606 0.055434275
-0.34212798 -0.25376129 0.055430017
-0.34231779 -0.25372946 0.055492692
-0.34253329 -0.25369278 0.055567957
-0.34270063 -0.25369203 0.055422019
-0.34289104 -0.25367203 0.055397063
-0.34312639 -0.25363058 0.055489548
-0.34331027 -0.25361496 0.055438101
-0.3435187 -0.25359324 0.055409621
-0.34370512 -0.25357795 0.055353545
-0.3439025 -0.25356337 0.055282436
-0.34411824 -0.25352353 0.055380762
-0.34429851 -0.25351414 0.055286668
-0.34449077 -0.25349331 0.05526631
-0.34470212 -0.25345853 0.055331219
-0.34490213 -0.25343859 0.055297006
-0.34512457 -0.25340843 0.055318046
-0.34530768 -0.25338978 0.05528966
-0.34552053 -0.25336015 0.055315349
-0.34569204 -0.25335249 0.05521667
-0.34588879 -0.25332922 0.05521014
-0.34610733 -0.25329262 0.055281933
-0.34629944 -0.25327602 0.055230454
-0.34650734 -0.25324431 0.055275772
-0.34673449 -0.253212 0.055308327
-0.34692389 -0.25318992 0.05529952
-0.34710637 -0.25318468 0.055173129
-0.34729332 -0.25316948 0.055115901
-0.34748504 -0.25315323 0.055062111
-0.34763092 -0.2531589 0.05488858
-0.34786689 -0.25311813 0.054975297
-0.34809628 -0.25308147 0.055037823
-0.34827352 -0.25306857 0.054972567
-0.34845915 -0.25305071 0.054936096
-0.34867454 -0.25301903 0.054974467
-0.34887955 -0.25299349 0.054977126
-0.34908271 -0.25296912 0.05497288
-0.34927425 -0.2529532 0.05491678
-0.34947971 -0.2529276 0.05491944
-0.34966993 -0.25291249 0.054858748
-0.34986794 -0.25289124 0.054836072
-0.35006279 -0.25287351 0.054790344
-0.35027438 -0.25284466 0.054811429
-0.35048231 -0.25281799 0.054819845
-0.35069969 -0.25278607 0.0548582
-0.35089213 -0.25276989 0.054803256
-0.35109231 -0.25274777 0.054785185
-0.35129368 -0.25272501 0.054770567
-0.35151005 -0.25269401 0.054803159
-0.35170025 -0.2526792 0.054740161
-0.35191005 -0.25265199 0.054750867
-0.35209665 -0.25263917 0.054676346
-0.35230675 -0.25261191 0.054687064
-0.35251039 -0.25258827 0.054677047
-0.35271528 -0.25256398 0.054670483
-0.35293242 -0.25253478 0.054689243
-0.35310596 -0.25252593 0.054597475
-0.35331541 -0.25249937 0.054603577
-0.35353303 -0.25246853 0.054633863
-0.35372347 -0.25245541 0.05455818
-0.35394186 -0.2524243 0.054589611
-0.35412124 -0.25241551 0.054492049
-0.35434389 -0.25238234 0.054535013
-0.35454351 -0.25236136 0.054508865
-0.35474402 -0.25233999 0.054485019
-0.35494584 -0.25231797 0.054464631
-0.35514492 -0.25229892 0.054424655
-0.35537851 -0.25226206 0.054484863
-0.35558197 -0.25223938 0.054467928
-0.35578707 -0.25221741 0.054444067
-0.35599083 -0.2521947 0.054427132
-0.356199 -0.25217128 0.054411329
-0.35640144 -0.25214934 0.05438979
-0.35660601 -0.25212634 0.054374002
-0.35681194 -0.25210273 0.054361675
-0.24871092 -0.26421019 0.06298247
-0.24895191 -0.26418653 0.062938832
-0.24920681 -0.26416633 0.062857084
-0.24945956 -0.26414573 0.062779956
-0.24968441 -0.26411855 0.062776752
-0.2498865 -0.26408744 0.062823229
-0.25014311 -0.26406515 0.062755309
-0.25035667 -0.2640354 0.062780984
-0.25058657 -0.2640098 0.062761612
-0.2508238 -0.26398611 0.062721446
-0.25103807 -0.26395679 0.062743664
-0.25129727 -0.26393887 0.062641129
-0.25155181 -0.26391995 0.062550157
-0.25172558 -0.26388055 0.06268324
-0.25197583 -0.26386073 0.062602662
-0.25216895 -0.26382631 0.062681466
-0.25243041 -0.26380968 0.062567398
-0.25263473 -0.2637783 0.062613875
-0.25285482 -0.26375106 0.06261529
-0.25306705 -0.26372182 0.06263867
-0.25330368 -0.26369914 0.062591583
-0.25353837 -0.26367608 0.062549129
-0.25376201 -0.26365015 0.062537849
-0.25398579 -0.26362434 0.062525436
-0.25421292 -0.26359954 0.062502615
-0.25442246 -0.26357001 0.062530607
-0.2546626 -0.26354736 0.062480055
-0.25488314 -0.26352102 0.062474553
-0.255135 -0.26350355 0.062375516
-0.25533873 -0.26347268 0.06241852
-0.25556129 -0.2634472 0.062404945
-0.2557829 -0.26342151 0.062393688
-0.25598592 -0.26339057 0.062437855
-0.25619802 -0.26336226 0.062454306
-0.25646606 -0.26335034 0.06229984
-0.25669992 -0.26332861 0.062248155
-0.25690791 -0.26329944 0.062275007
-0.25714496 -0.2632789 0.062211782
-0.25736296 -0.26325113 0.062218975
-0.25758791 -0.26322722 0.062191561
-0.25778791 -0.26319587 0.062241502
-0.2580187 -0.26317394 0.062194444
-0.2582697 -0.26315826 0.062082723
-0.25847504 -0.26312876 0.062114194
-0.2586984 -0.26310319 0.062100615
-0.25890464 -0.26307404 0.062128626
-0.25912941 -0.26305079 0.062096585
-0.25935394 -0.26302755 0.062064551
-0.25958464 -0.26300639 0.062011726
-0.25979835 -0.26297995 0.062013183
-0.26000741 -0.2629503 0.062042337
-0.26025137 -0.26293379 0.061943319
-0.2604509 -0.26290298 0.061989814
-0.26067716 -0.26288095 0.061947387
-0.26089805 -0.2628555 0.06193497
-0.26110381 -0.26282689 0.061959516
-0.26131189 -0.26279908 0.061975986
-0.26153997 -0.26277807 0.061924327
-0.26176152 -0.26275319 0.061907299
-0.26196402 -0.26272371 0.061941084
-0.26217759 -0.26269808 0.061936773
-0.26239166 -0.26267269 0.06193015
-0.26263976 -0.26265737 0.061818436
-0.26280391 -0.26263699 0.061820097
-0.26306343 -0.26260558 0.061816745
-0.26328719 -0.262584 0.061773174
-0.26351422 -0.26256186 0.061730757
-0.26372313 -0.26253524 0.061737984
-0.2639426 -0.26251248 0.061707124
-0.2641589 -0.26248866 0.061686657
-0.26436707 -0.26246008 0.06170889
-0.26457572 -0.26243362 0.06171497
-0.26480705 -0.26241568 0.061637927
-0.26502225 -0.26239187 0.061618619
-0.26523802 -0.26236641 0.061610825
-0.26544598 -0.26234004 0.061616924
-0.26567215 -0.2623207 0.061554886
-0.26586741 -0.26228961 0.061607167
-0.26608992 -0.26226711 0.061571669
-0.26630831 -0.26224509 0.0615362
-0.26652241 -0.26221955 0.061530728
-0.26672372 -0.262191 0.061558753
-0.26695237 -0.26217338 0.061481722
-0.26717019 -0.2621516 0.061445106
-0.26736632 -0.26211914 0.061506599
-0.26759237 -0.26210091 0.061436497
-0.26779515 -0.26207328 0.061456446
-0.26801804 -0.26205403 0.061396733
-0.26823285 -0.26202947 0.061383188
-0.26842654 -0.26199827 0.061437771
-0.26865405 -0.26197922 0.061372273
-0.26884761 -0.26194802 0.061426856
-0.26907369 -0.26193073 0.061349835
-0.26929232 -0.26191041 0.061301678
-0.26949427 -0.26188087 0.061336622
-0.26971558 -0.26186195 0.061275762
-0.26992297 -0.26183704 0.061271477
-0.27012551 -0.26181009 0.061286811
-0.27034006 -0.26178637 0.061267503
-0.27056181 -0.26176816 0.061200872
-0.27076641 -0.26174018 0.061221968
-0.27099904 -0.26172721 0.061106864
-0.27119359 -0.26169702 0.061153371
-0.27140766 -0.26167583 0.0611156
-0.27162558 -0.26165438 0.061076678
-0.27181834 -0.26162344 0.061130106
-0.27205554 -0.26161355 0.060988456
-0.27221578 -0.26158315 0.061067399
-0.27241182 -0.26156074 0.061055075
-0.2726135 -0.26153654 0.06105081
-0.27283785 -0.26151192 0.061029155
-0.27304012 -0.26149282 0.060986824
-0.27325395 -0.26146558 0.060994048
-0.27346617 -0.26144227 0.060973588
-0.27367598 -0.2614179 0.060963526
-0.27387783 -0.26139429 0.060954645
-0.27407402 -0.26137266 0.060936563
-0.27430582 -0.26135024 0.0608918
-0.27450168 -0.26133353 0.060837977
-0.27468583 -0.26129863 0.060928345
-0.27492648 -0.26128125 0.060838576
-0.27515262 -0.26125392 0.060835361
-0.27532667 -0.26123342 0.060828906
-0.27555165 -0.26121059 0.060793411
-0.27578226 -0.26118851 0.060747508
-0.27598578 -0.26115671 0.060797431
-0.27615619 -0.26113448 0.060807135
-0.27638349 -0.26112109 0.060700119
-0.27658087 -0.2610808 0.060818121
-0.27679157 -0.26106352 0.060755007
-0.27697933 -0.26104102 0.060750797
-0.27718621 -0.26102182 0.060704987
-0.27741119 -0.26100278 0.060641803
-0.27759123 -0.26097339 0.060695298
-0.27777129 -0.26094666 0.060729168
-0.2780298 -0.2609373 0.060564369
-0.27822387 -0.2609084 0.060601652
-0.27843595 -0.26089859 0.060482018
-0.27863014 -0.26086718 0.060537748
-0.27881646 -0.26083359 0.060616583
-0.279024 -0.26081041 0.060599603
-0.27925289 -0.26078397 0.060587153
-0.27945048 -0.26076591 0.060541384
-0.27967033 -0.26074529 0.060494374
-0.279845 -0.26071846 0.060534045
-0.2800746 -0.26069868 0.060471993
-0.28027356 -0.2606734 0.060478128
-0.28052565 -0.26066607 0.06030412
-0.28068176 -0.26064464 0.060320798
-0.28089032 -0.26060551 0.060420301
-0.28112331 -0.26058593 0.060353626
-0.28133023 -0.26056361 0.06033089
-0.28153127 -0.2605373 0.060342774
-0.28172591 -0.26051569 0.060325846
-0.28190389 -0.26049769 0.060297452
-0.28212795 -0.2604695 0.060302325
-0.28232169 -0.26045066 0.060265794
-0.28252324 -0.26042822 0.060248841
-0.28271979 -0.26041171 0.060192704
-0.28290719 -0.26038533 0.060217328
-0.28314435 -0.26035461 0.060229063
-0.28332037 -0.26033261 0.06023182
-0.28355742 -0.26030847 0.060195118
-0.28376153 -0.26028869 0.060156241
-0.28395662 -0.26025856 0.060201593
-0.28415588 -0.26023513 0.060193874
-0.28437668 -0.26022568 0.060063813
-0.28458199 -0.26020747 0.060012247
-0.2847465 -0.26018703 0.060013898
-0.28492799 -0.26015639 0.060075458
-0.28513303 -0.26014179 0.059997365
-0.28532147 -0.26010638 0.060087726
-0.28556845 -0.26007789 0.06007405
-0.28576991 -0.26005718 0.060044412
-0.28598261 -0.26004276 0.05995822
-0.28617394 -0.2600134 0.060001276
-0.28637794 -0.25999537 0.059949707
-0.28655586 -0.25996891 0.059983604
-0.2867825 -0.25995293 0.059896197
-0.28698552 -0.25993454 0.0598481
-0.28716087 -0.25991356 0.059843935
-0.28738222 -0.25988945 0.059821136
-0.28759173 -0.25987387 0.059746481
-0.2877914 -0.25985697 0.05969033
-0.28857782 -0.25975421 0.05973563
-0.28876626 -0.25972646 0.059769467
-0.2889246 -0.25970539 0.059781525
-0.28916797 -0.25969285 0.059653684
-0.28935874 -0.25967643 0.059602179
-0.28954631 -0.25963923 0.059706375
-0.28976277 -0.25961134 0.059715897
-0.28994551 -0.25958633 0.059734773
-0.29016462 -0.25957522 0.059618559
-0.29035696 -0.25954762 0.05964778
-0.29054207 -0.25951621 0.059711628
-0.29075497 -0.25950801 0.059579294
-0.29095554 -0.2594904 0.059527747
-0.29114169 -0.25946513 0.059545457
-0.29130286 -0.25944337 0.059559803
-0.29153499 -0.25941607 0.059550807
-0.29173893 -0.25939333 0.059533842
-0.29190016 -0.25938192 0.059472073
-0.2920669 -0.25934711 0.059577506
-0.29227623 -0.25932655 0.059539765
-0.29249412 -0.25930709 0.059485838
-0.29270408 -0.25929317 0.059398498
-0.29292357 -0.25927117 0.059361875
-0.29308355 -0.25924283 0.059425816
-0.29329035 -0.25923088 0.059326954
-0.29350641 -0.25919881 0.059367612
-0.29370368 -0.25917342 0.059376054
-0.29390597 -0.25916153 0.059280671
-0.29409909 -0.25913605 0.059293743
-0.29424885 -0.25912759 0.059220485
-0.29443184 -0.25908628 0.059359297
-0.29465017 -0.2590577 0.059372269
-0.29487568 -0.25904092 0.059291795
-0.29504937 -0.25901529 0.059323393
-0.29524201 -0.25900224 0.059245348
-0.29544964 -0.2589756 0.059253737
-0.29566187 -0.25896388 0.059147943
-0.2958425 -0.25893727 0.059180662
-0.29602909 -0.25892147 0.059128013
-0.29622018 -0.25889295 0.059165318
-0.29637739 -0.25887248 0.059173912
-0.29659346 -0.25887769 0.058940079
-0.29683167 -0.25882977 0.059077524
-0.29701903 -0.25880137 0.059117142
-0.29717854 -0.25878593 0.059086516
-0.29737782 -0.25875857 0.059107631
-0.29759493 -0.25873706 0.059069861
-0.297764 -0.25871825 0.05905534
-0.29794466 -0.25869146 0.059089214
-0.29815581 -0.25868317 0.058959201
-0.29833099 -0.25865251 0.059026547
-0.29853499 -0.25862774 0.059024572
-0.29872155 -0.25860631 0.059013456
-0.29890403 -0.25857446 0.059083071
-0.29913297 -0.25857654 0.058860719
-0.29934227 -0.25855705 0.058814906
-0.29951632 -0.25853309 0.058833815
-0.29972506 -0.25850162 0.058876805
-0.29993373 -0.25848097 0.058840215
-0.30009252 -0.25845543 0.058884561
-0.30027655 -0.25843936 0.058836542
-0.30046627 -0.25841802 0.058821943
-0.3006632 -0.2583963 0.058803856
-0.30086777 -0.25837567 0.058770746
-0.30105805 -0.25835711 0.058735382
-0.30125749 -0.25833178 0.058741502
-0.30142662 -0.2583175 0.058693543
-0.30162877 -0.25830376 0.058612004
-0.3018274 -0.25827569 0.058638893
-0.30203587 -0.25824207 0.058698036
-0.30225626 -0.2582123 0.058717906
-0.30242836 -0.25819671 0.05867685
-0.30262536 -0.25817826 0.058634542
-0.30282953 -0.2581602 0.05858298
-0.30302787 -0.25812951 0.058629479
-0.30322358 -0.25810465 0.058635615
-0.30340904 -0.25808385 0.058621027
-0.30356312 -0.25807238 0.058566213
-0.30375156 -0.25804761 0.058578141
-0.30396658 -0.25803399 0.058483861
-0.3041496 -0.25802696 0.058370102
-0.30437526 -0.25798041 0.058508761
-0.30455995 -0.25795421 0.058534544
-0.30475613 -0.25793681 0.058485325
-0.30494511 -0.25792089 0.058431514
-0.30512998 -0.25789782 0.058434229
-0.30532908 -0.25787362 0.058432288
-0.30549642 -0.25785944 0.058385484
-0.30567768 -0.25783664 0.058389373
-0.30588374 -0.25780785 0.05841507
-0.30608648 -0.25779307 0.058340445
-0.30624634 -0.2577635 0.058413621
-0.30646303 -0.25775409 0.058287051
-0.30666909 -0.257727 0.058300063
-0.3068468 -0.25770214 0.058322418
-0.30702084 -0.25768211 0.058312491
-0.30720955 -0.25765041 0.058375172
-0.30740738 -0.25764784 0.058215223
-0.30760956 -0.25762609 0.058192499
-0.30783689 -0.25759703 0.058200814
-0.30803567 -0.25757319 0.058196563
-0.30822092 -0.25754428 0.05824196
-0.30841857 -0.257532 0.05815351
-0.30861086 -0.25750333 0.058190808
-0.30877009 -0.25748825 0.058157872
-0.30896518 -0.25746596 0.05814556
-0.30918482 -0.25744238 0.058120463
-0.30936578 -0.25742072 0.05811628
-0.30956227 -0.25741094 0.058010541
-0.3097305 -0.25738177 0.058073297
-0.30990428 -0.25736129 0.058066841
-0.31010166 -0.25734451 0.058011848
-0.31033131 -0.25730374 0.058104351
-0.3105301 -0.2572799 0.058100089
-0.31072402 -0.25726244 0.058053188
-0.31091079 -0.25724572 0.058007456
-0.31109893 -0.25722271 0.058006708
-0.31125966 -0.25721338 0.057929944
-0.31144133 -0.25718853 0.057948824
-0.31163138 -0.25717121 0.05790424
-0.31183437 -0.25714388 0.057921879
-0.31203079 -0.25711563 0.057952236
-0.31220993 -0.25711223 0.057815425
-0.31240451 -0.25709015 0.057801954
-0.31259733 -0.25705153 0.05791191
-0.31278256 -0.25703797 0.057844274
-0.31297681 -0.25700653 0.057900004
-0.31317073 -0.25698689 0.057869248
-0.31337005 -0.25696126 0.057877678
-0.31356347 -0.25694293 0.057837695
-0.31374505 -0.25692904 0.05777584
-0.31393513 -0.25691003 0.057743941
-0.3141329 -0.25688851 0.057723541
-0.31432784 -0.25686544 0.057716995
-0.31451172 -0.25684485 0.057702422
-0.31470349 -0.25682968 0.057640526
-0.31489831 -0.25679865 0.057692807
-0.31509513 -0.25677928 0.057657417
-0.31528962 -0.25675738 0.057642803
-0.3154783 -0.25674874 0.057535935
-0.31567279 -0.25671899 0.057578985
-0.31586617 -0.25669941 0.057548225
-0.31605315 -0.25667185 0.05758208
-0.31625274 -0.25664619 0.057590507
-0.31644928 -0.25663391 0.057503223
-0.31662279 -0.25661379 0.057494462
-0.31682768 -0.2565909 0.057477489
-0.31703097 -0.25655806 0.057535496
-0.31722668 -0.25653383 0.057537023
-0.31743222 -0.25650993 0.057526968
-0.31760374 -0.25648755 0.057536665
-0.31779715 -0.25648004 0.057417095
-0.31798995 -0.25647321 0.057292923
-0.31817254 -0.25644854 0.05730949
-0.31837076 -0.25641397 0.057384819
-0.31859425 -0.25639337 0.057334334
-0.31876701 -0.25636894 0.057357863
-0.31895733 -0.25633737 0.057418227
-0.31915191 -0.25631547 0.057403609
-0.31934747 -0.25630283 0.057319786
-0.3195242 -0.25629905 0.057187602
-0.31971455 -0.25627312 0.057206448
-0.31991085 -0.25623268 0.057326764
-0.32009491 -0.25622723 0.057200316
-0.32028052 -0.25621393 0.05713037
-0.32049805 -0.25617683 0.057206776
-0.32067788 -0.25616723 0.057114944
-0.32087931 -0.25615433 0.057027638
-0.32106951 -0.25611949 0.057112224
-0.32126141 -0.25609195 0.057141446
-0.32145774 -0.25605822 0.057212163
-0.32166123 -0.25602394 0.057280552
-0.32182771 -0.25601894 0.057166863
-0.32202411 -0.25600368 0.057101488
-0.32223019 -0.25598398 0.057060294
-0.32242286 -0.2559604 0.057059526
-0.32262889 -0.25594071 0.057018332
-0.32280704 -0.25593206 0.056920748
-0.32297367 -0.25592139 0.056848571
-0.3231549 -0.25590003 0.056842085
-0.32334927 -0.25587013 0.056886282
-0.32355914 -0.25582898 0.056999624
-0.32376578 -0.25578821 0.057112981
-0.32396859 -0.25576463 0.057102934
-0.32415947 -0.25574788 0.057053737
-0.32434002 -0.25573975 0.056950368
-0.32456297 -0.25571123 0.056958709
-0.32476157 -0.25570041 0.056858722
-0.3249374 -0.25568971 0.056778438
-0.3251352 -0.25565693 0.056841083
-0.32533178 -0.25563318 0.056837991
-0.3255496 -0.25561455 0.056778297
-0.32573783 -0.25559309 0.056766015
-0.32587773 -0.25559023 0.056660503
-0.326058 -0.25556332 0.05669554
-0.32627243 -0.25551987 0.056821547
-0.32649174 -0.25548553 0.056876026
-0.32667994 -0.25547144 0.056809537
-0.32687557 -0.25545269 0.056770697
-0.3270641 -0.25543809 0.056707665
-0.32726514 -0.25542024 0.056657262
-0.32744119 -0.25540531 0.056608118
-0.32763648 -0.25537345 0.056666154
-0.32783273 -0.25535727 0.056607708
-0.32804364 -0.25533241 0.056599949
-0.32823452 -0.25530547 0.056625709
-0.32841888 -0.2552917 0.056560382
-0.3285971 -0.25527132 0.056549292
-0.32879853 -0.2552498 0.056525417
-0.32898456 -0.25522485 0.056540824
-0.32918125 -0.25520191 0.056531962
-0.32936093 -0.25518948 0.056460891
-0.32955807 -0.25516617 0.056454338
-0.32974085 -0.25515369 0.056380942
-0.32994303 -0.25512254 0.056427427
-0.33015454 -0.25508571 0.056507308
-0.33035085 -0.25506938 0.056450009
-0.33052042 -0.25506037 0.056362838
-0.33074218 -0.25502026 0.056457676
-0.33095992 -0.25500149 0.056399144
-0.33111712 -0.25499508 0.056303933
-0.33131048 -0.25496706 0.05633546
-0.33151987 -0.25493878 0.056354225
-0.3317135 -0.25491637 0.05634423
-0.33191141 -0.25489295 0.056337662
-0.33209857 -0.25487915 0.056270029
-0.33228302 -0.25485942 0.056248527
-0.33247933 -0.25483477 0.05625236
-0.3326759 -0.25480729 0.056276947
-0.3328808 -0.25478348 0.056266896
-0.33303291 -0.25479433 0.05604947
-0.33325467 -0.25474811 0.056189284
-0.33347884 -0.25471333 0.056242593
-0.33365965 -0.25469434 0.056218803
-0.33385074 -0.25467974 0.056153454
-0.33405638 -0.25466588 0.056069598
-0.33424836 -0.25464022 0.056084968
-0.33445668 -0.25460628 0.056146421
-0.33463052 -0.25459817 0.056048844
-0.33482894 -0.25457001 0.056076881
-0.33502546 -0.25454846 0.056057647
-0.33521953 -0.25452647 0.056044176
-0.33541599 -0.25450259 0.056042247
-0.33563155 -0.25447342 0.056062147
-0.33582732 -0.25445026 0.056055591
-0.33601591 -0.25443518 0.055996016
-0.33621106 -0.25441256 0.05598601
-0.33643374 -0.254383 0.056002423
-0.33662522 -0.25436333 0.055973973
-0.33681867 -0.25433278 0.056023952
-0.33698443 -0.25432348 0.05594255
-0.33719397 -0.25429252 0.055980928
-0.33742985 -0.25426963 0.055936165
-0.33759075 -0.25426391 0.05583287
-0.33777487 -0.25424531 0.055803303
-0.33795801 -0.25421837 0.055836011
-0.33816844 -0.25419623 0.055808645
-0.3383669 -0.2541762 0.055776715
-0.3385556 -0.25415435 0.055766732
-0.33874398 -0.25413948 0.055706006
-0.33895606 -0.25410524 0.055766284
-0.33914819 -0.25408769 0.055721689
-0.33934563 -0.25406638 0.055700142
-0.33956146 -0.25402978 0.055774245
-0.3397449 -0.25401205 0.055738911
-0.33994439 -0.25400019 0.055645846
-0.34014142 -0.25397721 0.055636987
-0.34035534 -0.25394243 0.055699565
-0.34055796 -0.25392205 0.055666462
-0.34072188 -0.25391373 0.055579312
-0.34092844 -0.25388643 0.055593468
-0.34112114 -0.25386459 0.05558002
-0.34133494 -0.25383046 0.055637978
-0.34153593 -0.25381136 0.055596806
-0.34172866 -0.25378966 0.055582203
-0.34188047 -0.25379351 0.055416666
-0.34213203 -0.25374457 0.05554945
-0.34232062 -0.25372982 0.055487566
-0.34252107 -0.25369716 0.055546742
-0.34270597 -0.25368488 0.055469882
-0.34291637 -0.25365978 0.055464424
-0.34310314 -0.25364822 0.055380635
-0.34330919 -0.25361815 0.055415571
-0.34351876 -0.25358987 0.055434335
-0.34372595 -0.25356516 0.0554289
-0.34390855 -0.2535505 0.05537165
-0.34411541 -0.25352225 0.055392735
-0.34430981 -0.25350395 0.0553516
-0.34449592 -0.2534909 0.055279341
-0.34470999 -0.25346017 0.055311933
-0.34489369 -0.25344679 0.055244312
-0.34508848 -0.25342456 0.055232
-0.34528276 -0.25340644 0.055189706
-0.34549469 -0.2533755 0.055225763
-0.34572357 -0.25333419 0.055322874
-0.3459197 -0.25331882 0.055258662
-0.34609053 -0.25331345 0.055143792
-0.34628478 -0.25329 0.055140711
-0.34649202 -0.25326419 0.055143341
-0.34669942 -0.25323835 0.055145971
-0.34688181 -0.25322953 0.055046063
-0.34708318 -0.25320381 0.055053327
-0.34730196 -0.25316954 0.055107817
-0.34748384 -0.2531592 0.055019435
-0.34768745 -0.25313413 0.055019774
-0.34790611 -0.25310379 0.055045426
-0.34809595 -0.25308698 0.054997381
-0.34830067 -0.25306147 0.055000022
-0.34850252 -0.25303775 0.054992292
-0.34868616 -0.2530264 0.05490968
-0.34887549 -0.25300997 0.054859325
-0.3491047 -0.25297225 0.054929908
-0.34930152 -0.25295335 0.054891072
-0.34949145 -0.25293842 0.054829184
-0.34971207 -0.25290424 0.054881349
-0.34991121 -0.25288412 0.054849416
-0.35010913 -0.25286305 0.054825559
-0.35031942 -0.2528367 0.054829329
-0.35053176 -0.25280759 0.054851551
-0.3507278 -0.25278944 0.054808088
-0.35094219 -0.25276101 0.054823384
-0.35114491 -0.25273919 0.054800656
-0.35132363 -0.25272909 0.054713443
-0.35156757 -0.25268453 0.05482088
-0.35173839 -0.25267884 0.054708321
-0.35195106 -0.25265175 0.054715548
-0.3521651 -0.2526207 0.054750446
-0.35234869 -0.25261125 0.05465398
-0.35258827 -0.25256974 0.054742992
-0.35276583 -0.25256196 0.05463963
-0.35298565 -0.25252977 0.054677963
-0.35318998 -0.2525076 0.05465639
-0.35338756 -0.25248751 0.054625615
-0.353591 -0.2524659 0.054600574
-0.35378495 -0.25244784 0.054558281
-0.35400006 -0.25241855 0.054579332
-0.35420114 -0.25239834 0.054546233
-0.35441279 -0.25237262 0.05454424
-0.354606 -0.2523551 0.05449849
-0.35480979 -0.25233206 0.054483835
-0.35502028 -0.25230867 0.054465692
-0.35523334 -0.25228247 0.054465991
-0.35544789 -0.25225404 0.054481287
-0.35563153 -0.25224316 0.054395203
-0.35585278 -0.25221142 0.054428913
-0.35606059 -0.25218818 0.05441194
-0.35624611 -0.25217491 0.054341994
-0.35646647 -0.25214684 0.054349191
-0.35666996 -0.25212449 0.054329924
-0.3568981 -0.25209266 0.054357842
-0.248873 -0.26419371 0.062957242
-0.24911363 -0.26416853 0.062925085
-0.24933901 -0.26414129 0.062921837
-0.24954253 -0.26410732 0.062987886
-0.24978085 -0.26408336 0.062948816
-0.25002 -0.26405817 0.062917821
-0.25030935 -0.26404551 0.062749356
-0.25053075 -0.26401624 0.062764585
-0.25078073 -0.26399571 0.062689714
-0.25097835 -0.26396373 0.062746555
-0.25118369 -0.26392907 0.062816054
-0.25148183 -0.26391956 0.062616408
-0.25172204 -0.26389709 0.062564649
-0.25192392 -0.26386333 0.062630706
-0.25215289 -0.26383814 0.06260898
-0.25235954 -0.26380566 0.062661171
-0.25256324 -0.26377404 0.062709913
-0.25281402 -0.26375324 0.062636189
-0.25306192 -0.26373342 0.062557869
-0.25328648 -0.26370597 0.062556937
-0.25353244 -0.26368591 0.062482078
-0.25377327 -0.26366305 0.062432624
-0.25394025 -0.26362023 0.062596865
-0.25423414 -0.26361203 0.062391475
-0.2544353 -0.26358023 0.062443681
-0.2546958 -0.26356328 0.06233301
-0.25488278 -0.26353413 0.062378369
-0.2550844 -0.26349446 0.06248825
-0.25532013 -0.26347253 0.062436506
-0.25553989 -0.26344454 0.062443666
-0.25577617 -0.26342303 0.062388461
-0.25599435 -0.2633948 0.062399074
-0.25621063 -0.26336771 0.062402792
-0.25648308 -0.2633554 0.062247083
-0.25668937 -0.26332563 0.062279664
-0.25689432 -0.26329383 0.062328406
-0.25713113 -0.26327318 0.062266272
-0.25734738 -0.26324487 0.062279213
-0.25758249 -0.26322398 0.062220544
-0.25780129 -0.26319659 0.06222425
-0.258017 -0.26316833 0.062237181
-0.25825125 -0.2631458 0.062191214
-0.25847715 -0.26312256 0.062157966
-0.25870353 -0.26309785 0.062135108
-0.25893399 -0.26307628 0.062085696
-0.2591534 -0.2630496 0.062083621
-0.25936401 -0.26302198 0.062096573
-0.25961223 -0.26300463 0.061999798
-0.25983092 -0.26297978 0.061985046
-0.26002428 -0.2629486 0.062039591
-0.26023972 -0.26291928 0.062060598
-0.26048458 -0.26290143 0.061970755
-0.26070493 -0.26287746 0.061947927
-0.26092795 -0.2628527 0.061928533
-0.26115197 -0.26283017 0.061891831
-0.26137283 -0.26280487 0.061878212
-0.26158682 -0.26277918 0.061873861
-0.26180762 -0.26275408 0.061859094
-0.26200759 -0.26272196 0.061914772
-0.26225978 -0.26270959 0.06177761
-0.26246721 -0.26268017 0.061806731
-0.26268253 -0.26265353 0.061808128
-0.26290935 -0.26263285 0.061755273
-0.26312923 -0.26260799 0.061739355
-0.26331514 -0.26257303 0.061828546
-0.26356676 -0.26255968 0.061699461
-0.26372814 -0.26252913 0.06177837
-0.26397493 -0.26250866 0.06170582
-0.2642104 -0.26248425 0.061672531
-0.26442593 -0.26245838 0.061668161
-0.26464623 -0.26243818 0.061617643
-0.2648367 -0.26240894 0.061660677
-0.26505753 -0.26238337 0.061649367
-0.2652649 -0.2623547 0.061672721
-0.26550162 -0.26233533 0.061601363
-0.26571441 -0.26231089 0.061588939
-0.26591724 -0.2622886 0.061569631
-0.26613402 -0.26227179 0.061497204
-0.26632065 -0.26224539 0.061522949
-0.26657167 -0.26222235 0.061465379
-0.2668159 -0.26220283 0.061388232
-0.26701578 -0.26217589 0.061405849
-0.26721269 -0.26215386 0.06139002
-0.2674064 -0.26212251 0.061445728
-0.26762769 -0.26209825 0.061424039
-0.267836 -0.26207703 0.061392024
-0.26804209 -0.26205292 0.061383083
-0.26824635 -0.26202607 0.061396062
-0.26846927 -0.2619946 0.061426267
-0.26867566 -0.26197499 0.061383884
-0.26890296 -0.26194972 0.061364472
-0.2691268 -0.26193362 0.061280496
-0.26934299 -0.26190594 0.061288808
-0.26955152 -0.26188138 0.061281018
-0.26975876 -0.26185635 0.061277833
-0.26996952 -0.26184157 0.061196215
-0.27020016 -0.26181415 0.061189476
-0.27040938 -0.26179028 0.061175905
-0.27059686 -0.2617611 0.061221264
-0.27083877 -0.2617456 0.061116438
-0.27102908 -0.26171342 0.061181381
-0.27120689 -0.2616865 0.061218701
-0.27143893 -0.26168478 0.061021648
-0.27164868 -0.26164833 0.061100349
-0.27186251 -0.26161826 0.061128289
-0.27209699 -0.26158896 0.061131917
-0.27232674 -0.26157576 0.061021376
-0.27252287 -0.26154426 0.061075922
-0.27272731 -0.2615191 0.061076216
-0.27293241 -0.26149434 0.06107305
-0.27315596 -0.26147875 0.060985602
-0.27335972 -0.26145354 0.060987052
-0.27356786 -0.26143059 0.060967721
-0.27378863 -0.26141176 0.060906813
-0.27397689 -0.26138607 0.060925633
-0.27418059 -0.26137793 0.060801364
-0.27441499 -0.26134253 0.06084998
-0.27462262 -0.26131746 0.060846798
-0.27482542 -0.26129234 0.060848251
-0.27502245 -0.26126671 0.060858961
-0.27522284 -0.26124784 0.060816601
-0.27544054 -0.26121855 0.060835294
-0.27565235 -0.26119861 0.060790569
-0.27585244 -0.26117241 0.060802422
-0.27606273 -0.26115188 0.060763471
-0.27627444 -0.26112977 0.060734898
-0.27647287 -0.26110283 0.060753681
-0.27668941 -0.26108623 0.060680106
-0.27690771 -0.26107082 0.060596142
-0.277098 -0.2610369 0.06067377
-0.27730229 -0.26101366 0.060660228
-0.27750134 -0.26098743 0.060673229
-0.2776964 -0.26097485 0.060589366
-0.27792394 -0.26094705 0.060588412
-0.27812937 -0.26092491 0.060565636
-0.27832699 -0.2608954 0.060604021
-0.27852324 -0.2608678 0.060629725
-0.27873811 -0.26085174 0.060553852
-0.27894109 -0.26082847 0.060541466
-0.279145 -0.26080307 0.060544074
-0.27935481 -0.26078433 0.060492441
-0.27956587 -0.26076651 0.060432732
-0.27976054 -0.26073831 0.060464203
-0.27996558 -0.26071402 0.06045758
-0.28010991 -0.26068464 0.060543485
-0.28032678 -0.26067692 0.060404159
-0.28052917 -0.26065406 0.060389467
-0.28077051 -0.26061922 0.060427673
-0.28098518 -0.26060489 0.060339116
-0.28118989 -0.26058096 0.060330182
-0.28138521 -0.26055363 0.060354732
-0.28158185 -0.26052722 0.060371213
-0.28179395 -0.26051179 0.060293041
-0.28199932 -0.26048872 0.060277179
-0.28218994 -0.2604582 0.060329437
-0.28240824 -0.2604478 0.060208566
-0.28260493 -0.26042187 0.060221579
-0.28280005 -0.26039159 0.060268052
-0.28300965 -0.26037538 0.060197964
-0.28317821 -0.26034772 0.060249165
-0.2833707 -0.260322 0.060264505
-0.28360242 -0.26030025 0.060215086
-0.28380254 -0.26028392 0.060154267
-0.28400809 -0.26025534 0.060178787
-0.28418463 -0.26023406 0.060175736
-0.2843782 -0.26021293 0.060156465
-0.28460863 -0.26018757 0.060134742
-0.28481859 -0.26016971 0.060076188
-0.28499588 -0.26013896 0.060142338
-0.28520864 -0.2601167 0.060113762
-0.28541622 -0.26010087 0.06004253
-0.28561619 -0.26007518 0.06005092
-0.28581828 -0.26005501 0.060016621
-0.28600767 -0.26003844 0.059967391
-0.28620854 -0.26001012 0.059994228
-0.28641155 -0.25998375 0.060004905
-0.28662077 -0.25997055 0.059912909
-0.28682685 -0.25995097 0.059870515
-0.28703344 -0.25993592 0.059794672
-0.28723192 -0.2599135 0.059780002
-0.28742537 -0.25988641 0.05980457
-0.28761461 -0.2598553 0.059862591
-0.2878232 -0.25983888 0.059794821
-0.28801703 -0.25981626 0.059785932
-0.28820589 -0.25979695 0.059757464
-0.28836775 -0.25976697 0.059831753
-0.28859362 -0.25973982 0.05982735
-0.28881663 -0.25972664 0.059722602
-0.2889986 -0.25970912 0.059687234
-0.28915823 -0.25968522 0.059718862
-0.28934965 -0.25965631 0.059758425
-0.28960922 -0.25963572 0.059675448
-0.28979993 -0.25961944 0.059622742
-0.28995806 -0.25958946 0.059700504
-0.29016593 -0.25956559 0.059688099
-0.29036987 -0.25955117 0.059609961
-0.2905916 -0.25952515 0.059600957
-0.29074538 -0.25948974 0.05972258
-0.29098135 -0.2594808 0.059575096
-0.29116666 -0.25945923 0.059566256
-0.29135853 -0.25944096 0.059527379
-0.2915374 -0.25941658 0.059545092
-0.29173008 -0.25939459 0.059532739
-0.2919274 -0.25936341 0.05958382
-0.29214221 -0.25934467 0.059527546
-0.29233432 -0.25932744 0.059480608
-0.29252499 -0.25931382 0.059408296
-0.29271775 -0.2592873 0.0594294
-0.29292247 -0.25926101 0.059437774
-0.29311946 -0.25923488 0.059451938
-0.29333365 -0.25919977 0.059516788
-0.29355258 -0.2591885 0.059401669
-0.2937431 -0.25917619 0.059320137
-0.29391062 -0.25914708 0.059382871
-0.2940982 -0.25913075 0.059333637
-0.29429084 -0.25911644 0.059264779
-0.29452595 -0.25909004 0.059246484
-0.29473349 -0.25905666 0.059304439
-0.29493257 -0.2590411 0.059239015
-0.29510483 -0.25901958 0.059241753
-0.29527867 -0.25900084 0.059222564
-0.29546306 -0.25896716 0.059303686
-0.295688 -0.25895062 0.059221998
-0.29589197 -0.25893131 0.059179626
-0.29608947 -0.25890028 0.059229545
-0.2963056 -0.25888264 0.059164055
-0.29647985 -0.25886557 0.059132174
-0.29667097 -0.25884438 0.059115224
-0.2968584 -0.25882366 0.059098285
-0.29705095 -0.25880575 0.059055958
-0.29724708 -0.25877175 0.059128955
-0.29745823 -0.25876975 0.058952741
-0.29763764 -0.25876552 0.058821652
-0.29782513 -0.25872082 0.058981188
