# .PCD v0.7 - Point Cloud Data file format
VERSION 0.7
FIELDS x y z
SIZE 4 4 4
TYPE F F F
COUNT 1 1 1
WIDTH 1235
HEIGHT 1
VIEWPOINT 0 0 0 1 0 0 0
POINTS 1235
DATA ascii
-0.18149596 -0.29893768 0.054168791
-0.18167908 -0.29900277 0.054148659
-0.18187875 -0.29907098 0.054145791
-0.182053 -0.29913387 0.054119926
-0.18224676 -0.29920271 0.054098617
-0.18242744 -0.29926664 0.054080803
-0.1826048 -0.29933235 0.054042239
-0.18277918 -0.29939985 0.053984091
-0.18300197 -0.29946205 0.054079171
-0.18321113 -0.29953745 0.054048594
-0.18340074 -0.29960391 0.054034214
-0.18358886 -0.29967052 0.05401523
-0.1837659 -0.29973501 0.05398475
-0.1839339 -0.29980606 0.053886242
-0.18415585 -0.29986599 0.053995173
-0.18435323 -0.299941 0.053939253
-0.18454871 -0.30001026 0.053919099
-0.18472941 -0.30007467 0.053897824
-0.18491185 -0.30013901 0.053881165
-0.18514441 -0.30020618 0.053964693
-0.1852982 -0.30026945 0.053886991
-0.18549454 -0.30034181 0.05384722
-0.1856833 -0.30040455 0.053857058
-0.18589571 -0.3004804 0.053831093
-0.18608059 -0.30054918 0.053789049
-0.18626365 -0.30061093 0.053791985
-0.186469 -0.30068585 0.05375566
-0.18664967 -0.30074927 0.053741306
-0.18687525 -0.30082193 0.053769492
-0.18706834 -0.30089334 0.053728588
-0.18724903 -0.30095971 0.053693477
-0.18744367 -0.30102411 0.05370561
-0.18764734 -0.30109796 0.053672735
-0.18785009 -0.30116495 0.053685997
-0.18803914 -0.30123532 0.053642794
-0.18821423 -0.30130208 0.053591553
-0.18839256 -0.30136323 0.053587589
-0.18861219 -0.30143401 0.053614646
-0.18879414 -0.30150065 0.05358069
-0.18898363 -0.30156705 0.053566311
-0.18920627 -0.30163935 0.053589895
-0.18936005 -0.30170149 0.053520262
-0.1895514 -0.30176935 0.05350012
-0.18977304 -0.30183917 0.053538695
-0.18995717 -0.30190867 0.053489737
-0.19016615 -0.30198434 0.05345685
-0.19035307 -0.3020525 0.053424034
-0.19056995 -0.30211875 0.053476468
-0.10137741 -0.27528077 0.029070117
-0.10156636 -0.27535748 0.028981974
-0.1017549 -0.27543405 0.028893843
-0.10194109 -0.27550718 0.028824154
-0.10212536 -0.27557886 0.028760247
-0.10230689 -0.27564994 0.028694041
-0.10248588 -0.27571735 0.028647434
-0.10266457 -0.27578467 0.028600842
-0.10283934 -0.27584869 0.028568085
-0.10301201 -0.27591103 0.028542262
-0.10318419 -0.27597302 0.028517582
-0.10335344 -0.27603421 0.028491769
-0.10352309 -0.2760942 0.028475173
-0.10368807 -0.27615178 0.028464358
-0.1038532 -0.27620792 0.028463919
-0.10401785 -0.27626541 0.028453108
-0.10418358 -0.27632228 0.028449208
-0.10434413 -0.27637622 0.028453393
-0.1045084 -0.27643192 0.028454106
-0.10467082 -0.27648601 0.028461754
-0.10482427 -0.27653542 0.028480945
-0.10497747 -0.27657953 0.028537039
-0.10512884 -0.27662364 0.028588528
-0.10528925 -0.27667606 0.028603099
-0.1054417 -0.27672121 0.028649965
-0.10559081 -0.27676323 0.028710689
-0.10573792 -0.27680168 0.028792173
-0.10588382 -0.27684066 0.028866731
-0.10602869 -0.27687863 0.028945912
-0.1061709 -0.27691227 0.029049315
-0.10631271 -0.27694723 0.029142339
-0.1064544 -0.27698201 0.029236525
-0.10659434 -0.27701503 0.029338775
-0.10673384 -0.27704939 0.029430658
-0.10687678 -0.27708328 0.029534057
-0.10701129 -0.27711266 0.029649008
-0.10715073 -0.27714109 0.029782403
-0.10728486 -0.27716985 0.029900823
-0.10742825 -0.27720374 0.030005373
-0.10756984 -0.27723765 0.030105319
-0.10768078 -0.27723756 0.03037139
-0.10780247 -0.27725539 0.030537115
-0.10793772 -0.2772806 0.030683208
-0.10349733 -0.27153167 0.060557246
-0.1037029 -0.27160305 0.060546324
-0.10392228 -0.27168897 0.06046617
-0.10411654 -0.27175143 0.060491029
-0.10433491 -0.27183667 0.060413186
-0.10452481 -0.2718921 0.060477261
-0.10470642 -0.27194667 0.060527511
-0.10492824 -0.27203339 0.060447358
-0.10515338 -0.27212128 0.060367197
-0.10535191 -0.27218616 0.060385119
-0.10555455 -0.27225557 0.060381122
-0.10575299 -0.27232602 0.060359843
-0.10595551 -0.27239278 0.06037429
-0.1061655 -0.27247059 0.060328763
-0.10636258 -0.27253434 0.060351297
-0.10657394 -0.27262521 0.060216974
-0.10678254 -0.27269077 0.060254477
-0.10698027 -0.27275556 0.060271248
-0.10717791 -0.27282032 0.060288019
-0.10738769 -0.27289888 0.060236726
-0.10757887 -0.27296519 0.060226999
-0.10779054 -0.27303752 0.060224131
-0.10797761 -0.27309933 0.060236312
-0.10814838 -0.27316022 0.060216263
-0.10839909 -0.27325433 0.060153324
-0.10860556 -0.27333012 0.060113575
-0.10880806 -0.27340144 0.060095742
-0.10901391 -0.27347684 0.060057133
-0.10921489 -0.2735467 0.060046226
-0.10941035 -0.27361006 0.060067624
-0.10961166 -0.27368048 0.060053241
-0.10981864 -0.27375793 0.060003117
-0.1100123 -0.27381936 0.060033739
-0.11021603 -0.27389634 0.059978995
-0.11039389 -0.27394816 0.060039639
-0.11055373 -0.27400351 0.060032293
-0.11077911 -0.27408835 0.059974045
-0.11100674 -0.27416971 0.059945758
-0.11120486 -0.27423725 0.059944082
-0.11142786 -0.27432978 0.059825875
-0.11158627 -0.27437058 0.0599177
-0.11182222 -0.27446669 0.059805229
-0.11202589 -0.27454203 0.059762016
-0.11220804 -0.27459303 0.059838798
-0.11239155 -0.27465266 0.059857909
-0.11260913 -0.27473271 0.059814669
-0.11281298 -0.27480891 0.059765689
-0.11301008 -0.27487987 0.059737496
-0.11320405 -0.27494323 0.059755437
-0.11340087 -0.2750105 0.059752606
-0.11356929 -0.27506107 0.059799433
-0.11380067 -0.27515385 0.059699647
-0.11400354 -0.27522987 0.059649527
-0.11418631 -0.27528566 0.059694014
-0.11437972 -0.27535635 0.059658907
-0.11458799 -0.27542916 0.059644513
-0.11479103 -0.27550623 0.059587479
-0.11498742 -0.27557793 0.059552364
-0.11518114 -0.2756381 0.059592202
-0.11536958 -0.27570644 0.059561729
-0.11554752 -0.27577156 0.059528966
-0.11577591 -0.27585495 0.059487998
-0.1159722 -0.27592334 0.059475951
-0.11615395 -0.27598238 0.059495065
-0.11634816 -0.27605206 0.059469186
-0.11655677 -0.2761271 0.059439797
-0.11675094 -0.27619281 0.059441593
-0.11694327 -0.27625576 0.059458382
-0.11713848 -0.27632329 0.059449784
-0.11732873 -0.27638751 0.059452742
-0.11746502 -0.27640998 0.059620738
-0.11769599 -0.27650833 0.059480593
-0.11792026 -0.27660099 0.059364691
-0.11809914 -0.27666542 0.059338845
-0.11830658 -0.27673563 0.059340604
-0.1185029 -0.27680618 0.059313558
-0.11869811 -0.27688453 0.05922886
-0.11890008 -0.27696043 0.059177592
-0.11908795 -0.27701712 0.059227824
-0.11927387 -0.27707529 0.059263077
-0.11947171 -0.27714944 0.059214123
-0.1196363 -0.27720508 0.059216
-0.11985408 -0.27727982 0.0592108
-0.12004703 -0.27735102 0.059171088
-0.1202372 -0.27741209 0.059195951
-0.12041843 -0.27747783 0.059166647
-0.12056632 -0.2775296 0.059155874
-0.12080748 -0.27761686 0.059118334
-0.12101398 -0.27769315 0.059075117
-0.12120211 -0.27776206 0.059040025
-0.12139966 -0.27783266 0.059015285
-0.12158614 -0.27789298 0.059036694
-0.12177843 -0.2779592 0.059030421
-0.12193415 -0.27801019 0.059043843
-0.1221538 -0.27808505 0.059042111
-0.12234762 -0.27815491 0.059013918
-0.12254404 -0.27823058 0.058951125
-0.12273397 -0.27829891 0.058924109
-0.12292565 -0.27836493 0.058917835
-0.12310925 -0.2784197 0.058971535
-0.12325648 -0.27846551 0.059001133
-0.12349325 -0.27856043 0.058899023
-0.12368105 -0.27863184 0.05884549
-0.1238692 -0.27869749 0.05883345
-0.124063 -0.27876258 0.058838706
-0.12425083 -0.27882776 0.05882898
-0.12442626 -0.27888465 0.05884812
-0.12463099 -0.27896246 0.058789924
-0.12482288 -0.27903101 0.05876635
-0.12501156 -0.27909926 0.058737013
-0.12519595 -0.27916443 0.058719233
-0.12537339 -0.27922741 0.058700312
-0.12557295 -0.27929315 0.058714774
-0.12576677 -0.27935988 0.058708489
-0.12591757 -0.27940825 0.058728844
-0.12609045 -0.27947637 0.05866266
-0.12632005 -0.27955019 0.058692038
-0.12652096 -0.27962068 0.058676511
-0.12668937 -0.2796858 0.058620714
-0.12688901 -0.27975288 0.058625955
-0.12708537 -0.27981949 0.058626585
-0.12727536 -0.2798959 0.058543049
-0.1274655 -0.27996302 0.058525246
-0.12765265 -0.28003094 0.058494769
-0.12783413 -0.28010118 0.05843433
-0.12800199 -0.28014502 0.058527283
-0.12819687 -0.28021932 0.058470272
-0.1284028 -0.28028852 0.058475487
-0.12857236 -0.28036323 0.058355108
-0.12874547 -0.28040197 0.058496483
-0.12894352 -0.28047833 0.058432542
-0.12911496 -0.280536 0.058436695
-0.12932974 -0.28061771 0.058375008
-0.12952816 -0.28068325 0.058388323
-0.12969546 -0.28073701 0.05840978
-0.12989017 -0.28081617 0.058318175
-0.13004428 -0.28086844 0.05831892
-0.13024563 -0.28093332 0.058343749
-0.13043214 -0.28100541 0.058282137
-0.13060074 -0.28106785 0.058245949
-0.13078494 -0.28112754 0.058266215
-0.13099936 -0.28121519 0.058161862
-0.13120675 -0.2812787 0.058210902
-0.131377 -0.28133219 0.058241583
-0.13154447 -0.28138915 0.058241129
-0.13173968 -0.28145915 0.058215249
-0.13192794 -0.2815266 0.058190532
-0.1321335 -0.28160325 0.05814271
-0.13230044 -0.28165707 0.058163024
-0.13250554 -0.28173074 0.058134805
-0.13268295 -0.28179124 0.058133177
-0.13286024 -0.28185073 0.058138475
-0.13302425 -0.28191143 0.05810345
-0.13323309 -0.28199947 0.05798297
-0.13343011 -0.2820552 0.05806201
-0.13360405 -0.28211993 0.058022339
-0.13378423 -0.28216991 0.058101423
-0.13395466 -0.28223327 0.058062922
-0.13413869 -0.28231075 0.057957504
-0.13433602 -0.28236526 0.058045764
-0.13449937 -0.28242624 0.058007281
-0.13468276 -0.28250939 0.057860345
-0.13486981 -0.28256777 0.057896748
-0.13507995 -0.28265661 0.057773959
-0.13529068 -0.28272402 0.057803385
-0.13546056 -0.28278017 0.057814464
-0.13563105 -0.28282669 0.057894725
-0.13582799 -0.28289515 0.057883825
-0.13602482 -0.28296405 0.057869468
-0.13618745 -0.28302363 0.057839051
-0.13638753 -0.28309381 0.057823535
-0.13657387 -0.2831603 0.057801127
-0.13674138 -0.28320628 0.057877947
-0.13690022 -0.28326622 0.057836015
-0.1370922 -0.28334248 0.057758242
-0.13731445 -0.28342903 0.057680398
-0.13749743 -0.28349158 0.057677604
-0.1376569 -0.28354451 0.0576864
-0.13787393 -0.28361735 0.057692744
-0.13804041 -0.28367153 0.057709597
-0.13820487 -0.28373596 0.057649206
-0.1384014 -0.28380233 0.057652134
-0.13856152 -0.28385219 0.057684004
-0.13875364 -0.28392211 0.057651203
-0.13892379 -0.28399161 0.057568878
-0.13911782 -0.2840527 0.057602957
-0.13930063 -0.28411472 0.057603624
-0.13949525 -0.28418776 0.057554677
-0.13968502 -0.28425118 0.057562254
-0.13987614 -0.28432274 0.057515617
-0.14005783 -0.28438795 0.057490923
-0.14024428 -0.28444973 0.057501953
-0.14041227 -0.28451064 0.057474986
-0.14060169 -0.28457475 0.057476792
-0.14076887 -0.28463766 0.05743368
-0.14096874 -0.28470415 0.057443526
-0.14118269 -0.28478414 0.057392221
-0.14136973 -0.28484413 0.057417098
-0.14152613 -0.28490436 0.057367094
-0.14171208 -0.28496712 0.057370063
-0.14189918 -0.28502718 0.057394929
-0.14208026 -0.28510153 0.057304509
-0.14226632 -0.28515497 0.057373203
-0.14243777 -0.28521541 0.057357762
-0.14260875 -0.28528535 0.057274275
-0.14280692 -0.28535521 0.057256453
-0.14300168 -0.2854239 0.057238642
-0.14317387 -0.28548232 0.057239339
-0.14335613 -0.28554431 0.057238854
-0.14354621 -0.2856065 0.057255648
-0.14372879 -0.28566793 0.057259772
-0.14389257 -0.28572723 0.057233974
-0.14408115 -0.28580678 0.057125077
-0.14427701 -0.28587291 0.057128016
-0.14446352 -0.28594124 0.057092931
-0.14464049 -0.28600502 0.057067096
-0.14481913 -0.28605923 0.057112742
-0.14499503 -0.28611809 0.057119198
-0.14519659 -0.28618827 0.057107124
-0.1453805 -0.28624755 0.057129703
-0.1455517 -0.28630742 0.057117712
-0.14571743 -0.2863754 0.057035401
-0.14589258 -0.28645968 0.056860819
-0.14607932 -0.28653252 0.056794599
-0.14628521 -0.28659585 0.056841325
-0.14646012 -0.28664422 0.056919277
-0.14665666 -0.28672072 0.05685072
-0.14683461 -0.28677666 0.05688253
-0.14702162 -0.28682652 0.056978896
-0.14719555 -0.28689352 0.056923088
-0.14737773 -0.28695533 0.056923755
-0.14756592 -0.28701508 0.05695324
-0.14776188 -0.2870917 0.056882374
-0.14793611 -0.28715783 0.056833483
-0.14813237 -0.28720823 0.056948282
-0.14832178 -0.28728706 0.056846298
-0.14849088 -0.28734881 0.056815866
-0.14868106 -0.28741646 0.05679461
-0.14885263 -0.28748021 0.056756102
-0.14904344 -0.28755182 0.056708314
-0.1492186 -0.28761154 0.056706704
-0.14942023 -0.28767636 0.056732684
-0.14958657 -0.28774062 0.056678042
-0.14979252 -0.28780577 0.056712091
-0.14997856 -0.28787282 0.056685075
-0.15015984 -0.28794444 0.056614257
-0.15033625 -0.28800741 0.056593034
-0.1505166 -0.2880666 0.056607544
-0.15069889 -0.28813696 0.056548253
-0.15088964 -0.28820363 0.056535058
-0.15105382 -0.28824818 0.05661419
-0.15121831 -0.28832591 0.056460384
-0.15141276 -0.28838515 0.056508299
-0.15160775 -0.2884441 0.056559674
-0.1518006 -0.28851312 0.056534946
-0.15198249 -0.28858334 0.056475658
-0.15217382 -0.28864956 0.056467071
-0.15235212 -0.28870693 0.056489665
-0.15254165 -0.28877467 0.056466099
-0.15271486 -0.28883621 0.056447193
-0.15289997 -0.28890356 0.056415558
-0.15309621 -0.28896984 0.056418501
-0.15328124 -0.28902981 0.056438766
-0.153455 -0.2890873 0.056449842
-0.15362844 -0.28915232 0.056406714
-0.15382195 -0.28921714 0.056413118
-0.15399899 -0.2892831 0.056372289
-0.15416725 -0.28934458 0.056341857
-0.15436335 -0.28941816 0.056292906
-0.15456316 -0.28948218 0.056320053
-0.1547576 -0.28954652 0.056332227
-0.15493512 -0.28961542 0.056271788
-0.15511762 -0.28968093 0.056247089
-0.15527792 -0.2897374 0.056232825
-0.15547232 -0.2898019 0.056243841
-0.1556496 -0.28986743 0.056206468
-0.15583698 -0.28993312 0.056192134
-0.15602107 -0.28999114 0.056223929
-0.15620042 -0.2900618 0.056155417
-0.15636951 -0.29012257 0.056131914
-0.15655085 -0.29018557 0.056122206
-0.15674722 -0.29025859 0.056077868
-0.15694319 -0.29032555 0.056075037
-0.15713601 -0.2903913 0.056073379
-0.15729898 -0.29045245 0.056032583
-0.15747197 -0.29051408 0.056012519
-0.15766762 -0.29057834 0.05602815
-0.15786912 -0.29065144 0.055995323
-0.15803801 -0.29071233 0.055970661
-0.15821125 -0.29076797 0.055993266
-0.15838581 -0.29083177 0.055961668
-0.15855132 -0.2908915 0.055937007
-0.15874685 -0.29095325 0.055969931
-0.15893748 -0.29101187 0.056013249
-0.15912649 -0.29107991 0.055986222
-0.15930584 -0.29115549 0.055883117
-0.15949155 -0.29121947 0.055876859
-0.15967728 -0.29128623 0.055851001
-0.15984803 -0.29134628 0.055836711
-0.1600318 -0.29141122 0.055818919
-0.16021577 -0.29147071 0.055840347
-0.16040868 -0.29153696 0.055835217
-0.16059119 -0.29160526 0.055790912
-0.16077301 -0.29167381 0.05574315
-0.16095918 -0.29173779 0.055738047
-0.16113627 -0.29180309 0.055701826
-0.16131255 -0.29186091 0.055716354
-0.16149718 -0.29192305 0.055720478
-0.16168003 -0.29199114 0.055678479
-0.16185679 -0.29205403 0.055658408
-0.16204475 -0.29211748 0.055661369
-0.16222642 -0.29217845 0.055666648
-0.16241261 -0.29224521 0.055641938
-0.16260062 -0.29231128 0.055626452
-0.16278663 -0.2923806 0.055583291
-0.16296647 -0.29243997 0.055595499
-0.16316345 -0.29250762 0.055590361
-0.16332717 -0.29257068 0.055538036
-0.16349666 -0.29263878 0.055463791
-0.16367902 -0.29269737 0.055487521
-0.16388834 -0.29275596 0.055575751
-0.16406865 -0.29282498 0.055521075
-0.16425671 -0.292896 0.055470996
-0.16444091 -0.29296127 0.055452053
-0.16462155 -0.29302776 0.055415832
-0.16481112 -0.29309127 0.055422246
-0.16500202 -0.29315668 0.055418283
-0.16517782 -0.29322025 0.055391293
-0.16536371 -0.29328281 0.055395409
-0.16555446 -0.29335293 0.055358
-0.16572851 -0.29341933 0.0553068
-0.1659098 -0.29347673 0.055336304
-0.1660933 -0.293538 0.055343889
-0.16628607 -0.29360536 0.05533069
-0.16646843 -0.29367146 0.055301383
-0.16665809 -0.29373762 0.055289343
-0.16683821 -0.29379791 0.055295784
-0.16701178 -0.29386446 0.055242285
-0.16721632 -0.29393074 0.055264808
-0.16739202 -0.29399887 0.055205524
-0.16756658 -0.29406297 0.055171631
-0.1677438 -0.29412848 0.055134259
-0.16793966 -0.29419315 0.055147577
-0.16811934 -0.29425803 0.055120576
-0.16830745 -0.2943207 0.055129297
-0.16848305 -0.29438877 0.05507002
-0.16866614 -0.29444662 0.055100672
-0.16885798 -0.29451054 0.055109389
-0.16904062 -0.29458299 0.055036254
-0.1692228 -0.29464331 0.055047307
-0.16940902 -0.29470876 0.055031817
-0.16959782 -0.29477364 0.05502671
-0.16978954 -0.29483786 0.055033118
-0.16994859 -0.29490587 0.05493468
-0.17014462 -0.29496518 0.054986048
-0.17033117 -0.29503271 0.054956719
-0.17052005 -0.29509386 0.054978136
-0.17072383 -0.29515955 0.055002958
-0.17091033 -0.29522529 0.05498632
-0.17107555 -0.29529375 0.054899398
-0.17125596 -0.29535887 0.054872397
-0.17144115 -0.295423 0.054863837
-0.1716399 -0.29548815 0.054880608
-0.17182291 -0.29555285 0.054862816
-0.17198804 -0.29561934 0.054789733
-0.17220388 -0.29568309 0.054857198
-0.17237662 -0.29574805 0.054812923
-0.17254789 -0.2958189 0.054723676
-0.17271043 -0.29588026 0.054680582
-0.1729214 -0.29593971 0.054766506
-0.17310089 -0.29600716 0.05472105
-0.17329566 -0.29607356 0.054719385
-0.17347912 -0.29613483 0.054726966
-0.17368716 -0.29620624 0.054721806
-0.17386392 -0.29626879 0.054704044
-0.17404263 -0.29633287 0.054680504
-0.17425162 -0.29639888 0.054715693
-0.17440841 -0.29646677 0.054612651
-0.17459244 -0.29652822 0.054620229
-0.17478453 -0.2965937 0.054618571
-0.1749689 -0.29666051 0.054589249
-0.17516313 -0.29672575 0.054594502
-0.17535226 -0.29679188 0.054581314
-0.1755428 -0.29685259 0.054609634
-0.17571545 -0.2969231 0.054526154
-0.17589828 -0.29698855 0.054502606
-0.1760954 -0.29705364 0.054515921
-0.17627466 -0.2971231 0.054455489
-0.17646039 -0.29718822 0.054441158
-0.1766583 -0.29725507 0.054444093
-0.17684796 -0.29731974 0.054442432
-0.17704718 -0.2973865 0.054448821
-0.17723659 -0.29745468 0.054421797
-0.17739531 -0.29751867 0.054351039
-0.17759469 -0.29758221 0.054380484
-0.17776923 -0.29764912 0.054326981
-0.17796734 -0.29772124 0.054293014
-0.17817281 -0.29778588 0.054329365
-0.17836618 -0.29785377 0.054313865
-0.17852671 -0.29791427 0.054271929
-0.17873795 -0.29798499 0.054279439
-0.1789106 -0.29805055 0.054230548
-0.17911717 -0.29811871 0.054244991
-0.17930187 -0.29818135 0.054245651
-0.17947865 -0.29824656 0.054209441
-0.17968032 -0.2983202 0.054173153
-0.17985007 -0.29838303 0.054136962
-0.18004864 -0.29844597 0.054168716
-0.18025692 -0.29852223 0.054130115
-0.18042028 -0.29858106 0.054106615
-0.1806246 -0.29864678 0.054132599
-0.18082526 -0.29871765 0.054113612
-0.18098569 -0.29877844 0.054069366
-0.1811882 -0.29885074 0.054044615
-0.18138459 -0.29892212 0.054011811
-0.1815524 -0.29897919 0.054011367
-0.18174584 -0.29904631 0.054001626
-0.18195486 -0.29911363 0.054027587
-0.18214744 -0.29918551 0.053982105
-0.18231583 -0.29924425 0.053971283
-0.18249804 -0.29931098 0.053937357
-0.18268405 -0.2993744 0.053935714
-0.18287268 -0.29944068 0.053920217
-0.18306996 -0.29951385 0.053877033
-0.18325961 -0.29958162 0.053853467
-0.18346113 -0.29964557 0.053885214
-0.18363112 -0.29971042 0.053835183
-0.18382815 -0.29976746 0.053904999
-0.18400034 -0.29984552 0.05376732
-0.18420696 -0.29990351 0.053853258
-0.18442979 -0.29998258 0.053829603
-0.18460009 -0.30004901 0.053769194
-0.18474504 -0.30010828 0.053698462
-0.18499793 -0.30018416 0.05376929
-0.18516599 -0.30024934 0.053712334
-0.18536083 -0.30031872 0.053689912
-0.18553397 -0.30038217 0.053657159
-0.18574238 -0.30044946 0.053681985
-0.18591151 -0.30051893 0.053597353
-0.18612453 -0.30058467 0.053644069
-0.18631814 -0.30064726 0.053666614
-0.18652004 -0.30072084 0.053631485
-0.18672736 -0.30079558 0.053600952
-0.1869026 -0.30085781 0.053582042
-0.18708169 -0.30092692 0.053523906
-0.18730591 -0.30099827 0.053557906
-0.18749158 -0.30106157 0.053556256
-0.18769264 -0.30113682 0.053507295
-0.18788135 -0.30120152 0.053503335
-0.18805993 -0.3012611 0.05351093
-0.18828513 -0.30133834 0.053505726
-0.18846723 -0.30140617 0.053463731
-0.18864107 -0.3014743 0.053399842
-0.18883368 -0.3015323 0.053452373
-0.18902063 -0.30159736 0.053441498
-0.18922958 -0.30167267 0.053410962
-0.18941626 -0.3017419 0.053370114
-0.18961442 -0.30180815 0.053377658
-0.18983629 -0.30187115 0.053464703
-0.18999222 -0.30194533 0.053315543
-0.1902011 -0.30201685 0.053311527
-0.19037858 -0.30208245 0.053274155
-0.19057584 -0.30215168 0.053258635
-0.10116296 -0.27521667 0.029008368
-0.10135081 -0.27529398 0.028913299
-0.10154167 -0.27536938 0.02883897
-0.10173064 -0.27544805 0.028736979
-0.10191109 -0.27551648 0.0286869
-0.10209094 -0.27558452 0.028637985
-0.10226623 -0.27565035 0.028593689
-0.10244708 -0.27571955 0.028539002
-0.10261882 -0.27578419 0.028494716
-0.10279417 -0.27584893 0.028458487
-0.10296175 -0.27591017 0.028428059
-0.10312782 -0.27596697 0.028425302
-0.10329737 -0.27602693 0.028408706
-0.10346493 -0.27608687 0.028387494
-0.10363291 -0.27614564 0.028375514
-0.10379593 -0.27620175 0.028370462
-0.10396177 -0.27626044 0.028353877
-0.10412008 -0.27631247 0.028366145
-0.1042791 -0.27636689 0.028363403
-0.10444219 -0.27642173 0.028367583
-0.10459206 -0.27646631 0.028412165
-0.10474777 -0.27651453 0.028445195
-0.10490145 -0.2765609 0.0284863
-0.10505281 -0.27660516 0.02853664
-0.10520205 -0.27664921 0.028583527
-0.10534863 -0.27668908 0.028653484
-0.10549389 -0.27672768 0.028729213
-0.10564413 -0.27676913 0.028796861
-0.10579333 -0.27680957 0.028869122
-0.10593168 -0.27684337 0.028962165
-0.10607666 -0.27687973 0.029052895
-0.10621662 -0.27691489 0.029140167
-0.1063567 -0.2769483 0.029240135
-0.10649397 -0.27697715 0.029365476
-0.10663411 -0.27701041 0.029466596
-0.10676903 -0.27704042 0.029578105
-0.10690787 -0.27707225 0.029686145
-0.10704245 -0.27709985 0.029813804
-0.1071801 -0.27713031 0.029928766
-0.10731848 -0.2771613 0.030041415
-0.10744743 -0.27717358 0.03026366
-0.10755967 -0.27718443 0.030455964
-0.10790776 -0.27720523 0.031142404
-0.1080237 -0.27721864 0.031325471
-0.10317554 -0.27143523 0.060466442
-0.10340263 -0.27153146 0.060332045
-0.10360888 -0.27160388 0.060315344
-0.1038079 -0.27166897 0.060333274
-0.10401987 -0.27174762 0.060286574
-0.10422003 -0.27181667 0.060279116
-0.10440649 -0.2718688 0.060358196
-0.10460763 -0.27193639 0.060363419
-0.10480826 -0.27201152 0.060314447
-0.10502304 -0.27209389 0.060248129
-0.10522449 -0.27215683 0.060286812
-0.10541758 -0.27222431 0.060273603
-0.10564084 -0.27230826 0.060216494
-0.10583868 -0.27237573 0.060214821
-0.10605459 -0.27246028 0.060135812
-0.10625678 -0.27253005 0.06012835
-0.1064674 -0.2726092 0.060074732
-0.10665984 -0.27267122 0.060098439
-0.10684948 -0.27273014 0.060137149
-0.10704033 -0.27279899 0.060108956
-0.10727102 -0.27288711 0.060040291
-0.10746834 -0.27295211 0.060054757
-0.10767725 -0.27303034 0.060003452
-0.10787492 -0.27309594 0.060014457
-0.10806845 -0.2731598 0.060027782
-0.10827775 -0.27323902 0.059970707
-0.10847783 -0.27330771 0.059965558
-0.10868251 -0.27338192 0.059932724
-0.10887327 -0.27343994 0.059980646
-0.10909882 -0.27353907 0.059822042
-0.10929298 -0.27360135 0.059848055
-0.10949553 -0.27367365 0.059823293
-0.10968535 -0.27373087 0.05987468
-0.10988988 -0.27380583 0.059836075
-0.11008032 -0.27386701 0.059860937
-0.11027754 -0.27393016 0.059888087
-0.11047421 -0.27400228 0.059850655
-0.11068869 -0.27408373 0.059790108
-0.11088252 -0.27414623 0.059813812
-0.1110901 -0.27422601 0.059748672
-0.11128621 -0.27429155 0.059756223
-0.11149061 -0.27437106 0.059685327
-0.11168521 -0.27443495 0.059700951
-0.11188285 -0.27450284 0.059695803
-0.11208364 -0.27457488 0.05966875
-0.11227266 -0.27463868 0.0596717
-0.11245733 -0.2747038 0.059655063
-0.11267006 -0.27477106 0.059690241
-0.11287556 -0.27484998 0.059626259
-0.11307047 -0.27491495 0.059634961
-0.11327633 -0.27499479 0.059565224
-0.11345727 -0.27508089 0.059391737
-0.11367334 -0.27513522 0.059526097
-0.11386727 -0.27519938 0.05953826
-0.1140677 -0.27527264 0.059501976
-0.11426113 -0.27534005 0.059489928
-0.1144517 -0.2753998 0.059525162
-0.11465274 -0.2754744 0.059480801
-0.11484423 -0.27553558 0.059507966
-0.11505106 -0.27561888 0.059416309
-0.11522537 -0.27568683 0.059354708
-0.11544427 -0.27575672 0.059386425
-0.11563685 -0.2758199 0.059402049
-0.11583996 -0.27589881 0.059332307
-0.11600971 -0.27595672 0.059330709
-0.1162239 -0.2760281 0.059340507
-0.11642277 -0.27610129 0.059300769
-0.11662159 -0.27617463 0.059259869
-0.11681724 -0.27624333 0.059244357
-0.11701315 -0.27631256 0.059225373
-0.11720958 -0.27638283 0.05920063
-0.11739803 -0.27644494 0.059213966
-0.11755061 -0.27649406 0.059233166
-0.11777344 -0.27657148 0.059221037
-0.11796884 -0.27664974 0.059137467
-0.1181612 -0.27671418 0.059143879
-0.11837196 -0.27678144 0.059174456
-0.11856291 -0.27684835 0.059160098
-0.11876109 -0.27692297 0.059108824
-0.11895895 -0.2769973 0.059058703
-0.11914872 -0.27705792 0.059085883
-0.11934438 -0.27712888 0.059054211
-0.119536 -0.27719292 0.059061781
-0.11973198 -0.2772648 0.059024349
-0.11992431 -0.27733037 0.05902268
-0.12011196 -0.27739275 0.059032552
-0.12030306 -0.27745625 0.059042424
-0.12049635 -0.2775346 0.058953099
-0.12069632 -0.2776044 0.058939882
-0.12088887 -0.27767122 0.058930147
-0.12107784 -0.27773124 0.058959618
-0.12126576 -0.27779481 0.058961432
-0.12146488 -0.27787498 0.058873244
-0.12165613 -0.27793986 0.058873884
-0.12184808 -0.27800632 0.058865301
-0.12204261 -0.2780782 0.058824413
-0.12223274 -0.27814123 0.058835436
-0.12242208 -0.27820268 0.05885569
-0.1226126 -0.27827287 0.058817126
-0.12280595 -0.27834323 0.058784306
-0.12299792 -0.27841079 0.058767654
-0.12318736 -0.27847296 0.058783289
-0.1233795 -0.27854124 0.058762014
-0.1235746 -0.27861661 0.058698058
-0.12376407 -0.27867925 0.058710247
-0.12391883 -0.27873695 0.058674075
-0.12411304 -0.27879697 0.05871623
-0.12433362 -0.27887771 0.058675274
-0.12452462 -0.27894464 0.058660921
-0.12471724 -0.27901587 0.058620039
-0.12490749 -0.2790814 0.058613766
-0.12509875 -0.27914974 0.058590196
-0.12526053 -0.27921197 0.058539014
-0.1254361 -0.2792792 0.058485493
-0.12565896 -0.2793524 0.058503348
-0.12583444 -0.27941158 0.058506332
-0.12605073 -0.2794835 0.0585173
-0.12624146 -0.27955198 0.058491409
-0.1264271 -0.27961463 0.058494374
-0.12661715 -0.27968156 0.058477715
-0.12677997 -0.27974987 0.058386173
-0.1269535 -0.2798138 0.058351111
-0.12715697 -0.27987549 0.058403611
-0.12736776 -0.2799511 0.058375377
-0.12755376 -0.28001633 0.058361039
-0.12775677 -0.28008717 0.058347799
-0.12794672 -0.28015605 0.058317315
-0.12813562 -0.28022143 0.058308735
-0.12832418 -0.28028572 0.058307078
-0.12849247 -0.28034443 0.058296245
-0.12868062 -0.28040746 0.058302663
-0.12885615 -0.28045732 0.058371395
-0.12907556 -0.28054637 0.058269314
-0.12924805 -0.28061074 0.058228485
-0.12941563 -0.28066757 0.058229193
-0.12959827 -0.28073594 0.058184877
-0.1297908 -0.28079078 0.058259323
-0.12997936 -0.28087389 0.058125041
-0.13018748 -0.28094369 0.058131397
-0.13037534 -0.28100792 0.058128592
-0.13054946 -0.28106731 0.058126971
-0.13074528 -0.28114143 0.058073401
-0.13095072 -0.28121623 0.058038246
-0.13112091 -0.28127229 0.058050483
-0.13130818 -0.28133452 0.058060363
-0.13149558 -0.28139776 0.058063317
-0.13167958 -0.2814602 0.05806398
-0.13186017 -0.28152177 0.058062341
-0.13206932 -0.28160536 0.057974137
-0.13226689 -0.28167421 0.057962075
-0.13245456 -0.28174376 0.057921205
-0.1326011 -0.28179687 0.057897743
-0.13276838 -0.28186259 0.05783502
-0.13296804 -0.2819179 0.057923287
-0.13315785 -0.28197214 0.057995439
-0.13333204 -0.28204712 0.057884261
-0.13352266 -0.28212079 0.057821468
-0.13372971 -0.28218874 0.057838216
-0.1338961 -0.28224534 0.057837766
-0.13408621 -0.28230885 0.057845332
-0.13428991 -0.28238827 0.057773285
-0.13449012 -0.28244802 0.057831571
-0.13465975 -0.28250754 0.057818428
-0.13485296 -0.28257963 0.057772934
-0.13505955 -0.28265741 0.057719328
-0.13523646 -0.28270236 0.057826109
-0.13539217 -0.28276089 0.057786483
-0.13557503 -0.28282669 0.057760622
-0.13575506 -0.28288171 0.05780397
-0.13593271 -0.28296831 0.057618964
-0.13616952 -0.28305051 0.05760679
-0.13635594 -0.28311095 0.057627052
-0.13652197 -0.28316563 0.057639301
-0.13672143 -0.28323525 0.057626076
-0.13691002 -0.2833066 0.057574827
-0.13708912 -0.28336868 0.057566274
-0.1372616 -0.28342718 0.057566967
-0.13744025 -0.2834917 0.05753997
-0.13760333 -0.28354192 0.057576429
-0.13778983 -0.28360209 0.057599001
-0.13796838 -0.28366658 0.057571992
-0.13815902 -0.28374255 0.057493065
-0.13834961 -0.28381768 0.057419892
-0.13855219 -0.28388658 0.057419345
-0.13874714 -0.28394094 0.057503022
-0.1389187 -0.28400257 0.057479493
-0.13911654 -0.28407592 0.057436299
-0.13928285 -0.28412873 0.057462372
-0.13944042 -0.2841869 0.057429664
-0.13961621 -0.28425896 0.057342693
-0.13981241 -0.28432357 0.057357162
-0.14001863 -0.28440452 0.057280492
-0.14020248 -0.28446066 0.057324983
-0.14037988 -0.28452557 0.057292212
-0.14056946 -0.28458744 0.057310157
-0.14075054 -0.28465229 0.057286613
-0.14094533 -0.28472084 0.057269938
-0.14110959 -0.28475872 0.057396367
-0.14128044 -0.28483057 0.057299037
-0.14148262 -0.28491929 0.057157788
-0.14167148 -0.28497323 0.057229944
-0.14183117 -0.28503326 0.057189152
-0.14203611 -0.28510445 0.057178218
-0.14221939 -0.28515416 0.057266533
-0.1423862 -0.28521532 0.05723495
-0.14255166 -0.28528783 0.057120323
-0.14274497 -0.28536683 0.05702639
-0.14294432 -0.28543267 0.0570397
-0.14312288 -0.2854929 0.057042677
-0.14332482 -0.28555372 0.057097502
-0.14349984 -0.28560573 0.057150088
-0.14366165 -0.28566042 0.057151958
-0.14383674 -0.28573489 0.057046536
-0.14402159 -0.28581282 0.056939937
-0.14421228 -0.28587276 0.056974024
-0.14440309 -0.2859396 0.056959681
-0.14460227 -0.28601277 0.056921083
-0.14477816 -0.28607062 0.056934454
-0.14495754 -0.2861295 0.056948967
-0.14513104 -0.28619131 0.056928903
-0.14531279 -0.28626573 0.056839608
-0.14549798 -0.28632823 0.056842577
-0.14567704 -0.2863937 0.056809798
-0.14585969 -0.28645387 0.056823153
-0.1460309 -0.28651258 0.05681923
-0.14623323 -0.28658041 0.056825612
-0.14641109 -0.28664157 0.056820523
-0.14656934 -0.28670654 0.056741681
-0.14674141 -0.28676963 0.056708921
-0.14693132 -0.28683144 0.056728024
-0.14711928 -0.28689587 0.056724057
-0.14731082 -0.28696117 0.056722388
-0.14748898 -0.28701654 0.056758821
-0.14766569 -0.28708431 0.056704145
-0.14784504 -0.28714877 0.056679443
-0.14804527 -0.28721917 0.056662768
-0.14821576 -0.28728369 0.056616172
-0.14838642 -0.28734288 0.056607645
-0.1486109 -0.28741547 0.056633573
-0.14877215 -0.28747538 0.056597386
-0.14894597 -0.287536 0.056586545
-0.14913428 -0.28760004 0.056586038
-0.14931223 -0.28766564 0.056549814
-0.14949176 -0.28772488 0.056562014
-0.14966197 -0.28778458 0.056548879
-0.14983878 -0.28785568 0.056471135
-0.15003055 -0.28792074 0.056471776
-0.15022148 -0.28798667 0.056464344
-0.15040536 -0.28804627 0.05648461
-0.15058741 -0.28810769 0.056487579
-0.15076056 -0.28816462 0.056500956
-0.15095165 -0.28823894 0.056434706
-0.15112528 -0.28829965 0.056422707
-0.15130347 -0.2883563 0.056449909
-0.15148628 -0.28842536 0.056400985
-0.15166987 -0.28848961 0.056387812
-0.15184706 -0.28855526 0.056349281
-0.15202683 -0.28861871 0.056332648
-0.15221393 -0.28868005 0.056348298
-0.15239476 -0.28875038 0.05628553
-0.15257175 -0.288816 0.056247003
-0.15273833 -0.28888214 0.056179665
-0.15291609 -0.28893951 0.0562011
-0.15308952 -0.28899652 0.056214478
-0.15328307 -0.28906056 0.056226641
-0.15346143 -0.28912136 0.05622502
-0.1536456 -0.28918517 0.056216452
-0.15383306 -0.28924662 0.056232095
-0.15402324 -0.28931689 0.056192376
-0.15419932 -0.28937939 0.056173444
-0.15436761 -0.28944382 0.056122251
-0.15456493 -0.28949866 0.056208219
-0.15473527 -0.28956854 0.056123577
-0.15494293 -0.28963378 0.05616108
-0.15511736 -0.28970081 0.056106407
-0.15530257 -0.28976738 0.056080543
-0.15548085 -0.28982851 0.056076601
-0.15568106 -0.28989547 0.056084141
-0.1558286 -0.28995955 0.055985719
-0.1560308 -0.29002851 0.055984024
-0.15619181 -0.29008734 0.055954762
-0.15637973 -0.29015225 0.055947337
-0.15657203 -0.29021144 0.055990648
-0.15677287 -0.29028761 0.05593475
-0.15695909 -0.29035357 0.055915799
-0.15710717 -0.29041359 0.055847358
-0.1572956 -0.29047522 0.055864155
-0.15747485 -0.29054502 0.055801395
-0.15765446 -0.29059955 0.055847049
-0.15782827 -0.29065442 0.055876575
-0.15802023 -0.29072332 0.055850681
-0.15818492 -0.29078603 0.055802952
-0.15837407 -0.29085055 0.055801295
-0.15856993 -0.29091454 0.055819232
-0.15874857 -0.29097873 0.055794533
-0.15893339 -0.29103699 0.055826325
-0.15911362 -0.29110894 0.055750884
-0.15928945 -0.2911717 0.055729654
-0.1594691 -0.29123542 0.055710722
-0.15966129 -0.29130423 0.055685986
-0.15984136 -0.29136777 0.055669352
-0.15999655 -0.29142922 0.055607814
-0.16016611 -0.29148674 0.055608515
-0.1603688 -0.29155615 0.05560451
-0.160561 -0.29161432 0.055654742
-0.16074967 -0.29167947 0.055647321
-0.16093695 -0.29174793 0.055613372
-0.16110915 -0.29180977 0.055589851
-0.16128968 -0.29187068 0.055592824
-0.1614743 -0.29194281 0.055526588
-0.16165633 -0.29200569 0.055519186
-0.16183062 -0.29206416 0.055524483
-0.16202329 -0.29212788 0.05553665
-0.1622097 -0.29219669 0.055498093
-0.16238609 -0.29225945 0.055478022
-0.16258007 -0.29232281 0.055495955
-0.162779 -0.29239425 0.055468895
-0.16294795 -0.29246235 0.05539348
-0.16313052 -0.29252526 0.055387229
-0.1633102 -0.29258686 0.055383284
-0.16348809 -0.29264918 0.055370126
-0.16366686 -0.29271358 0.055344269
-0.16385293 -0.29277539 0.055354152
-0.16404943 -0.29283831 0.055381306
-0.16423097 -0.29290888 0.055318549
-0.16440374 -0.29297075 0.055296164
-0.16458479 -0.29303446 0.055280689
-0.1647649 -0.29309621 0.055276752
-0.16495824 -0.29316509 0.055254314
-0.16514184 -0.29323259 0.055218074
-0.16531961 -0.2932952 0.055202607
-0.16548645 -0.29336357 0.055120274
-0.1656678 -0.29342279 0.05513709
-0.16587649 -0.29348248 0.055216111
-0.16607454 -0.29355228 0.055198278
-0.16623901 -0.29361689 0.055136718
-0.16642988 -0.29368231 0.055132739
-0.16659281 -0.29374951 0.055049267
-0.16679129 -0.2938149 0.055063739
-0.16698627 -0.29388139 0.055062063
-0.16715059 -0.29394594 0.055000491
-0.16734642 -0.29400796 0.055032264
-0.16753609 -0.29407182 0.05503637
-0.16772847 -0.29413921 0.055022016
-0.16790582 -0.29420233 0.055001937
-0.16807979 -0.29426426 0.054981861
-0.1682836 -0.29433081 0.055000927
-0.16847968 -0.29439947 0.054986563
-0.16864164 -0.29446667 0.05490078
-0.16881876 -0.29453197 0.054864556
-0.16900685 -0.29458842 0.054917097
-0.16919385 -0.29465744 0.05487854
-0.16937444 -0.29472196 0.054856148
-0.16958234 -0.2947799 0.054945551
-0.16976359 -0.29485038 0.054882791
-0.1699464 -0.29491648 0.054854624
-0.17012294 -0.29498014 0.05482877
-0.17031471 -0.29504618 0.054822493
-0.17048031 -0.29511625 0.054725178
-0.17067339 -0.29517817 0.05475118
-0.17085844 -0.29524192 0.054744922
-0.17105474 -0.29530329 0.054782454
-0.17122108 -0.29537311 0.054688592
-0.17143223 -0.29543528 0.054756079
-0.17159563 -0.2955038 0.054664522
-0.17178854 -0.29556611 0.054687079
-0.17197859 -0.29562911 0.054698102
-0.17214897 -0.29569805 0.054620378
-0.17233677 -0.29576159 0.054622181
-0.17252691 -0.29582658 0.054619364
-0.17273352 -0.2958903 0.05466494
-0.17290179 -0.29595408 0.054618362
-0.17307249 -0.29602474 0.054529101
-0.17327788 -0.29608709 0.054581605
-0.17346473 -0.29615113 0.054577641
-0.17365074 -0.29621536 0.054570228
-0.17383146 -0.29628602 0.054505154
-0.17400998 -0.29634625 0.054508142
-0.17419007 -0.29641518 0.054453455
-0.1743799 -0.29647711 0.054471396
-0.1745915 -0.29655498 0.054429315
-0.17476967 -0.29661721 0.054417297
-0.1749514 -0.29668066 0.054405279
-0.17512669 -0.29674521 0.05437021
-0.17532814 -0.29681256 0.054377746
-0.17548576 -0.2968747 0.054317351
-0.17569073 -0.29694161 0.054336414
-0.17587303 -0.29700691 0.054312855
-0.1760442 -0.29707217 0.054262809
-0.17624119 -0.29713702 0.054277278
-0.17643157 -0.29720291 0.054268695
-0.17661539 -0.29726642 0.054261278
-0.17682105 -0.29733703 0.054256115
-0.1770176 -0.29740226 0.054267123
-0.17719875 -0.29746795 0.054237809
-0.17737395 -0.29753116 0.05421197
-0.17757788 -0.29759887 0.05422296
-0.17776899 -0.29766339 0.054225903
-0.17793323 -0.29772645 0.054174718
-0.17809568 -0.29778972 0.054117769
-0.17832692 -0.29785103 0.0542394
-0.17850678 -0.2979269 0.054135125
-0.17870925 -0.29800168 0.054093067
-0.17888674 -0.29806647 0.054061454
-0.17910004 -0.29814163 0.054042421
-0.17926857 -0.29820108 0.05402698
-0.17943354 -0.29826096 0.05400002
-0.17961743 -0.29832515 0.053987995
-0.17983122 -0.29839408 0.054013945
-0.18002687 -0.29846504 0.05398228
-0.18022989 -0.29853213 0.053995579
-0.18040971 -0.29859069 0.05401355
-0.18058337 -0.29866397 0.053912751
-0.18077871 -0.2987242 0.053956054
-0.18098569 -0.29879737 0.053935889
-0.18114513 -0.29885963 0.053878959
-0.18133239 -0.29892546 0.053863458
-0.18152986 -0.29898885 0.053889457
-0.18170559 -0.2990604 0.053805947
-0.18192771 -0.2991294 0.053851493
-0.18212017 -0.29919651 0.053839445
-0.18229344 -0.29925919 0.053812452
-0.18247518 -0.29932576 0.053778518
-0.18265909 -0.29938766 0.053782638
-0.18285744 -0.29945445 0.053786725
-0.18305427 -0.29952893 0.05373314
-0.18322276 -0.29959068 0.05370155
-0.18341631 -0.29965502 0.053711418
-0.18358856 -0.29971951 0.053669438
-0.18382345 -0.29978842 0.053746082
-0.18400669 -0.29986253 0.053662553
-0.18419079 -0.29992777 0.05364361
-0.18436059 -0.29998961 0.053614318
-0.18451546 -0.30005243 0.053542402
-0.18473756 -0.30011538 0.053630613
-0.18490179 -0.30018055 0.053564433
-0.1851168 -0.30025715 0.053539637
-0.18529946 -0.30032268 0.053514928
-0.18548489 -0.30039099 0.053477526
-0.18570428 -0.30045319 0.053564597
-0.185886 -0.30052465 0.053496059
-0.18607105 -0.30059594 0.053436752
-0.18627246 -0.30066639 0.053422369
-0.18645637 -0.3007265 0.053439181
-0.18665904 -0.30079281 0.053457089
-0.18682224 -0.3008596 0.053377073
-0.18702924 -0.30092722 0.053396132
-0.18723178 -0.30099514 0.053402506
-0.18740711 -0.30105871 0.053374358
-0.18755908 -0.30111906 0.053312827
-0.18778777 -0.3011944 0.053329516
-0.18801129 -0.30127138 0.053321995
-0.18818796 -0.30133229 0.053315759
-0.1883886 -0.301402 0.05330484
-0.18859582 -0.3014743 0.053291604
-0.18878372 -0.30154181 0.053265721
-0.18895929 -0.3016043 0.053245649
-0.18916565 -0.3016673 0.053295843
-0.1893295 -0.30173561 0.053206597
-0.18951306 -0.30179936 0.053196885
-0.18972877 -0.30187175 0.053203221
-0.18987271 -0.30193791 0.053081743
-0.1901083 -0.30200592 0.053166453
-0.19028926 -0.3020699 0.053148679
-0.1009929 -0.27517074 0.028924834
-0.10118622 -0.27525109 0.028821643
-0.10137463 -0.27532744 0.028734611
-0.10155819 -0.27539986 0.02866374
-0.10174476 -0.27547348 0.028591711
-0.10192227 -0.27554107 0.02854047
-0.10209273 -0.27560428 0.028503086
-0.10227002 -0.27567196 0.028450698
-0.10244538 -0.27573651 0.028415611
-0.10261409 -0.27579701 0.028393239
-0.10278438 -0.27585736 0.028375471
-0.10295452 -0.27591935 0.028346166
-0.10312263 -0.27597964 0.028323784
-0.103286 -0.27603585 0.028318724
-0.10344891 -0.27609175 0.028314821
-0.10361348 -0.27614918 0.02830399
-0.10378116 -0.2762095 0.028280459
-0.10394034 -0.27626234 0.028289258
-0.10409318 -0.27631122 0.028310757
-0.10425106 -0.27636132 0.028335705
-0.10441403 -0.27641773 0.028328335
-0.10457462 -0.27647036 0.028341737
-0.10471992 -0.27651259 0.028392103
-0.10487233 -0.27655789 0.028437829
-0.10501634 -0.2765972 0.028505493
-0.10517147 -0.27664325 0.028552365
-0.10531302 -0.27668026 0.028630422
-0.10545892 -0.27671778 0.02871538
-0.1056 -0.2767525 0.028808437
-0.10574535 -0.27679113 0.028884176
-0.10588694 -0.27682617 0.028976072
-0.10602649 -0.27686104 0.029064514
-0.10616587 -0.27689567 0.029154107
-0.10630157 -0.27692497 0.029272556
-0.10644205 -0.27695867 0.029371383
-0.10657541 -0.27698731 0.029488675
-0.10671033 -0.27701554 0.029612893
-0.10683747 -0.27703798 0.029759046
-0.1069718 -0.27706534 0.029887874
-0.10710505 -0.2770915 0.030022485
-0.10724019 -0.2771062 0.030242441
-0.10736058 -0.27710998 0.03050397
-0.1074722 -0.27711812 0.030713612
-0.10293606 -0.27138475 0.060248882
-0.10314506 -0.27146238 0.060202166
-0.1033168 -0.27152473 0.060174011
-0.10354041 -0.27159226 0.060233384
-0.10375105 -0.27166948 0.060193595
-0.10395823 -0.27174586 0.060151495
-0.10415865 -0.27181271 0.060160171
-0.10435995 -0.27189887 0.060035042
-0.10456528 -0.27195805 0.060109466
-0.10476089 -0.27202541 0.060103163
-0.10497258 -0.27209938 0.060088739
-0.10515855 -0.27215394 0.060149375
-0.10535657 -0.27222687 0.060109612
-0.10557155 -0.27231014 0.060037509
-0.10577646 -0.27237999 0.060035795
-0.1059863 -0.27245808 0.059987918
-0.10618873 -0.27252823 0.059978142
-0.1063852 -0.27259475 0.059979912
-0.10657812 -0.27266577 0.059941322
-0.10679264 -0.27274412 0.059902668
-0.10699609 -0.27281594 0.059883654
-0.10719758 -0.27288857 0.059854269
-0.10739549 -0.2729544 0.059864111
-0.10759602 -0.27302623 0.059838187
-0.10779203 -0.27309009 0.059857249
-0.10799894 -0.27316949 0.059793249
-0.10820013 -0.27323955 0.059781156
-0.10837537 -0.27328262 0.059897192
-0.10859765 -0.27337739 0.059761617
-0.10880105 -0.27345344 0.059712611
-0.10900189 -0.27352667 0.059677467
-0.10919218 -0.27358451 0.059725389
-0.1093775 -0.27363953 0.05978141
-0.10957909 -0.27371398 0.059739325
-0.10979427 -0.27380189 0.059634924
-0.10998818 -0.27386752 0.059636705
-0.11018243 -0.27393049 0.05965808
-0.11038244 -0.27400374 0.059620634
-0.11056778 -0.27407515 0.05956129
-0.1107536 -0.27413443 0.059588466
-0.11097563 -0.2742129 0.059567101
-0.11116667 -0.27427557 0.059582733
-0.11136353 -0.27434236 0.05958334
-0.1115676 -0.27442175 0.059512414
-0.11175901 -0.27448523 0.059523433
-0.11195995 -0.27455768 0.059494041
-0.1121645 -0.27463838 0.059415042
-0.112355 -0.27470103 0.059429519
-0.11254611 -0.27476457 0.059439376
-0.11274287 -0.27483216 0.059434228
-0.11293769 -0.27490431 0.059392169
-0.11313085 -0.2749638 0.059435472
-0.11332226 -0.27502805 0.059440725
-0.11352065 -0.27510193 0.059395187
-0.11371741 -0.27517375 0.059360053
-0.1139134 -0.27524108 0.059354894
-0.11410825 -0.27531064 0.059331294
-0.11430559 -0.2753838 0.059288081
-0.11449686 -0.27544871 0.059288703
-0.11468902 -0.27551112 0.05930895
-0.11488812 -0.27558735 0.059248418
-0.11508514 -0.27565697 0.059229426
-0.11528291 -0.27573177 0.059175823
-0.11544386 -0.27578473 0.059188075
-0.11565228 -0.2758556 0.059187502
-0.11583102 -0.27591082 0.059226234
-0.11605032 -0.2759982 0.059135661
-0.11624523 -0.27606565 0.059127055
-0.11642803 -0.27613142 0.059101176
-0.11660009 -0.27621451 0.058927663
-0.11681268 -0.27627599 0.059003226
-0.11700986 -0.27632621 0.059121504
-0.11720829 -0.27640417 0.059047133
-0.11739583 -0.27646518 0.059066229
-0.11758773 -0.27654207 0.05898381
-0.11778718 -0.27660468 0.059020177
-0.11798123 -0.27667657 0.058978118
-0.11815917 -0.27673137 0.059018008
-0.11835422 -0.27680063 0.058996707
-0.1185568 -0.27687806 0.058936171
-0.11874572 -0.27694216 0.058936812
-0.11894248 -0.27701497 0.058894739
-0.11912455 -0.27707723 0.058891937
-0.11932483 -0.27715173 0.058846407
-0.1195162 -0.27722076 0.058818199
-0.11969203 -0.27726731 0.058911152
-0.11989629 -0.27734953 0.05882062
-0.12005745 -0.27741057 0.058776341
-0.120251 -0.27746347 0.058866948
-0.12046535 -0.27754423 0.058810994
-0.12063737 -0.27761552 0.058720548
-0.12085241 -0.27768752 0.058728036
-0.12104356 -0.27775776 0.058690596
-0.12123264 -0.27782422 0.058675088
-0.12140372 -0.27788371 0.058665387
-0.12160062 -0.27794889 0.058677547
-0.1218003 -0.27801976 0.058656231
-0.12198732 -0.2780886 0.058618814
-0.12218036 -0.27815819 0.058590598
-0.12236533 -0.27821717 0.058617771
-0.12252831 -0.27827278 0.058616184
-0.12272744 -0.27834344 0.058594868
-0.12291773 -0.27841422 0.058551673
-0.12308869 -0.27846843 0.058578886
-0.12331185 -0.27854761 0.058555208
-0.12350266 -0.27861366 0.058546618
-0.12369356 -0.27868694 0.058487263
-0.12387547 -0.27873948 0.058552518
-0.12405512 -0.27880058 0.058552019
-0.12424076 -0.27886912 0.058513448
-0.12444119 -0.27893779 0.058509436
-0.12462364 -0.27900639 0.058462806
-0.12480226 -0.27907321 0.058419637
-0.12500511 -0.27913338 0.058481373
-0.12519571 -0.27920851 0.058408178
-0.12538266 -0.27927437 0.058391519
-0.12556377 -0.27934107 0.058355264
-0.12574676 -0.27939641 0.058403213
-0.12592995 -0.27946088 0.058387719
-0.12609489 -0.27950779 0.058451869
-0.12627603 -0.27958432 0.058346398
-0.12649196 -0.27966544 0.058291592
-0.12668328 -0.27973723 0.058243774
-0.12684841 -0.27978489 0.058303304
-0.12703167 -0.27987078 0.058136694
-0.12722932 -0.27993459 0.058160376
-0.12743595 -0.2799975 0.058211729
-0.12763195 -0.28006613 0.058197349
-0.1278169 -0.28012887 0.05819799
-0.12798056 -0.28019336 0.05813526
