# .PCD v0.7 - Point Cloud Data file format
VERSION 0.7
FIELDS x y z
SIZE 4 4 4
TYPE F F F
COUNT 1 1 1
WIDTH 1224
HEIGHT 1
VIEWPOINT 0 0 0 1 0 0 0
POINTS 1224
DATA ascii
-0.099467546 -0.45250469 0.051942252
-0.099628031 -0.45262533 0.051881328
-0.099788398 -0.45273772 0.05187
-0.099947445 -0.45285416 0.051828697
-0.10010821 -0.45296872 0.051805831
-0.10026579 -0.45308051 0.051786445
-0.10042475 -0.45318887 0.051793583
-0.10056889 -0.45328605 0.051806573
-0.10072111 -0.45339644 0.051773384
-0.10086542 -0.4534947 0.0517806
-0.10101342 -0.45359835 0.051770501
-0.10120147 -0.4537386 0.05170596
-0.10137234 -0.45385805 0.051695731
-0.10152817 -0.45396519 0.051697116
-0.10168777 -0.45407858 0.051676564
-0.10184316 -0.45418429 0.051684879
-0.10200325 -0.45430067 0.051648185
-0.10215948 -0.45441097 0.051632266
-0.10231566 -0.45452142 0.051615193
-0.10247265 -0.45463642 0.051573906
-0.10261092 -0.4547326 0.051568471
-0.10276268 -0.45483428 0.051586028
-0.10293528 -0.45495376 0.051582709
-0.10306858 -0.45505109 0.051549625
-0.10325811 -0.45519638 0.051460855
-0.10341125 -0.45529252 0.051517621
-0.10356402 -0.45540175 0.051493645
-0.10370884 -0.45550969 0.051444359
-0.1038731 -0.4556284 0.051411089
-0.10400663 -0.45571387 0.051450677
-0.10415644 -0.45582277 0.051416337
-0.10433108 -0.4559435 0.051414158
-0.10450353 -0.45606804 0.051379692
-0.1046389 -0.4561685 0.051336218
-0.10478088 -0.4562594 0.051378056
-0.10494876 -0.45636934 0.051412821
-0.10510127 -0.45648375 0.051356561
-0.10526217 -0.45660394 0.05130025
-0.10541909 -0.45671222 0.051299319
-0.10558718 -0.45682612 0.051311016
-0.1057478 -0.45694745 0.051246639
-0.10590188 -0.45705646 0.051229574
-0.1060414 -0.45715216 0.051232211
-0.10618328 -0.457243 0.051274054
-0.10634638 -0.45736834 0.051195815
-0.10652 -0.45748967 0.051185571
-0.10666494 -0.45758778 0.051196247
-0.10682443 -0.45770434 0.051156096
-0.10698351 -0.45781296 0.051162072
-0.10712279 -0.45791176 0.051145103
-0.10728194 -0.45802712 0.051110722
-0.10744663 -0.45814592 0.05107861
-0.10759129 -0.4582442 0.051086977
-0.10772175 -0.45833406 0.051087365
-0.10790884 -0.45847213 0.051032048
-0.10805897 -0.45857993 0.051005788
-0.10820332 -0.45868525 0.050970342
-0.10835638 -0.45878229 0.051021338
-0.10849786 -0.4588826 0.051004358
-0.10865338 -0.45899352 0.050981525
-0.108806 -0.45910192 0.050962172
-0.10896438 -0.45921063 0.050964702
-0.1091194 -0.459326 0.050913036
-0.10927755 -0.45943627 0.050905179
-0.10941345 -0.45952529 0.050933212
-0.10957111 -0.45964077 0.050891925
-0.10972634 -0.45974827 0.050888691
-0.10987641 -0.45984632 0.050921258
-0.11004502 -0.4599703 0.050874133
-0.11018768 -0.46008036 0.050802931
-0.11032947 -0.46017021 0.05085054
-0.11049022 -0.46028057 0.050853048
-0.11065401 -0.46039093 0.050868228
-0.11080771 -0.46050709 0.050806202
-0.11096374 -0.46062717 0.05073031
-0.11111565 -0.46073237 0.050727107
-0.11127247 -0.46084553 0.05069619
-0.11142152 -0.46094841 0.050695315
-0.11155951 -0.46104228 0.050702572
-0.11169598 -0.46114427 0.050654478
-0.11186133 -0.46126086 0.050638512
-0.11202089 -0.46137404 0.050619118
-0.11216548 -0.46146655 0.050662093
-0.11230315 -0.46157587 0.05057478
-0.11245938 -0.46168825 0.050546177
-0.11260538 -0.46178845 0.050548777
-0.11276258 -0.46189636 0.050551303
-0.11291172 -0.46199697 0.050564267
-0.11305746 -0.46209794 0.050561097
-0.11320653 -0.4622229 0.050426435
-0.11336071 -0.46232873 0.050428979
-0.11351362 -0.46242741 0.050469596
-0.11365608 -0.46252725 0.050459538
-0.11382426 -0.4626534 0.050397411
-0.11398257 -0.46275672 0.050432239
-0.1141353 -0.46286651 0.050404802
-0.11428218 -0.46296293 0.050433926
-0.11444005 -0.46307757 0.050398394
-0.11458756 -0.46318185 0.050382536
-0.11475021 -0.46329257 0.050390802
-0.11488542 -0.46339178 0.05035425
-0.11504029 -0.46350399 0.050321043
-0.11518244 -0.46360323 0.050313286
-0.11533447 -0.46371311 0.050282396
-0.11547589 -0.46380538 0.05031386
-0.11563298 -0.46392006 0.050274871
-0.11580544 -0.46404099 0.050262321
-0.11594103 -0.46413797 0.050240755
-0.116079 -0.46423757 0.050213415
-0.11622668 -0.46434006 0.050209086
-0.1163875 -0.4644537 0.050191995
-0.1165361 -0.46456158 0.050158825
-0.11667619 -0.46465656 0.050168376
-0.11683036 -0.46476084 0.050180152
-0.11697543 -0.46486783 0.050137769
-0.11712657 -0.46497059 0.05014611
-0.11728311 -0.46508434 0.050110586
-0.11743405 -0.46518737 0.050116617
-0.11759075 -0.46529397 0.050124917
-0.11773778 -0.46539047 0.050154041
-0.11788082 -0.46548709 0.050165888
-0.11801968 -0.46560922 0.050005905
-0.11817664 -0.46572134 0.049981907
-0.11833537 -0.46583068 0.049982123
-0.11848909 -0.46592933 0.050026197
-0.11863361 -0.46604145 0.049950372
-0.11878323 -0.46614015 0.049977172
-0.11893462 -0.46624804 0.049955525
-0.11909115 -0.46636027 0.049929228
-0.11925139 -0.46647865 0.049880993
-0.11938725 -0.46657318 0.04987558
-0.11954261 -0.46667561 0.049903497
-0.1196896 -0.4667778 0.049898013
-0.11983588 -0.46688619 0.049852166
-0.1199815 -0.46698993 0.0498317
-0.12013185 -0.4671036 0.049770843
-0.12029137 -0.46720129 0.049844868
-0.12044116 -0.46730521 0.049840529
-0.12059397 -0.46741581 0.049808484
-0.12073869 -0.46752027 0.049779944
-0.12088899 -0.46761864 0.049811359
-0.12104031 -0.46772575 0.04979432
-0.12119138 -0.46783304 0.049774975
-0.12133995 -0.4679428 0.049730267
-0.12148452 -0.46805173 0.049674053
-0.12162104 -0.46816367 0.049565986
-0.12177851 -0.4682689 0.049585819
-0.12193307 -0.46838146 0.049549155
-0.12208497 -0.46848744 0.049541336
-0.12224104 -0.4685896 0.049573865
-0.12238728 -0.46869189 0.049564924
-0.12253697 -0.46880412 0.049509842
-0.12269142 -0.46890786 0.049526222
-0.12285295 -0.46901417 0.049556412
-0.12300058 -0.46911949 0.049534786
-0.12315119 -0.46922648 0.049515441
-0.12329507 -0.46933052 0.049485758
-0.12344486 -0.46942988 0.049509093
-0.12359212 -0.46953532 0.049485162
-0.12375071 -0.46964419 0.04948768
-0.12390267 -0.46975401 0.049456801
-0.12404496 -0.46985507 0.049438663
-0.12418944 -0.4699662 0.049368612
-0.12435486 -0.47007409 0.049405687
-0.12450042 -0.47018042 0.049369074
-0.12464192 -0.47027808 0.04936824
-0.12480017 -0.47037965 0.04941345
-0.12494502 -0.4704901 0.049349163
-0.12509646 -0.4705925 0.049360953
-0.12525252 -0.47070667 0.049320817
-0.12539229 -0.47081268 0.049262322
-0.1255365 -0.47091943 0.049217645
-0.12568296 -0.47101766 0.049234085
-0.12583704 -0.47111502 0.049287383
-0.12600349 -0.47122303 0.049327925
-0.12615047 -0.47133511 0.049262464
-0.12629053 -0.4714371 0.049229342
-0.12643594 -0.47154298 0.04919504
-0.12658867 -0.47165504 0.049153768
-0.12673438 -0.471764 0.049102165
-0.12688459 -0.47187051 0.049083974
-0.12703507 -0.4719736 0.0490877
-0.12719993 -0.47208601 0.049094804
-0.12734054 -0.47219068 0.049047839
-0.12748829 -0.47229189 0.049051579
-0.12763917 -0.47239485 0.04905761
-0.12779503 -0.4724988 0.049078606
-0.12793301 -0.47260451 0.049014356
-0.12809516 -0.47271201 0.049039934
-0.12824854 -0.47282338 0.049005575
-0.12839665 -0.47292769 0.048992015
-0.1285347 -0.47303307 0.048930079
-0.12868379 -0.4731369 0.048923433
-0.12883915 -0.47324431 0.048921362
-0.12899493 -0.47334856 0.048940044
-0.1291429 -0.47345886 0.048889577
-0.12929867 -0.47356027 0.048925571
-0.12944146 -0.47366947 0.048860136
-0.12958662 -0.47376603 0.048881199
-0.12974377 -0.47387296 0.048889495
-0.12988564 -0.47397944 0.048836756
-0.1300395 -0.47408751 0.048824314
-0.13016991 -0.47419199 0.048735894
-0.13032508 -0.47429392 0.048766118
-0.13047992 -0.47439888 0.048776738
-0.13062769 -0.47450885 0.048727423
-0.13077463 -0.47461349 0.048706952
-0.13092743 -0.47471914 0.048704892
-0.13108014 -0.47481936 0.048735134
-0.13123524 -0.47492716 0.048729613
-0.13138185 -0.47503197 0.048706833
-0.1315354 -0.47513753 0.04870823
-0.13167861 -0.47524324 0.048665863
-0.13182403 -0.47534567 0.048652317
-0.13198221 -0.4754554 0.048647929
-0.1321259 -0.47556353 0.048592869
-0.13227682 -0.47566462 0.048610441
-0.13241158 -0.47576964 0.048536982
-0.13256317 -0.47587577 0.048526861
-0.13270876 -0.47598329 0.04848332
-0.13286728 -0.47608793 0.048511229
-0.13301279 -0.47619292 0.048482683
-0.13317679 -0.47629902 0.048524387
-0.13333133 -0.47640473 0.048529252
-0.13348119 -0.47651139 0.04850876
-0.13362287 -0.47661716 0.048459481
-0.1337827 -0.47672194 0.048491981
-0.13392019 -0.47682843 0.048420817
-0.13407208 -0.47693229 0.048425693
-0.13422883 -0.47703779 0.048440911
-0.13436928 -0.4771437 0.04838587
-0.1345145 -0.47725114 0.048341192
-0.13466418 -0.4773531 0.048348378
-0.13480632 -0.47745863 0.048302565
-0.1349628 -0.47756433 0.048315477
-0.13512366 -0.47766712 0.048364129
-0.13526203 -0.47778016 0.048257202
-0.13540709 -0.47788522 0.048226353
-0.13555865 -0.47798944 0.048227772
-0.13570416 -0.47809669 0.048185389
-0.13585559 -0.47819871 0.04819949
-0.13602394 -0.47830784 0.048241168
-0.13617098 -0.47841275 0.048219547
-0.13631989 -0.47851971 0.048193291
-0.13646992 -0.47862208 0.04819933
-0.13662344 -0.47872862 0.04819496
-0.13677761 -0.4788329 0.048206743
-0.13692455 -0.4789423 0.048157431
-0.13706788 -0.4790498 0.048104685
-0.13721645 -0.479159 0.048063442
-0.13737226 -0.47926328 0.048082128
-0.13751763 -0.47936627 0.048065122
-0.13766173 -0.47946721 0.048055045
-0.13780828 -0.47957656 0.04800459
-0.13793778 -0.47968271 0.047902334
-0.13809176 -0.47978306 0.047937177
-0.13827732 -0.47989014 0.04806295
-0.1384252 -0.48000151 0.048005566
-0.13857028 -0.48010468 0.047986254
-0.13872482 -0.48021573 0.047958821
-0.13887066 -0.48032093 0.047930274
-0.13899823 -0.48042479 0.047833789
-0.13916473 -0.48053131 0.047883559
-0.13932163 -0.48063824 0.047890708
-0.13946566 -0.48074356 0.047854103
-0.13960114 -0.48084906 0.04778064
-0.13976769 -0.48094988 0.047865007
-0.13992338 -0.48105904 0.047853712
-0.14006896 -0.48116636 0.047811329
-0.14022745 -0.48127553 0.047811549
-0.14038043 -0.48138282 0.047800262
-0.14051405 -0.48148629 0.047731429
-0.14065789 -0.48159164 0.047693677
-0.1408142 -0.48169702 0.047707748
-0.14096731 -0.4818044 0.04769646
-0.14112431 -0.48190609 0.047735907
-0.14127733 -0.48201549 0.047711939
-0.14142612 -0.48212293 0.047682226
-0.14156525 -0.48222828 0.047624893
-0.14171889 -0.48233393 0.04762629
-0.14186774 -0.48243952 0.047608107
-0.14202514 -0.48255101 0.047589883
-0.14217731 -0.48265487 0.0475959
-0.14233771 -0.48275906 0.047634173
-0.1424768 -0.48286629 0.047565304
-0.142625 -0.482972 0.047543671
-0.14278628 -0.48308197 0.047550797
-0.14292906 -0.48318565 0.047518808
-0.14306086 -0.48328879 0.047444217
-0.14322004 -0.48339331 0.047475569
-0.14337501 -0.4835031 0.047457352
-0.14352071 -0.48360881 0.047425359
-0.14367296 -0.48371309 0.047429074
-0.14383313 -0.48382154 0.047440812
-0.14398944 -0.48392978 0.047437586
-0.14412317 -0.48403656 0.047349144
-0.14428817 -0.48414546 0.047378153
-0.14443214 -0.48424938 0.047349628
-0.1445936 -0.48435643 0.047375198
-0.14473681 -0.48446211 0.047332831
-0.14489946 -0.48457113 0.047351483
-0.14504305 -0.48467687 0.047310263
-0.14519133 -0.4847813 0.047296703
-0.14534824 -0.48488826 0.047303852
-0.1454954 -0.48499438 0.047275309
-0.14564866 -0.48509938 0.047279019
-0.14579235 -0.48520693 0.047227416
-0.14595021 -0.48531586 0.047226489
-0.14611617 -0.48542905 0.047233589
-0.14625606 -0.48553455 0.047178548
-0.14640455 -0.48563761 0.047174215
-0.14655133 -0.48574385 0.047143366
-0.1467061 -0.48584932 0.047150526
-0.14685057 -0.48595703 0.047101229
-0.14700076 -0.48606372 0.047081888
-0.14715333 -0.48617071 0.047070604
-0.14730857 -0.48627478 0.04708815
-0.14746843 -0.48638606 0.047081433
-0.14760746 -0.48649153 0.04702295
-0.14775318 -0.48659459 0.047007095
-0.14789015 -0.48670301 0.046922095
-0.14806658 -0.48681334 0.046990257
-0.14821932 -0.48692062 0.046977818
-0.14836012 -0.48702636 0.046925087
-0.14853226 -0.48713639 0.046977125
-0.1486983 -0.4872489 0.046988837
-0.14881793 -0.48735011 0.046875101
-0.14896309 -0.48745334 0.046855789
-0.14911796 -0.48756117 0.046849109
-0.1492722 -0.48766896 0.046840124
-0.14943828 -0.48778012 0.046859909
-0.14958246 -0.48788649 0.046817534
-0.14975616 -0.48799738 0.046870723
-0.14990513 -0.48810458 0.046843309
-0.15006483 -0.48821193 0.04685967
-0.15020427 -0.48831922 0.046791956
-0.1503382 -0.48842251 0.046725422
-0.15049998 -0.48853186 0.046738312
-0.15062921 -0.4886359 0.046647586
-0.15079078 -0.4887453 0.046659321
-0.15094846 -0.48885563 0.046649165
-0.15110663 -0.48896459 0.046649385
-0.15126747 -0.48907408 0.046657663
-0.15142921 -0.48918378 0.046668243
-0.15159586 -0.48929593 0.046684556
-0.15173589 -0.48940188 0.046627216
-0.15188077 -0.48950875 0.046584837
-0.15205163 -0.48961884 0.04663112
-0.1521962 -0.48972717 0.046578366
-0.1523605 -0.48983771 0.046594702
-0.15249422 -0.48994255 0.046517789
-0.15265912 -0.4900533 0.046535272
-0.15282407 -0.49016559 0.046543524
-0.15297343 -0.49027497 0.046504579
-0.15314105 -0.49038646 0.046528965
-0.15331426 -0.49049911 0.046569467
-0.15345848 -0.49060759 0.046514403
-0.15361489 -0.49071705 0.046504259
-0.15376869 -0.49082604 0.046486046
-0.15389374 -0.49092779 0.046391893
-0.15407358 -0.49104503 0.04643235
-0.15422562 -0.49115378 0.046408389
-0.15435576 -0.4912594 0.046311889
-0.1545333 -0.49137354 0.046361584
-0.15468715 -0.49148273 0.046342235
-0.15482974 -0.49158821 0.04629872
-0.15500155 -0.49170277 0.046321921
-0.15515891 -0.49181288 0.04631177
-0.15531881 -0.4919236 0.046308521
-0.1554841 -0.49203557 0.04632023
-0.15561318 -0.49214238 0.046212208
-0.15577008 -0.49225256 0.04619975
-0.15593241 -0.49236399 0.046202246
-0.15609735 -0.49247611 0.04621166
-0.15623778 -0.49258408 0.046143927
-0.15640576 -0.49269563 0.046169471
-0.15656132 -0.49280849 0.046135101
-0.1567201 -0.49291939 0.04612609
-0.15687698 -0.49303129 0.046103254
-0.15703642 -0.49314246 0.046095397
-0.1571947 -0.49325341 0.04608408
-0.15735312 -0.49336442 0.046072762
-0.1575087 -0.49347618 0.046045322
-0.15765797 -0.49358511 0.046008687
-0.15780091 -0.49369386 0.04594671
-0.15796867 -0.49380866 0.045951489
-0.15817527 -0.49393579 0.046043698
-0.15832193 -0.49404559 0.045990929
-0.1584807 -0.49415705 0.045978457
-0.15863001 -0.49427286 0.045900308
-0.15879379 -0.49438304 0.045916636
-0.15896638 -0.49450079 0.045923695
-0.15911427 -0.49460837 0.04588937
-0.15928012 -0.49472454 0.045878019
-0.15943959 -0.49483648 0.045865543
-0.15961283 -0.49495336 0.045880668
-0.075898394 -0.43587729 0.054275252
-0.076084226 -0.43601295 0.054229222
-0.076271072 -0.43615276 0.054162417
-0.076445207 -0.43626702 0.054197185
-0.076626271 -0.43639386 0.054184616
-0.076826021 -0.43654811 0.054084301
-0.077015966 -0.43668833 0.05402787
-0.077166729 -0.43677387 0.05413888
-0.07734552 -0.43689799 0.054133244
-0.077534094 -0.43703669 0.054080278
-0.077714637 -0.43716377 0.054064255
-0.07786727 -0.43725213 0.054166026
-0.078070723 -0.43741348 0.054038014
-0.078270026 -0.43757161 0.053912334
-0.078447282 -0.43769449 0.053907868
-0.078624368 -0.43781728 0.053903405
-0.078792199 -0.4379262 0.053943954
-0.078944713 -0.43801469 0.054044582
-0.079151198 -0.43818232 0.053891171
-0.079330832 -0.43830952 0.053870551
-0.079500914 -0.43842232 0.053897265
-0.07966321 -0.43852592 0.053947076
-0.079849109 -0.43866315 0.053891819
-0.0800336 -0.43879849 0.053842336
-0.080215603 -0.43893015 0.053804394
-0.080391333 -0.43905506 0.053781487
-0.080559045 -0.43916488 0.053816281
-0.080747068 -0.4393093 0.053726412
-0.080923826 -0.43943354 0.053711571
-0.081094161 -0.43954784 0.053730212
-0.081264392 -0.43966207 0.053748842
-0.081450246 -0.43980405 0.053664755
-0.081623942 -0.43992412 0.053662609
-0.081803367 -0.44005343 0.05362815
-0.081977352 -0.44017425 0.053622544
-0.082149073 -0.44029447 0.053611189
-0.082318231 -0.44040778 0.053630985
-0.082500055 -0.44054466 0.05356076
-0.082667083 -0.44065478 0.053590938
-0.082845807 -0.44078708 0.05353573
-0.083031185 -0.44092757 0.053458557
-0.083191641 -0.44102725 0.053524535
-0.083370827 -0.44115794 0.053480841
-0.083543137 -0.44128048 0.053457957
-0.08370477 -0.44138229 0.053515851
-0.08386638 -0.44148713 0.053555291
-0.091309421 -0.44672766 0.052880988
-0.091470592 -0.4468545 0.052785508
-0.091660723 -0.44700897 0.052643735
-0.091823243 -0.44711769 0.052663568
-0.091986954 -0.4472335 0.052645341
-0.09215416 -0.44735271 0.052621324
-0.092318207 -0.44746971 0.052597322
-0.09249045 -0.44760057 0.052523691
-0.092649221 -0.44770634 0.052545849
-0.092814103 -0.44782126 0.052537993
-0.092982024 -0.44794798 0.052471306
-0.093145408 -0.44805998 0.052474987
-0.09330526 -0.44816875 0.052483309
-0.093466029 -0.44827494 0.052511223
-0.093633242 -0.44840118 0.05244454
-0.093796238 -0.44851288 0.052448221
-0.093956955 -0.44862437 0.052443851
-0.094084971 -0.44870317 0.052500788
-0.094288439 -0.44886702 0.052357774
-0.094450444 -0.44897711 0.052367233
-0.094596058 -0.4490732 0.052392934
-0.094760939 -0.44920126 0.052305508
-0.094912536 -0.44929653 0.052361149
-0.095066041 -0.44940743 0.052330293
-0.095263392 -0.44955352 0.052269205
-0.09542226 -0.44966218 0.052274063
-0.095581666 -0.44977239 0.052272007
-0.095747657 -0.44989434 0.052226089
-0.095906049 -0.45000231 0.052233256
-0.096069142 -0.45011714 0.052218493
-0.096230306 -0.45023292 0.05218989
-0.096393049 -0.45034733 0.052176289
-0.096535757 -0.45044923 0.05215472
-0.096702389 -0.4505564 0.052201048
-0.096872777 -0.45068046 0.052160874
-0.097034186 -0.45079833 0.052120741
-0.097194642 -0.45091382 0.052091002
-0.097355589 -0.4510245 0.052092388
-0.097514957 -0.45113733 0.052074187
-0.097677872 -0.45125431 0.052045584
-0.09783642 -0.45136526 0.052035451
-0.097993359 -0.45147145 0.052047249
-0.09815897 -0.45160478 0.051930979
-0.098318592 -0.45171285 0.051942762
-0.098472774 -0.45181829 0.051947646
-0.098636687 -0.45193312 0.051936336
-0.098795041 -0.45204505 0.051919289
-0.098951481 -0.45215091 0.051931091
-0.099109717 -0.45226294 0.051912893
-0.099262074 -0.45236313 0.051942002
-0.099402875 -0.45247173 0.051872011
-0.099588811 -0.45260823 0.05182137
-0.09974841 -0.45271817 0.051821612
-0.099905752 -0.45282865 0.051809181
-0.10006419 -0.4529435 0.051774833
-0.10022415 -0.45305562 0.051763546
-0.10037973 -0.45316029 0.051778808
-0.10054054 -0.45327622 0.051747911
-0.10069797 -0.45338866 0.05172395
-0.10085363 -0.45349437 0.051733442
-0.10101059 -0.45360553 0.051715255
-0.10116302 -0.45371833 0.051668264
-0.10132365 -0.45382538 0.051690407
-0.1014848 -0.45394534 0.051636446
-0.10164086 -0.45405418 0.051628631
-0.10179724 -0.45416474 0.051611606
-0.10194454 -0.45426774 0.051602688
-0.10208794 -0.45436421 0.051616862
-0.10226503 -0.45449251 0.051578961
-0.10241821 -0.45460108 0.051560793
-0.1025532 -0.45469347 0.051564634
-0.10272004 -0.45482212 0.051481806
-0.10288902 -0.45493644 0.051494684
-0.10303546 -0.4550375 0.051493853
-0.10316273 -0.4551158 0.051550783
-0.10335913 -0.45525759 0.051511612
-0.10351075 -0.45537555 0.051430028
-0.10365947 -0.45547646 0.051439561
-0.1038257 -0.45559156 0.051436309
-0.10398085 -0.45570168 0.051416971
-0.10413621 -0.45581383 0.051386103
-0.10429087 -0.45592171 0.051378302
-0.10444564 -0.45603099 0.051362436
-0.10459375 -0.45612937 0.05138465
-0.10475605 -0.45625854 0.05127994
-0.10489067 -0.45635504 0.051257268
-0.10505556 -0.45646369 0.051287469
-0.10518797 -0.45656535 0.051224433
-0.10534127 -0.45669171 0.051099014
-0.10549815 -0.45677403 0.051254965
-0.10568065 -0.45690131 0.05124585
-0.10582305 -0.45699918 0.051247351
-0.1059716 -0.45710781 0.051209603
-0.10612863 -0.45722282 0.051168345
-0.10629087 -0.45733649 0.051157042
-0.1064412 -0.45743412 0.051193096
-0.10658418 -0.45754844 0.051097713
-0.10673747 -0.45765212 0.051109523
-0.1068939 -0.45776615 0.051071737
-0.10706414 -0.4578819 0.051081151
-0.10721458 -0.45798782 0.051067606
-0.10734811 -0.45809084 0.051001113
-0.1075011 -0.45819145 0.051030222
-0.10766832 -0.45830587 0.051035039
-0.1078015 -0.45839986 0.051021595
-0.10796289 -0.45851943 0.050971083
-0.10810723 -0.45862153 0.050955273
-0.10826578 -0.45872656 0.050980903
-0.10843554 -0.45884389 0.05097878
-0.10859638 -0.45896649 0.050907522
-0.10873787 -0.45905957 0.050934397
-0.10888477 -0.45916244 0.050924331
-0.10903459 -0.45926449 0.050931551
-0.10918356 -0.45938006 0.050853431
-0.10933918 -0.45948175 0.050887145
-0.10949965 -0.45959818 0.050851636
-0.10964415 -0.45969009 0.050898097
-0.10978387 -0.45980251 0.050800435
-0.10993892 -0.4599095 0.050799556
-0.11008564 -0.46000904 0.050809093
-0.11024108 -0.46011192 0.050834738
-0.11040285 -0.4602384 0.050743867
-0.1105686 -0.46035582 0.050724465
-0.11071759 -0.46045998 0.050715551
-0.11085917 -0.46055081 0.050756261
-0.11100359 -0.46066439 0.05067125
-0.11116946 -0.46077883 0.050670307
-0.11130416 -0.46087331 0.050660312
-0.11146697 -0.46098682 0.05065247
-0.11161124 -0.4610976 0.050583608
-0.11175365 -0.46120045 0.050555121
-0.11191039 -0.46131107 0.05053924
-0.11206796 -0.46141735 0.050553337
-0.11221698 -0.46151847 0.05056287
-0.11236559 -0.46162137 0.050559714
-0.11251973 -0.46172833 0.050555378
-0.11266131 -0.46183288 0.050513059
-0.112823 -0.46193549 0.050566334
-0.11298913 -0.46205947 0.050508887
-0.1131168 -0.46216512 0.050402064
-0.11325027 -0.46226102 0.050378237
-0.11340422 -0.46237871 0.050308168
-0.11355352 -0.46246609 0.050401881
-0.11370741 -0.46258333 0.050334126
-0.11384788 -0.46268848 0.05028373
-0.11399266 -0.46279046 0.05027023
-0.114147 -0.46290478 0.050222069
-0.11430845 -0.4630082 0.050269585
-0.11444945 -0.46310091 0.050296463
-0.11462529 -0.46322283 0.050292004
-0.11477733 -0.46332374 0.050315347
-0.11495356 -0.46344459 0.050318968
-0.11510313 -0.46355179 0.050293889
-0.11525299 -0.46365806 0.050275739
-0.11538519 -0.4637548 0.050241552
-0.11554458 -0.46386385 0.050246406
-0.11569442 -0.46397793 0.050180972
-0.1158346 -0.46407256 0.050192863
-0.11598467 -0.46417764 0.050182782
-0.11613394 -0.46428427 0.050160028
-0.11628964 -0.46439284 0.050152212
-0.11642708 -0.46448541 0.050165273
-0.11658484 -0.46460456 0.0501021
-0.11673985 -0.46470696 0.0501289
-0.11687993 -0.46480876 0.050096966
-0.11703032 -0.46491957 0.050053436
-0.11718608 -0.46502745 0.050050251
-0.1173502 -0.46514109 0.05004701
-0.11748311 -0.46523452 0.050035875
-0.1176251 -0.46533898 0.049995854
-0.11777478 -0.46544358 0.049986932
-0.11792258 -0.46554482 0.049990702
-0.11806785 -0.46564373 0.049997948
-0.11821495 -0.46575838 0.049917541
-0.11835779 -0.46586078 0.049893662
-0.118513 -0.46596292 0.049922764
-0.11866207 -0.46606806 0.049908079
-0.11881953 -0.46617883 0.049894497
-0.11896918 -0.46628305 0.049887877
-0.11912212 -0.4663941 0.049853563
-0.11926602 -0.46648902 0.049879272
-0.11941332 -0.46659619 0.049844988
-0.11955985 -0.46670416 0.049802642
-0.11971252 -0.46680436 0.04983291
-0.11986323 -0.46691236 0.049807839
-0.12001307 -0.46702129 0.04977354
-0.1201615 -0.46712658 0.049755398
-0.12031424 -0.46722683 0.049785666
-0.12045421 -0.46733657 0.0497053
-0.12061086 -0.4674525 0.049657125
-0.12076993 -0.46754587 0.049755391
-0.12092075 -0.46764839 0.049763765
-0.12106277 -0.46775538 0.049708754
-0.1212088 -0.46786758 0.04963873
-0.12135816 -0.46797615 0.049604435
-0.12151254 -0.46807966 0.049622007
-0.12166249 -0.46818292 0.049622316
-0.12182065 -0.4682875 0.049649093
-0.12196669 -0.46838999 0.049637876
-0.12212063 -0.46849412 0.049649689
-0.12226606 -0.46859714 0.049632717
-0.12240577 -0.46870518 0.049561579
-0.12256568 -0.46880406 0.049629863
-0.12271105 -0.46891564 0.049560994
-0.12285276 -0.46902582 0.049485229
-0.12299696 -0.46913791 0.049408294
-0.12314762 -0.46924454 0.049391292
-0.12329793 -0.4693473 0.049396198
-0.12345614 -0.46945208 0.049421825
-0.12360759 -0.46955812 0.049411736
-0.12375268 -0.4696649 0.049370546
-0.12390605 -0.46977341 0.049353536
-0.12405856 -0.46987465 0.04937689
-0.12420942 -0.46998104 0.049362183
-0.12435779 -0.47008914 0.049326744
-0.12450791 -0.47019598 0.049306292
-0.12465091 -0.47029999 0.049273185
-0.12480491 -0.47040415 0.049284998
-0.12495361 -0.4705081 0.049276073
-0.1251056 -0.47062099 0.049226776
-0.12526123 -0.4707242 0.049251258
-0.12541096 -0.47082749 0.049250409
-0.1255544 -0.47092745 0.049243823
-0.12570809 -0.47104266 0.049187597
-0.12585516 -0.47115099 0.049145244
-0.12600909 -0.47125188 0.049176659
-0.12615663 -0.47134948 0.049201187
-0.12630118 -0.47146258 0.049119644
-0.12644795 -0.47156748 0.049096905
-0.12659626 -0.47167152 0.049085669
-0.12674446 -0.47177228 0.049094059
-0.12689573 -0.47187153 0.049124338
-0.127049 -0.47197977 0.049108468
-0.12720488 -0.47209001 0.049091443
-0.12736221 -0.47219628 0.049104389
-0.12750633 -0.47229916 0.049082801
-0.12765604 -0.47240263 0.049080804
-0.12781335 -0.47250587 0.049112197
-0.12796682 -0.47260776 0.049135543
-0.12810186 -0.47272095 0.049013685
-0.12826332 -0.47281942 0.04909119
-0.12840548 -0.47292933 0.049018882
-0.12854508 -0.47303709 0.048948895
-0.12869272 -0.4731445 0.048914611
-0.12884033 -0.47324884 0.048898771
-0.12900291 -0.47335035 0.048962433
-0.12914249 -0.47345489 0.048912045
-0.12929428 -0.47356361 0.048886966
-0.12942749 -0.47367328 0.048778959
-0.12957627 -0.47377422 0.048788492
-0.12973396 -0.47388077 0.048801437
-0.12988673 -0.47398332 0.048817866
-0.13002491 -0.47409657 0.04870867
-0.13017863 -0.47419599 0.048748165
-0.13033634 -0.47429985 0.048777245
-0.13047729 -0.47440073 0.048754536
-0.13063365 -0.47451073 0.048740961
-0.13077432 -0.47461447 0.048699796
-0.13092668 -0.47471467 0.048728917
-0.13109741 -0.47481778 0.048816748
-0.13125806 -0.47492674 0.048827365
-0.13140824 -0.47503054 0.048825353
-0.13152796 -0.47514004 0.048662066
-0.13167165 -0.47524816 0.048607048
-0.13182411 -0.47535393 0.048602723
-0.13195886 -0.4754616 0.048513155
-0.13210742 -0.47556829 0.048486944
-0.1322448 -0.47567511 0.048413511
-0.13239007 -0.47577479 0.048416138
-0.13254476 -0.47588 0.048424486
-0.13270944 -0.47598049 0.048503123
-0.13287504 -0.47608352 0.048570227
-0.13304013 -0.47618428 0.04864886
-0.13320065 -0.47629124 0.048671007
-0.13334635 -0.47640377 0.048597526
-0.1334653 -0.4765141 0.048426166
-0.13360727 -0.47661966 0.048379235
-0.13376585 -0.47672451 0.048406012
-0.13392961 -0.4768261 0.048474275
-0.13406803 -0.47693476 0.048393905
-0.1342214 -0.47704554 0.04836306
-0.13436924 -0.47714528 0.048376057
-0.13451514 -0.47725016 0.04834985
-0.13467103 -0.47735581 0.048360493
-0.13481605 -0.47746086 0.048329692
-0.13496068 -0.47756827 0.048282735
-0.13510954 -0.4776727 0.048271511
-0.1352639 -0.47777408 0.048301771
-0.13541454 -0.47788298 0.04827093
-0.13555749 -0.47799286 0.048202075
-0.13570105 -0.47809803 0.048164353
-0.13584675 -0.47819838 0.048164684
-0.13600342 -0.4783088 0.048149947
-0.1361596 -0.47841027 0.048187114
-0.13630997 -0.4785125 0.048195489
-0.13646609 -0.47862309 0.048177306
-0.1366055 -0.47873092 0.04810616
-0.13674045 -0.47883472 0.048040811
-0.13690335 -0.47894028 0.048081402
-0.13705379 -0.47904482 0.048075937
-0.13720733 -0.47915137 0.048071604
-0.13735116 -0.47925651 0.048035033
-0.13750538 -0.47935876 0.048059531
-0.13765788 -0.4794676 0.04803675
-0.137798 -0.47957516 0.04797022
-0.13794713 -0.47967997 0.047957845
-0.13809963 -0.47978881 0.047935061
-0.13824446 -0.47989181 0.047915787
-0.13839498 -0.47999454 0.047921844
-0.13855791 -0.48010087 0.047957823
-0.13869587 -0.48020637 0.047894768
-0.13886081 -0.48031273 0.047938805
-0.13900292 -0.48041806 0.047894172
-0.13915715 -0.48052904 0.047865618
-0.13931738 -0.48063579 0.047887765
-0.13945881 -0.48073912 0.047852367
-0.13960546 -0.48084831 0.047803096
-0.13974522 -0.48095563 0.04773657
-0.13989493 -0.48105875 0.047736872
-0.14005972 -0.48116368 0.047788981
-0.14021011 -0.48127088 0.047767367
-0.14036752 -0.48137608 0.04778723
-0.14053732 -0.48148525 0.047834702
-0.14067097 -0.48159063 0.04775437
-0.14082256 -0.48169601 0.047748901
-0.14097342 -0.48180333 0.047728434
-0.14112289 -0.48191068 0.047702208
-0.1412707 -0.48201609 0.047680609
-0.14141485 -0.48212337 0.047632508
-0.14156578 -0.48222888 0.047623582
-0.14171708 -0.48233441 0.0476158
-0.14187101 -0.48244005 0.047618389
-0.14201897 -0.48254561 0.047596779
-0.14216465 -0.48265108 0.047565974
-0.14232865 -0.48275718 0.047607709
-0.14246763 -0.48286435 0.047538877
-0.1426212 -0.48297203 0.047527626
-0.14277101 -0.48307961 0.047501396
-0.14291899 -0.48318344 0.047490176
-0.14306839 -0.48328918 0.047473188
-0.14321245 -0.48339471 0.047435466
-0.14336027 -0.4834986 0.047423087
-0.14351036 -0.4836081 0.047386486
-0.14367069 -0.48370919 0.047443233
-0.14383984 -0.48382172 0.047467649
-0.14397842 -0.4839288 0.047397666
-0.14411449 -0.48403031 0.047350761
-0.14427818 -0.48413908 0.047375195
-0.14442046 -0.4842481 0.047308654
-0.14456409 -0.48435372 0.047268633
-0.14470914 -0.48445418 0.0472655
-0.14487566 -0.48456165 0.047309529
-0.1450302 -0.48467344 0.047277514
-0.14518124 -0.48477978 0.047263969
-0.14532632 -0.4848856 0.047228549
-0.14548668 -0.48499283 0.047248393
-0.14563662 -0.48510087 0.047219858
-0.14577988 -0.48520488 0.047187906
-0.14594403 -0.48531604 0.047199663
-0.14609221 -0.48542228 0.047174603
-0.14624333 -0.48552886 0.047159906
-0.14638682 -0.48563132 0.047138322
-0.14654528 -0.48573875 0.047148962
-0.14669225 -0.48584664 0.047108911
-0.14684923 -0.48595402 0.047113787
-0.14699838 -0.48606056 0.047091022
-0.14714555 -0.48616689 0.047061361
-0.14729923 -0.48627236 0.047063947
-0.14742821 -0.48637488 0.046981331
-0.14759667 -0.4864839 0.04702419
-0.14776854 -0.48659506 0.04706819
-0.14791518 -0.4867031 0.047025841
-0.14806627 -0.48680851 0.047018062
-0.14819281 -0.4869107 0.046927392
-0.14834788 -0.48701829 0.046923053
-0.14851476 -0.48712754 0.04695785
-0.14866626 -0.48723474 0.046940845
-0.14881505 -0.48734161 0.04691463
-0.14896667 -0.4874489 0.04689762
-0.14912605 -0.48755735 0.046905946
-0.14926764 -0.48766327 0.046855547
-0.14941821 -0.48777363 0.046815485
-0.14957076 -0.48788121 0.04680077
-0.14972837 -0.48798957 0.046802185
-0.14985782 -0.48809052 0.046731096
-0.15002881 -0.48820108 0.046775099
-0.15018056 -0.48830712 0.046766169
-0.15034586 -0.48842159 0.046762921
-0.15049744 -0.48852617 0.04676206
-0.15060917 -0.48862728 0.046616118
-0.15078156 -0.48873845 0.046662413
-0.15096076 -0.48885083 0.046729442
-0.15108256 -0.48895359 0.046615727
-0.15122966 -0.48906061 0.046581447
-0.15140119 -0.48917192 0.046623148
-0.15153958 -0.48927599 0.046570458
-0.15171549 -0.48938975 0.046615593
-0.15186775 -0.48949787 0.04659627
-0.15201218 -0.48960459 0.046552785
-0.15216304 -0.48971251 0.046528861
-0.15232494 -0.48982251 0.046538319
-0.15248735 -0.48993269 0.046548925
-0.15263924 -0.4900409 0.046527304
-0.15279274 -0.4901495 0.046510287
-0.15295513 -0.49025986 0.046519741
-0.15309921 -0.4903667 0.046473946
-0.1532568 -0.49047622 0.046468433
-0.15342109 -0.49058712 0.0464825
-0.1535717 -0.4906939 0.046464335
-0.15372613 -0.49080294 0.046448469
-0.15387203 -0.49091029 0.046407275
-0.15402895 -0.4910199 0.046398312
-0.15417081 -0.49112791 0.046336383
-0.15434392 -0.49123955 0.046382677
-0.15449739 -0.49135 0.046354126
-0.15464915 -0.49145874 0.046329048
-0.15480177 -0.49156767 0.046306271
-0.15495929 -0.4916777 0.046297297
-0.15511209 -0.49178678 0.046274524
-0.15526496 -0.49189588 0.046251737
-0.15541345 -0.49200407 0.046216298
-0.15557529 -0.49211383 0.046226908
-0.1557318 -0.49222526 0.04620526
-0.15587723 -0.49233288 0.046160609
-0.156049 -0.49244642 0.046189621
-0.15619035 -0.4925518 0.046141531
-0.15634474 -0.49266291 0.046112977
-0.1565152 -0.49277499 0.046145454
-0.15665355 -0.49288249 0.046072006
-0.15684161 -0.49300158 0.046135522
-0.15702645 -0.4931173 0.046205975
-0.15714696 -0.49322066 0.046083044
-0.15729469 -0.49332911 0.046042997
-0.15746704 -0.49344343 0.046069685
-0.15761282 -0.49355146 0.046023883
-0.15777312 -0.49366304 0.046017211
-0.15793099 -0.49377406 0.046003629
-0.15807568 -0.49388325 0.045946293
-0.15824318 -0.49399674 0.045958027
-0.15842423 -0.49411502 0.045997355
-0.1585813 -0.49422607 0.045980327
-0.15873969 -0.4943428 0.045934439
-0.15888171 -0.49444881 0.045885198
-0.15903553 -0.49455914 0.045858957
-0.15920338 -0.49467573 0.045853384
-0.15935084 -0.49478319 0.045817949
-0.15953369 -0.49489984 0.045874577
-0.15968297 -0.49501181 0.045819521
-0.076063521 -0.43601075 0.054156356
-0.076235838 -0.43612736 0.054169219
-0.076436207 -0.43628222 0.054067731
-0.076624408 -0.4364222 0.054005519
-0.076824985 -0.43657795 0.053899407
-0.076996155 -0.43669358 0.053913437
-0.082003593 -0.44342268 0.034081589
-0.082158878 -0.4435344 0.03405302
-0.082310379 -0.44364068 0.03404177
-0.082468353 -0.44375673 0.033998199
-0.082626492 -0.44387102 0.033966154
-0.082787968 -0.44399273 0.033902943
-0.082949117 -0.44411194 0.033853583
-0.083095521 -0.44421354 0.03384928
-0.083213151 -0.44428748 0.033892438
-0.084753901 -0.44576329 0.031387623
-0.084919021 -0.44589534 0.031277105
-0.085077822 -0.44602019 0.031183921
-0.085244641 -0.44615322 0.031074546
-0.085409045 -0.44628516 0.030961722
-0.085572541 -0.44641361 0.030866204
-0.085728884 -0.4465358 0.030778803
-0.085894734 -0.44666627 0.030680973
-0.08605127 -0.44678935 0.030588962
-0.086213991 -0.44691783 0.030489987
-0.086372688 -0.44704258 0.030396804
-0.08652392 -0.44715801 0.030329041
-0.086677514 -0.44727507 0.030261267
-0.08683043 -0.44739127 0.030195804
-0.086988494 -0.44751367 0.030114165
-0.087137863 -0.44762456 0.030066021
-0.087290607 -0.44773874 0.03001209
-0.087447226 -0.44785959 0.029933916
-0.08759743 -0.4479726 0.029876539
-0.087746233 -0.44808346 0.02982609
-0.08789625 -0.44819403 0.02978256
-0.088030241 -0.44828555 0.029787559
-0.08817552 -0.44838846 0.029770587
-0.088340521 -0.44851986 0.02966352
-0.088493615 -0.44863656 0.029595748
-0.088638678 -0.44874507 0.029544167
-0.088784993 -0.4488506 0.02951565
-0.088929832 -0.44895646 0.02947907
-0.089077242 -0.44906428 0.029441316
-0.089221567 -0.44916692 0.029422039
-0.08936353 -0.44926831 0.029400464
-0.089505434 -0.44937253 0.029361591
-0.089650095 -0.4494735 0.02935385
-0.089796253 -0.44958007 0.029318415
-0.089937538 -0.44967815 0.029314142
-0.090076678 -0.44977531 0.029306423
-0.090220638 -0.44987845 0.029282536
-0.090362057 -0.44998005 0.029257506
-0.090504356 -0.45008051 0.029242849
-0.090644971 -0.45018101 0.029221293
-0.090787664 -0.45028251 0.029202014
-0.090929374 -0.45038238 0.029188521
-0.091071621 -0.45048341 0.029170405
-0.091208756 -0.45057803 0.029169627
-0.091349125 -0.45067585 0.029163059
-0.091486067 -0.45077035 0.029162273
-0.091626704 -0.45086893 0.029152244
-0.091765933 -0.45096806 0.029132994
-0.091906004 -0.45106584 0.029125281
-0.092045501 -0.4511627 0.029121017
-0.092185207 -0.45126003 0.029114455
-0.092322119 -0.45135528 0.029109057
-0.092457145 -0.45144692 0.02911751
-0.092595503 -0.45154202 0.029119033
-0.092734069 -0.45163766 0.029118236
-0.092871085 -0.45173028 0.029128987
-0.09300904 -0.4518249 0.029131662
-0.093143255 -0.45191544 0.029143579
-0.093279794 -0.45200735 0.029156644
-0.093414441 -0.45209894 0.029163947
-0.093549602 -0.45218819 0.029187396
-0.093686506 -0.45228115 0.029195849
-0.093821988 -0.45237121 0.029215837
-0.09395425 -0.45245808 0.029241614
-0.094086483 -0.45254496 0.02926738
-0.094222508 -0.45263633 0.029281605
-0.094357572 -0.45272571 0.029303897
-0.094491571 -0.45281285 0.029335432
-0.094624206 -0.45290074 0.029356586
-0.094759166 -0.45299006 0.029378887
-0.094893366 -0.4530777 0.029408112
-0.095026664 -0.45316342 0.029445414
-0.095157109 -0.45324656 0.029486187
-0.095288292 -0.45333135 0.029520039
-0.095421359 -0.4534165 0.02955965
-0.095555872 -0.45350495 0.029585412
-0.095689535 -0.45359147 0.02961925
-0.09581966 -0.45367381 0.029663496
-0.095955253 -0.45376071 0.029703092
-0.09608712 -0.45384294 0.029755399
-0.096219584 -0.4539265 0.029801931
-0.096351624 -0.45400906 0.029853076
-0.096483819 -0.45409188 0.02990308
-0.096614003 -0.4541741 0.029948466
-0.096746691 -0.45425802 0.029993847
-0.096878886 -0.45434067 0.030045003
-0.09701018 -0.45442098 0.030106531
-0.097138949 -0.45449933 0.030169243
-0.097270072 -0.45457897 0.030234233
-0.097403757 -0.45466033 0.030299217
-0.097532041 -0.45473704 0.030370001
-0.097664371 -0.45481938 0.030423451
-0.097797215 -0.45489809 0.030501131
-0.097929977 -0.45497635 0.030581109
-0.098423168 -0.45518035 0.031402998
-0.098759979 -0.45531687 0.031981245
-0.09890376 -0.45542905 0.031902
-0.099071309 -0.45557252 0.031732634
-0.099231556 -0.45570672 0.031588696
-0.10121607 -0.45354122 0.052960813
-0.10137545 -0.45363843 0.053037181
-0.10222401 -0.45447797 0.051495962
-0.10238323 -0.45459336 0.051461611
-0.10332322 -0.45525479 0.051378962
-0.10346734 -0.45535976 0.051344685
-0.10363829 -0.45547411 0.051365633
-0.10379706 -0.45559242 0.051311664
-0.10393959 -0.45568889 0.051322386
-0.10410105 -0.45580962 0.051264942
-0.10426973 -0.45592794 0.051252447
-0.10441445 -0.45602247 0.051283911
-0.10457171 -0.45613366 0.051266871
-0.10473844 -0.45625901 0.051203631
-0.10490648 -0.45637459 0.051204987
-0.10505187 -0.45647603 0.051197231
-0.10521299 -0.45660248 0.051104032
-0.10536042 -0.45669985 0.051129721
-0.10553344 -0.45681465 0.051156417
-0.10568155 -0.4569197 0.051138267
-0.10581571 -0.45701915 0.051095981
-0.10598592 -0.45713395 0.051111154
-0.10613942 -0.45724216 0.051096443
-0.10629328 -0.45735729 0.051041353
-0.10646909 -0.45747766 0.051046114
-0.1066165 -0.4575786 0.051049888
-0.10676397 -0.45768151 0.051042121
-0.10693121 -0.45779788 0.0510354
-0.10709019 -0.45791844 0.050968744
-0.10722619 -0.45801726 0.050937984
-0.10738459 -0.45812407 0.050952073
-0.10755146 -0.4582358 0.050971884
-0.10770424 -0.45835248 0.050902952
-0.10785969 -0.45845896 0.050906681
-0.10800374 -0.45856541 0.050863184
-0.10816186 -0.45867568 0.050855357
-0.10830874 -0.4587734 0.050876431
-0.10845815 -0.45888376 0.050831746
-0.10863297 -0.45900688 0.050815757
-0.10877392 -0.45910528 0.050808035
-0.10892656 -0.45920205 0.050859064
-0.10907837 -0.45931518 0.050807446
-0.10922709 -0.4594281 0.050744317
-0.1093854 -0.45952818 0.050798774
-0.10953709 -0.45963803 0.050766766
-0.10969424 -0.45975274 0.050727807
-0.10985425 -0.45986718 0.050702669
-0.10999698 -0.4599731 0.050656874
-0.1101378 -0.4600676 0.050672211
-0.11029644 -0.46016544 0.050741665
-0.11043815 -0.46027792 0.050652049
-0.11061008 -0.46041504 0.050539181
-0.110769 -0.46051079 0.050622471
-0.11092867 -0.46062344 0.050606567
-0.11107726 -0.46072695 0.050599955
-0.11121519 -0.46081907 0.050617617
-0.11137533 -0.46092805 0.050625928
-0.11151836 -0.46104446 0.050517846
-0.11167797 -0.46115538 0.050512321
-0.11182194 -0.46124843 0.050549559
-0.11199053 -0.46137774 0.05047017
-0.11213379 -0.46145904 0.050575465
-0.11229925 -0.46158677 0.050492622
-0.11243819 -0.46168777 0.050460689
-0.11258799 -0.46179745 0.050421771
-0.11273371 -0.46189666 0.050429013
-0.11288395 -0.46199119 0.050483521
-0.11303771 -0.46209767 0.05048034
-0.11319167 -0.46220335 0.050482914
-0.11335681 -0.46232834 0.050415073
-0.11349554 -0.46243954 0.050320853
-0.11366235 -0.46255749 0.050302599
-0.1138135 -0.46266028 0.050310958
-0.11395672 -0.46275586 0.050329752
-0.1141063 -0.46286327 0.050303526
-0.11426263 -0.46297094 0.050303787
-0.11442145 -0.46309105 0.050239444
-0.11455959 -0.46319076 0.050212122
-0.11471894 -0.46329919 0.050220445
-0.11487649 -0.46341228 0.050193012
-0.11500555 -0.46350744 0.050155364
-0.11516771 -0.46361744 0.05016597
-0.11531912 -0.46371886 0.050183561
-0.11546333 -0.46382028 0.0501712
-0.11561742 -0.46393216 0.050136879
-0.11576382 -0.46402842 0.050164875
-0.11591619 -0.46414366 0.050102875
-0.11607602 -0.46425834 0.05007543
-0.11622214 -0.4643628 0.050052684
-0.11638474 -0.46447155 0.050072517
-0.11654828 -0.46457851 0.050107334
-0.11668423 -0.46468052 0.050056968
-0.11683042 -0.46478444 0.050037678
-0.11697938 -0.46489716 0.049976848
-0.11712603 -0.464993 0.050008304
-0.11727735 -0.46509439 0.050025892
-0.11742355 -0.46519125 0.050049279
-0.11757798 -0.46531382 0.049951512
-0.11772683 -0.46541274 0.049973734
-0.11787157 -0.46551833 0.049938306
-0.11802387 -0.46562439 0.049931671
-0.11817946 -0.46573156 0.049931929
-0.11832575 -0.46583441 0.049919557
-0.11847302 -0.46594176 0.049884114
-0.11862219 -0.46604621 0.049874038
-0.11877306 -0.46615985 0.049815506
-0.11892008 -0.4662613 0.04981466
-0.11906642 -0.46636933 0.049771156
-0.11921842 -0.46646965 0.049797967
-0.11937287 -0.46657795 0.049786702
-0.11951966 -0.46667963 0.049783558
-0.11967079 -0.46678659 0.049766552
-0.11981567 -0.46688521 0.049773797
-0.11995826 -0.46699715 0.049691088
-0.12010486 -0.46710917 0.04962451
-0.1202576 -0.46721897 0.049597107
-0.12041253 -0.4673211 0.049625054
-0.12056318 -0.46742812 0.049605738
-0.12071306 -0.46753097 0.049608346
-0.12086754 -0.46763375 0.049630526
-0.12101109 -0.46773854 0.049595106
-0.12116174 -0.46784058 0.049605779
-0.1213136 -0.46795091 0.049571469
-0.12146348 -0.46805376 0.04957407
-0.12161013 -0.46815515 0.049572077
-0.12175979 -0.46826279 0.049544699
-0.12191024 -0.4683651 0.049553063
-0.12205841 -0.46847403 0.049511846
-0.12220923 -0.46857598 0.049523678
-0.12235367 -0.46868807 0.049447875
-0.12249974 -0.46878982 0.049441274
-0.1226479 -0.46888974 0.049454272
-0.12279528 -0.46899891 0.049408451
-0.12294824 -0.46910331 0.049414489
-0.12309591 -0.46920785 0.049397502
-0.12324913 -0.46931207 0.04940585
-0.12339579 -0.46942148 0.049355425
-0.12354521 -0.46952459 0.049354564
-0.1236953 -0.46962321 0.0493837
-0.12384634 -0.46972913 0.049372453
-0.12399036 -0.46983233 0.049348567
-0.12413479 -0.46993905 0.049305063
-0.1242906 -0.47004923 0.049288027
-0.12444361 -0.47014987 0.049317144
-0.12459183 -0.47025385 0.049305916
-0.12474027 -0.47036144 0.049273923
-0.12488446 -0.47046801 0.049230419
-0.12503098 -0.47056928 0.04922843
-0.12518407 -0.47067741 0.04921256
-0.12533496 -0.47078687 0.049179405
-0.12547645 -0.47089481 0.049116321
-0.12563229 -0.47099757 0.049144261
-0.12577857 -0.47110251 0.049119204
-0.12591967 -0.4711999 0.0491184
-0.12606822 -0.47130698 0.049089871
-0.12621489 -0.47141504 0.0490475
-0.12636828 -0.47151938 0.049055859
-0.12651405 -0.47161767 0.049068868
-0.12666872 -0.47172478 0.049065672
-0.12681393 -0.47183013 0.049033701
-0.12695581 -0.47194043 0.048957922
-0.12710543 -0.47204998 0.048919007
-0.12725985 -0.47215062 0.048953876
-0.12741828 -0.4722527 0.048996799
-0.12756303 -0.47235811 0.048962533
-0.12770364 -0.47246221 0.048919048
-0.12785597 -0.47256407 0.04893779
-0.1280015 -0.47266278 0.048947334
-0.12814863 -0.47277325 0.048892282
-0.12831149 -0.47288316 0.048906345
-0.12844533 -0.47297761 0.048892897
-0.12858886 -0.47308028 0.048870165
-0.12873842 -0.47318959 0.048832398
-0.12888604 -0.47329661 0.048800413
-0.12903439 -0.47340032 0.04879149
-0.12918739 -0.47350228 0.048812531
-0.1293339 -0.47360966 0.048773631
-0.12948789 -0.4737201 0.048747379
-0.12962741 -0.4738183 0.048735049
-0.12977141 -0.47392642 0.048681166
-0.1299303 -0.47402653 0.048737936
-0.13007632 -0.47413111 0.048714031
-0.13021228 -0.47423619 0.048645206
-0.13036236 -0.47433937 0.048646651
-0.13051255 -0.47443977 0.048665397
-0.13066705 -0.47454447 0.048676059
-0.1308118 -0.47465217 0.048627943
-0.13096833 -0.47475904 0.048633963
-0.13111258 -0.47486413 0.048599698
-0.13125834 -0.4749687 0.048574641
-0.13139996 -0.47507444 0.048525382
-0.13155876 -0.47517544 0.048576385
-0.13170074 -0.47528103 0.048529431
-0.13184848 -0.4753851 0.048515905
-0.13199273 -0.47548482 0.048513927
-0.13214132 -0.47558868 0.048505001
-0.13230209 -0.47569999 0.048501778
-0.1324458 -0.47580507 0.048465207
-0.13258134 -0.47590432 0.048429821
-0.13273984 -0.47600856 0.048460066
-0.13288645 -0.47611296 0.048439614
-0.13302934 -0.4762232 0.048368439
-0.13318439 -0.47632581 0.048394088
-0.13333419 -0.47642708 0.048405915
-0.13348359 -0.47653839 0.04835546
-0.13362288 -0.47664174 0.048310846
-0.13377748 -0.4767471 0.048318036
-0.13392745 -0.47684848 0.048329864
-0.13407424 -0.47695529 0.048295572
-0.13422166 -0.47705722 0.048293587
-0.13436812 -0.47716647 0.04824315
-0.13451588 -0.47727072 0.048228461
-0.13466601 -0.477377 0.048211459
-0.13480061 -0.47748095 0.048143793
-0.13495576 -0.47757941 0.048194803
-0.13511117 -0.47768265 0.048218139
-0.13526417 -0.47778863 0.048214961
-0.13540822 -0.47789812 0.048153009
-0.13554846 -0.47800118 0.048114147
-0.13570082 -0.47810498 0.048121352
