# .PCD v0.7 - Point Cloud Data file format
VERSION 0.7
FIELDS x y z
SIZE 4 4 4
TYPE F F F
COUNT 1 1 1
WIDTH 1289
HEIGHT 1
VIEWPOINT 0 0 0 1 0 0 0
POINTS 1289
DATA ascii
-0.098850563 -0.43925723 0.059280656
-0.099019319 -0.43937358 0.059274055
-0.099191412 -0.43949905 0.059223562
-0.099339277 -0.43959081 0.059282884
-0.099526882 -0.43972093 0.059270412
-0.099696912 -0.43984157 0.059241876
-0.099860802 -0.43996507 0.059168331
-0.10001097 -0.4400768 0.059109867
-0.10017966 -0.44018117 0.059179474
-0.10034418 -0.44030076 0.059133638
-0.10052311 -0.44042116 0.059145465
-0.10067855 -0.44052151 0.059182804
-0.10088846 -0.44068497 0.05905477
-0.10104267 -0.44079658 0.059014753
-0.10120036 -0.44089705 0.059061326
-0.10138556 -0.44103816 0.058968052
-0.10155066 -0.44114694 0.058993805
-0.10169792 -0.44124532 0.059008092
-0.10187061 -0.4413631 0.059009552
-0.10205632 -0.44149172 0.058998253
-0.10222355 -0.44159979 0.059037846
-0.10239208 -0.44172916 0.05894696
-0.10254624 -0.44183517 0.058942743
-0.10270821 -0.44193384 0.059019316
-0.10288045 -0.44206014 0.0589642
-0.10305265 -0.44219598 0.058847897
-0.10321563 -0.44229862 0.058903672
-0.10339294 -0.4424172 0.05892013
-0.10355401 -0.4425317 0.058891624
-0.10372227 -0.44265491 0.058838852
-0.10389316 -0.44276893 0.058856487
-0.10405255 -0.44287777 0.05885686
-0.10421173 -0.44298592 0.058860704
-0.10438057 -0.44311351 0.058782518
-0.10457303 -0.44324371 0.05879081
-0.10472116 -0.44334972 0.058760062
-0.1048902 -0.44348034 0.058663413
-0.10504469 -0.44358078 0.058696136
-0.10523032 -0.44370487 0.058713697
-0.10538752 -0.44381854 0.058673672
-0.10555296 -0.44393438 0.058655541
-0.10572545 -0.44404626 0.05869396
-0.10589032 -0.44417381 0.058598466
-0.10605226 -0.44428676 0.058583826
-0.10622308 -0.44440487 0.058574907
-0.10638886 -0.44450977 0.058628358
-0.1065642 -0.44465554 0.058462396
-0.10672055 -0.4447529 0.058522828
-0.10689788 -0.44487998 0.058485009
-0.1070497 -0.4449833 0.058487728
-0.10721205 -0.44510284 0.058432665
-0.1073831 -0.445207 0.058513805
-0.10755345 -0.44532588 0.058497965
-0.10770614 -0.44543716 0.058453351
-0.10787698 -0.44556162 0.058404014
-0.10805455 -0.44567314 0.058466651
-0.10820481 -0.44579074 0.058371238
-0.10837018 -0.4458932 0.058438551
-0.10853418 -0.4460097 0.058410041
-0.10870836 -0.44614583 0.058300655
-0.10888071 -0.44626352 0.058300968
-0.1090525 -0.44637471 0.058340535
-0.10921345 -0.44649455 0.058277398
-0.10936762 -0.44660181 0.058265094
-0.10954288 -0.4467237 0.05825153
-0.1096999 -0.44683218 0.058243841
-0.10986611 -0.44695109 0.058209546
-0.11003198 -0.44706437 0.058209889
-0.11019747 -0.4471671 0.058276046
-0.11036061 -0.44729024 0.058201358
-0.11051731 -0.4473978 0.058198277
-0.11067981 -0.44749394 0.058293313
-0.11083058 -0.44761369 0.058186352
-0.11099914 -0.44775191 0.05803889
-0.11117372 -0.44785202 0.058161579
-0.11132742 -0.44794089 0.058264751
-0.11149523 -0.44808817 0.058056094
-0.11166389 -0.44819126 0.058133781
-0.11183197 -0.44831273 0.058091402
-0.11199391 -0.44842982 0.058050193
-0.11217369 -0.44856021 0.058001973
-0.11232632 -0.44867185 0.057955042
-0.11247984 -0.44876853 0.058007397
-0.11265938 -0.44889748 0.057967268
-0.11282411 -0.44901231 0.057952605
-0.11298055 -0.44911265 0.057994559
-0.11316255 -0.44924617 0.057935942
-0.11331984 -0.44936839 0.057841647
-0.11347098 -0.44945803 0.057928659
-0.11364089 -0.44958094 0.057885103
-0.11379071 -0.44968197 0.057893611
-0.11395163 -0.44979727 0.057859335
-0.11412235 -0.44991243 0.057868898
-0.11428561 -0.45003277 0.057812672
-0.11445542 -0.45015272 0.057787597
-0.1146157 -0.45026922 0.057742931
-0.1147705 -0.45037818 0.057722554
-0.1149325 -0.45048445 0.05775062
-0.1150929 -0.45059887 0.057719816
-0.11525303 -0.45071399 0.057683237
-0.11542413 -0.45082563 0.057717048
-0.11558499 -0.45093691 0.057708174
-0.11574961 -0.45106125 0.05763232
-0.11591059 -0.45117137 0.057631534
-0.11607269 -0.45127702 0.057664216
-0.11623266 -0.45139077 0.057635725
-0.11638906 -0.45150423 0.057593398
-0.11655813 -0.45162278 0.057574093
-0.11672965 -0.45173287 0.057619441
-0.11688426 -0.45185128 0.057537869
-0.1170463 -0.45195705 0.057569399
-0.11720336 -0.45206702 0.057552468
-0.11736593 -0.45218217 0.057526268
-0.11752708 -0.45230108 0.057470061
-0.11769204 -0.45239875 0.057566244
-0.11784847 -0.45250991 0.057538919
-0.11799759 -0.45263988 0.057359219
-0.11816687 -0.45276526 0.057297204
-0.11833061 -0.45287579 0.05730563
-0.11849578 -0.45296457 0.057459544
-0.11865041 -0.45308787 0.057346787
-0.11882073 -0.45320112 0.057366744
-0.11898497 -0.45331925 0.057328995
-0.11915509 -0.45343289 0.05734548
-0.11931743 -0.4535546 0.057276558
-0.11947045 -0.45364642 0.057357796
-0.11962624 -0.45376492 0.05728082
-0.11977496 -0.45388886 0.057138078
-0.1199398 -0.45399675 0.057168446
-0.12010634 -0.45410162 0.057225365
-0.12027407 -0.45421201 0.057252258
-0.12043221 -0.45431766 0.057267644
-0.12058419 -0.45444113 0.057142206
-0.120749 -0.45454934 0.057170261
-0.12091746 -0.45466545 0.057163663
-0.1210784 -0.45478007 0.057134006
-0.1212444 -0.45488656 0.057178229
-0.12139902 -0.45499757 0.05714399
-0.1215581 -0.4551082 0.057131663
-0.12172352 -0.45522857 0.057084672
-0.12188153 -0.45534676 0.057019234
-0.12205321 -0.45546401 0.057019547
-0.12221511 -0.45556426 0.057085726
-0.12236141 -0.45567372 0.057024978
-0.12252376 -0.45578551 0.057019558
-0.12269158 -0.4559077 0.056971397
-0.12285443 -0.45601296 0.057009861
-0.1230088 -0.45612884 0.05694329
-0.12317505 -0.45623007 0.057022143
-0.12333893 -0.45635104 0.056964774
-0.1234995 -0.45645922 0.056974374
-0.12365739 -0.4565759 0.056918185
-0.12381607 -0.45668083 0.056940496
-0.1239673 -0.45679927 0.056843929
-0.12413812 -0.45690671 0.056903128
-0.12429427 -0.45701444 0.05689659
-0.12444653 -0.45713121 0.056815028
-0.12461037 -0.45724601 0.056796905
-0.12477757 -0.45736235 0.056783378
-0.12493502 -0.45747346 0.056760676
-0.12509879 -0.45758334 0.056773733
-0.12525252 -0.4576883 0.056774132
-0.12542611 -0.45779872 0.056826394
-0.12558341 -0.45790994 0.05680253
-0.12574421 -0.45802262 0.056784432
-0.12589814 -0.45813206 0.056757122
-0.12605107 -0.4582468 0.056691714
-0.12620896 -0.45836166 0.056647062
-0.12636906 -0.45847461 0.056624345
-0.12654923 -0.45856714 0.056819744
-0.12671468 -0.45867181 0.05687321
-0.12686205 -0.45879483 0.056730464
-0.12701692 -0.45891178 0.056659278
-0.12718034 -0.4590306 0.056613449
-0.12733392 -0.45913979 0.056586135
-0.12749556 -0.45925146 0.05657842
-0.12764536 -0.45936728 0.056492247
-0.12779318 -0.45948827 0.056364514
-0.12796567 -0.45959631 0.056427177
-0.1281226 -0.4597109 0.05638022
-0.12828578 -0.45981348 0.056437153
-0.12845924 -0.45992526 0.056480177
-0.12861492 -0.46004438 0.0563986
-0.12877278 -0.46015435 0.05638513
-0.12892866 -0.46026549 0.056355495
-0.12909368 -0.46036372 0.056448217
-0.12925863 -0.46046969 0.056491282
-0.12940565 -0.46059698 0.05631968
-0.12955703 -0.46071047 0.056255434
-0.12971742 -0.46081531 0.056285821
-0.12987939 -0.46091941 0.056327753
-0.13003659 -0.46103325 0.056286573
-0.13020438 -0.46114513 0.05630422
-0.1303632 -0.46125808 0.056275733
-0.13052291 -0.46137401 0.056232233
-0.13069169 -0.46147865 0.056300689
-0.1308586 -0.46158776 0.056332197
-0.13099483 -0.4617044 0.056181431
-0.13116336 -0.4618195 0.056181759
-0.13132329 -0.46193179 0.056162506
-0.13147363 -0.46204492 0.05609595
-0.13163117 -0.46215159 0.056102116
-0.13178791 -0.46226513 0.056060933
-0.13195433 -0.46237788 0.056067046
-0.13212749 -0.46248475 0.056140095
-0.13228236 -0.46259266 0.056126636
-0.13244466 -0.46271038 0.056083124
-0.13260847 -0.46282116 0.056090411
-0.13276142 -0.46292669 0.056083888
-0.13290714 -0.46303791 0.056009281
-0.13308039 -0.46315461 0.056019977
-0.13323119 -0.46326697 0.055960353
-0.13338877 -0.46337691 0.055945724
-0.13354743 -0.46348652 0.055938024
-0.1337 -0.46359214 0.055929191
-0.13386129 -0.46370393 0.055919167
-0.13402815 -0.46381986 0.055906802
-0.13417937 -0.4639318 0.055851795
-0.13433716 -0.46404171 0.055838324
-0.13449568 -0.46415141 0.055829465
-0.13464876 -0.46426839 0.055750199
-0.13482694 -0.46437547 0.055844009
-0.13497534 -0.46448797 0.055772852
-0.13513803 -0.46459943 0.055770908
-0.13529664 -0.46470919 0.055762045
-0.13545708 -0.46482128 0.05574625
-0.13561383 -0.46493429 0.055708539
-0.135767 -0.46504536 0.055667371
-0.13594553 -0.46515322 0.055757716
-0.13610113 -0.4652611 0.055747718
-0.13625927 -0.4653765 0.055700764
-0.13641959 -0.4654887 0.055683807
-0.13657489 -0.46560195 0.055638015
-0.136741 -0.46571034 0.05567069
-0.13691317 -0.46583334 0.055636365
-0.13705236 -0.46593145 0.05561721
-0.13720495 -0.46603996 0.055589903
-0.13737778 -0.46615764 0.055592522
-0.13752514 -0.46626711 0.055536382
-0.13770181 -0.46637911 0.05559209
-0.13785678 -0.46648476 0.055593647
-0.13801838 -0.4665969 0.055582467
-0.13817428 -0.46670496 0.055572469
-0.13833582 -0.46682215 0.05552895
-0.13847189 -0.46693563 0.05539782
-0.13863942 -0.46704444 0.055433948
-0.13878982 -0.46715328 0.055395104
-0.13895221 -0.46726778 0.055372376
-0.13911964 -0.46737924 0.055391185
-0.13928725 -0.46749318 0.055394977
-0.13943076 -0.46760759 0.05529036
-0.13960569 -0.46770883 0.055407282
-0.1397651 -0.46782851 0.055338375
-0.13992786 -0.4679431 0.055316795
-0.14008607 -0.46805114 0.055317182
-0.14022189 -0.46815902 0.055220678
-0.1403864 -0.46826649 0.055252206
-0.14055577 -0.46838054 0.05526292
-0.14070183 -0.468492 0.055188309
-0.14086492 -0.46861115 0.05513902
-0.1410102 -0.46871576 0.055104822
-0.14120388 -0.46881914 0.055289775
-0.14137392 -0.46893346 0.055301644
-0.14153107 -0.46905091 0.055237371
-0.14168216 -0.46916419 0.055173125
-0.14183904 -0.46927708 0.055136565
-0.14199953 -0.46938542 0.055145018
-0.14216784 -0.46950001 0.055147655
-0.14231506 -0.46960902 0.055093829
-0.14247346 -0.46972185 0.055064183
-0.14263691 -0.46983024 0.055085324
-0.14281471 -0.46994898 0.055102929
-0.14296471 -0.4700579 0.055061787
-0.14312641 -0.470175 0.055019427
-0.14328328 -0.47028375 0.055009421
-0.14344645 -0.47039661 0.05500054
-0.14361691 -0.47050944 0.055023957
-0.14376411 -0.47062257 0.054943558
-0.14392519 -0.47073346 0.054938156
-0.1440753 -0.47084031 0.054910865
-0.14423668 -0.47095537 0.054880053
-0.14440557 -0.47107252 0.054868832
-0.14456277 -0.47118151 0.054858826
-0.14473814 -0.47129676 0.054887995
-0.14488718 -0.47140774 0.054829534
-0.1450507 -0.47151488 0.054858755
-0.14521471 -0.47162816 0.054851022
-0.14537087 -0.47174525 0.054784451
-0.14552122 -0.47185424 0.05474446
-0.14568561 -0.47196561 0.05475058
-0.14585721 -0.47208118 0.054761279
-0.14600199 -0.47219393 0.05467283
-0.14619195 -0.47230834 0.054771196
-0.14634907 -0.47242159 0.05473347
-0.14651021 -0.47253308 0.054724608
-0.14668617 -0.47265109 0.054738753
-0.14683704 -0.47276023 0.054699916
-0.14698333 -0.47286916 0.054642618
-0.14715201 -0.47298309 0.054651033
-0.14733033 -0.47310144 0.054673251
-0.14747706 -0.4732123 0.054605566
-0.14764056 -0.47332793 0.054580521
-0.14780274 -0.47343975 0.054573953
-0.14796813 -0.47354999 0.054591618
-0.14810181 -0.47365984 0.054473199
-0.14825614 -0.473773 0.054423947
-0.14841792 -0.47388673 0.054403525
-0.14859916 -0.47400025 0.054469608
-0.14875238 -0.47411153 0.054427288
-0.14892286 -0.47422796 0.054427609
-0.14908522 -0.4743419 0.054408345
-0.14924581 -0.47445393 0.054393701
-0.14942144 -0.47457099 0.054412469
-0.14956869 -0.47468001 0.054358639
-0.14974764 -0.47479573 0.054400489
-0.14992493 -0.47491139 0.05443541
-0.15004882 -0.4750216 0.054272003
-0.15023625 -0.47513843 0.054343823
-0.1504007 -0.4752529 0.054330323
-0.15056995 -0.47536796 0.054334112
-0.1507296 -0.47548023 0.054313704
-0.15088122 -0.47559333 0.054252923
-0.15104783 -0.47570819 0.054246336
-0.15120503 -0.47582024 0.054216698
-0.1513834 -0.47593662 0.054251622
-0.15154058 -0.47605047 0.054210436
-0.15169908 -0.47616449 0.054173864
-0.15186687 -0.4762814 0.054159198
-0.15202695 -0.476394 0.05413878
-0.15219575 -0.47650945 0.054137956
-0.15237226 -0.47662604 0.054163646
-0.15251975 -0.47673866 0.054087881
-0.15269016 -0.4768545 0.054091662
-0.15285532 -0.47696963 0.054076999
-0.15301251 -0.47708365 0.054034662
-0.1531781 -0.47719729 0.05403154
-0.15336485 -0.47731745 0.054079127
-0.15352733 -0.47743237 0.054054089
-0.1536783 -0.47754881 0.053969055
-0.15386653 -0.47767106 0.054009702
-0.15402573 -0.47779045 0.053941958
-0.15418394 -0.47790316 0.053912312
-0.15435918 -0.4780187 0.053939171
-0.15449809 -0.4781267 0.05385536
-0.15468982 -0.47824991 0.053905223
-0.15486147 -0.47836986 0.053888217
-0.15501642 -0.47847584 0.053887457
-0.15517178 -0.47858989 0.05383705
-0.155348 -0.47870916 0.053844269
-0.15553308 -0.4788332 0.053859532
-0.15566687 -0.47894189 0.053749185
-0.15582307 -0.47905144 0.053731106
-0.15601724 -0.47917107 0.053814445
-0.15613884 -0.47927591 0.053675294
-0.15631457 -0.47939539 0.053679053
-0.15645704 -0.47950405 0.053606763
-0.15667941 -0.4796325 0.053756937
-0.1568663 -0.47975743 0.053774498
-0.15701044 -0.47987264 0.053667568
-0.15717351 -0.47998998 0.053629816
-0.15736875 -0.48011521 0.053681977
-0.15752332 -0.48022941 0.053626951
-0.1577052 -0.48034912 0.053656086
-0.15784496 -0.48045737 0.053574573
-0.15802546 -0.48057991 0.053579468
-0.15817276 -0.4806897 0.053521015
-0.15836479 -0.48081329 0.053569719
-0.15853916 -0.48093328 0.053564258
-0.15871382 -0.48105636 0.053540312
-0.15885755 -0.48116696 0.05346109
-0.15901639 -0.4812749 0.053464927
-0.15921691 -0.48140663 0.053498589
-0.15936264 -0.4815177 0.053425133
-0.15949617 -0.48162165 0.053343657
-0.15969142 -0.48174077 0.053435076
-0.15986359 -0.48186359 0.053401902
-0.16003498 -0.48197901 0.053412605
-0.16019945 -0.4820973 0.053374857
-0.16038498 -0.48222041 0.053398192
-0.16054286 -0.48233724 0.053340852
-0.16070803 -0.4824515 0.05333196
-0.16086563 -0.48256543 0.053291932
-0.16105263 -0.48268774 0.053326808
-0.16122824 -0.48281598 0.053273983
-0.16140668 -0.48293641 0.053283505
-0.16154575 -0.48304182 0.053217012
-0.16171007 -0.48315334 0.053221986
-0.16187403 -0.48327324 0.05317153
-0.16208324 -0.48339719 0.053292904
-0.16226426 -0.48352283 0.053280465
-0.16239873 -0.48363143 0.053173587
-0.16255686 -0.48374444 0.053141631
-0.16271907 -0.48385993 0.053111978
-0.16290337 -0.48398238 0.053134173
-0.16305199 -0.48409453 0.053066477
-0.16323455 -0.48421252 0.05310946
-0.16341889 -0.48433936 0.053103939
-0.1635704 -0.48445094 0.053052388
-0.1636851 -0.48455846 0.05286593
-0.16392495 -0.48469433 0.053044882
-0.16408931 -0.48481345 0.053001359
-0.16423742 -0.4849256 0.052931353
-0.16441029 -0.48504293 0.052936286
-0.16459642 -0.48516789 0.052950382
-0.1647501 -0.48528296 0.052886125
-0.16493805 -0.48540989 0.052895598
-0.16512617 -0.48553026 0.052947793
-0.16529654 -0.4856486 0.052935414
-0.16545339 -0.48576996 0.052844584
-0.077918768 -0.42567119 0.054707024
-0.078086436 -0.42577612 0.054768529
-0.078266308 -0.42590025 0.054760721
-0.078480154 -0.42606691 0.054629233
-0.078698218 -0.42624676 0.05443193
-0.078865945 -0.42635465 0.054474972
-0.078685179 -0.4257153 0.057772532
-0.07887695 -0.42585441 0.057720795
-0.079081431 -0.42600927 0.057623982
-0.079277232 -0.42615458 0.057550304
-0.079478234 -0.42630506 0.057466201
-0.079668969 -0.42644367 0.057413317
-0.079869501 -0.42659399 0.057328075
-0.080082126 -0.42675948 0.057198893
-0.080267817 -0.42689407 0.057149507
-0.080446079 -0.42701566 0.05715093
-0.080637671 -0.42715663 0.057086505
-0.080828011 -0.42729604 0.057026699
-0.081007533 -0.42741993 0.057018891
-0.08120133 -0.42756224 0.056955606
-0.08138898 -0.42769834 0.05690505
-0.081579879 -0.42783687 0.056853328
-0.081770629 -0.42797801 0.05678428
-0.081963651 -0.42812014 0.056718688
-0.082151063 -0.42825681 0.056663521
-0.08233887 -0.42839432 0.056604877
-0.082527503 -0.42853326 0.056540467
-0.082723945 -0.42868155 0.05645062
-0.082912162 -0.4288204 0.056385048
-0.083101362 -0.4289583 0.056329872
-0.083287887 -0.42909509 0.056270082
-0.083474129 -0.4292317 0.056210294
-0.083660521 -0.42936876 0.056148209
-0.083851755 -0.42951077 0.0560757
-0.084039256 -0.42965001 0.056004368
-0.084227964 -0.42978868 0.055942256
-0.084410235 -0.42992041 0.055896338
-0.084596112 -0.43005511 0.055846952
-0.08478222 -0.43019325 0.055776775
-0.084963515 -0.43032414 0.055732023
-0.085146606 -0.43045801 0.055675715
-0.085334241 -0.43059647 0.055610146
-0.085518174 -0.43073222 0.055545758
-0.085701436 -0.43086427 0.055502146
-0.08588364 -0.43099773 0.055444688
-0.08606223 -0.43112567 0.055406876
-0.086244501 -0.43125975 0.055345956
-0.086427361 -0.43139204 0.055298883
-0.086607367 -0.43152294 0.055248361
-0.086784825 -0.43164992 0.055211715
-0.086965486 -0.43178234 0.055154264
-0.087144911 -0.43190995 0.055122208
-0.087325647 -0.43204296 0.055061296
-0.087503687 -0.43217176 0.055015408
-0.087681502 -0.43230045 0.054969512
-0.087861493 -0.43242988 0.054928228
-0.088038296 -0.43255731 0.054885805
-0.088216588 -0.43268433 0.054852605
-0.088391691 -0.43280932 0.054818269
-0.088568732 -0.43293783 0.054770075
-0.088745549 -0.43306619 0.054721881
-0.088923857 -0.4331941 0.054682914
-0.089099512 -0.43332094 0.054639339
-0.089272529 -0.43344343 0.054611936
-0.089446917 -0.43356851 0.054574139
-0.089624032 -0.43369526 0.054537494
-0.089800358 -0.43382415 0.054483525
-0.089977041 -0.4339506 0.054446872
-0.090149425 -0.43407303 0.054417171
-0.090321623 -0.43419534 0.054387461
-0.090495743 -0.43432131 0.054342743
-0.090670824 -0.43444574 0.054311872
-0.090841658 -0.4345662 0.05428794
-0.09101589 -0.43468955 0.054260541
-0.091187164 -0.4348112 0.054230835
-0.091359958 -0.4349359 0.054188434
-0.091530867 -0.43505731 0.054158732
-0.091704369 -0.43518016 0.054131337
-0.09187369 -0.43529904 0.054110877
-0.092046857 -0.43542165 0.054083474
-0.092214271 -0.43554103 0.054051489
-0.092383973 -0.43565747 0.054048348
-0.092553258 -0.43577707 0.054023273
-0.092722245 -0.43589625 0.053999357
-0.092889197 -0.43601173 0.053990453
-0.093058236 -0.43612751 0.053988472
-0.093222126 -0.43623728 0.054002672
-0.093382716 -0.43634063 0.054043435
-0.093537912 -0.43642926 0.054154634
-0.093686253 -0.43650401 0.054324739
-0.093296997 -0.43499854 0.062248591
-0.093487322 -0.43515056 0.062107988
-0.093627691 -0.43519098 0.062462822
-0.094595127 -0.43570051 0.063431136
-0.09479744 -0.435875 0.063199282
-0.094950393 -0.43595198 0.063375138
-0.095873512 -0.43718162 0.059546404
-0.096033819 -0.43729091 0.059547935
-0.096179798 -0.43739277 0.05953452
-0.096387848 -0.43755114 0.059430756
-0.096532859 -0.43763587 0.05952239
-0.096713737 -0.43776268 0.059501879
-0.096887521 -0.43789399 0.059421375
-0.097072542 -0.43802598 0.059385829
-0.097230136 -0.43811932 0.059477411
-0.097425893 -0.43826675 0.059389867
-0.097593628 -0.43837935 0.059402898
-0.097755939 -0.43851203 0.059263587
-0.097921878 -0.43862626 0.059258156
-0.098112345 -0.43875092 0.059292994
-0.098262519 -0.43884283 0.059361517
-0.098452777 -0.43898451 0.059286702
-0.098598137 -0.43908179 0.059299838
-0.098789997 -0.43921643 0.059276972
-0.09896072 -0.43933827 0.059243806
-0.099133231 -0.43945897 0.059225641
-0.099305898 -0.43958667 0.059163619
-0.099468686 -0.43970054 0.05914665
-0.09962818 -0.43981197 0.059130862
-0.099786088 -0.43993229 0.059051596
-0.099955454 -0.44005227 0.059024222
-0.10013295 -0.44018236 0.058967937
-0.10029069 -0.44027632 0.059056047
-0.10046843 -0.44038689 0.059125584
-0.10066026 -0.44053203 0.059035759
-0.10082337 -0.44064179 0.059046499
-0.10099433 -0.44075367 0.059077978
-0.10114162 -0.44085929 0.059046086
-0.10132264 -0.44098023 0.059063669
-0.10147721 -0.44109407 0.059010956
-0.10162766 -0.44120294 0.058972131
-0.1018164 -0.4413259 0.059010454
-0.10199213 -0.44146237 0.058905695
-0.10214691 -0.44156227 0.058943026
-0.10231906 -0.44168779 0.058892548
-0.1025134 -0.44183084 0.058826949
-0.1026556 -0.4419131 0.05892206
-0.10284433 -0.44205466 0.058841486
-0.10297501 -0.44214007 0.058866233
-0.10314783 -0.44226101 0.058848068
-0.10331224 -0.44239765 0.058692582
-0.10348187 -0.44249797 0.058792178
-0.1036308 -0.44259587 0.058816835
-0.1038191 -0.44273928 0.058722414
-0.10398373 -0.44284973 0.058735453
-0.10415761 -0.44297734 0.058679193
-0.10431298 -0.44308162 0.058691122
-0.10447938 -0.44320032 0.05865914
-0.10466159 -0.44332099 0.058683641
-0.10482517 -0.44343936 0.058641285
-0.10498386 -0.4435479 0.058640499
-0.10514358 -0.44366151 0.058612019
-0.1053294 -0.44378787 0.058615722
-0.10547287 -0.44388694 0.05860924
-0.10562624 -0.44398299 0.058665037
-0.10579605 -0.44412297 0.058511842
-0.10597768 -0.44424286 0.058538649
-0.10612419 -0.44434544 0.058522932
-0.10628471 -0.44445199 0.058542911
-0.10647216 -0.44459069 0.058475044
-0.10662708 -0.44469664 0.058474284
-0.10678647 -0.44479701 0.058528904
-0.10695488 -0.44492033 0.058476135
-0.10711393 -0.44503668 0.058426864
-0.10728029 -0.44514778 0.058443367
-0.10744435 -0.44526216 0.058428705
-0.1076241 -0.4453918 0.058385111
-0.10778438 -0.44549963 0.058395863
-0.10794926 -0.44562307 0.058326952
-0.10811547 -0.44573513 0.05833653
-0.1082815 -0.44584581 0.058354184
-0.10842759 -0.4459542 0.058299206
-0.1086041 -0.44608706 0.058221005
-0.10876665 -0.44619262 0.058255985
-0.10892592 -0.44629291 0.058310606
-0.10910163 -0.44642013 0.058264729
-0.10924906 -0.44651484 0.058303244
-0.10940976 -0.44663614 0.058229737
-0.10958822 -0.44676742 0.058169987
-0.10975719 -0.44688734 0.058141455
-0.10991122 -0.4470019 0.058081828
-0.11006416 -0.4470917 0.058175728
-0.11025397 -0.44722533 0.058150556
-0.11041667 -0.44734439 0.058100116
-0.11057312 -0.44745374 0.058084343
-0.11073855 -0.44757286 0.058045439
-0.1109008 -0.44767609 0.058094278
-0.11105103 -0.44779128 0.058013897
-0.11121924 -0.44790238 0.058038455
-0.11136984 -0.44797921 0.058205098
-0.11151966 -0.44810101 0.058080845
-0.11168975 -0.44825038 0.057868775
-0.11186127 -0.44835037 0.057978738
-0.11201761 -0.4484483 0.058035683
-0.11218123 -0.44858566 0.057872131
-0.11234961 -0.44868985 0.057941709
-0.1125087 -0.44879413 0.057969779
-0.11267221 -0.44892314 0.057859324
-0.11284246 -0.4490439 0.057830784
-0.11300138 -0.44914848 0.057856545
-0.113166 -0.44926018 0.057861507
-0.113329 -0.44938648 0.057766054
-0.11348186 -0.44948688 0.057791859
-0.11364933 -0.44960052 0.057796802
-0.11381567 -0.44972226 0.057745196
-0.11396431 -0.44982916 0.05771099
-0.11412328 -0.44993231 0.057745993
-0.11429361 -0.4500477 0.057752073
-0.11445158 -0.45015723 0.057742067
-0.11462268 -0.45028672 0.057661578
-0.11476785 -0.45039177 0.05762393
-0.1149324 -0.45050073 0.0576462
-0.11509601 -0.45061445 0.057633854
-0.11526106 -0.45072103 0.057673447
-0.11542179 -0.45083204 0.057665728
-0.11558551 -0.45094475 0.057660304
-0.11574283 -0.45106953 0.057549879
-0.11589806 -0.45117354 0.05756297
-0.11605702 -0.45129019 0.057511397
-0.11623935 -0.45139796 0.057618998
-0.11639335 -0.45150653 0.057597466
-0.11654676 -0.45161688 0.057562083
-0.11670438 -0.45173681 0.057483964
-0.11687353 -0.45185357 0.057476208
-0.11703787 -0.45197394 0.05742462
-0.11719806 -0.45207322 0.057489622
-0.11734433 -0.45218158 0.057435807
-0.1175111 -0.45229402 0.05744537
-0.11767589 -0.45241198 0.057411097
-0.11783136 -0.45252463 0.057369925
-0.1179978 -0.45262784 0.057437211
-0.11815771 -0.45273846 0.057428345
-0.1183058 -0.45285946 0.057301797
-0.11847076 -0.45296651 0.057337921
-0.11863272 -0.45306286 0.057429466
-0.11878492 -0.45318195 0.057332911
-0.11893277 -0.45331866 0.057104796
-0.11910949 -0.45344207 0.057087764
-0.11927702 -0.45353517 0.057224292
-0.1194325 -0.45363754 0.057248931
-0.11958688 -0.45375812 0.057152357
-0.11975436 -0.45386818 0.05718039
-0.11991793 -0.45397049 0.057240766
-0.12007868 -0.45408586 0.057205345
-0.12023602 -0.45419979 0.057164177
-0.1203955 -0.45429516 0.057251122
-0.12054568 -0.45442134 0.057100318
-0.12071595 -0.45454088 0.057079855
-0.12087635 -0.45464897 0.057089459
-0.12103597 -0.45475835 0.057087518
-0.12119543 -0.45486796 0.057083275
-0.12136196 -0.45497319 0.057137862
-0.12151445 -0.45509338 0.057035536
-0.12167799 -0.4552159 0.056966629
-0.1218367 -0.45531997 0.056994703
-0.12199872 -0.45543802 0.05694773
-0.12215836 -0.45553476 0.057026595
-0.12231648 -0.45565194 0.0569681
-0.12246648 -0.45576772 0.056883104
-0.12263483 -0.45587692 0.056920364
-0.12279271 -0.45599952 0.056826092
-0.12296286 -0.45610651 0.056885276
-0.12311668 -0.45621118 0.056887984
-0.12327499 -0.45631605 0.056909136
-0.12343372 -0.4564369 0.05682987
-0.12359653 -0.45655277 0.056800202
-0.12375511 -0.45665726 0.056824826
-0.12391368 -0.45677242 0.056781329
-0.12407658 -0.45688277 0.056787457
-0.12424006 -0.45699766 0.056767028
-0.12439726 -0.45710373 0.056775495
-0.12455547 -0.45722386 0.056698527
-0.12472396 -0.45733353 0.056733482
-0.12488434 -0.45743653 0.056775406
-0.12503818 -0.45755079 0.056716934
-0.12520003 -0.45765737 0.056742683
-0.12535623 -0.45777395 0.056679584
-0.1255289 -0.45788482 0.056724906
-0.12567808 -0.45800275 0.056622595
-0.12583438 -0.45811421 0.056592967
-0.12599206 -0.45822439 0.056577183
-0.12615681 -0.4583331 0.05660177
-0.12631236 -0.4584406 0.056594085
-0.12647188 -0.45855367 0.056567907
-0.12663612 -0.45866296 0.05658672
-0.1267862 -0.45877463 0.056528263
-0.12693907 -0.45889255 0.056442093
-0.12710218 -0.45900685 0.056423973
-0.12725873 -0.45911753 0.05640012
-0.12742117 -0.4592281 0.05640278
-0.12758432 -0.45933411 0.056437772
-0.12774898 -0.45944726 0.056433495
-0.12791398 -0.45954823 0.056508861
-0.12806441 -0.45966303 0.056431942
-0.12822643 -0.45977402 0.05642999
-0.12837964 -0.45988679 0.056378454
-0.12853763 -0.46000025 0.056343049
-0.12870045 -0.46011454 0.056323767
-0.12886328 -0.46022499 0.056328747
-0.12903 -0.46032569 0.056413345
-0.12918976 -0.46044183 0.056368694
-0.12935421 -0.4605552 0.056362119
-0.12950459 -0.46066546 0.056314047
-0.12966563 -0.46078068 0.056280937
-0.1298219 -0.46089119 0.056257088
-0.12999238 -0.46100491 0.056274708
-0.13014901 -0.46111166 0.056276254
-0.13030687 -0.46122488 0.056242
-0.13046111 -0.46133634 0.056203149
-0.13062567 -0.46144962 0.056197722
-0.13078481 -0.46155867 0.056195781
-0.13094193 -0.46166867 0.056178853
-0.13109852 -0.46178228 0.056136526
-0.13127777 -0.461889 0.056237228
-0.13143024 -0.46199781 0.05620762
-0.1315814 -0.46210715 0.056168783
-0.13173971 -0.4622232 0.056118365
-0.13189465 -0.46233407 0.056086443
-0.1320568 -0.46244842 0.056063715
-0.13222122 -0.46256503 0.056036353
-0.13237962 -0.46267447 0.056028645
-0.13254483 -0.46278131 0.056067087
-0.13270262 -0.46289107 0.056054767
-0.13286479 -0.46300542 0.056032039
-0.13302571 -0.46311405 0.056040481
-0.13318092 -0.46322471 0.056010861
-0.1333382 -0.46333465 0.055995081
-0.13348663 -0.46344754 0.055921622
-0.13364197 -0.46356103 0.05587469
-0.13380717 -0.46367133 0.055891193
-0.13395232 -0.46378794 0.055779666
-0.13410363 -0.46389955 0.055726975
-0.13426752 -0.46401024 0.055735402
-0.13443519 -0.46412274 0.055748433
-0.13459124 -0.46423292 0.055725738
-0.13476425 -0.46434402 0.055771057
-0.13491847 -0.46445477 0.055736829
-0.13507047 -0.46456885 0.055671439
-0.13524716 -0.46467921 0.055737514
-0.1354122 -0.46478996 0.05575056
-0.13555413 -0.46490094 0.055660978
-0.13572063 -0.4650141 0.055664781
-0.13589661 -0.4651278 0.055706613
-0.13605039 -0.46523857 0.055670075
-0.1361928 -0.46535188 0.055567805
-0.13636297 -0.46546429 0.055592362
-0.13652903 -0.46557772 0.055592693
-0.13667665 -0.46569493 0.055488087
-0.13684382 -0.46580026 0.055544972
-0.13699985 -0.46590787 0.055538435
-0.13716722 -0.46602634 0.05551222
-0.13732271 -0.46613666 0.055486061
-0.13748972 -0.46624494 0.055523336
-0.13764191 -0.46635589 0.055478718
-0.13779934 -0.46646595 0.055462938
-0.13796127 -0.46657526 0.055471376
-0.13813177 -0.46668828 0.05549363
-0.13828427 -0.46680412 0.055418998
-0.13843691 -0.46691 0.055409014
-0.13857873 -0.46702233 0.055310201
-0.13874058 -0.46713179 0.055317484
-0.13891254 -0.46724236 0.055361658
-0.1390751 -0.4673543 0.055356242
-0.13921642 -0.46746647 0.055256277
-0.13937789 -0.46758088 0.055230089
-0.1395593 -0.46769542 0.055290371
-0.13971356 -0.46780598 0.055257294
-0.13988587 -0.467917 0.055300314
-0.1400218 -0.46802947 0.055174977
-0.14018498 -0.46814144 0.05517187
-0.14035873 -0.46825019 0.055235647
-0.14049973 -0.46836197 0.055136845
-0.1406603 -0.46846512 0.055178761
-0.14085177 -0.4685773 0.055297866
-0.14101054 -0.46869674 0.055227831
-0.14115742 -0.4688102 0.055143993
-0.14131886 -0.46891811 0.055159368
-0.14149846 -0.4690294 0.055232354
-0.14165027 -0.46914029 0.055186588
-0.14180145 -0.4692556 0.055109665
-0.14195214 -0.46936429 0.055073142
-0.14212114 -0.46947861 0.055080391
-0.14228502 -0.46959108 0.055077273
-0.14243974 -0.46970394 0.055031493
-0.14260069 -0.46981657 0.055014543
-0.14276087 -0.46993136 0.054980278
-0.14291336 -0.47004002 0.054951832
-0.14307687 -0.47015473 0.054932561
-0.1432309 -0.47026333 0.054911025
-0.14340293 -0.47037795 0.0549298
-0.14355953 -0.47048867 0.054905947
-0.14372917 -0.47060347 0.054913186
-0.14386691 -0.4707123 0.05481901
-0.14404854 -0.47082913 0.054865442
-0.14420748 -0.47094199 0.054838117
-0.14435562 -0.47105074 0.054790057
-0.14451237 -0.47116154 0.054766204
-0.14468262 -0.47127658 0.054774601
-0.14482728 -0.47138527 0.054711558
-0.14500736 -0.47149852 0.054774154
-0.14516315 -0.47160742 0.054758385
-0.14530264 -0.47171998 0.054648038
-0.14546691 -0.47183308 0.054642614
-0.14565381 -0.47194883 0.054719042
-0.14579593 -0.4720594 0.054632921
-0.14596824 -0.47217092 0.054672472
-0.14612614 -0.47228399 0.054639377
-0.14628804 -0.47239527 0.054635115
-0.14645389 -0.47250873 0.054634303
-0.14660271 -0.47262332 0.054551616
-0.14678296 -0.47273561 0.054621138
-0.14692757 -0.47284427 0.054558098
-0.14709409 -0.47295982 0.054546885
-0.14724363 -0.47307816 0.054443419
-0.1474119 -0.47318441 0.054499149
-0.14756477 -0.4732973 0.054445304
-0.14772563 -0.47340694 0.05444682
-0.14788233 -0.4735201 0.054407954
-0.14807063 -0.47363552 0.054492451
-0.14820777 -0.47374362 0.054400586
-0.14836814 -0.4738571 0.054375563
-0.14852193 -0.47396824 0.054336712
-0.14869496 -0.47408283 0.054360099
-0.14884157 -0.47419339 0.05429358
-0.14900026 -0.474305 0.054273181
-0.14917511 -0.4744181 0.054313868
-0.1493376 -0.47453195 0.054295763
-0.14950939 -0.47464493 0.054323778
-0.149689 -0.47476059 0.054369066
-0.149827 -0.47487214 0.054258719
-0.14999168 -0.47498459 0.054259069
-0.15017572 -0.4751009 0.054319344
-0.15031765 -0.47521281 0.054223992
-0.1504681 -0.47532383 0.054171309
-0.15063399 -0.47543657 0.054175112
-0.15080796 -0.47555035 0.054207727
-0.15095931 -0.47566324 0.054146964
-0.15113895 -0.47577783 0.054199178
-0.15127845 -0.47588933 0.05409576
-0.15145417 -0.47600356 0.054132979
-0.15161853 -0.47611815 0.054118328
-0.15176916 -0.47622931 0.054065645
-0.151932 -0.47634375 0.054045215
-0.15211809 -0.47645965 0.054117024
-0.15223961 -0.47656861 0.053951364
-0.152421 -0.476684 0.054005869
-0.15258576 -0.47679886 0.053991217
-0.1527462 -0.47691151 0.05397195
-0.15291847 -0.47702754 0.053982649
-0.1530804 -0.47714049 0.053967997
-0.1532539 -0.47725517 0.05399254
-0.15340659 -0.47737008 0.053924844
-0.15357998 -0.47748488 0.053948227
-0.15377405 -0.47760791 0.054009609
-0.15390697 -0.47771975 0.053875051
-0.15407765 -0.4778327 0.053898454
-0.1542456 -0.47795174 0.05387108
-0.15439814 -0.47806185 0.053833395
-0.15456112 -0.47817534 0.053819902
-0.15470755 -0.47829083 0.053721063
-0.15487355 -0.47840962 0.053686768
-0.15505138 -0.47852096 0.053751692
-0.15523741 -0.47864333 0.053781938
-0.15538891 -0.47875816 0.053709626
-0.15552235 -0.4788619 0.053629324
-0.15567471 -0.47896901 0.053610113
-0.15587419 -0.47908938 0.053711858
-0.15600474 -0.47919726 0.053592321
-0.15616634 -0.47931394 0.053552285
-0.15632738 -0.47942591 0.053539947
-0.15655419 -0.47955343 0.053715438
-0.1567281 -0.47967419 0.053703044
-0.15686791 -0.47978842 0.053583462
-0.15704209 -0.47990775 0.053581454
-0.15721372 -0.48002204 0.053600229
-0.15737277 -0.48013699 0.053560205
-0.15753688 -0.48025447 0.053525921
-0.1576944 -0.48036763 0.053490516
-0.15785408 -0.48048428 0.053442404
-0.15801296 -0.48059475 0.053430088
-0.15819338 -0.4807187 0.053425737
-0.15838686 -0.48084545 0.053460561
-0.15852925 -0.48095116 0.053406768
-0.15869483 -0.48106623 0.053394411
-0.15890767 -0.48120621 0.053429145
-0.1590227 -0.48130313 0.053311992
-0.15920177 -0.48142418 0.053320348
-0.15935601 -0.481534 0.053291883
-0.15951096 -0.48163819 0.053302672
-0.15972178 -0.48176795 0.053393979
-0.15986034 -0.48188022 0.053281326
-0.16003855 -0.48199707 0.053312771
-0.16020033 -0.48211747 0.053249639
-0.16038442 -0.48223582 0.053297218
-0.16054127 -0.48234797 0.053265281
-0.16072096 -0.48246548 0.053299028
-0.16086899 -0.48258281 0.053195558
-0.16104922 -0.48270482 0.053202759
-0.16120499 -0.48282111 0.053139664
-0.16137229 -0.48293591 0.053136528
-0.16151413 -0.48304468 0.053060807
-0.16171686 -0.48317233 0.053130213
-0.16192389 -0.4833152 0.053121127
-0.16206692 -0.4834215 0.053066164
-0.16222177 -0.48353213 0.053035386
-0.16239664 -0.48364216 0.053095706
-0.1625559 -0.48375815 0.053049907
-0.1627087 -0.48387116 0.052994899
-0.16287529 -0.48398763 0.052977927
-0.16302204 -0.48409778 0.052914873
-0.16323337 -0.48422572 0.053020023
-0.16341186 -0.48434815 0.053016845
-0.16358578 -0.48446676 0.053018298
-0.16373651 -0.48457944 0.052956376
-0.16391906 -0.48470718 0.052937008
-0.16408612 -0.48482957 0.052884243
-0.1642393 -0.48493618 0.052871946
-0.16441429 -0.48505533 0.052874546
-0.16459543 -0.48517886 0.052875966
-0.16473751 -0.48529339 0.052764453
-0.16492094 -0.48541361 0.052797034
-0.16509038 -0.48553151 0.052783497
-0.16526762 -0.48565689 0.052756079
-0.077857405 -0.42567524 0.054413043
-0.078010939 -0.42576328 0.054520816
-0.078184515 -0.42587659 0.054554626
-0.078356639 -0.42598566 0.054609217
-0.078749865 -0.4262743 0.054481559
-0.078975052 -0.42646694 0.054233506
-0.078954205 -0.42591485 0.057671867
-0.079157814 -0.42606622 0.057593584
-0.079355627 -0.42621452 0.057509545
-0.07954786 -0.42635268 0.057465941
-0.079747319 -0.42650139 0.057386518
-0.079948619 -0.42665297 0.057296701
-0.080143325 -0.42679787 0.057220761
-0.080354132 -0.42696372 0.057081271
-0.080536202 -0.42708844 0.057079256
-0.080723748 -0.42722124 0.05704952
-0.080912471 -0.42735845 0.056996699
-0.081106529 -0.42750111 0.0569323
-0.081289843 -0.42762828 0.056919903
-0.081481487 -0.42776784 0.056864753
-0.081673287 -0.42790788 0.056807291
-0.081866398 -0.42805007 0.056741744
-0.08205387 -0.4281868 0.056686625
-0.082244121 -0.42832524 0.056632634
-0.082437202 -0.42846814 0.05656248
-0.082627073 -0.42860648 0.056507338
-0.08281666 -0.42874464 0.0564522
-0.083014295 -0.42889518 0.056353159
-0.083203495 -0.42903596 0.056279559
-0.083390638 -0.42917117 0.056232516
-0.083581179 -0.42931178 0.056165822
-0.083768636 -0.42944795 0.056114167
-0.083955556 -0.42958626 0.056046341
-0.084142454 -0.42972204 0.055994675
-0.084334515 -0.42986605 0.055912986
-0.084525615 -0.43000886 0.055834752
-0.084708005 -0.43014118 0.055785418
-0.084891304 -0.43027234 0.055747621
-0.085079663 -0.43041164 0.055679791
-0.085265696 -0.43054757 0.055623516
-0.085453458 -0.43068644 0.055555694
-0.085636936 -0.4308188 0.055510972
-0.085817955 -0.43095037 0.055460487
-0.086002506 -0.43108493 0.055406529
-0.086188167 -0.43122149 0.055344485
-0.086369455 -0.43135124 0.055306695
-0.086547911 -0.43147963 0.055265456
-0.086730286 -0.4316116 0.05521844
-0.086915828 -0.43174899 0.055150621
-0.087098062 -0.43188119 0.055101287
-0.087277249 -0.43201169 0.055049658
-0.08745712 -0.4321405 0.055011876
-0.087639898 -0.43227437 0.054954469
-0.087820411 -0.4324047 0.054909758
-0.087998688 -0.43253151 0.054877758
-0.088176928 -0.43265849 0.054844595
-0.088355049 -0.43278861 0.054790672
-0.088534102 -0.43291742 0.054749433
-0.088711515 -0.43304363 0.054717436
-0.088891894 -0.43317512 0.054664649
-0.089067318 -0.43330163 0.054622266
-0.089245647 -0.43343008 0.05457988
-0.089424446 -0.4335596 0.054532878
-0.089601815 -0.43368688 0.054493945
-0.089778475 -0.43381312 0.054458492
-0.089954749 -0.43393892 0.054424189
-0.090131037 -0.43406835 0.054366808
-0.09030541 -0.43419123 0.054342903
-0.090479784 -0.43431428 0.054317847
-0.090654939 -0.43443897 0.054285862
-0.090827286 -0.43456227 0.054250427
-0.091002852 -0.43468812 0.054212663
-0.091174498 -0.43481058 0.054179534
-0.091349036 -0.43493503 0.054146402
-0.091523379 -0.43505934 0.054113258
-0.091695555 -0.4351798 0.054095138
-0.091867514 -0.43530372 0.054053932
-0.092040703 -0.43542653 0.054025419
-0.092212662 -0.4355472 0.054004986
-0.092385054 -0.43566892 0.053979937
-0.092555523 -0.43579093 0.053944513
-0.092727132 -0.43591157 0.053922929
-0.092895091 -0.43602914 0.053904828
-0.0930686 -0.43614998 0.053890161
-0.093231216 -0.43626139 0.053888239
-0.093398601 -0.43637443 0.053896688
-0.093562841 -0.43648136 0.05393054
-0.093726501 -0.43658715 0.053969007
-0.093880504 -0.43667352 0.054089472
-0.094026998 -0.43674448 0.054275755
-0.093661368 -0.43522844 0.062370494
-0.093816623 -0.4353171 0.062481724
-0.093996033 -0.43545625 0.062375847
-0.094176948 -0.43559444 0.062282659
-0.094333991 -0.43567765 0.062436581
-0.09588892 -0.43720159 0.059486136
-0.096058533 -0.43731722 0.059487648
-0.096247762 -0.43746272 0.059384033
-0.096419871 -0.43757954 0.059388991
-0.096578836 -0.43768141 0.059432104
-0.096731715 -0.43780529 0.059307888
-0.096934609 -0.43793234 0.059381947
-0.097060241 -0.4380188 0.059377894
-0.097253755 -0.4381555 0.059349284
-0.097454481 -0.43829912 0.059307955
-0.097623639 -0.43842095 0.059267908
-0.097787499 -0.43854114 0.059215203
-0.097949058 -0.438656 0.059186742
-0.098130196 -0.43877465 0.059219353
-0.098302439 -0.43888813 0.059246246
-0.098488756 -0.43902603 0.059178434
-0.098658577 -0.43913949 0.059194937
-0.098828301 -0.43925881 0.059173368
-0.099001199 -0.43938068 0.059149474
-0.099171303 -0.43950155 0.059119813
-0.099341765 -0.43961743 0.059123628
-0.099489279 -0.43971524 0.059142556
-0.09967728 -0.43984112 0.059158988
-0.099837177 -0.4399606 0.059093598
-0.099999525 -0.44007418 0.059076674
-0.10014975 -0.44016683 0.059140604
-0.10036112 -0.44032672 0.0590415
-0.10052979 -0.44044572 0.059017621
-0.10070544 -0.44057164 0.058979861
-0.10086273 -0.44068572 0.058937572
-0.1010225 -0.44079319 0.058948368
-0.10120896 -0.44091639 0.058975182
-0.10138115 -0.44104031 0.058935136
-0.10154505 -0.44115368 0.058926277
-0.10169868 -0.44126543 0.058882855
-0.10185105 -0.44137344 0.058857903
-0.10202637 -0.44148505 0.058910165
-0.1021875 -0.44160646 0.058837846
-0.10235619 -0.44172075 0.058843978
-0.10255064 -0.44185609 0.058828063
-0.10271654 -0.44197842 0.058770724
-0.10287197 -0.44209051 0.058733061
-0.10303657 -0.44219097 0.058809619
-0.10321125 -0.44231933 0.058752239
-0.10335473 -0.44240627 0.058823124
-0.10354793 -0.44253877 0.058819905
-0.10370235 -0.44265831 0.058730304
-0.1038815 -0.44278625 0.058694839
-0.10405195 -0.44292068 0.058579776
-0.10421239 -0.44301474 0.058679435
-0.10436309 -0.44312122 0.058656789
-0.10453857 -0.4432463 0.058623653
-0.10470843 -0.4433699 0.05857553
-0.10486427 -0.44347757 0.058567874
-0.10503288 -0.44359651 0.058543995
-0.10521584 -0.44372219 0.05853967
-0.10537899 -0.4438282 0.05857468
-0.10556926 -0.44396463 0.058533385
-0.10570991 -0.44406372 0.05851426
-0.10587801 -0.44418234 0.058490388
-0.10603091 -0.44429106 0.058463119
-0.10618416 -0.44438738 0.058516644
-0.10635367 -0.44449991 0.058537774
-0.10651816 -0.44464654 0.058318857
-0.10668875 -0.44475076 0.058397695
-0.10685377 -0.44487047 0.058353066
-0.10702422 -0.44499123 0.058325715
-0.10718086 -0.44509277 0.058360755
-0.10734542 -0.44521147 0.058320731
-0.10750699 -0.44532937 0.05827266
-0.10767269 -0.44543764 0.058304194
-0.10785736 -0.44556487 0.058297552
-0.10800594 -0.44566956 0.058277231
-0.10816994 -0.44578806 0.058236059
-0.10834543 -0.44591042 0.058220234
-0.10849094 -0.44601521 0.058186077
-0.10865437 -0.44613132 0.058157608
-0.10881154 -0.44624206 0.058136094
-0.1089917 -0.44635609 0.058194108
-0.10914332 -0.44647026 0.058126461
-0.10933334 -0.44660276 0.058109406
-0.10948993 -0.44670895 0.058114432
-0.10964347 -0.44681343 0.058117174
-0.10979413 -0.44691864 0.058102615
-0.10996547 -0.44703096 0.058132973
-0.11013448 -0.44715992 0.058046766
-0.11031801 -0.44728962 0.058019355
-0.11046831 -0.44739386 0.058009416
-0.11063357 -0.44750816 0.058000561
-0.11078075 -0.44760972 0.057994097
-0.1109549 -0.44772992 0.057986353
-0.11110197 -0.44783378 0.057964887
-0.11126696 -0.44795039 0.057939872
-0.11142573 -0.44806838 0.057879101
-0.11159704 -0.44816875 0.057985634
-0.11174923 -0.4482947 0.057845272
-0.11190835 -0.44839469 0.05790107
-0.11206757 -0.44849423 0.057960339
-0.11222035 -0.44859907 0.057957307
-0.11238368 -0.44873407 0.057807654
-0.11255201 -0.44883767 0.057880726
-0.11271637 -0.44895315 0.05786033
-0.112873 -0.44908375 0.057709556
-0.11304326 -0.44920057 0.057706445
-0.11321338 -0.44931853 0.057695255
-0.1133692 -0.44941989 0.057728
-0.11353056 -0.44952935 0.057733003
-0.11369339 -0.44965246 0.057657212
-0.11385208 -0.44975665 0.057684168
-0.11402933 -0.44986868 0.057742197
-0.11418346 -0.44998169 0.057692997
-0.11433083 -0.45009461 0.057614967
-0.11448993 -0.450196 0.057661548
-0.11465475 -0.45030335 0.057695396
-0.11482509 -0.45041731 0.057710744
-0.11498964 -0.45054358 0.057622261
-0.11514726 -0.45066926 0.057507262
-0.11529392 -0.45076507 0.057535417
-0.11545606 -0.45086855 0.057581984
-0.11561562 -0.45098346 0.057544298
-0.11578806 -0.45110196 0.057540022
-0.11594065 -0.45121607 0.057476971
-0.11611324 -0.4513334 0.057480782
-0.1162655 -0.45143467 0.05749853
-0.11642562 -0.45155844 0.057406593
-0.11657724 -0.45166162 0.057409346
-0.11674404 -0.45176178 0.057497434
-0.11690371 -0.45188561 0.057403192
-0.11706144 -0.45199206 0.057411678
-0.11722437 -0.45210478 0.057402838
-0.11738972 -0.45221028 0.057450537
-0.11755296 -0.45232213 0.057448611
-0.11770477 -0.45244491 0.057326712
-0.1178649 -0.45255443 0.057325959
-0.11802426 -0.45266595 0.057309046
-0.11818071 -0.45277515 0.057294458
-0.11834263 -0.45288932 0.057271764
-0.11850332 -0.45300627 0.057225995
-0.11865948 -0.45309773 0.057323374
-0.11882165 -0.45321986 0.057251047
-0.11898318 -0.4533343 0.057224892
-0.11913493 -0.45344442 0.05718378
-0.11929933 -0.45356065 0.057158768
-0.11946407 -0.45365185 0.057295341
-0.11961573 -0.45375395 0.057305016
-0.11976503 -0.45388407 0.057125419
-0.11992431 -0.45400944 0.057019636
-0.12008663 -0.4541136 0.057062734
-0.12025119 -0.45422128 0.057093121
-0.12040104 -0.45434055 0.056985073
-0.1205692 -0.45444909 0.057025831
-0.12072316 -0.4545607 0.056984719
-0.12088881 -0.45466661 0.057031251
-0.12104728 -0.45477751 0.057014346
-0.12121035 -0.45487443 0.057107065
-0.12136061 -0.45499146 0.057015184
-0.1215183 -0.4551163 0.056905948
-0.12168983 -0.45522657 0.056950152
-0.12184186 -0.4553338 0.056928664
-0.12200093 -0.45544332 0.0569233
-0.12215811 -0.45554325 0.056971036
-0.12231955 -0.45565566 0.05695758
-0.12247072 -0.45577568 0.056850683
-0.12262999 -0.45589057 0.056811847
-0.12279204 -0.45600176 0.056808777
-0.12294897 -0.45611364 0.056779176
-0.12310765 -0.45621765 0.056807291
-0.1232742 -0.45632344 0.056858443
-0.12342535 -0.45644197 0.056760777
-0.123582 -0.45655382 0.056730039
-0.123749 -0.45666462 0.05675118
-0.1239072 -0.45676941 0.056772362
-0.1240705 -0.45688432 0.056750819
-0.12422827 -0.45699477 0.056733917
-0.12438517 -0.45711112 0.056675468
-0.12454815 -0.45721608 0.056716248
-0.12469827 -0.45732906 0.056649759
-0.12485143 -0.45744374 0.056585554
-0.12502201 -0.45755121 0.056643613
-0.12518381 -0.45766711 0.056609388
-0.12534598 -0.45777786 0.05660978
-0.12549067 -0.45789036 0.056522537
-0.12565529 -0.45799881 0.056548301
-0.12581463 -0.45811194 0.056521002
-0.12598757 -0.45821795 0.056598678
-0.1261446 -0.4583241 0.056606013
-0.12628585 -0.45843878 0.056489937
-0.1264486 -0.45855334 0.056468397
-0.12661745 -0.45865873 0.05653223
-0.12677185 -0.4587712 0.056487642
-0.12692279 -0.45888618 0.056411911
-0.12709649 -0.45900083 0.056437641
-0.12724824 -0.45910659 0.05642423
-0.12740327 -0.45922238 0.056361176
-0.12756644 -0.4593282 0.056397349
-0.12772155 -0.45943972 0.056361984
-0.12788075 -0.45955637 0.056311607
-0.12804508 -0.45966554 0.056331612
-0.12819816 -0.45977816 0.056280106
-0.12836152 -0.45988414 0.056316275
-0.12852131 -0.45999631 0.056297049
-0.12868033 -0.46010128 0.056320541
-0.12884334 -0.46021152 0.05632785
-0.12900358 -0.46031967 0.056336332
-0.12915036 -0.46043196 0.056259468
-0.12930079 -0.46054569 0.056189504
-0.12946565 -0.46065485 0.056211814
-0.12961872 -0.46076694 0.056163773
-0.12979046 -0.46087611 0.056216054
-0.12994409 -0.46098426 0.056195717
-0.13010147 -0.46109048 0.056204204
-0.13025841 -0.46120393 0.056164227
-0.13041537 -0.46131039 0.056169253
-0.13056979 -0.46142846 0.056088891
-0.13072453 -0.46153939 0.056055851
-0.13087767 -0.46165097 0.056011271
-0.13103122 -0.46176231 0.055970147
-0.13119097 -0.46187413 0.055953238
-0.13135132 -0.46198234 0.055961721
-0.13151094 -0.46209422 0.055943657
-0.13166483 -0.46220526 0.055905998
-0.13182884 -0.46231529 0.055919077
-0.13198616 -0.46242487 0.055905636
-0.13215375 -0.46253353 0.055942938
-0.13231634 -0.46264115 0.055965248
-0.13248263 -0.46275055 0.055992167
-0.13263857 -0.46286082 0.055968359
-0.13279952 -0.46297541 0.055938743
-0.13295002 -0.46308449 0.055898786
-0.13310674 -0.46319747 0.055861123
-0.13325219 -0.4633112 0.055769257
-0.13341494 -0.46342197 0.055771954
-0.13357423 -0.46353093 0.055771202
-0.13374019 -0.46364373 0.055775039
-0.13389187 -0.46375811 0.055706225
-0.13405412 -0.4638662 0.055723935
-0.13421904 -0.46397647 0.055739313
-0.13437645 -0.46408615 0.055725873
-0.1345374 -0.46419767 0.055715889
-0.13469657 -0.464304 0.055731293
-0.13485959 -0.46441785 0.055715527
-0.13501026 -0.4645294 0.055660568
-0.13517144 -0.46464092 0.055651724
-0.13532738 -0.46475101 0.055629067
-0.13548172 -0.46485874 0.055614494
-0.13564825 -0.46497172 0.055619475
-0.13580169 -0.46508786 0.055547193
-0.13596016 -0.46519464 0.055556834
-0.13611269 -0.46530819 0.055497255
-0.13627858 -0.46541604 0.055532251
-0.1364544 -0.46553251 0.055555664
-0.13659991 -0.46563691 0.055523816
-0.13674396 -0.46574682 0.055450428
-0.13689682 -0.46585751 0.05541046
-0.13706626 -0.46597016 0.055430438
-0.13724005 -0.46607691 0.055506956
-0.13738446 -0.46619177 0.055403553
-0.13755289 -0.46630731 0.055400454
-0.13770804 -0.46641761 0.055373173
-0.13786507 -0.46653005 0.055340122
-0.13803236 -0.46664086 0.055362411
-0.13817663 -0.46674785 0.055308647
