# .PCD v0.7 - Point Cloud Data file format
VERSION 0.7
FIELDS x y z
SIZE 4 4 4
TYPE F F F
COUNT 1 1 1
WIDTH 1248
HEIGHT 1
VIEWPOINT 0 0 0 1 0 0 0
POINTS 1248
DATA ascii
-0.37607196 -0.25815594 0.059331238
-0.37625781 -0.25812918 0.059358023
-0.37646303 -0.25810423 0.059352405
-0.37664327 -0.25808287 0.059343453
-0.37685424 -0.2580601 0.05931589
-0.37702471 -0.2580381 0.059320834
-0.37721339 -0.2580201 0.059278376
-0.37741974 -0.25799289 0.059288904
-0.37760094 -0.25797641 0.059241883
-0.37778404 -0.25795588 0.059223685
-0.37798125 -0.25794029 0.059154663
-0.37818259 -0.25791007 0.059192903
-0.3783668 -0.25788745 0.0591897
-0.37855163 -0.2578699 0.059147269
-0.37874445 -0.25784969 0.059117492
-0.37892953 -0.25783151 0.059079673
-0.37914321 -0.25780341 0.059090171
-0.37932551 -0.25777844 0.059106588
-0.37950811 -0.25775874 0.05908262
-0.37972006 -0.25773388 0.059070054
-0.37990129 -0.25771648 0.059029952
-0.38009036 -0.25769141 0.059040569
-0.38027966 -0.25767681 0.058971573
-0.38047573 -0.25765637 0.05894063
-0.38065475 -0.25763181 0.058957055
-0.38083991 -0.25760281 0.059001155
-0.38103488 -0.25757915 0.05899559
-0.38123703 -0.25755945 0.058953077
-0.38142502 -0.25753653 0.058948696
-0.38162857 -0.2575098 0.058958091
-0.38180673 -0.25749189 0.058924913
-0.38200283 -0.25747141 0.058893971
-0.38218981 -0.25745469 0.058843449
-0.3823818 -0.25743535 0.058807906
-0.38257331 -0.25741211 0.058802359
-0.38277233 -0.25737852 0.0588683
-0.38295847 -0.25735837 0.058844317
-0.38314086 -0.25735208 0.058718842
-0.38333562 -0.2573289 0.058709815
-0.38352773 -0.25730073 0.058741178
-0.38373092 -0.25726664 0.058807101
-0.38391146 -0.257258 0.058701236
-0.38409546 -0.25724056 0.058658812
-0.38429475 -0.25721177 0.05868784
-0.38448921 -0.25718924 0.058674205
-0.38467422 -0.25718248 0.058549859
-0.3848502 -0.25717077 0.058471709
-0.38504732 -0.2571409 0.058511127
-0.38524804 -0.25711074 0.058549371
-0.3854425 -0.2570768 0.058622263
-0.38563725 -0.25705788 0.058580935
-0.38581446 -0.25704828 0.058485471
-0.38601044 -0.25702038 0.058511052
-0.38621309 -0.25699228 0.058531985
-0.38639647 -0.25697538 0.0584861
-0.38659075 -0.25695333 0.058468997
-0.38679501 -0.25692365 0.058500312
-0.38699296 -0.25690112 0.058483191
-0.38718814 -0.2568782 0.058471866
-0.38736051 -0.25686979 0.058371812
-0.38755834 -0.25684395 0.058380075
-0.3877477 -0.25682053 0.058377996
-0.38794616 -0.25679082 0.058415107
-0.38813892 -0.25677395 0.05835994
-0.38832438 -0.25676137 0.058279432
-0.38852727 -0.25672728 0.058345355
-0.3887215 -0.25670233 0.058350187
-0.38892284 -0.25667986 0.05832959
-0.38908842 -0.25668722 0.058116518
-0.38928115 -0.25665745 0.058159418
-0.3894853 -0.25661957 0.058253016
-0.38969633 -0.2565845 0.058318902
-0.38987875 -0.25658077 0.058173805
-0.39006403 -0.25655878 0.058164835
-0.39026108 -0.25652847 0.058207706
-0.39046144 -0.25650412 0.058202125
-0.39065021 -0.25648794 0.058145825
-0.39082927 -0.25648084 0.058029585
-0.39102221 -0.25645468 0.058044806
-0.39122868 -0.25642183 0.058098018
-0.39144185 -0.25638011 0.058212347
-0.39161474 -0.25638139 0.058038451
-0.39179209 -0.2563698 0.057957988
-0.3920086 -0.25632825 0.058067687
-0.39221671 -0.25629458 0.058125507
-0.39241022 -0.25627413 0.058096878
-0.39261991 -0.25624484 0.058120083
-0.39281011 -0.2562274 0.058071855
-0.39298528 -0.25622308 0.057938337
-0.39318541 -0.25619146 0.057988122
-0.39337963 -0.25617048 0.057962947
-0.3935743 -0.25614914 0.057940081
-0.39376485 -0.25613391 0.057874553
-0.39395711 -0.25610679 0.057897843
-0.39416921 -0.25606823 0.057989098
-0.39434174 -0.2560682 0.057825595
-0.39454028 -0.25603861 0.057861548
-0.39476252 -0.25600228 0.057926226
-0.39496022 -0.25598374 0.057879113
-0.3951281 -0.25597456 0.057789464
-0.39532113 -0.25595477 0.057756223
-0.39552018 -0.25593016 0.057754099
-0.39572182 -0.25590354 0.057764657
-0.3959046 -0.25589201 0.05767839
-0.39610294 -0.25586808 0.057671659
-0.39630994 -0.25583258 0.057744484
-0.39651683 -0.25580457 0.057760783
-0.39669183 -0.25579432 0.057672258
-0.39689055 -0.25576565 0.057701278
-0.39710695 -0.25573048 0.057762526
-0.39727288 -0.25573415 0.057577133
-0.39747715 -0.25570142 0.057631511
-0.39767119 -0.25568122 0.057600576
-0.397865 -0.25565892 0.057585787
-0.39806712 -0.2556327 0.057592876
-0.39827207 -0.25560671 0.057595335
-0.39845815 -0.25559479 0.057509065
-0.39865145 -0.255573 0.057490818
-0.39886063 -0.2555441 0.057511717
-0.39905474 -0.25552404 0.057479624
-0.39924639 -0.25550139 0.057469465
-0.39943913 -0.25547799 0.05746391
-0.3996352 -0.25545663 0.057439879
-0.39983642 -0.25542945 0.057455055
-0.40004227 -0.25540125 0.05747366
-0.40022895 -0.25538665 0.057406999
-0.4004187 -0.25537202 0.057338007
-0.40063435 -0.25533497 0.057414249
-0.40082806 -0.2553218 0.057330243
-0.40102011 -0.25529304 0.057366222
-0.40120843 -0.25527734 0.057306476
-0.40141839 -0.2552509 0.057307757
-0.40160412 -0.25523081 0.057283778
-0.40179968 -0.25520813 0.057270139
-0.40199474 -0.25518996 0.057223041
-0.40221438 -0.25515318 0.057293504
-0.4024052 -0.25513992 0.057212971
-0.40259945 -0.25511831 0.057192408
-0.402789 -0.25509989 0.057152268
-0.40298563 -0.25507873 0.057125922
-0.40318096 -0.2550526 0.057138816
-0.40338922 -0.25502592 0.05714358
-0.40358934 -0.25500071 0.05714491
-0.40378156 -0.25497875 0.057128977
-0.40398529 -0.25496098 0.057070293
-0.40418732 -0.25493279 0.057092387
-0.40438962 -0.25491217 0.057056796
-0.40456989 -0.2548961 0.057007454
-0.40476057 -0.25487342 0.056998461
-0.40494457 -0.25485691 0.056949105
-0.40517947 -0.254814 0.057051789
-0.40544936 -0.25476247 0.057186615
-0.40568739 -0.25472736 0.057226986
-0.40589195 -0.2546984 0.057252515
-0.40611342 -0.2546646 0.057298739
-0.40634477 -0.25462121 0.05740837
-0.40656692 -0.2545855 0.057468429
-0.40679535 -0.25454429 0.057564221
-0.40701947 -0.2545059 0.057642732
-0.40723535 -0.25447449 0.057676289
-0.4074744 -0.25442922 0.057792805
-0.40770474 -0.25438762 0.057889737
-0.40791166 -0.25435489 0.057941798
-0.40815204 -0.25431478 0.058017924
-0.40837109 -0.25428218 0.058057234
-0.4086144 -0.25423366 0.058194488
-0.40884954 -0.25419194 0.058287941
-0.4090721 -0.25415602 0.058349155
-0.40930343 -0.25411689 0.058426477
-0.40953597 -0.25407547 0.058519945
-0.40976861 -0.25403419 0.058612257
-0.40999565 -0.25399637 0.058683828
-0.41023833 -0.2539514 0.058794551
-0.41046172 -0.253916 0.058851145
-0.41070732 -0.25386977 0.058968775
-0.31019688 -0.26569864 0.064647153
-0.31042528 -0.26567173 0.064634487
-0.31064788 -0.26564357 0.064636856
-0.31086341 -0.26561385 0.064657718
-0.31109771 -0.26559001 0.064616174
-0.31132391 -0.26556292 0.064606994
-0.31153718 -0.26553288 0.064632475
-0.31180435 -0.26551557 0.064510003
-0.31203604 -0.26549008 0.064483479
-0.31226203 -0.26546332 0.064471982
-0.31249362 -0.26543799 0.064444304
-0.31274071 -0.2654165 0.064372696
-0.31294852 -0.2653856 0.064409755
-0.31315497 -0.26535442 0.064450279
-0.31340158 -0.26533318 0.064377517
-0.31365228 -0.26531306 0.064292051
-0.31389928 -0.2652922 0.064215831
-0.31410086 -0.2652601 0.064267918
-0.31431049 -0.26523006 0.064296886
-0.31455377 -0.26520857 0.064228758
-0.31476143 -0.26517817 0.06426236
-0.31496382 -0.26514643 0.064310983
-0.31518918 -0.26512069 0.064292565
-0.31541312 -0.26509461 0.064277619
-0.3156254 -0.26506561 0.064296186
-0.31588617 -0.26504943 0.064171433
-0.31612843 -0.26502854 0.064099856
-0.31635672 -0.26500407 0.064068735
-0.31655839 -0.26497257 0.064116202
-0.31677353 -0.26494473 0.064123221
-0.31699079 -0.26491752 0.06412331
-0.31721666 -0.26489276 0.064096801
-0.31744456 -0.26486865 0.064063378
-0.3176654 -0.26484269 0.064050756
-0.31791127 -0.26482376 0.063960694
-0.31811652 -0.26479366 0.063994296
-0.31900942 -0.26469421 0.063901052
-0.31921139 -0.26466346 0.06394276
-0.31944329 -0.26464143 0.06388969
-0.31965885 -0.26461476 0.063887477
-0.31989127 -0.26459309 0.063830942
-0.3200905 -0.26457182 0.063803427
-0.32033035 -0.26454255 0.063797623
-0.32051578 -0.26450717 0.063890174
-0.32077998 -0.26449555 0.063727334
-0.32102478 -0.2644783 0.063625738
-0.32117975 -0.26444396 0.063739218
-0.32144767 -0.26442385 0.063637502
-0.32162261 -0.26438534 0.063763574
-0.32187352 -0.26437053 0.063637719
-0.32208964 -0.26434499 0.063626267
-0.32229009 -0.26431456 0.063666821
-0.3225241 -0.26429486 0.063594133
-0.32272476 -0.26427338 0.063566595
-0.32292783 -0.26423517 0.063663684
-0.32314178 -0.2642093 0.063656859
-0.32337743 -0.26419061 0.063574925
-0.32358959 -0.26416436 0.063572735
-0.32381594 -0.26414287 0.063520849
-0.32404926 -0.26412386 0.063443542
-0.32425088 -0.26409435 0.063476011
-0.32445738 -0.26406652 0.063491151
-0.32467747 -0.26404336 0.063457765
-0.32489538 -0.26401958 0.063431293
-0.32509851 -0.26399082 0.063456841
-0.32531667 -0.26396731 0.063428074
-0.32555515 -0.26395097 0.06332536
-0.32575715 -0.26392204 0.063353203
-0.32595369 -0.26389119 0.063400701
-0.32617897 -0.2638706 0.063343063
-0.32635146 -0.2638312 0.063478366
-0.32658514 -0.26381379 0.063388363
-0.32680598 -0.26379195 0.063344583
-0.32702038 -0.26376784 0.063323915
-0.32724535 -0.26374772 0.063262805
-0.3274644 -0.26372364 0.063237496
-0.3276751 -0.26369849 0.063228369
-0.32788292 -0.26367232 0.063229665
-0.32808217 -0.26364297 0.06326329
-0.32829878 -0.26362026 0.063229918
-0.32851186 -0.2635963 0.063209258
-0.3287316 -0.26357701 0.063147016
-0.32894218 -0.26355231 0.063134447
-0.32916287 -0.26353168 0.063081428
-0.32936344 -0.26350322 0.063106984
-0.32958454 -0.26348299 0.063050508
-0.32980105 -0.26346105 0.063011363
-0.33000499 -0.26343414 0.063021898
-0.33020651 -0.26340634 0.063041672
-0.33040148 -0.26337582 0.063088037
-0.3306379 -0.2633625 0.062964544
-0.33083218 -0.26333392 0.062997058
-0.3310453 -0.26331118 0.062967166
-0.33126238 -0.26329026 0.062919937
-0.33146846 -0.26326475 0.062917769
-0.33168152 -0.26324233 0.062885568
-0.33188811 -0.26321721 0.062879935
-0.33208644 -0.26318857 0.062908955
-0.33230788 -0.26317012 0.062838636
-0.33251673 -0.26314625 0.062821455
-0.33273098 -0.26312491 0.062780015
-0.33293116 -0.26309955 0.062782481
-0.3331416 -0.26307669 0.062756076
-0.33333218 -0.26304489 0.062816285
-0.33355486 -0.26302782 0.062734418
-0.33375081 -0.26299858 0.062770382
-0.33396372 -0.26297724 0.062730104
-0.33416778 -0.26295412 0.06271179
-0.33437672 -0.26293114 0.06268768
-0.33459356 -0.26291206 0.062626608
-0.33479634 -0.26288635 0.062629074
-0.33499923 -0.26286307 0.06261307
-0.33520052 -0.26283681 0.06262131
-0.33540717 -0.26281321 0.062604144
-0.33560631 -0.262786 0.062621623
-0.33581656 -0.26276436 0.062585972
-0.33602589 -0.26274243 0.062553786
-0.33623084 -0.2627207 0.062523931
-0.33643818 -0.26270038 0.062481374
-0.33664718 -0.26267859 0.062448036
-0.33678755 -0.26265505 0.062493503
-0.33704168 -0.2626231 0.062494561
-0.33724585 -0.26259908 0.062483169
-0.33745518 -0.26257786 0.062445216
-0.3376632 -0.26255608 0.062413037
-0.33786726 -0.2625348 0.062380873
-0.33807081 -0.26251081 0.062369488
-0.33827582 -0.26248774 0.062350009
-0.33847108 -0.26245931 0.062380206
-0.33867654 -0.26243922 0.062337659
-0.33888268 -0.26241705 0.062310107
-0.33907992 -0.26238993 0.062328756
-0.33929402 -0.26237252 0.062257312
-0.33948538 -0.26234475 0.062286366
-0.33969629 -0.26232579 0.062229939
-0.33989334 -0.26229885 0.062247433
-0.34008607 -0.26228002 0.062207252
-0.3402915 -0.26225552 0.062198162
-0.34050798 -0.26223511 0.06214748
-0.3406913 -0.26220545 0.062198505
-0.34091008 -0.26219493 0.062070496
-0.34108505 -0.2621657 0.062126182
-0.3412714 -0.26215193 0.062053725
-0.34151816 -0.2621206 0.062057123
-0.34172949 -0.26210341 0.061986849
-0.34191659 -0.26207358 0.062035538
-0.3421078 -0.26204354 0.062081914
-0.34231246 -0.26202232 0.062048592
-0.34251279 -0.26201001 0.061951831
-0.34271583 -0.26197925 0.061992373
-0.34291828 -0.26195696 0.061969459
-0.34308279 -0.26193556 0.061975576
-0.34331647 -0.26191103 0.061939798
-0.34352443 -0.26189288 0.061879937
-0.34372172 -0.26186743 0.061885882
-0.34391549 -0.26183951 0.061913773
-0.34408253 -0.26182023 0.061901413
-0.3443028 -0.26178977 0.061923411
-0.34448704 -0.26178005 0.06182212
-0.34472728 -0.26175821 0.061759781
-0.34491003 -0.26173195 0.061785415
-0.34505984 -0.261713 0.061786979
-0.34524977 -0.26167279 0.061911825
-0.34550181 -0.26165724 0.061790586
-0.34570271 -0.26163527 0.061766516
-0.34590974 -0.26161161 0.061749339
-0.34609747 -0.26158279 0.06178996
-0.34630638 -0.26156756 0.061706997
-0.34649247 -0.26154092 0.061732627
-0.3467041 -0.2615214 0.061679658
-0.34689802 -0.26149786 0.061674088
-0.34706226 -0.26147759 0.061672125
-0.34726685 -0.2614632 0.061586887
-0.34749168 -0.26144144 0.061538473
-0.3476592 -0.26141709 0.061564181
-0.34785751 -0.2613979 0.061521668
-0.34807408 -0.26136562 0.061560981
-0.34826308 -0.26134574 0.061532363
-0.3484816 -0.2613228 0.061498985
-0.34867802 -0.26129863 0.061495703
-0.34886938 -0.26126599 0.061561689
-0.349078 -0.26125342 0.06145912
-0.34927309 -0.2612282 0.061465088
-0.34948608 -0.2612204 0.061322112
-0.34967327 -0.26118782 0.06139157
-0.34986046 -0.2611551 0.061462194
-0.35005295 -0.26113981 0.061395474
-0.35025454 -0.26111335 0.061404869
-0.35045213 -0.26109117 0.06138543
-0.35064989 -0.2610693 0.06136369
-0.35084766 -0.2610518 0.061308488
-0.35104042 -0.26102492 0.061329454
-0.35123345 -0.26099831 0.061348122
-0.35143447 -0.26098043 0.061292902
-0.35162672 -0.26095757 0.061283879
-0.35182497 -0.26093701 0.061251748
-0.35201901 -0.26091179 0.061258867
-0.352213 -0.26088658 0.06126599
-0.35240537 -0.26086414 0.061253507
-0.35258412 -0.26084933 0.061196085
-0.35277414 -0.26082918 0.061168611
-0.35296449 -0.26079985 0.061210364
-0.35317153 -0.26078624 0.061117034
-0.35336599 -0.26075718 0.061153006
-0.35358164 -0.26074007 0.061078094
-0.35378185 -0.26072881 0.060973257
-0.35395357 -0.26069072 0.061099336
-0.35415494 -0.26067096 0.061057966
-0.35436082 -0.26064688 0.061045408
-0.35456961 -0.26062694 0.060998224
-0.35475388 -0.26060021 0.061026171
-0.35495698 -0.26057813 0.061000936
-0.35514992 -0.26055837 0.060967676
-0.35534498 -0.26054776 0.060862862
-0.35554531 -0.26051629 0.060911499
-0.35573441 -0.26049122 0.060922116
-0.35592815 -0.26046133 0.060965002
-0.35612556 -0.2604433 0.060914408
-0.35629961 -0.26043153 0.060838547
-0.35649273 -0.26040703 0.060841061
-0.35668695 -0.26037797 0.060877036
-0.35688573 -0.26035005 0.060900286
-0.35707983 -0.26034078 0.060786247
-0.35729516 -0.26031533 0.060774803
-0.35748649 -0.26028803 0.060800407
-0.3576684 -0.26026446 0.060806423
-0.35787022 -0.26024255 0.060781207
-0.35803911 -0.26022333 0.060766526
-0.3582218 -0.26020151 0.060758702
-0.3584511 -0.26017433 0.060747191
-0.35864344 -0.26014918 0.06075548
-0.3588047 -0.26012227 0.060806602
-0.35900092 -0.26011363 0.060685631
-0.35918841 -0.2600947 0.06065125
-0.35939547 -0.26006925 0.060647927
-0.35959512 -0.26004407 0.060649253
-0.3597784 -0.26002476 0.060621809
-0.3599847 -0.26000699 0.060560785
-0.36020425 -0.25997585 0.060588554
-0.36038998 -0.2599538 0.060579561
-0.36058781 -0.25993434 0.060539361
-0.36077791 -0.25991449 0.060509577
-0.36096004 -0.25989333 0.060497135
-0.36114532 -0.25987071 0.060492769
-0.36134401 -0.25984386 0.060507946
-0.36153159 -0.25981686 0.060534712
-0.36170101 -0.25980276 0.060480796
-0.36191446 -0.25978836 0.060387433
-0.3621161 -0.25975946 0.06041529
-0.36229128 -0.25974098 0.060389049
-0.36250994 -0.25970677 0.060441043
-0.36268157 -0.25968906 0.060412511
-0.3628858 -0.25967032 0.060360737
-0.36308956 -0.25965014 0.060320497
-0.36325753 -0.25963363 0.060286209
-0.36346039 -0.25961035 0.060270205
-0.36364493 -0.25958663 0.060275074
-0.36384848 -0.25956735 0.060227912
-0.36402875 -0.2595405 0.060260493
-0.36423075 -0.25951308 0.060276806
-0.36441329 -0.25949949 0.060206674
-0.36461052 -0.25946474 0.060283005
-0.36480561 -0.25943893 0.060293593
-0.36498499 -0.25943106 0.060183082
-0.36517149 -0.25942457 0.060055237
-0.36539835 -0.25939631 0.06005412
-0.3655926 -0.25936499 0.060107403
-0.36577985 -0.25933364 0.060167633
-0.36595365 -0.25931168 0.06016909
-0.36614868 -0.25928634 0.060176209
-0.36632645 -0.25927106 0.060123399
-0.36651474 -0.25925431 0.060071707
-0.36669677 -0.25917479 0.060502365
-0.36688173 -0.25915435 0.060481835
-0.36707079 -0.2591632 0.060235124
-0.3672663 -0.25916684 0.060021847
-0.36746123 -0.25916931 0.059817806
-0.36766294 -0.25914437 0.05981566
-0.36788967 -0.25910458 0.05990224
-0.36806706 -0.25907141 0.059985597
-0.368276 -0.25904769 0.059967265
-0.36847419 -0.25902742 0.059932832
-0.36865547 -0.25899422 0.060012713
-0.36884019 -0.25896484 0.060060263
-0.36901078 -0.25893828 0.060099807
-0.36918998 -0.25893497 0.059954688
-0.36939019 -0.25892767 0.059819855
-0.3695941 -0.25891536 0.059719618
-0.36979756 -0.25887468 0.059835151
-0.36997399 -0.25885743 0.059798516
-0.37017605 -0.2588557 0.059619822
-0.37038225 -0.25882259 0.059675347
-0.37058458 -0.25879315 0.059706658
-0.3707684 -0.25877133 0.05969768
-0.37098026 -0.25874737 0.059678171
-0.37115136 -0.25871938 0.059728108
-0.3713409 -0.25870386 0.059666011
-0.3715454 -0.25868189 0.05963847
-0.37173674 -0.25865671 0.059647914
-0.37192824 -0.25863105 0.059660818
-0.37209508 -0.25860831 0.059674993
-0.37227225 -0.25858548 0.059679896
-0.37250811 -0.25857496 0.059535645
-0.37269577 -0.25855085 0.059540499
-0.37286839 -0.25851932 0.059615802
-0.37305105 -0.25850147 0.059577983
-0.3732543 -0.25848299 0.05952505
-0.37344462 -0.25845033 0.059592199
-0.37362006 -0.25842226 0.059638642
-0.37380603 -0.25841537 0.059514258
-0.37399229 -0.25839615 0.059483346
-0.37418577 -0.25836521 0.059534311
-0.37437487 -0.2583575 0.059413373
-0.37459916 -0.2583355 0.059367273
-0.37480393 -0.25831106 0.059358194
-0.37498197 -0.25827691 0.059448469
-0.37514976 -0.25825253 0.059474178
-0.3753233 -0.25824839 0.059340633
-0.37553999 -0.25822794 0.059289951
-0.37572798 -0.25820348 0.0592971
-0.37590936 -0.25817895 0.059311204
-0.37611678 -0.2581563 0.059285957
-0.37631586 -0.25812972 0.059298825
-0.37651274 -0.25810823 0.059274778
-0.37668908 -0.25808781 0.059262365
-0.37688458 -0.25806195 0.059272949
-0.37709257 -0.25804517 0.059202682
-0.37728032 -0.25802165 0.059202913
-0.37746042 -0.25800031 0.05919395
-0.37765104 -0.25797111 0.059234552
-0.37783366 -0.25795141 0.059210576
-0.37800506 -0.25794071 0.05912897
-0.37820017 -0.25792873 0.059034534
-0.3784084 -0.25790402 0.059024286
-0.37859845 -0.25787628 0.059054498
-0.37879723 -0.25784484 0.059104286
-0.3789964 -0.25781897 0.059111387
-0.37917963 -0.25780392 0.05905164
-0.37937611 -0.25777704 0.059069131
-0.37956059 -0.25776532 0.058982842
-0.37973574 -0.25774124 0.058999285
-0.37992626 -0.25771904 0.058986809
-0.38008827 -0.25772229 0.058808308
-0.380288 -0.25769013 0.058862716
-0.38047931 -0.25766128 0.058899853
-0.38068017 -0.2576226 0.059002709
-0.38087517 -0.25759363 0.059037518
-0.38106728 -0.25758445 0.058924649
-0.38124254 -0.25759059 0.058711469
-0.38142508 -0.25757045 0.058690965
-0.38162848 -0.25753862 0.058739573
-0.38183662 -0.25750479 0.058798552
-0.38203403 -0.25746804 0.058889892
-0.38222358 -0.25745222 0.058830108
-0.38241732 -0.25742111 0.058882236
-0.38261539 -0.25739324 0.05890549
-0.38280654 -0.25737068 0.05889532
-0.38299599 -0.25735486 0.05883554
-0.38315731 -0.25736821 0.058580894
-0.3833231 -0.25737053 0.058405835
-0.38351643 -0.25734448 0.058419891
-0.38372469 -0.25730321 0.058535401
-0.38392383 -0.25727415 0.05856673
-0.38412982 -0.25724471 0.058594566
-0.38433072 -0.25721377 0.058638576
-0.38452554 -0.25717857 0.0587207
-0.38472426 -0.2571508 0.058742799
-0.38491812 -0.25713307 0.058693379
-0.38509852 -0.25712383 0.058592103
-0.38529792 -0.25709537 0.058618821
-0.38549531 -0.25707701 0.058570541
-0.3856737 -0.25705844 0.058541961
-0.38586634 -0.25703812 0.058513328
-0.38606247 -0.25701007 0.05854005
-0.38625875 -0.25698927 0.058511388
-0.38644749 -0.25697702 0.058425076
-0.38664034 -0.25696 0.058371045
-0.38681832 -0.2569418 0.058340169
-0.38699958 -0.2569235 0.05830697
-0.38718623 -0.25690269 0.058287583
-0.38738051 -0.25687015 0.058350101
-0.38758385 -0.25683832 0.058398709
-0.38776457 -0.25683087 0.058283582
-0.38796631 -0.25680089 0.058319516
-0.38817793 -0.25675401 0.05847425
-0.38837165 -0.25673613 0.058425985
-0.38855487 -0.2567226 0.058354702
-0.38875088 -0.25670549 0.058298346
-0.38894084 -0.2566849 0.058274336
-0.38912517 -0.25667 0.058212277
-0.3893199 -0.25664774 0.058196314
-0.38951755 -0.25661948 0.058223039
-0.38970307 -0.25660643 0.058145963
-0.38989267 -0.25658312 0.058142722
-0.39009148 -0.25655702 0.058152132
-0.39028195 -0.256533 0.058153499
-0.39048365 -0.25650728 0.058157124
-0.39067644 -0.25648418 0.058149248
-0.39087731 -0.25645646 0.058169026
-0.39106598 -0.25644025 0.058112718
-0.39126763 -0.25641486 0.058114029
-0.39144069 -0.25640729 0.058007024
-0.39163807 -0.25638014 0.058025669
-0.39183256 -0.2563585 0.058005095
-0.39202565 -0.25633538 0.057997219
-0.39222884 -0.25630325 0.05804814
-0.3924351 -0.2562741 0.058073662
-0.3926034 -0.25627595 0.057899751
-0.39279628 -0.25625041 0.057910349
-0.39296508 -0.25624064 0.057824124
-0.39318287 -0.2561962 0.057954602
-0.39339346 -0.25616634 0.057981253
-0.39357013 -0.25616306 0.057838455
-0.39375824 -0.2561419 0.057820223
-0.39396513 -0.25610492 0.057904586
-0.39416364 -0.25608292 0.057882845
-0.3943392 -0.25607249 0.057795435
-0.3945474 -0.25604245 0.057825573
-0.39473897 -0.25602376 0.057785399
-0.39493641 -0.25600028 0.057776339
-0.39513263 -0.25597781 0.05776038
-0.39532253 -0.25595555 0.057749059
-0.39552173 -0.25593075 0.057748072
-0.39572674 -0.25590628 0.05773899
-0.39591756 -0.25588831 0.057694204
-0.39610383 -0.25586909 0.057663288
-0.39629582 -0.25584775 0.057642728
-0.39648825 -0.25582853 0.057606012
-0.3966873 -0.25580177 0.057620026
-0.39687794 -0.25577927 0.057609864
-0.39706886 -0.25576127 0.057565074
-0.39727318 -0.25573066 0.0576033
-0.39746919 -0.25570884 0.057582717
-0.39766183 -0.25568503 0.057580613
-0.39786017 -0.25566611 0.05753579
-0.39805102 -0.25564373 0.057524465
-0.39825949 -0.25561503 0.057544217
-0.39846182 -0.2555865 0.057568599
-0.39863876 -0.25557679 0.057474263
-0.39884433 -0.25555044 0.057479028
-0.39904511 -0.25552544 0.057478033
-0.39923179 -0.25550419 0.057462119
-0.39944232 -0.25547448 0.057487622
-0.3996135 -0.25547096 0.057351772
-0.399831 -0.25542989 0.057456858
-0.40001911 -0.25541422 0.057397079
-0.40022257 -0.25538555 0.057421468
-0.40039316 -0.25538012 0.05730062
-0.40060732 -0.25534618 0.057354957
-0.40081316 -0.25531188 0.057419717
-0.40100431 -0.25529629 0.057356466
-0.40118489 -0.25528795 0.057248261
-0.40140781 -0.25525048 0.057321019
-0.40156054 -0.2552529 0.057157561
-0.40172392 -0.25524792 0.057040222
-0.40196049 -0.25519735 0.057199441
-0.40222681 -0.25512907 0.057464685
-0.40239328 -0.25514027 0.057221547
-0.40258297 -0.25512168 0.057182532
-0.4028101 -0.25509417 0.057175644
-0.40297809 -0.2550801 0.057122894
-0.40316764 -0.25505772 0.057112724
-0.40335637 -0.25503787 0.05708411
-0.40357006 -0.25500959 0.057095744
-0.40376323 -0.25498888 0.057069417
-0.40395755 -0.25496364 0.057076536
-0.40414992 -0.25494546 0.05703174
-0.40432811 -0.25493255 0.056960471
-0.40454149 -0.25489718 0.057026353
-0.404742 -0.25487769 0.056983817
-0.40494055 -0.25485572 0.056962073
-0.40514344 -0.2548385 0.056899916
-0.40535262 -0.25480807 0.056932356
-0.40553308 -0.25478637 0.056925692
-0.40572891 -0.25476623 0.056892421
-0.40593302 -0.2547355 0.056931805
-0.40612811 -0.25471777 0.056881227
-0.4063279 -0.25469351 0.056875627
-0.40652534 -0.25467074 0.056860812
-0.40673685 -0.25464669 0.056842454
-0.40692386 -0.25462675 0.056816157
-0.40710047 -0.25461313 0.056751825
-0.40733668 -0.25457615 0.056808356
-0.40753108 -0.25456074 0.05674047
-0.40771705 -0.25453806 0.056736097
-0.40791824 -0.25451514 0.056718953
-0.4081243 -0.25448766 0.056731783
-0.40830338 -0.25447267 0.056675512
-0.40853423 -0.25443769 0.056721687
-0.40872648 -0.25442198 0.056658432
-0.40890104 -0.25440967 0.056586027
-0.40910816 -0.25438359 0.056587316
-0.40930679 -0.25435567 0.056610566
-0.40952703 -0.2543205 0.056668334
-0.40976426 -0.25427911 0.056757174
-0.41002154 -0.25423995 0.056810133
-0.41024044 -0.25420767 0.056847136
-0.41044825 -0.25418013 0.056858812
-0.41067666 -0.25414106 0.056938451
-0.41092908 -0.25408867 0.057096455
-0.41115591 -0.25405252 0.057155341
-0.41137612 -0.25401857 0.057203867
-0.4116191 -0.25397375 0.057313442
-0.41185522 -0.25393128 0.057411518
-0.41208428 -0.25389287 0.057485394
-0.41231233 -0.25385523 0.057554655
-0.41253993 -0.25381958 0.057608932
-0.41277337 -0.25377929 0.057693169
-0.41300818 -0.25374001 0.057768166
-0.41324246 -0.2536996 0.057852402
-0.41347933 -0.25365797 0.057943542
-0.41370636 -0.25362182 0.058002427
-0.41395605 -0.25357521 0.058118898
-0.41419458 -0.25353321 0.058211192
-0.41440827 -0.25350463 0.05822514
-0.41466406 -0.25345379 0.058368113
-0.41489577 -0.25341749 0.058423515
-0.31022471 -0.26569268 0.064666145
-0.31045657 -0.26566654 0.064644232
-0.3106811 -0.26563737 0.064652339
-0.31092274 -0.26561368 0.064602673
-0.31115621 -0.26558673 0.064585365
-0.31140187 -0.26556423 0.064522989
-0.3116318 -0.26553667 0.064513773
-0.31187549 -0.26551393 0.064454868
-0.31210276 -0.26548594 0.064451441
-0.31231564 -0.26545611 0.064475767
-0.31254378 -0.26542848 0.064468861
-0.31275389 -0.26539806 0.064500131
-0.31300932 -0.26537871 0.064404249
-0.31324086 -0.26535371 0.064374253
-0.31346592 -0.2653257 0.064373128
-0.31370711 -0.26530328 0.064314239
-0.31393698 -0.26527816 0.06428656
-0.31414467 -0.26524758 0.064321302
-0.31436163 -0.26521784 0.064340994
-0.31460044 -0.26519525 0.064285576
-0.31482053 -0.26516801 0.064283326
-0.31574541 -0.2650699 0.064149514
-0.31595808 -0.26504117 0.064165764
-0.31619647 -0.26501772 0.06411726
-0.31638935 -0.26498383 0.064191304
-0.31661975 -0.26496002 0.064153247
-0.31685448 -0.26493749 0.064101309
-0.31708121 -0.2649129 0.06407249
-0.31731647 -0.26489076 0.064017087
-0.31753415 -0.2648623 0.0640264
-0.31775367 -0.26483604 0.064017229
-0.31797677 -0.26481086 0.063996501
-0.31819403 -0.26478413 0.063993119
-0.31842154 -0.26476038 0.063957371
-0.31863874 -0.26473379 0.063952833
-0.31885168 -0.26470608 0.063961007
-0.31909394 -0.26468685 0.063876726
-0.31930718 -0.2646594 0.063882597
-0.31952062 -0.26463208 0.063887298
-0.31975317 -0.26460874 0.063843451
-0.3199431 -0.26457462 0.06392213
-0.3201817 -0.26455495 0.063844785
-0.32037905 -0.26452309 0.063899197
-0.32062635 -0.26450628 0.063791811
-0.32082686 -0.26447889 0.063809276
-0.32105482 -0.26445311 0.063788533
-0.32128093 -0.26443028 0.063747026
-0.32150924 -0.26440823 0.063697428
-0.32171562 -0.2643795 0.063719481
-0.32194239 -0.26435721 0.063673355
-0.32216713 -0.26433441 0.063633002
-0.32237181 -0.26430359 0.063672379
-0.32259405 -0.2642802 0.06363897
-0.32281026 -0.26425496 0.063625202
-0.32303205 -0.26423159 0.063591793
-0.3232455 -0.26420563 0.063586116
-0.32346582 -0.26418203 0.063556179
-0.32366851 -0.26415268 0.063586324
-0.32389575 -0.26413155 0.063530967
-0.32413164 -0.26411343 0.063444413
-0.32433057 -0.26408306 0.063486114
-0.32453632 -0.26405498 0.063503556
-0.32475767 -0.2640323 0.063465536
-0.32497939 -0.26400989 0.063425206
-0.32520118 -0.2639876 0.063383713
-0.32538712 -0.26396582 0.063372403
-0.3256304 -0.26394388 0.063307732
-0.32584691 -0.26391268 0.063338965
-0.32605511 -0.263886 0.063343704
-0.32626981 -0.26386172 0.063324176
-0.32647926 -0.26383564 0.06332314
-0.32669795 -0.26381299 0.063287437
-0.32690305 -0.26378548 0.063301414
-0.327117 -0.26376128 0.063281901
-0.3273375 -0.26373962 0.063236959
-0.32754737 -0.26371408 0.063231304
-0.32775223 -0.26368678 0.063244127
-0.32795787 -0.26365981 0.063253492
-0.32818118 -0.2636396 0.063194692
-0.32840028 -0.26361796 0.063150913
-0.32861435 -0.26359451 0.06312561
-0.32881936 -0.26356763 0.063134983
-0.32903251 -0.26354396 0.063112006
-0.32925105 -0.26352057 0.063082069
-0.32945392 -0.26349303 0.063098371
-0.32966566 -0.2634691 0.063078858
-0.3299011 -0.26345485 0.062963456
-0.33009773 -0.26342505 0.063002869
-0.33030432 -0.26339933 0.063001841
-0.33052182 -0.2633782 0.062955759
-0.33072585 -0.26335159 0.062963985
-0.33093426 -0.26332685 0.062953711
-0.33114135 -0.26330167 0.06294807
-0.33134255 -0.26327404 0.062966689
-0.33156979 -0.26325762 0.062875554
-0.33176959 -0.26322955 0.0628988
-0.33198565 -0.2632086 0.062852725
-0.33219552 -0.26318505 0.062832065
-0.33239526 -0.26315716 0.062854156
-0.33260188 -0.26313233 0.062846206
-0.33277982 -0.26310563 0.062879942
-0.33302212 -0.26308611 0.062797964
-0.33323303 -0.26306352 0.062769219
-0.33344662 -0.26304224 0.062727779
-0.33365113 -0.26301694 0.062725604
-0.33385527 -0.26299152 0.062724598
-0.33405983 -0.26296636 0.062721275
-0.33426732 -0.26294267 0.062704086
-0.33448327 -0.26292309 0.062647641
-0.33468962 -0.26289907 0.062633917
-0.33488682 -0.26287073 0.062661782
-0.3350952 -0.26284784 0.062637672
-0.33530167 -0.26282412 0.062621653
-0.33551189 -0.26280233 0.062587142
-0.33571389 -0.26277658 0.062590748
-0.33591929 -0.26275498 0.062559739
-0.33609089 -0.26273057 0.062581964
-0.33632892 -0.26271388 0.062482707
-0.33654037 -0.26268375 0.062510505
-0.33671886 -0.26266304 0.062498078
-0.33691928 -0.26264903 0.062413998
-0.33715943 -0.26261476 0.06244627
-0.33736342 -0.26259071 0.062434871
-0.33756539 -0.26257059 0.062395789
-0.33775958 -0.26254642 0.062394828
-0.33797747 -0.26252022 0.062386822
-0.33818769 -0.26249996 0.062340777
-0.33838519 -0.26247281 0.062359415
-0.33859241 -0.26245111 0.062327236
-0.33879501 -0.26242438 0.062337771
-0.33900085 -0.26240209 0.062311359
-0.33920237 -0.26237747 0.062306903
-0.33940876 -0.26235574 0.062275872
-0.33961177 -0.26233214 0.062262177
-0.33980718 -0.26230416 0.062288892
-0.34002012 -0.26228663 0.062219761
-0.34021369 -0.26225767 0.062255729
-0.34041914 -0.26223588 0.062225863
-0.34062526 -0.26221463 0.062191371
-0.34081107 -0.2621783 0.06229084
-0.34104186 -0.26217252 0.062115457
-0.34123325 -0.26214245 0.062161814
-0.34144399 -0.2621246 0.062097311
-0.34164169 -0.26209861 0.06210671
-0.34184507 -0.26208484 0.062018007
-0.34204713 -0.26205331 0.062065464
-0.34224787 -0.26202953 0.062055238
-0.34242836 -0.2620098 0.062033571
-0.34265679 -0.26198426 0.062010519
-0.34286061 -0.26196283 0.061979506
-0.34304407 -0.26194549 0.061937056
-0.34325704 -0.26191866 0.061938301
-0.34346199 -0.26189238 0.061943058
-0.34365955 -0.26186401 0.061970927
-0.34386471 -0.2618441 0.061927207
-0.34407005 -0.26182446 0.061881192
-0.3442623 -0.26179549 0.061918326
-0.34443414 -0.26177046 0.061945152
-0.3446309 -0.26176375 0.061809175
-0.34485367 -0.26172903 0.06186115
-0.34507149 -0.26170984 0.061800063
-0.34527436 -0.26168594 0.061788667
-0.34546277 -0.26166081 0.061800435
-0.34566247 -0.26163793 0.061784439
-0.3458277 -0.26162133 0.061753616
-0.34606424 -0.26159433 0.061733991
-0.34627089 -0.26157057 0.061717957
-0.34646958 -0.26154387 0.061731972
-0.34665635 -0.26153156 0.061647963
-0.34687513 -0.26150432 0.061646882
-0.34706566 -0.26147452 0.061692096
-0.34726936 -0.26145586 0.061640315
-0.34746468 -0.26143017 0.061649729
-0.3476451 -0.2614097 0.061633833
-0.34786183 -0.26138103 0.061645444
-0.34804094 -0.26135585 0.061666481
-0.3482649 -0.26134866 0.061508439
-0.34847105 -0.26132572 0.06148665
-0.34865826 -0.26129314 0.061556108
-0.34885946 -0.26127344 0.06151472
-0.34905562 -0.26124915 0.061512589
-0.34925511 -0.26122814 0.061482765
-0.34945863 -0.26120719 0.061448283
-0.34962097 -0.26118609 0.061454408
-0.34984913 -0.26116559 0.061393268
-0.35003653 -0.26114121 0.061400421
-0.35023361 -0.26110193 0.061511368
-0.35043544 -0.26108396 0.061456136
-0.35063142 -0.26107278 0.061354775
-0.35084465 -0.26105034 0.061322562
-0.3510358 -0.26102167 0.061358538
-0.35123241 -0.26100329 0.061311401
-0.35143024 -0.2609776 0.061318494
-0.35162935 -0.26095784 0.061279435
-0.35181642 -0.26092467 0.061353505
-0.35200167 -0.26089841 0.061376825
-0.35220882 -0.26088828 0.061256938
-0.35239699 -0.26087505 0.061178699
-0.35260829 -0.2608422 0.061227269
-0.35280868 -0.26082015 0.061204351
-0.35300583 -0.26079911 0.061176829
-0.35319912 -0.2607784 0.061150484
-0.35338718 -0.26074615 0.061216477
-0.35356426 -0.26074022 0.061093289
-0.35375923 -0.26071703 0.061084241
-0.35397848 -0.26068959 0.061084311
-0.3541677 -0.26066938 0.061057985
-0.35437509 -0.26064205 0.06106849
-0.35455745 -0.26061797 0.061077975
-0.35473573 -0.26060474 0.061009008
-0.3549563 -0.26058534 0.060946763
-0.35515732 -0.26054907 0.061031148
-0.35533601 -0.26053718 0.060951795
-0.35553882 -0.26051512 0.06092656
-0.35574639 -0.26048866 0.060930148
-0.35593018 -0.26046747 0.060916543
-0.35610834 -0.26044971 0.060882196
-0.35628951 -0.26041818 0.060949378
-0.35645166 -0.26039329 0.060984343
-0.35668162 -0.26038519 0.060827427
-0.35689893 -0.26036954 0.060739804
-0.35711288 -0.260335 0.060798746
-0.35729548 -0.26030573 0.060847454
-0.35745618 -0.26028511 0.060851276
-0.35763934 -0.26027796 0.060731523
-0.35783866 -0.26028767 0.060468599
-0.35806188 -0.2602272 0.060715571
-0.35827208 -0.26019982 0.060723767
-0.35846719 -0.26017264 0.060744721
-0.35866034 -0.26014921 0.060739145
-0.35885924 -0.26013008 0.060695458
-0.35903099 -0.2601096 0.060687687
-0.35921478 -0.26008248 0.06071908
-0.35939136 -0.26005593 0.060752831
-0.35959455 -0.26004767 0.06062258
-0.35980657 -0.26002538 0.060590371
-0.36000779 -0.25999516 0.060628608
-0.3601774 -0.25996995 0.060658924
-0.36037749 -0.25995597 0.060574844
-0.36055225 -0.25995475 0.060418203
-0.36076909 -0.25991666 0.060501363
-0.36093339 -0.25986582 0.060731329
-0.36112341 -0.25985628 0.060623068
-0.36131164 -0.25984213 0.060551748
-0.36150551 -0.25982317 0.060511556
-0.36170882 -0.25981125 0.060409002
-0.36190915 -0.25977793 0.060471479
-0.3621147 -0.25974932 0.060493536
-0.36229905 -0.25972393 0.060511082
-0.36248317 -0.25969738 0.060537852
-0.36266071 -0.25965917 0.060659297
-0.36285669 -0.25966531 0.060426384
-0.36305082 -0.25966609 0.06023619
-0.36324528 -0.25965434 0.060140606
-0.36345196 -0.25963286 0.060107272
-0.36365068 -0.25959051 0.060240135
-0.36383432 -0.25956246 0.060278457
-0.3640219 -0.25953549 0.060305223
-0.3642092 -0.2595067 0.060345829
-0.36439845 -0.25951171 0.060127962
-0.36462879 -0.25948167 0.060137197
-0.3648133 -0.25945917 0.060132824
-0.36502016 -0.25941455 0.060274877
-0.36517534 -0.25938657 0.060339879
-0.36537677 -0.25938508 0.060160026
-0.36558694 -0.25936803 0.060089752
-0.36577043 -0.25933516 0.060165003
-0.36596552 -0.25931087 0.060164027
-0.36614317 -0.25929347 0.060127381
-0.36632958 -0.25924426 0.060323767
-0.3665075 -0.25923002 0.060262881
-0.36669639 -0.25922507 0.060121171
-0.366889 -0.25923863 0.059835203
-0.36709788 -0.25921795 0.059793789
-0.36729589 -0.25917992 0.059894349
-0.36753312 -0.25914705 0.059918553
-0.36769262 -0.25911245 0.060029689
-0.36785924 -0.25908852 0.060053095
-0.36807504 -0.2590749 0.059951629
-0.36828411 -0.25904673 0.05996675
-0.36847848 -0.2590318 0.0598954
-0.36865604 -0.25900149 0.059956826
-0.3688553 -0.25896394 0.06005276
-0.36902121 -0.25895208 0.059985019
-0.36920404 -0.25894529 0.059862956
-0.36941931 -0.2589258 0.059806496
-0.36961466 -0.2588951 0.059853986
-0.3698096 -0.25886932 0.059864562
-0.36998114 -0.25883579 0.059956022
-0.37015629 -0.25882858 0.059844382
-0.37035304 -0.25881457 0.059763782
-0.37055543 -0.25878528 0.059793934
-0.37075329 -0.2587631 0.059774492
-0.37094024 -0.25874346 0.059745874
-0.37112424 -0.25872087 0.059742656
-0.37131837 -0.2586996 0.059719764
-0.37150854 -0.25868046 0.05968421
-0.37170732 -0.25865299 0.059703987
-0.37190184 -0.25862953 0.059697255
-0.37210107 -0.25861537 0.059615493
-0.37229156 -0.25859395 0.059597239
-0.37247184 -0.25857228 0.059590574
-0.3726601 -0.25854611 0.059610404
-0.37285829 -0.25852144 0.059609424
-0.37304375 -0.25850579 0.059551962
-0.3732349 -0.25848171 0.059553325
-0.37341282 -0.25846791 0.059488978
-0.37360761 -0.25844306 0.059492625
-0.3738057 -0.25841856 0.059490487
-0.37399894 -0.25839859 0.059458375
-0.37417722 -0.25837246 0.059487496
-0.37436873 -0.25834757 0.059494618
-0.37456939 -0.25832561 0.059470546
-0.37474903 -0.2583057 0.059451193
-0.3749432 -0.2582829 0.059439842
-0.37513605 -0.25827256 0.059335038
-0.37531921 -0.25825173 0.059319131
-0.37551156 -0.25822476 0.059341252
-0.37570688 -0.25819892 0.059351824
-0.37590346 -0.25817826 0.059322
-0.3760789 -0.25815991 0.059294589
-0.37628242 -0.25813854 0.05926358
-0.37647444 -0.25811282 0.059276469
-0.37665188 -0.25808981 0.059282511
-0.37683752 -0.25806364 0.059304677
-0.37703714 -0.25804353 0.059267905
-0.37722987 -0.25802362 0.0592358
-0.37740308 -0.25800967 0.059177242
-0.37759858 -0.25798398 0.05918666
-0.37780485 -0.25795677 0.059197173
-0.37798834 -0.25793532 0.059185881
-0.37817928 -0.25791231 0.059179164
-0.3783682 -0.2578932 0.059144758
-0.37855402 -0.25787356 0.059117306
-0.37874612 -0.25784844 0.059125576
-0.37893918 -0.25782758 0.059100389
-0.3791301 -0.25780472 0.059092522
-0.3793236 -0.25778309 0.059073094
-0.37951159 -0.25776529 0.059029467
-0.379702 -0.25774327 0.059015837
-0.37989536 -0.25771633 0.059036803
-0.38007891 -0.25770029 0.058983959
-0.3802655 -0.25767919 0.058966883
-0.38045952 -0.25765672 0.058953222
-0.3806465 -0.25762981 0.058979988
-0.38083729 -0.25761244 0.05893058
-0.38103455 -0.25759003 0.058913443
-0.38121858 -0.25757289 0.058868688
-0.38140574 -0.25754109 0.058932379
-0.38159931 -0.25752914 0.058839101
-0.38178691 -0.25750655 0.058832403
-0.38197249 -0.25747752 0.058876488
-0.38217729 -0.25745371 0.058862776
-0.38236043 -0.2574423 0.058775328
-0.3825466 -0.25741732 0.058788247
-0.3827267 -0.25740978 0.058674276
-0.38292515 -0.2573857 0.058668673
-0.38312167 -0.25734237 0.058810778
-0.3833147 -0.25733021 0.058719825
-0.38350499 -0.25730866 0.058702722
-0.38368627 -0.25728625 0.058700673
-0.38388395 -0.25726345 0.058685843
-0.38409036 -0.25723776 0.058684815
-0.38426992 -0.25722179 0.058635458
-0.38444778 -0.25719979 0.058633428
-0.38464054 -0.25718325 0.058575928
-0.38482815 -0.25716111 0.058565769
-0.38502318 -0.25712606 0.058646724
-0.38522643 -0.2570968 0.058675721
-0.38541305 -0.25707996 0.058626331
-0.38559991 -0.25706279 0.058579244
-0.38578844 -0.25704357 0.058545999
-0.3859666 -0.257029 0.058487419
-0.38617504 -0.25699407 0.058554467
-0.38637269 -0.25696811 0.058563869
-0.38654649 -0.25696564 0.058417615
-0.38673258 -0.25694549 0.05839362
-0.38691139 -0.25692993 0.058341961
-0.38711497 -0.25689393 0.058421724
-0.38732308 -0.2568568 0.058506072
-0.38751537 -0.25684047 0.058447424
-0.38769192 -0.25683078 0.058353093
-0.38789302 -0.25680152 0.0583844
-0.38809094 -0.25676244 0.058493033
-0.38829118 -0.25673112 0.058540508
-0.38846692 -0.25673205 0.058366552
-0.38864696 -0.25671846 0.058298733
-0.38883939 -0.25669527 0.058292009
-0.38903499 -0.25666893 0.058306031
-0.38923618 -0.25664026 0.05833273
-0.3894237 -0.25662223 0.05829142
-0.38960198 -0.25661021 0.058213219
-0.38979131 -0.25659031 0.05818459
-0.38998598 -0.25656515 0.058190547
-0.39016998 -0.25654742 0.058150403
-0.39036101 -0.25652593 0.058132146
-0.3905504 -0.256506 0.058103517
-0.39075869 -0.2564711 0.058170553
-0.39094043 -0.2564497 0.058160424
-0.3911216 -0.25644052 0.058057986
-0.39129442 -0.25642735 0.057993662
-0.39151999 -0.2563827 0.058118321
-0.39170921 -0.25636601 0.058065452
-0.39188904 -0.25635213 0.057999946
-0.39208731 -0.25632152 0.058043957
-0.39228049 -0.25630403 0.057993386
-0.39245796 -0.25628662 0.057956733
-0.39265344 -0.25626153 0.057961538
-0.39284998 -0.25624102 0.057930551
-0.39303029 -0.25622392 0.057889275
-0.39321506 -0.25620288 0.057873361
-0.39341989 -0.25616995 0.057928883
-0.3936156 -0.25614497 0.057932526
-0.3938098 -0.25612399 0.057907335
-0.39399576 -0.25610736 0.057856791
-0.39419955 -0.25607836 0.057883471
-0.39438623 -0.2560586 0.057856008
-0.39456704 -0.2560463 0.057777803
-0.39475441 -0.25602344 0.057773404
-0.39496088 -0.25598997 0.057831232
-0.3951588 -0.25596365 0.057842944
-0.39534992 -0.25594792 0.057780843
-0.39553151 -0.25593489 0.057707246
-0.39572379 -0.25591326 0.057688985
-0.39590976 -0.25588936 0.057693824
-0.39609832 -0.25586587 0.057692889
-0.39629185 -0.25584817 0.057643469
-0.39648342 -0.25582722 0.0576206
-0.39670324 -0.25578192 0.057755668
-0.39688131 -0.25577632 0.057629004
-0.39706841 -0.25575423 0.057618845
-0.39725763 -0.25573525 0.057583287
-0.39744869 -0.25571251 0.057574272
-0.39764303 -0.25568971 0.057562917
-0.39785337 -0.25565714 0.057610333
-0.39805788 -0.25563595 0.05757701
-0.39824611 -0.25562009 0.057518382
-0.39841846 -0.25560701 0.057454064
-0.39860854 -0.25558305 0.057455432
-0.39881715 -0.2555522 0.057491317
-0.39899856 -0.25553691 0.057435028
-0.39919811 -0.25551283 0.057428274
-0.39938864 -0.25549537 0.057380017
-0.39958546 -0.25547117 0.057376735
-0.39977089 -0.2554487 0.057371195
-0.39996633 -0.25542346 0.057377148
-0.40016192 -0.25540245 0.057350799
-0.40035993 -0.25537765 0.057350971
-0.40054202 -0.25535986 0.057313137
-0.40074205 -0.25533372 0.057321377
-0.40094459 -0.25530806 0.057323836
-0.40112871 -0.25528896 0.057294071
-0.40133092 -0.25526363 0.057294223
-0.40151829 -0.25524852 0.057230979
-0.40171015 -0.25522828 0.057202339
-0.40189525 -0.25520858 0.057176039
-0.40210214 -0.25517827 0.057209622
-0.40229693 -0.25515416 0.057207506
-0.40249255 -0.2551356 0.057162687
-0.40268448 -0.25511748 0.057117883
-0.4028866 -0.25508672 0.057159577
-0.4030818 -0.25506651 0.057127461
-0.40327221 -0.25504753 0.057090744
-0.40346813 -0.25502497 0.057075921
-0.40368089 -0.25499147 0.057127945
-0.40388048 -0.25496861 0.057111949
-0.40404636 -0.25495404 0.057064973
-0.404268 -0.25492859 0.057047717
-0.40445495 -0.25491199 0.056996018
-0.40466478 -0.25488088 0.057033055
-0.40485105 -0.25486666 0.056964055
-0.4050498 -0.25483704 0.056999996
-0.40524971 -0.2548143 0.056982845
-0.40541291 -0.25481266 0.056840114
-0.40561169 -0.25478321 0.056874894
-0.40583384 -0.25474492 0.056954563
-0.40601254 -0.2547318 0.056884445
-0.406207 -0.25471443 0.056831557
-0.40640339 -0.2546868 0.056854807
-0.40662387 -0.25465721 0.056869872
-0.40681431 -0.25463519 0.056856226
-0.40700814 -0.25461653 0.056813724
-0.4072119 -0.25459725 0.056766562
-0.4074046 -0.25457221 0.056773681
-0.40759143 -0.25455427 0.056732371
-0.40779334 -0.25452912 0.056731373
-0.40799785 -0.25450429 0.056725744
-0.40819368 -0.25447762 0.056742076
-0.40839922 -0.2544575 0.056699518
-0.40859377 -0.25443694 0.056670863
-0.40877283 -0.25442028 0.056627274
-0.40900582 -0.25439113 0.056627274
-0.40919864 -0.25436485 0.05664362
-0.40941426 -0.2543374 0.056647167
-0.40960422 -0.25431967 0.056601223
-0.40980914 -0.25429174 0.056618672
-0.40998903 -0.25427982 0.056538165
-0.4101949 -0.25425148 0.056557909
-0.4103772 -0.25423652 0.056498159
-0.41058224 -0.25421375 0.056476366
-0.41077313 -0.25418741 0.056495033
-0.41098553 -0.2541573 0.056521676
-0.411181 -0.25413677 0.056491856
-0.4113842 -0.25411361 0.056474701
-0.41157538 -0.2540988 0.056405671
-0.41178954 -0.25406802 0.056435764
-0.41198045 -0.25405338 0.056365583
-0.41218644 -0.25402242 0.056404948
-0.41238776 -0.25400373 0.05635548
-0.41256738 -0.25398731 0.056309588
-0.41280571 -0.25394702 0.056389179
-0.41299641 -0.25393102 0.056329392
-0.41321445 -0.2539019 0.056343306
-0.41340661 -0.2538836 0.05629966
-0.41363007 -0.25385016 0.056341242
-0.41383427 -0.25383022 0.056298688
-0.41401565 -0.25381312 0.05625625
-0.41423562 -0.2537818 0.056285154
-0.41449732 -0.25373629 0.056381937
-0.41474545 -0.25369659 0.056447633
-0.41495389 -0.25367171 0.056438521
-0.41519269 -0.25362951 0.056531951
-0.4154231 -0.25359339 0.056587353
-0.41565892 -0.25355309 0.056669258
-0.41589007 -0.25351688 0.056724653
-0.41612396 -0.25347787 0.056798499
-0.41636726 -0.25343421 0.056898829
-0.41660199 -0.25339511 0.056972668
-0.41684812 -0.25335187 0.057067227
-0.41708884 -0.25331005 0.057156026
-0.41732872 -0.2532703 0.057229843
-0.41756713 -0.25323001 0.057309426
-0.41780198 -0.25319165 0.057377495
-0.41803598 -0.25315386 0.057442106
-0.41827345 -0.25311592 0.057504393
-0.41852614 -0.25306913 0.05761968
-0.31024668 -0.26569673 0.06461446
-0.31046048 -0.26566508 0.064651474
-0.31066963 -0.26563391 0.064689659
-0.31092009 -0.26561078 0.06462729
-0.31118906 -0.26559356 0.064502522
-0.3114005 -0.26556313 0.064532638
-0.31161731 -0.26553401 0.064547718
-0.31183219 -0.26550302 0.06457895
-0.31208274 -0.26548201 0.064500421
-0.31231144 -0.26545444 0.064492375
-0.31252706 -0.26542532 0.064508617
-0.3127653 -0.26540023 0.064472839
-0.31300205 -0.26537639 0.064428985
-0.31325984 -0.26535782 0.064325035
-0.31345731 -0.26532456 0.064389817
-0.31368661 -0.26529771 0.064376011
-0.31391972 -0.26527339 0.064339094
-0.31414646 -0.26524609 0.064331055
-0.31435806 -0.26521656 0.064354233
-0.31461853 -0.26519796 0.064247973
