# .PCD v0.7 - Point Cloud Data file format
VERSION 0.7
FIELDS x y z
SIZE 4 4 4
TYPE F F F
COUNT 1 1 1
WIDTH 1306
HEIGHT 1
VIEWPOINT 0 0 0 1 0 0 0
POINTS 1306
DATA ascii
-0.32886153 -0.25759026 0.0611603
-0.32905906 -0.25758785 0.060990907
-0.32924306 -0.25756031 0.061025772
-0.32946327 -0.2575286 0.06105816
-0.3296451 -0.25750345 0.061076894
-0.3298628 -0.25748596 0.061003156
-0.33004004 -0.25745368 0.061080739
-0.33028445 -0.25743604 0.060982652
-0.33046952 -0.2574102 0.06100367
-0.33063358 -0.25739437 0.060968265
-0.33083147 -0.25737736 0.060909621
-0.33106381 -0.25734702 0.06092003
-0.33124274 -0.25732404 0.060924925
-0.33142158 -0.25730094 0.06093099
-0.33165675 -0.257276 0.060897537
-0.33184245 -0.25725159 0.060907021
-0.33200258 -0.25722927 0.060924709
-0.3322444 -0.25720289 0.060895845
-0.33242822 -0.25716692 0.060995322
-0.33261734 -0.25716552 0.060825966
-0.33280066 -0.25714445 0.060812391
-0.3330172 -0.2571218 0.060779035
-0.33319944 -0.25709009 0.060847364
-0.33339056 -0.25707862 0.060752995
-0.33359694 -0.25705937 0.060703538
-0.33379278 -0.25703308 0.06071759
-0.33397955 -0.25701234 0.060698222
-0.33415973 -0.25698435 0.060740031
-0.33434737 -0.25697589 0.060626063
-0.3345598 -0.25695452 0.060586963
-0.33477291 -0.25693548 0.060529396
-0.334986 -0.256906 0.060551435
-0.33518597 -0.25688165 0.060547002
-0.33538279 -0.25685918 0.06053105
-0.33557451 -0.25683236 0.060553201
-0.33576772 -0.25681049 0.060536101
-0.3359645 -0.25678834 0.06051784
-0.33616254 -0.25677103 0.060461506
-0.336339 -0.25675607 0.060407583
-0.33652472 -0.25672075 0.06050013
-0.33672294 -0.25670522 0.060429946
-0.33694091 -0.25668105 0.060406972
-0.33713293 -0.25665587 0.060416415
-0.3373183 -0.25663361 0.060409747
-0.33751836 -0.25661194 0.060384549
-0.33772111 -0.25658572 0.060391642
-0.33787066 -0.2565673 0.060389765
-0.33807796 -0.25654626 0.060353
-0.33825597 -0.25652447 0.060349829
-0.33847338 -0.25649962 0.060332619
-0.33867338 -0.25648022 0.060290121
-0.33884817 -0.25646216 0.060261577
-0.33906201 -0.25643942 0.060231704
-0.33925387 -0.25641438 0.06024
-0.33945695 -0.2563931 0.060209014
-0.33963025 -0.2563619 0.060282007
-0.33984762 -0.25634038 0.060239427
-0.34003279 -0.25632134 0.060208537
-0.34022841 -0.25629887 0.06019374
-0.34039909 -0.25627905 0.06018253
-0.34060192 -0.25626066 0.060129624
-0.34082946 -0.25623849 0.060082372
-0.34102467 -0.25620669 0.060139112
-0.34121299 -0.25618482 0.060126659
-0.34140128 -0.25616598 0.060091134
-0.34157878 -0.25615031 0.060041826
-0.34179905 -0.25611767 0.060081132
-0.34199068 -0.25609902 0.060040973
-0.34217194 -0.25607243 0.060071241
-0.34235591 -0.25606382 0.059961911
-0.34256178 -0.25603783 0.05996437
-0.3427642 -0.25601104 0.059976079
-0.34296346 -0.2559807 0.060017794
-0.34314096 -0.25595912 0.060013473
-0.34332103 -0.2559469 0.059935298
-0.34354305 -0.25593325 0.059828095
-0.34373486 -0.25590733 0.059843309
-0.34392682 -0.25588048 0.059865449
-0.34411129 -0.25585774 0.059863407
-0.34431502 -0.25582278 0.059936248
-0.34451935 -0.2558071 0.059861418
-0.34469643 -0.25578722 0.059844412
-0.34488386 -0.25576743 0.059816971
-0.34508529 -0.25574651 0.059784845
-0.34526414 -0.25573462 0.059705526
-0.34548232 -0.25569874 0.059771378
-0.3456668 -0.255676 0.059769325
-0.34585667 -0.25564456 0.059828397
-0.34603262 -0.25562909 0.059779085
-0.34622461 -0.25563204 0.059573956
-0.34644538 -0.25560069 0.059602879
-0.34664154 -0.25557211 0.059634238
-0.3468363 -0.25554898 0.059625216
-0.34702045 -0.2555272 0.059616245
-0.34722662 -0.25550008 0.059626784
-0.3474251 -0.25547606 0.059621207
-0.34760186 -0.25545609 0.059605349
-0.34781033 -0.25543278 0.059584722
-0.34799966 -0.2554158 0.0595342
-0.34818918 -0.25538802 0.059565578
-0.34838259 -0.25536871 0.05952888
-0.34858459 -0.25534424 0.059523284
-0.34876657 -0.2553283 0.059471633
-0.34895831 -0.25530407 0.05947417
-0.34914789 -0.25528553 0.059435178
-0.34936264 -0.25525433 0.059468739
-0.34955779 -0.25523856 0.059403189
-0.34974405 -0.25521135 0.05943343
-0.34992433 -0.25519064 0.05941987
-0.35013819 -0.25516215 0.059433833
-0.35032976 -0.25514638 0.059371755
-0.35051411 -0.25512394 0.059367403
-0.3507252 -0.25510168 0.059336383
-0.35090446 -0.25508305 0.059307821
-0.35109931 -0.25505963 0.059301108
-0.35129032 -0.25503728 0.059289794
-0.35148942 -0.25501212 0.059292294
-0.35168263 -0.25499207 0.059261359
-0.35187781 -0.25496814 0.059258103
-0.35207269 -0.25494486 0.059250236
-0.35227823 -0.25492024 0.059242323
-0.35246563 -0.25490472 0.059182577
-0.35264742 -0.25488713 0.059143621
-0.3528581 -0.25485918 0.05915644
-0.35303831 -0.25483847 0.059142873
-0.35324585 -0.25481045 0.059159167
-0.35344273 -0.25478947 0.059131686
-0.35363758 -0.25477195 0.059079975
-0.35381451 -0.25475121 0.059069887
-0.35401231 -0.25471789 0.059135847
-0.35421318 -0.25470641 0.059032187
-0.35439608 -0.25468144 0.059048608
-0.35458326 -0.25466016 0.059032701
-0.35478866 -0.25463602 0.059021316
-0.35497996 -0.25461349 0.059011165
-0.35517573 -0.2545892 0.059010208
-0.3553634 -0.25456727 0.05899892
-0.35556471 -0.2545397 0.059017554
-0.35576725 -0.25452471 0.058939274
-0.35594541 -0.25451651 0.058832273
-0.35613737 -0.25449297 0.058829036
-0.35633659 -0.25445932 0.058896139
-0.35655019 -0.25442857 0.058927406
-0.35672483 -0.25441581 0.058858488
-0.35690242 -0.25439453 0.058851857
-0.35711354 -0.25435004 0.058990426
-0.35731173 -0.25432315 0.059006773
-0.35749918 -0.25433165 0.058763593
-0.35768005 -0.25431874 0.058690034
-0.35787228 -0.25429109 0.058717944
-0.35807785 -0.25426301 0.058736555
-0.3582679 -0.25423837 0.058743708
-0.35847023 -0.25421855 0.058702346
-0.3586556 -0.25419977 0.058669146
-0.35884926 -0.25417089 0.058705118
-0.35905623 -0.25414157 0.058731806
-0.35925192 -0.25411439 0.058752775
-0.35946205 -0.25408545 0.058773678
-0.35964912 -0.25407237 0.058695473
-0.35983855 -0.25405639 0.058636867
-0.36002329 -0.25404209 0.05857021
-0.36022073 -0.25401685 0.058575019
-0.36042529 -0.25398719 0.05860633
-0.36063772 -0.25395963 0.05861453
-0.3608194 -0.25394857 0.058525972
-0.36099097 -0.25393802 0.05844323
-0.36117488 -0.25391731 0.058426186
-0.36137396 -0.25389397 0.058414835
-0.36156619 -0.25386783 0.058431208
-0.36177263 -0.25383344 0.058497116
-0.36197573 -0.25380942 0.058486897
-0.36218032 -0.25378722 0.058461688
-0.36236903 -0.25377166 0.058400776
-0.362562 -0.25375164 0.058369849
-0.36275637 -0.25371736 0.058446191
-0.36295733 -0.25369576 0.058419839
-0.36314571 -0.25368676 0.058309332
-0.36335254 -0.25365925 0.058322169
-0.36353567 -0.2536397 0.058297046
-0.36373034 -0.25361812 0.058276497
-0.36393416 -0.25358766 0.058314729
-0.36413202 -0.2535601 0.058336839
-0.36431009 -0.25354555 0.058278296
-0.36450642 -0.25352255 0.05826696
-0.36469418 -0.25351059 0.058179528
-0.36491281 -0.25348133 0.058194619
-0.36511242 -0.25345534 0.058202878
-0.36528391 -0.2534439 0.058127053
-0.36550033 -0.25341401 0.058149077
-0.36571309 -0.25338757 0.058148041
-0.36590508 -0.25336874 0.058109038
-0.3660813 -0.25334734 0.058104724
-0.36629674 -0.25332421 0.058075994
-0.36646807 -0.25330719 0.058042858
-0.3666673 -0.25328201 0.058045346
-0.36687043 -0.25325891 0.058028217
-0.36705288 -0.25324035 0.057996176
-0.36724469 -0.25321639 0.057996403
-0.36744797 -0.25318798 0.058019646
-0.3676416 -0.25316787 0.057988707
-0.36782929 -0.2531476 0.057964727
-0.36802167 -0.253126 0.057946485
-0.3682307 -0.25310081 0.057939708
-0.3684372 -0.25306761 0.057996385
-0.3686229 -0.25305167 0.057941265
-0.36880049 -0.25304234 0.057843491
-0.36900285 -0.25302023 0.057819441
-0.36920869 -0.25298545 0.05788881
-0.36940324 -0.25296977 0.057823259
-0.36959758 -0.25294685 0.057813089
-0.36978954 -0.25292593 0.057790242
-0.36997741 -0.2529082 0.057746645
-0.37018389 -0.25287592 0.0577964
-0.37038556 -0.25285465 0.057766583
-0.37057006 -0.25283962 0.057705689
-0.37077406 -0.25281188 0.057723161
-0.37098742 -0.25278178 0.057749819
-0.37116286 -0.25277135 0.057662435
-0.37136766 -0.25274318 0.057682209
-0.37156662 -0.25271729 0.057690471
-0.37175819 -0.25269699 0.057663012
-0.37194955 -0.25267687 0.057634395
-0.37216467 -0.25264594 0.057665654
-0.37234145 -0.25263214 0.057602499
-0.37253952 -0.25261164 0.057570387
-0.37273955 -0.25258532 0.057580955
-0.37295511 -0.25255659 0.057594903
-0.37314087 -0.25254729 0.057489015
-0.37332857 -0.25252128 0.057508871
-0.37352833 -0.25249752 0.057499826
-0.37372532 -0.25247368 0.057494257
-0.37391692 -0.25245157 0.057480637
-0.37411147 -0.25243166 0.057447385
-0.37431949 -0.25240237 0.057472914
-0.37451574 -0.25238556 0.057414278
-0.37470931 -0.25235805 0.057439871
-0.37491933 -0.25233805 0.057392702
-0.375121 -0.25231755 0.057357125
-0.37530696 -0.25229341 0.057364296
-0.37551516 -0.25227058 0.057340208
-0.37570256 -0.25224763 0.057336994
-0.37590167 -0.25222293 0.057336025
-0.37610719 -0.25219801 0.057330411
-0.37630379 -0.25217512 0.05731792
-0.37649941 -0.25215688 0.057270821
-0.37667832 -0.2521418 0.057215735
-0.37688929 -0.25211152 0.057245865
-0.37708703 -0.25209001 0.057221826
-0.37728229 -0.25206819 0.057202421
-0.37749001 -0.2520403 0.057217564
-0.37768689 -0.25201946 0.057188921
-0.37786976 -0.25200191 0.057148807
-0.37807187 -0.25197971 0.057125911
-0.37827393 -0.25195569 0.057116855
-0.3784743 -0.25192901 0.057129722
-0.37868047 -0.25190249 0.057135642
-0.37886497 -0.25188595 0.0570863
-0.37906536 -0.25186321 0.057069171
-0.37926644 -0.25184005 0.057054348
-0.37947005 -0.25181538 0.057048745
-0.37968189 -0.25178939 0.057045415
-0.37986693 -0.25177264 0.056997214
-0.38005197 -0.25175586 0.056949012
-0.38026595 -0.25172508 0.056980278
-0.3804751 -0.25170273 0.056951575
-0.38066936 -0.25168407 0.056909099
-0.38087994 -0.25165021 0.056966916
-0.3810643 -0.25163582 0.056901414
-0.38126647 -0.2516107 0.056900442
-0.38144377 -0.2516005 0.056809586
-0.38165528 -0.2515735 0.056814328
-0.3818571 -0.25154525 0.056837581
-0.38205507 -0.25153157 0.056753553
-0.38224739 -0.25150907 0.05674224
-0.38248247 -0.25146854 0.05682762
-0.38267538 -0.25144929 0.056790922
-0.38286844 -0.25143167 0.056741532
-0.38307369 -0.25140363 0.056760147
-0.3832781 -0.25138295 0.056723393
-0.38345054 -0.25137213 0.056641795
-0.38367766 -0.25133517 0.056707606
-0.38387853 -0.2513116 0.056696255
-0.38407093 -0.25129285 0.056656089
-0.38426477 -0.25127167 0.05663323
-0.38448387 -0.25124463 0.056631017
-0.38467824 -0.25122488 0.056596614
-0.38488096 -0.25120381 0.05656448
-0.38508993 -0.25117439 0.056589998
-0.38531494 -0.25114435 0.05660506
-0.38551047 -0.25112417 0.056572963
-0.38571674 -0.2510981 0.056575429
-0.38591066 -0.25107887 0.056537565
-0.38610363 -0.25106341 0.056472022
-0.38630974 -0.25103918 0.056460638
-0.38651893 -0.25101337 0.056458473
-0.38673937 -0.25098312 0.056479327
-0.38692701 -0.25096589 0.056432262
-0.3871229 -0.25094581 0.05639901
-0.38735273 -0.25090608 0.056483261
-0.38754538 -0.25088942 0.05642695
-0.3877576 -0.25086549 0.056407467
-0.38796008 -0.2508375 0.056428403
-0.38817099 -0.25081131 0.056427378
-0.38836727 -0.25079134 0.056392968
-0.38854852 -0.25078231 0.056289412
-0.38876289 -0.25075752 0.056274526
-0.38896239 -0.25073442 0.056260873
-0.38914242 -0.25071993 0.056200013
-0.38933587 -0.25070909 0.0560987
-0.38959914 -0.25066084 0.056216251
-0.38977897 -0.25064653 0.056154229
-0.38999671 -0.25061586 0.056180868
-0.39021266 -0.2505877 0.0561902
-0.39039731 -0.25057399 0.056118928
-0.39061841 -0.25054187 0.056153622
-0.39083514 -0.25051647 0.056141034
-0.39102396 -0.25050077 0.056081284
-0.39122102 -0.25047949 0.056056101
-0.3914313 -0.25045305 0.056057379
-0.39163023 -0.25043094 0.056036804
-0.39186785 -0.25039691 0.056070261
-0.28404096 -0.26271918 0.06469126
-0.28426531 -0.2626898 0.064701751
-0.28449091 -0.26266226 0.064697221
-0.28472775 -0.26263589 0.064673051
-0.28498235 -0.26261517 0.064588808
-0.28523809 -0.26259339 0.06451147
-0.28540829 -0.26255336 0.064654872
-0.28564745 -0.26252791 0.064621456
-0.28586996 -0.26250014 0.064621568
-0.28611696 -0.26247823 0.064553499
-0.28633976 -0.2624492 0.064562842
-0.28659394 -0.26242778 0.064484358
-0.28682125 -0.26240152 0.064468309
-0.28706476 -0.2623778 0.064417556
-0.28731325 -0.26235694 0.064340264
-0.28756991 -0.26233673 0.064250238
-0.28779924 -0.26230991 0.064236477
-0.287985 -0.26227233 0.064346343
-0.28817201 -0.26223657 0.064441219
-0.2884315 -0.26221752 0.064339653
-0.28865522 -0.26219109 0.064328223
-0.28888279 -0.26216421 0.064316764
-0.28908819 -0.26213327 0.064357333
-0.28933001 -0.2621102 0.064303145
-0.28957802 -0.26209044 0.064217769
-0.28980026 -0.26206255 0.064219043
-0.29001009 -0.26203302 0.064244591
-0.29023975 -0.26200724 0.064222753
-0.29047209 -0.26198384 0.064180136
-0.29070434 -0.26195893 0.064149052
-0.29092708 -0.2619316 0.064145707
-0.29114774 -0.26190373 0.064148135
-0.29138279 -0.2618815 0.064093977
-0.2916117 -0.26185611 0.064069837
-0.29182127 -0.26182708 0.064091921
-0.29205647 -0.26180363 0.064046994
-0.29227245 -0.26177651 0.064048283
-0.29248929 -0.26174808 0.064058803
-0.29272896 -0.26172784 0.063985005
-0.29295349 -0.26170179 0.063970119
-0.29316899 -0.26167488 0.06397026
-0.29340771 -0.26165313 0.063909166
-0.29362026 -0.26162553 0.063917391
-0.29381782 -0.26159191 0.063985683
-0.29406908 -0.26157585 0.063869156
-0.29429439 -0.26155061 0.063847333
-0.29450908 -0.26152393 0.063846327
-0.29474461 -0.26150197 0.063789859
-0.29493132 -0.26146698 0.063878961
-0.29516676 -0.26144516 0.063821331
-0.29538611 -0.26141855 0.063815691
-0.295614 -0.26139465 0.063781172
-0.29584008 -0.261372 0.063738592
-0.29606795 -0.26135007 0.063689075
-0.29627544 -0.26132008 0.063720405
-0.29649478 -0.26129737 0.063684776
-0.29670751 -0.26127794 0.063630708
-0.29692897 -0.26125968 0.063559309
-0.29712838 -0.26122206 0.063656427
-0.29737133 -0.26119506 0.063631065
-0.29759738 -0.26117155 0.063595407
-0.29782358 -0.26114997 0.063544743
-0.29803288 -0.26112109 0.063565671
-0.29824609 -0.2610954 0.063558921
-0.29847383 -0.26107287 0.063514017
-0.29867393 -0.26104289 0.063552298
-0.29890382 -0.26102129 0.063498162
-0.29913533 -0.26100224 0.063423246
-0.29931551 -0.26096368 0.063545838
-0.29954848 -0.26094535 0.063463993
-0.29977289 -0.26092234 0.063426033
-0.29997894 -0.26089478 0.06344007
-0.30020136 -0.26087126 0.063407876
-0.30042964 -0.26085183 0.063338757
-0.3006503 -0.26082793 0.063311189
-0.30086467 -0.26080373 0.063291728
-0.30107379 -0.2607758 0.063305743
-0.30128124 -0.26075685 0.063252866
-0.30150372 -0.26072636 0.063273735
-0.30168882 -0.26070505 0.06326019
-0.30189863 -0.26068732 0.063195758
-0.30210927 -0.26065254 0.063260525
-0.30232108 -0.26063773 0.063171871
-0.30255112 -0.26059875 0.063250378
-0.30277255 -0.26057217 0.063242421
-0.30296731 -0.2605392 0.063308425
-0.30319244 -0.26052019 0.063239306
-0.30342951 -0.26050407 0.063136682
-0.30364999 -0.26048154 0.063098744
-0.30385289 -0.26045409 0.06311509
-0.30402941 -0.26044032 0.063051976
-0.30422753 -0.26040697 0.063117951
-0.30445266 -0.26038265 0.063089214
-0.30469334 -0.26035458 0.063074253
-0.30487508 -0.26033926 0.063018031
-0.3051019 -0.26031187 0.063011199
-0.30533412 -0.26028681 0.06298127
-0.3055782 -0.26027119 0.062868237
-0.30572617 -0.26023558 0.062999055
-0.30595782 -0.26021272 0.06295298
-0.30617937 -0.26019412 0.062883884
-0.30636573 -0.26017311 0.062866859
-0.30660537 -0.26013914 0.06289804
-0.30681753 -0.26011461 0.062883198
-0.3070268 -0.26009104 0.062863767
-0.30723864 -0.26006657 0.062848926
-0.30744183 -0.26004043 0.062854901
-0.3076596 -0.26001886 0.062812358
-0.30786741 -0.25999501 0.062796392
-0.30804345 -0.25996983 0.062820941
-0.30829805 -0.25995243 0.062711313
-0.30845013 -0.2599228 0.06279251
-0.30871898 -0.25990805 0.062649369
-0.30891103 -0.25987482 0.062719986
-0.30913085 -0.25985509 0.062661283
-0.3093304 -0.25982791 0.062678806
-0.30954319 -0.25980496 0.062651277
-0.30976224 -0.25978759 0.062575266
-0.30995047 -0.25975257 0.062663212
-0.31016505 -0.2597332 0.062606834
-0.31037387 -0.25971106 0.062577024
-0.31057945 -0.25968736 0.06256222
-0.31078792 -0.25966284 0.062550865
-0.31094497 -0.25963578 0.062607795
-0.31118748 -0.25962442 0.062463634
-0.3113991 -0.25959453 0.062490329
-0.31157601 -0.25957075 0.062503345
-0.31179976 -0.2595599 0.062373094
-0.31202179 -0.25951585 0.062497787
-0.31223345 -0.25949624 0.062446043
-0.3124342 -0.2594707 0.062449723
-0.31263906 -0.25944754 0.062431451
-0.31286439 -0.25943604 0.062304668
-0.31302989 -0.25941142 0.06233504
-0.31326005 -0.25937709 0.062377792
-0.31345925 -0.25935629 0.062346876
-0.31365606 -0.25933686 0.062307879
-0.31386226 -0.25929916 0.062399201
-0.31407607 -0.25929001 0.062265541
-0.31425512 -0.25926566 0.062280856
-0.31445476 -0.2592321 0.062346824
-0.31468219 -0.25921279 0.062277701
-0.31486431 -0.25919592 0.062233012
-0.31508407 -0.25916669 0.062246986
-0.31531733 -0.25914878 0.062161684
-0.31552199 -0.25912699 0.062133044
-0.31572351 -0.25910333 0.062121719
-0.31590202 -0.25908768 0.062071275
-0.31608284 -0.25905934 0.062115416
-0.31632262 -0.25902638 0.06213852
-0.31653088 -0.25900462 0.062106401
-0.31673303 -0.25898179 0.062088158
-0.31693155 -0.25895956 0.062068764
-0.31713843 -0.25893721 0.062042423
-0.31732339 -0.25891182 0.062060013
-0.31751382 -0.2588903 0.06204297
-0.31774276 -0.25886551 0.062014215
-0.31794724 -0.25884494 0.061976351
-0.31814617 -0.25882056 0.06197311
-0.31834891 -0.25879902 0.06194447
-0.31854707 -0.25877109 0.06196893
-0.31874645 -0.25874725 0.06196107
-0.31894043 -0.25872907 0.061915174
-0.31915349 -0.25870609 0.061887641
-0.31935522 -0.25868437 0.061861325
-0.31955075 -0.25865799 0.061876565
-0.31975526 -0.25863531 0.061854847
-0.31996208 -0.25861797 0.061790425
-0.32015181 -0.25858715 0.061844911
-0.32035393 -0.25856629 0.061811671
-0.32055476 -0.25854453 0.061786499
-0.320741 -0.25852126 0.061786778
-0.32092798 -0.25850213 0.061754756
-0.32113028 -0.2584855 0.061689209
-0.32132608 -0.25845996 0.061697528
-0.32150325 -0.25843284 0.061735917
-0.321749 -0.25841457 0.061641328
-0.32195294 -0.25838912 0.061641529
-0.32214832 -0.25836349 0.061650999
-0.32235056 -0.25834411 0.061606213
-0.32255352 -0.25832179 0.061583355
-0.32274753 -0.25829515 0.061602049
-0.32295236 -0.25827864 0.061533041
-0.32314819 -0.25825387 0.061535586
-0.32334426 -0.25822937 0.06153582
-0.32351571 -0.25820884 0.061529249
-0.32369781 -0.25818685 0.061523777
-0.32392398 -0.25815997 0.061513498
-0.32410043 -0.25813657 0.061524205
-0.32432124 -0.25811687 0.061464343
-0.32452777 -0.25809106 0.061464529
-0.32472786 -0.25807136 0.061424367
-0.32491872 -0.25804633 0.061433855
-0.32512695 -0.25802696 0.061383285
-0.32532376 -0.25800419 0.061369672
-0.32549855 -0.25797492 0.061426535
-0.32571632 -0.25795773 0.061350536
-0.32590929 -0.2579309 0.06137155
-0.32609642 -0.25790191 0.06141451
-0.32627246 -0.25788793 0.061353698
-0.32647303 -0.25787967 0.061225869
-0.3266916 -0.25784558 0.061277907
-0.32689103 -0.25782204 0.061267752
-0.32708994 -0.25779793 0.061262202
-0.32728586 -0.25778013 0.06121169
-0.32745698 -0.25776628 0.061154358
-0.32768846 -0.25773877 0.061144046
-0.32787091 -0.2577143 0.061157033
-0.3280578 -0.25768518 0.061201148
-0.3282471 -0.25767002 0.061136812
-0.32845339 -0.25764063 0.061164692
-0.32866398 -0.25762278 0.061100259
-0.32885805 -0.2575984 0.061101664
-0.32905266 -0.25757486 0.061096132
-0.32925069 -0.25755072 0.061091743
-0.32944456 -0.25752619 0.061094299
-0.32964349 -0.2575095 0.061032232
-0.32983446 -0.2574929 0.060977116
-0.33003041 -0.25745982 0.061043113
-0.33019301 -0.25743508 0.061076961
-0.33038104 -0.25742036 0.061010323
-0.33055127 -0.25737607 0.061186016
-0.33073995 -0.25736931 0.061058253
-0.33096805 -0.25738499 0.060721498
-0.33116925 -0.25734082 0.060867064
-0.33138156 -0.25732324 0.060799159
-0.3315863 -0.25729191 0.060843192
-0.33179489 -0.25727507 0.060773004
-0.3319802 -0.25725043 0.06078482
-0.33216423 -0.25722319 0.060817417
-0.33236784 -0.25719699 0.060823385
-0.33256122 -0.2571733 0.06082017
-0.33276156 -0.25715643 0.060758095
-0.33294675 -0.25713164 0.06077107
-0.33314753 -0.25710791 0.0607609
-0.33334139 -0.2570858 0.060745005
-0.33351794 -0.25706738 0.060717642
-0.33370578 -0.2570492 0.060677551
-0.33388957 -0.25703061 0.060644381
-0.33411965 -0.2569966 0.060684837
-0.33431172 -0.25697064 0.060700089
-0.33450565 -0.2569496 0.060676113
-0.33467636 -0.25692642 0.060690306
-0.3348932 -0.25690737 0.060629301
-0.33508363 -0.25687677 0.060681481
-0.33526638 -0.25686771 0.0605768
-0.33547711 -0.25684261 0.060567744
-0.3356674 -0.25682336 0.060533397
-0.33585367 -0.25680342 0.060508303
-0.33605209 -0.25677454 0.060539674
-0.3362146 -0.25674891 0.06058044
-0.33643484 -0.25673246 0.060496353
-0.33662075 -0.25671196 0.060475875
-0.33678192 -0.25669575 0.060446285
-0.33696806 -0.25669259 0.060293138
-0.33718953 -0.25665283 0.06038554
-0.33738077 -0.25662443 0.060420416
-0.33759126 -0.25660071 0.060400967
-0.3377943 -0.25657639 0.060393095
-0.33795863 -0.25655964 0.060364645
-0.33815295 -0.25652719 0.060427178
-0.3383753 -0.25651047 0.060343083
-0.338543 -0.25649327 0.060314618
-0.33873928 -0.2564739 0.060275633
-0.33893046 -0.25644383 0.060323186
-0.33914411 -0.25641972 0.060303725
-0.33933294 -0.2563999 0.06027516
-0.33951816 -0.25638071 0.060245447
-0.3396956 -0.25635549 0.060268842
-0.33990511 -0.25632676 0.060288627
-0.34010121 -0.25631133 0.060219649
-0.34029678 -0.25628933 0.060201433
-0.3404676 -0.25627476 0.060149875
-0.34065235 -0.25625333 0.06013748
-0.3408618 -0.25622401 0.060161874
-0.34105358 -0.256199 0.060170211
-0.34124544 -0.25618243 0.060113944
-0.34145489 -0.25616354 0.060058746
-0.34163234 -0.25614318 0.060045224
-0.34182051 -0.25611755 0.060061648
-0.34200916 -0.25607839 0.060180739
-0.34221151 -0.25605705 0.060150947
-0.34239647 -0.25602925 0.060186997
-0.34259111 -0.25601703 0.060094953
-0.34275854 -0.25598884 0.06015069
-0.34294608 -0.25597462 0.060080603
-0.34313393 -0.2559548 0.060053188
-0.34332734 -0.25594908 0.059912711
-0.34352496 -0.25593346 0.059843726
-0.343707 -0.2559301 0.059696369
-0.34390134 -0.25590944 0.059668936
-0.34409687 -0.25590482 0.059518058
-0.34430671 -0.25587165 0.059571296
-0.34452087 -0.25583449 0.05965104
-0.34468752 -0.25585341 0.059348028
-0.34490114 -0.25579953 0.059555817
-0.34509197 -0.25579581 0.05940266
-0.34528151 -0.25572735 0.059744373
-0.34626514 -0.25561357 0.059676334
-0.34645763 -0.25558573 0.059705421
-0.34665456 -0.25556731 0.059658363
-0.34684229 -0.25554463 0.059652865
-0.3470296 -0.25552347 0.059635837
-0.34719497 -0.2555072 0.059602767
-0.34738976 -0.25548363 0.059597235
-0.3476266 -0.25545648 0.059578825
-0.34780326 -0.25543636 0.059564158
-0.34797844 -0.25541037 0.059595637
-0.34816837 -0.25539133 0.059560142
-0.34837952 -0.25536966 0.059524547
-0.34858808 -0.25534558 0.059509732
-0.34876701 -0.25531915 0.059541192
-0.34894097 -0.25529724 0.059542689
-0.3491281 -0.25527626 0.059524514
-0.34932664 -0.25526056 0.059455521
-0.34953776 -0.25522995 0.05948798
-0.3497251 -0.25521654 0.059412122
-0.34991044 -0.25519153 0.059426259
-0.35009861 -0.25516787 0.059427679
-0.35028294 -0.25514546 0.059423357
-0.35047767 -0.25512975 0.059357844
-0.35068887 -0.25510702 0.059330326
-0.35087231 -0.25508636 0.059313327
-0.35105562 -0.25506601 0.059294004
-0.35123709 -0.25504938 0.059248172
-0.35144469 -0.25502014 0.059273735
-0.35164306 -0.25499627 0.059267037
-0.35183898 -0.25497073 0.059275344
-0.3520247 -0.25495204 0.059241019
-0.35222539 -0.25493017 0.059217017
-0.35241306 -0.25490779 0.05920922
-0.35261327 -0.25488672 0.059179436
-0.35279867 -0.25486249 0.059187803
-0.35298029 -0.25483328 0.059237704
-0.35317311 -0.25481948 0.059159517
-0.35336399 -0.25480303 0.059103258
-0.35355407 -0.25478214 0.059081595
-0.35374463 -0.25475502 0.059107237
-0.35394704 -0.25472474 0.05914551
-0.35413963 -0.25471067 0.059069626
-0.35433882 -0.25468579 0.059069857
-0.3545225 -0.25466993 0.05901593
-0.35470673 -0.25464797 0.059008148
-0.3549104 -0.25462133 0.059017576
-0.35510013 -0.25459611 0.059029374
-0.35529792 -0.2545687 0.059050374
-0.35549104 -0.25455317 0.058984868
-0.35568297 -0.25453448 0.058944743
-0.35587344 -0.25450844 0.058962319
-0.35605368 -0.25449708 0.058877259
-0.35624719 -0.25447595 0.058854442
-0.35644644 -0.25444683 0.058886956
-0.35663331 -0.25443497 0.058799569
-0.3568306 -0.25440866 0.058812492
-0.35701612 -0.25439394 0.058748171
-0.35720444 -0.25436679 0.058776136
-0.35741043 -0.2543335 0.058834005
-0.35759887 -0.2543107 0.058828503
-0.35779729 -0.25428757 0.058816046
-0.35798466 -0.25427037 0.058769017
-0.35817277 -0.25425217 0.058728926
-0.35836339 -0.25423077 0.058710732
-0.35856119 -0.25421241 0.058662508
-0.35875043 -0.25418484 0.058692768
-0.3589412 -0.2541672 0.058645729
-0.35911939 -0.2541531 0.058583759
-0.35931194 -0.25412557 0.05861054
-0.35952082 -0.25409025 0.058681086
-0.35972187 -0.25405318 0.058772422
-0.3599329 -0.2540344 0.058714919
-0.36011392 -0.25402433 0.058619477
-0.3603113 -0.25400996 0.058541268
-0.36050445 -0.25398237 0.058568053
-0.36070746 -0.25395805 0.058560181
-0.36089078 -0.25394151 0.058512028
-0.36107564 -0.25391975 0.058501929
-0.36127409 -0.25389361 0.058512539
-0.36146328 -0.25387752 0.058455132
-0.36164916 -0.25385475 0.058451954
-0.3618423 -0.2538344 0.058423366
-0.36203039 -0.25381604 0.058384418
-0.36222708 -0.25378543 0.058430791
-0.36243984 -0.25375795 0.058437865
-0.36262548 -0.25374216 0.058381628
-0.3628059 -0.25372523 0.058339261
-0.3629978 -0.25369671 0.058374118
-0.36321014 -0.25366989 0.058376588
-0.36340216 -0.25364771 0.058362998
-0.36358938 -0.25363341 0.058294062
-0.36378357 -0.25360915 0.058294315
-0.36397982 -0.25358599 0.058284163
-0.36416978 -0.25356892 0.058233667
-0.36435255 -0.2535497 0.05820629
-0.36454195 -0.25352421 0.058220398
-0.36475095 -0.2534892 0.058288634
-0.36494312 -0.25347304 0.058228903
-0.36515716 -0.25345102 0.058193296
-0.36533555 -0.25342736 0.058203995
-0.3655338 -0.25340274 0.058203071
-0.36571231 -0.2533904 0.058127254
-0.36590177 -0.25337097 0.05809522
-0.36609459 -0.25335127 0.058062017
-0.36630213 -0.25332126 0.058093339
-0.36649847 -0.25330129 0.058058977
-0.36668357 -0.25328571 0.058001582
-0.36686763 -0.2532683 0.057959195
-0.36708382 -0.25322846 0.058057383
-0.36728305 -0.25320342 0.058058761
-0.36746657 -0.25318927 0.057992153
-0.36765999 -0.25316662 0.057980865
-0.36785001 -0.2531521 0.057910766
-0.36803541 -0.25313103 0.0578949
-0.36824518 -0.25310001 0.057931986
-0.36843136 -0.25308096 0.057899971
-0.36861843 -0.25306123 0.05787256
-0.36882532 -0.25303283 0.057892356
-0.36902866 -0.25300744 0.057892557
-0.36923113 -0.25298032 0.057906605
-0.36941656 -0.252967 0.057831913
-0.36961287 -0.25294247 0.057832148
-0.3698034 -0.25292501 0.057783958
-0.36999801 -0.25290191 0.057774976
-0.37019458 -0.25287494 0.057793662
-0.37038502 -0.25285521 0.057762787
-0.37058717 -0.25283119 0.05775376
-0.37078094 -0.25280896 0.057739012
-0.37098148 -0.25278389 0.057739228
-0.37115857 -0.2527675 0.05769572
-0.37136847 -0.25274009 0.057705123
-0.37156573 -0.2527177 0.05768805
-0.37176493 -0.25269163 0.057697497
-0.37196377 -0.25267267 0.05765273
-0.37213627 -0.252662 0.057570022
-0.37233949 -0.25262862 0.057631362
-0.37253734 -0.25261268 0.057564687
-0.3727313 -0.25258404 0.057598386
-0.37292725 -0.25256291 0.057573237
-0.37311998 -0.25254413 0.057533119
-0.3732996 -0.25253257 0.057450376
-0.37349525 -0.25250947 0.057440229
-0.37371552 -0.25246897 0.057539556
-0.37390357 -0.2524429 0.057559442
-0.37410319 -0.25242797 0.057483524
-0.37429824 -0.25240767 0.057452619
-0.37449127 -0.25238672 0.057428654
-0.37466878 -0.25237241 0.057368994
-0.37488425 -0.25233811 0.057425655
-0.37508538 -0.25230965 0.057451252
-0.37527701 -0.25229192 0.057404209
-0.37545815 -0.25227517 0.057359524
-0.37567219 -0.2522504 0.057344683
-0.37586507 -0.25223386 0.057287261
-0.37606961 -0.25220349 0.057324372
-0.37625617 -0.2521832 0.057301573
-0.37645727 -0.25216126 0.05727756
-0.37665299 -0.25213698 0.057276648
-0.3768307 -0.25212261 0.057216987
-0.37704027 -0.25209525 0.05722639
-0.37725025 -0.25206766 0.05723694
-0.37746239 -0.25204268 0.057225566
-0.37763816 -0.25202963 0.057157833
-0.3778275 -0.25200975 0.057129264
-0.37802255 -0.25198433 0.057137586
-0.37823179 -0.25195184 0.057186205
-0.37843257 -0.25192678 0.057186417
-0.37862468 -0.25190914 0.057138219
-0.37881625 -0.25188807 0.057116561
-0.37898666 -0.2518822 0.056999266
-0.37920201 -0.25185001 0.057039775
-0.37941474 -0.25182328 0.057041094
-0.37963411 -0.2517944 0.057052761
-0.37983447 -0.25176996 0.057048354
-0.38002318 -0.25175273 0.057000183
-0.38021657 -0.25172904 0.056996968
-0.38040543 -0.25170636 0.056990314
-0.38061273 -0.25168151 0.056982424
-0.38080636 -0.25166324 0.056937683
-0.38100547 -0.25163987 0.05692637
-0.38119909 -0.2516163 0.056922004
-0.3813822 -0.2516008 0.056865782
-0.38159043 -0.2515792 0.0568325
-0.38177937 -0.25156027 0.056797013
-0.38198707 -0.25153208 0.056814495
-0.38219106 -0.25150266 0.056844685
-0.38237992 -0.25148737 0.056781515
-0.38260198 -0.25145966 0.056781627
-0.38280398 -0.25143337 0.056789912
-0.38299629 -0.25141615 0.056738257
-0.38317558 -0.25139964 0.05669358
-0.38339314 -0.25136629 0.056741014
-0.38358736 -0.25134808 0.056695119
-0.38378841 -0.25132599 0.056672253
-0.38398817 -0.25130466 0.056644786
-0.38419902 -0.25127545 0.056666873
-0.3844187 -0.25124472 0.05669238
-0.38461196 -0.25122556 0.056654561
-0.38480261 -0.25120461 0.056632906
-0.38501719 -0.25117859 0.056627285
-0.38519076 -0.25116065 0.05659879
-0.38537741 -0.25114852 0.056513701
-0.38558847 -0.25111809 0.056545019
-0.38578823 -0.25110039 0.05648987
-0.38598573 -0.25107756 0.056476254
-0.38621897 -0.25104648 0.056491315
-0.38643104 -0.25101423 0.056535311
-0.386641 -0.2509912 0.056511257
-0.38683668 -0.25097433 0.056453813
-0.3870472 -0.25094318 0.056490894
-0.38722864 -0.2509293 0.056424297
-0.38744608 -0.25089777 0.056457888
-0.38762271 -0.25089112 0.056340553
-0.38783029 -0.25086337 0.056354575
-0.38804072 -0.25083423 0.056376666
-0.3882404 -0.25080928 0.056376882
-0.38842261 -0.25079817 0.056288354
-0.3886424 -0.2507689 0.056302331
-0.38883296 -0.25074887 0.056273744
-0.38906813 -0.25071484 0.056309562
-0.38928938 -0.2506851 0.056325831
-0.38950977 -0.25065139 0.05637325
-0.38969821 -0.25063419 0.056325071
-0.38988888 -0.25062037 0.056249198
-0.39007843 -0.25060558 0.056181408
-0.39027423 -0.25058022 0.056188565
-0.39047134 -0.25056165 0.056142658
-0.39070806 -0.25052607 0.056188837
-0.39091679 -0.2505047 0.056153256
-0.39110318 -0.25049016 0.056086637
-0.39131773 -0.25046158 0.056100626
-0.39153916 -0.25043544 0.056089208
-0.39172783 -0.25041261 0.056083705
-0.39193371 -0.25039431 0.056027375
-0.28409308 -0.26271814 0.064649507
-0.28428632 -0.2626819 0.064742044
-0.28454301 -0.26266155 0.064653166
-0.28474939 -0.26262835 0.064709872
-0.28500152 -0.26260719 0.064631388
-0.28527266 -0.2625891 0.064511277
-0.28547177 -0.26255593 0.064574957
-0.28570491 -0.26252925 0.064556554
-0.28593159 -0.26250261 0.064543955
-0.2861588 -0.26247472 0.064540572
-0.28639248 -0.26244992 0.064507179
-0.28661713 -0.26242158 0.064509578
-0.28683791 -0.26239389 0.064510845
-0.28706586 -0.26236799 0.064491317
-0.28729236 -0.26234186 0.064475253
-0.28753579 -0.26231843 0.06442219
-0.28778043 -0.26229697 0.064352974
-0.28799516 -0.2622667 0.064379655
-0.28822747 -0.26224241 0.064343952
-0.2884447 -0.26221287 0.064362541
-0.28865647 -0.26218355 0.064384624
-0.28891364 -0.26216432 0.0642865
-0.28910637 -0.26213026 0.064362898
-0.28936005 -0.26211041 0.064272873
-0.28958878 -0.2620858 0.064242944
-0.28983656 -0.26206473 0.064167947
-0.2900514 -0.26203668 0.064177327
-0.29028761 -0.26201281 0.064134672
-0.29050094 -0.26198453 0.064147517
-0.29071236 -0.26195419 0.064177677
-0.29093632 -0.26192728 0.064169697
-0.29116774 -0.26190248 0.064138621
-0.29139975 -0.26187959 0.064092532
-0.29162982 -0.26185465 0.064063758
-0.29184243 -0.2618266 0.064075448
-0.29207125 -0.26180151 0.064048991
-0.29229286 -0.26177612 0.064031795
-0.29252529 -0.26175225 0.063992634
-0.29273939 -0.26172492 0.063997403
-0.29296577 -0.26169956 0.063975573
-0.29320663 -0.26168007 0.063894831
-0.29341677 -0.2616502 0.063922688
-0.29364204 -0.26162481 0.063902013
-0.29386821 -0.26159975 0.063877881
-0.29408979 -0.26157513 0.06385491
-0.2943047 -0.26154694 0.063865438
-0.29452235 -0.26151961 0.06386672
-0.29475504 -0.26149693 0.063818328
-0.29496089 -0.2614679 0.063843898
-0.29519349 -0.26144537 0.063794352
-0.29542959 -0.26142409 0.063732088
-0.29564551 -0.26139668 0.063735694
-0.29586771 -0.26137301 0.063704647
-0.29609051 -0.26134792 0.063683994
-0.2962971 -0.26131955 0.063703783
-0.29651305 -0.26129246 0.063705087
-0.29674685 -0.26127115 0.063645139
-0.2969498 -0.26124004 0.06368918
-0.29717243 -0.26121709 0.063652374
-0.29741111 -0.26119775 0.063572794
-0.29761603 -0.26116747 0.063608751
-0.2978352 -0.26114193 0.063595042
-0.29806313 -0.26112118 0.063536271
-0.29828346 -0.26109627 0.063516781
-0.29850429 -0.26107338 0.063481137
-0.29872385 -0.26104841 0.063462794
-0.29891312 -0.26101309 0.063551895
-0.29913953 -0.26099059 0.063508153
-0.29935694 -0.26096693 0.063481733
-0.299557 -0.26093543 0.063531563
-0.29977638 -0.26091075 0.063510925
-0.29999566 -0.26089731 0.063404903
-0.3002114 -0.26087719 0.063353121
-0.30042285 -0.26085004 0.063359044
-0.30065399 -0.26081875 0.063377582
-0.30086288 -0.26078889 0.063406587
-0.30109182 -0.26076832 0.063345529
-0.3013027 -0.26074126 0.063351452
-0.30153975 -0.26072589 0.063243046
-0.30175596 -0.26070103 0.063227028
-0.30196807 -0.26067469 0.063226029
-0.30218574 -0.26065055 0.063203096
-0.30237675 -0.26062018 0.063252956
-0.30259559 -0.26059467 0.063239232
-0.30277991 -0.26058343 0.063149542
-0.30303553 -0.26055473 0.06312526
-0.30324852 -0.26052526 0.063147329
-0.30346566 -0.26050147 0.063122079
-0.30369702 -0.2604835 0.063039087
-0.30390048 -0.26045445 0.063066967
-0.30411601 -0.26043239 0.063030198
-0.30432466 -0.26040557 0.063036129
-0.30453318 -0.26037878 0.063042074
-0.30475339 -0.26035687 0.062999502
-0.3049804 -0.26034003 0.062911905
-0.30517426 -0.26030737 0.062976763
-0.3053858 -0.26028216 0.062967695
-0.30557638 -0.26024806 0.063046403
-0.30581528 -0.26023686 0.062904522
-0.30602443 -0.2602109 0.062903546
-0.30622187 -0.26017988 0.06295222
-0.30644313 -0.26015937 0.062898114
-0.30666468 -0.26013914 0.062841699
-0.30688593 -0.26011893 0.062785268
-0.30706 -0.26009065 0.062835217
-0.30729508 -0.260066 0.062799498
-0.30750895 -0.26004279 0.062773116
-0.30771229 -0.2600148 0.062792934
-0.30791813 -0.25998804 0.06280119
-0.3081328 -0.25996548 0.062769033
-0.30834222 -0.2599428 0.062742665
-0.30855146 -0.25991789 0.062733613
-0.30875483 -0.25989023 0.062751114
-0.30897176 -0.25986919 0.0627051
-0.30918726 -0.25984758 0.062664859
-0.30940127 -0.25982541 0.062630393
-0.30958307 -0.25978968 0.06272991
-0.30980584 -0.259772 0.062652722
-0.31002301 -0.25975171 0.062600933
-0.31021672 -0.25971964 0.062661178
-0.31045449 -0.25971252 0.062489308
-0.31064799 -0.25968045 0.062549546
-0.31085375 -0.25965476 0.062549733
-0.31106871 -0.25963399 0.062503718
-0.31126699 -0.25960696 0.062521257
-0.31146896 -0.25957945 0.062538765
-0.31167999 -0.25955689 0.062510088
-0.31188291 -0.25953004 0.062521815
-0.31209689 -0.25951177 0.06245736
-0.31229651 -0.25949335 0.06240797
-0.31250641 -0.25946048 0.062458895
-0.31271642 -0.25943789 0.06243138
-0.31292123 -0.25941503 0.062410798
-0.31310993 -0.25939086 0.062415682
-0.31333044 -0.25936681 0.062389262
-0.31353855 -0.25934356 0.062368669
-0.31375161 -0.25933388 0.062239602
-0.31393549 -0.25930455 0.062288351
-0.31416023 -0.25928089 0.062254995
-0.31437033 -0.25925663 0.062240161
-0.31457701 -0.25923309 0.062223032
-0.31478313 -0.25920931 0.062208224
-0.31497815 -0.25917876 0.062255763
-0.31518322 -0.25915721 0.062224798
-0.31538582 -0.25913146 0.062228464
-0.31559172 -0.25910786 0.062212497
-0.31579572 -0.25908315 0.062206924
-0.31600159 -0.25906259 0.062167883
-0.31621057 -0.25904134 0.062131144
-0.31641668 -0.2590183 0.062110558
-0.31662321 -0.25899571 0.062086508
-0.31682158 -0.25897062 0.062089041
-0.317029 -0.2589488 0.062058069
-0.31723794 -0.25893119 0.061993629
-0.31744388 -0.25890863 0.061969593
-0.31763703 -0.25888029 0.062002137
-0.31783473 -0.25885209 0.0620289
-0.31802443 -0.25883052 0.062013008
-0.31827062 -0.25883126 0.061773024
-0.31843153 -0.25880161 0.061846115
-0.31860843 -0.25876784 0.061935276
-0.31883258 -0.25873414 0.061979219
-0.31904718 -0.25871247 0.061940137
-0.31923598 -0.25869402 0.061901178
-0.31946069 -0.25867066 0.061865512
-0.31964841 -0.25864843 0.061856546
-0.31987429 -0.25863293 0.061759733
-0.32006344 -0.2586087 0.061764605
-0.32026982 -0.25858143 0.061776325
-0.32046458 -0.25856525 0.061714265
-0.32064864 -0.25855088 0.061648794
-0.32084581 -0.25851625 0.061725169
-0.32103911 -0.25848877 0.061750796
-0.32128474 -0.25847387 0.0616308
-0.32147148 -0.25843737 0.061731454
-0.32166716 -0.25842655 0.06162785
-0.32188019 -0.25839844 0.06163954
-0.32207742 -0.25837108 0.061660543
-0.32227942 -0.25835174 0.06161575
-0.32247818 -0.25832587 0.061624043
-0.3226805 -0.25830331 0.061603483
-0.32287836 -0.25828058 0.061588705
-0.3230826 -0.25826398 0.06152083
-0.32328117 -0.25823829 0.061527975
-0.32347336 -0.25821835 0.06149707
-0.32365087 -0.25818816 0.061558541
-0.32382989 -0.25816745 0.061546162
-0.32401031 -0.25813594 0.061614543
-0.32423857 -0.25811988 0.06152001
-0.32444519 -0.2580986 0.061485589
-0.32463524 -0.25808561 0.061403926
-0.32486412 -0.2580584 0.061393626
-0.32505789 -0.25803691 0.061373096
-0.32526502 -0.25800818 0.061395202
-0.32544032 -0.25798869 0.061377071
-0.32558686 -0.25794613 0.061562136
-0.32579681 -0.25794306 0.061385788
-0.32602748 -0.25794604 0.06114357
-0.32627428 -0.25791299 0.061160866
-0.32646939 -0.25787529 0.061262634
-0.3266629 -0.25784492 0.06131018
-0.32685712 -0.25782022 0.061313882
-0.32704225 -0.25779903 0.061299171
-0.32725802 -0.25778162 0.061226621
-0.32745507 -0.25775582 0.061236084
-0.32765445 -0.25773302 0.061220147
-0.32785311 -0.25770941 0.061211139
-0.3280476 -0.25769088 0.061167531
-0.32824853 -0.25767061 0.061130829
-0.32844722 -0.25764745 0.061118357
-0.32864583 -0.25762433 0.061105877
-0.32883814 -0.25759786 0.061124593
-0.32903492 -0.25757223 0.061132893
-0.32923391 -0.25755569 0.061069664
-0.32942766 -0.25753739 0.061024912
-0.32961991 -0.25751111 0.061042465
-0.32981718 -0.25748661 0.061041534
-0.33002174 -0.25747377 0.060944822
-0.33021474 -0.25744271 0.060998138
-0.33040717 -0.25741684 0.061012231
-0.3306087 -0.25739986 0.060950138
-0.33080283 -0.25737712 0.060938839
-0.3309983 -0.25735012 0.060958691
-0.33118853 -0.25733423 0.060898952
-0.33139488 -0.25731328 0.060862221
-0.33158484 -0.25729045 0.060855553
-0.33178526 -0.2572659 0.060852304
-0.33197704 -0.25724676 0.060815644
-0.3321752 -0.25721794 0.060847014
-0.332371 -0.25719967 0.060799949
-0.33256748 -0.2571753 0.060799025
-0.33276266 -0.25715619 0.060758881
-0.33296603 -0.25714713 0.060634471
-0.33315331 -0.25711119 0.060730502
-0.33333814 -0.25708643 0.060743481
-0.33353698 -0.25705916 0.060762167
-0.33373836 -0.25703809 0.060731217
-0.33392337 -0.25701377 0.060740739
-0.33411866 -0.25699663 0.060685597
-0.33432257 -0.25697312 0.060670789
-0.33452013 -0.25695285 0.060637549
-0.3347114 -0.25692561 0.060663193
-0.33488351 -0.25688595 0.060801983
-0.33504313 -0.25685236 0.060906224
-0.33542064 -0.25684953 0.060568713
-0.33562428 -0.25686267 0.060274709
-0.33606574 -0.25685021 0.059949592
-0.3362492 -0.25679719 0.060179472
-0.33641213 -0.25673369 0.06050868
-0.3365888 -0.25672129 0.060435161
-0.33680296 -0.25669819 0.060407616
-0.33700904 -0.25668803 0.060288973
-0.33723205 -0.256657 0.060313303
-0.33740741 -0.25662419 0.060396701
-0.33761284 -0.25659508 0.060423426
-0.33780625 -0.25657922 0.060360219
-0.33798373 -0.25655627 0.060366303
-0.33817881 -0.25653026 0.060379229
-0.33839306 -0.25651076 0.060324002
-0.3385852 -0.25648963 0.060302332
-0.33876613 -0.25646612 0.060309559
-0.33893603 -0.25644079 0.060341068
-0.33914 -0.25642893 0.060237426
-0.33935374 -0.25641057 0.060174119
-0.33954829 -0.2563805 0.060218196
-0.33973938 -0.25635102 0.060261142
-0.33993116 -0.25632903 0.060246401
-0.34011933 -0.25630704 0.060235132
-0.34028566 -0.25627866 0.060293183
-0.34046331 -0.25626025 0.060264669
-0.34064108 -0.25624681 0.060198069
-0.34082976 -0.2562491 0.060001042
-0.3410458 -0.256217 0.060040407
-0.34125838 -0.25618303 0.060097095
-0.34144273 -0.25615561 0.060130842
-0.34163418 -0.2561326 0.060124174
-0.34182894 -0.25611857 0.060045961
-0.34203437 -0.25609607 0.060021918
-0.34221169 -0.25607073 0.060046472
-0.34240654 -0.25604761 0.060037479
-0.34261844 -0.25603294 0.059947647
-0.3428098 -0.25600767 0.059958283
-0.34297639 -0.25598595 0.059965577
-0.34317502 -0.25595856 0.05998541
-0.34336582 -0.25594002 0.059945285
-0.34354636 -0.2559185 0.059937518
-0.34375468 -0.25589809 0.059895009
-0.34394163 -0.25588062 0.059850287
-0.34412313 -0.2558516 0.059899047
-0.34432024 -0.25583515 0.059836965
-0.34451824 -0.25581238 0.059822187
-0.34470317 -0.25578472 0.059857089
-0.34489343 -0.25576654 0.059814662
-0.34510902 -0.25574189 0.059797496
-0.34530002 -0.2557191 0.05978968
-0.34549057 -0.25569847 0.059765704
-0.34567437 -0.25567716 0.059753306
-0.34584361 -0.25565919 0.059729438
-0.34603286 -0.25562903 0.059779312
-0.34625095 -0.25560784 0.059733286
-0.34642431 -0.25558692 0.059727855
-0.34659111 -0.25556487 0.059737459
-0.34682226 -0.25554541 0.059665997
-0.3469958 -0.25552371 0.059666336
-0.34716696 -0.25549853 0.059695531
-0.34736583 -0.25548351 0.05962076
-0.34757003 -0.25546178 0.059592109
-0.34776261 -0.25543365 0.059623506
-0.34793726 -0.25541908 0.059568461
-0.34812137 -0.25539622 0.059567589
-0.34831488 -0.25537568 0.059540153
-0.34850109 -0.25534695 0.059581958
-0.34869274 -0.25533149 0.059517603
-0.34889901 -0.25531268 0.059464719
-0.34908789 -0.25528622 0.059486911
-0.34930053 -0.2552509 0.059553977
-0.34946942 -0.25523281 0.059531264
-0.34963 -0.25522679 0.059424367
-0.34980643 -0.25521442 0.059350848
-0.34999108 -0.25520602 0.059239227
-0.35017589 -0.25519669 0.059134517
-0.35038379 -0.25515741 0.059236225
-0.35058448 -0.25511995 0.059331041
-0.35080749 -0.25509256 0.059327688
-0.35098571 -0.2550683 0.059342999
-0.35119471 -0.25504947 0.059287794
-0.35137424 -0.25502947 0.059269641
-0.35155374 -0.2550028 0.059302259
-0.3517406 -0.25498807 0.059236772
-0.35194811 -0.25496519 0.05921388
-0.35212633 -0.25494123 0.059226878
-0.35232225 -0.25492144 0.059191346
-0.35251796 -0.25489596 0.059199665
-0.35270309 -0.25488371 0.059116878
-0.35288933 -0.25485739 0.059140228
-0.35306299 -0.25483599 0.059138257
-0.35325974 -0.25480884 0.059158102
-0.35347456 -0.25478476 0.059137486
-0.3536754 -0.25476754 0.059077695
-0.35384697 -0.25474972 0.059050359
-0.35402465 -0.25472718 0.059052981
-0.35422644 -0.2547029 0.059046268
-0.3544184 -0.25467861 0.05904882
-0.35458434 -0.25466451 0.058998436
-0.35476273 -0.25465629 0.058891453
-0.35498357 -0.25461769 0.058975786
-0.35517219 -0.25459865 0.05894145
-0.35535428 -0.25457469 0.058950972
-0.35555479 -0.25454769 0.058966186
-0.35575733 -0.25452253 0.058965228
-0.35594019 -0.25450709 0.058908995
-0.35613951 -0.25448659 0.058875747
-0.3563208 -0.25446862 0.058840286
-0.35650176 -0.25444207 0.058870587
-0.35670537 -0.25442451 0.058810793
-0.35690475 -0.25439507 0.058845617
-0.3570922 -0.25436875 0.058867816
-0.35727155 -0.2543577 0.058781594
-0.35745427 -0.25433773 0.058759976
-0.35764468 -0.25431198 0.058775231
-0.35784861 -0.25428545 0.058783498
-0.3580392 -0.25425968 0.05879876
-0.35823354 -0.25423735 0.058784001
-0.35841763 -0.25421587 0.058772746
-0.35861629 -0.2541962 0.058733743
-0.35879901 -0.25418031 0.05868097
-0.35897988 -0.2541627 0.0586432
-0.35916772 -0.25414437 0.058604244
-0.35935649 -0.25412109 0.058602203
-0.35955521 -0.25408992 0.058650881
-0.35975075 -0.25406641 0.058644187
-0.35995197 -0.2540437 0.058625944
-0.36012766 -0.25403202 0.05854781
-0.36032873 -0.25400585 0.058556102
-0.36051041 -0.25399086 0.058497563
-0.36069158 -0.25396928 0.058489785
-0.36090174 -0.2539297 0.058591481
-0.36110398 -0.25390613 0.058578994
-0.36128286 -0.253901 0.058447786
-0.36144829 -0.25388971 0.058376629
-0.36165383 -0.25385571 0.058440272
-0.36186782 -0.25382975 0.05843465
-0.36206821 -0.25380155 0.058459088
-0.36224002 -0.25379005 0.058383293
-0.36243206 -0.25376409 0.058398537
-0.36263314 -0.25373867 0.058401059
-0.36282641 -0.25371799 0.05837477
-0.3630189 -0.25369501 0.058366939
-0.36318839 -0.25368562 0.058277301
-0.36339065 -0.25365296 0.058334038
-0.36359549 -0.25362101 0.05838269
-0.36378089 -0.25361735 0.058234137
-0.36396581 -0.25359577 0.05822289
-0.3641513 -0.25357366 0.058215093
-0.36436158 -0.25354284 0.058249876
-0.3645592 -0.2535153 0.058272019
-0.36475486 -0.25349265 0.058258411
-0.3649458 -0.25347152 0.058237895
-0.36513585 -0.25345126 0.058211625
-0.36533141 -0.25342882 0.058196858
-0.36552164 -0.25341123 0.058149822
-0.36570942 -0.25339308 0.058109704
-0.36591458 -0.253362 0.058151431
-0.36611748 -0.25333589 0.058157399
-0.3663004 -0.25332212 0.05808847
-0.36647242 -0.25330698 0.058040358
-0.36667407 -0.25327936 0.058059022
-0.36688206 -0.25325173 0.058071889
-0.3670643 -0.25323576 0.058020271
-0.36725473 -0.25321272 0.058014758
-0.36744833 -0.25319231 0.057986159
-0.36765093 -0.25316429 0.058007129
-0.36783552 -0.25314894 0.057948574
-0.36802304 -0.25312853 0.057925776
-0.36821246 -0.2531091 0.057893734
-0.36840326 -0.25308603 0.057888221
-0.36860973 -0.25305766 0.057908021
-0.36880782 -0.25303125 0.057920936
-0.36900461 -0.25300848 0.057907313
-0.36920026 -0.2529842 0.0579064
-0.36941075 -0.25294808 0.057981558
-0.36959609 -0.25294203 0.057851471
-0.36978382 -0.25292173 0.05782751
-0.36997044 -0.25290477 0.057779331
-0.3701669 -0.2528801 0.057780713
-0.37036395 -0.25285503 0.057784405
-0.37055007 -0.25284085 0.057715461
-0.37074524 -0.25281963 0.057691466
-0.37094471 -0.25279516 0.057688221
-0.37114301 -0.25276935 0.057696518
-0.37133664 -0.25274712 0.057681769
-0.37152508 -0.25272888 0.057641651
-0.37172243 -0.25269938 0.057678796
-0.37192312 -0.25267884 0.057644404
-0.37212607 -0.2526544 0.057637677
-0.37231174 -0.25263605 0.057601042
-0.3724995 -0.25261396 0.057590932
-0.37267941 -0.25260204 0.057510477
-0.37286985 -0.25257146 0.057562646
-0.37307987 -0.25254431 0.057569735
-0.37329102 -0.25252083 0.057547979
-0.37347305 -0.25250307 0.057510208
-0.37367529 -0.25247523 0.057530027
-0.37384468 -0.25246647 0.057435781
-0.37404555 -0.25244394 0.057416368
-0.37425306 -0.25241682 0.057425782
-0.37445283 -0.2523931 0.057416767
-0.37463102 -0.25238019 0.057345551
-0.37484878 -0.25234407 0.057413757
-0.37503058 -0.25232667 0.057373669
-0.37522754 -0.25229889 0.057398122
-0.37541667 -0.25228265 0.057341859
-0.37562627 -0.25225255 0.057372026
