# .PCD v0.7 - Point Cloud Data file format
VERSION 0.7
FIELDS x y z
SIZE 4 4 4
TYPE F F F
COUNT 1 1 1
WIDTH 1225
HEIGHT 1
VIEWPOINT 0 0 0 1 0 0 0
POINTS 1225
DATA ascii
-0.057175118 -0.4387778 0.056195237
-0.057332456 -0.43888173 0.056283101
-0.058065783 -0.43946895 0.056089461
-0.058228519 -0.43958482 0.056131143
-0.058412682 -0.43973306 0.056078114
-0.058585409 -0.43986553 0.056066681
-0.058776125 -0.440025 0.055976704
-0.058937207 -0.44013864 0.056024164
-0.059115138 -0.44027743 0.055998862
-0.059300654 -0.44042906 0.055931985
-0.059478316 -0.44056782 0.055905521
-0.060166296 -0.4410924 0.055878252
-0.06033298 -0.44121638 0.055889919
-0.060508266 -0.44135219 0.055870403
-0.060677763 -0.44148123 0.055864759
-0.060859013 -0.44162765 0.055809435
-0.061030574 -0.44176063 0.055789936
-0.061209492 -0.44190353 0.055745009
-0.061385565 -0.4420417 0.055715106
-0.061562013 -0.44218072 0.055681732
-0.061734736 -0.44231656 0.055650689
-0.061916646 -0.44246563 0.05558268
-0.062078375 -0.44258252 0.055613991
-0.062240046 -0.44269621 0.05566375
-0.062412441 -0.44283217 0.055630408
-0.062570326 -0.44293928 0.055702105
-0.062745072 -0.44307977 0.055652589
-0.06291832 -0.44321463 0.055629626
-0.063084558 -0.44334024 0.055629767
-0.063268587 -0.44349504 0.055537522
-0.063436106 -0.44362339 0.055527266
-0.063616052 -0.44377139 0.055456966
-0.063778117 -0.44389009 0.05547905
-0.06394136 -0.44400772 0.055512648
-0.064116865 -0.44415155 0.055446994
-0.064282015 -0.44427299 0.055466741
-0.064455301 -0.44441319 0.055412624
-0.064635418 -0.44456309 0.055331942
-0.064797051 -0.44468185 0.055351719
-0.064960286 -0.44480026 0.055380709
-0.06513238 -0.44493917 0.055328913
-0.065300494 -0.44507071 0.055302516
-0.065455452 -0.44517717 0.055365
-0.065623507 -0.44530532 0.055358216
-0.065796494 -0.44544685 0.055294871
-0.065968804 -0.44558376 0.055255752
-0.066138513 -0.44571948 0.055212047
-0.066306502 -0.44584838 0.05520064
-0.066478543 -0.44598919 0.055137303
-0.066643789 -0.44611308 0.055143211
-0.066803537 -0.44622982 0.055166461
-0.066961348 -0.44634277 0.055203561
-0.067132473 -0.44648269 0.055141389
-0.067307599 -0.44662723 0.055069964
-0.06747286 -0.44675583 0.055048194
-0.067638852 -0.44688225 0.055042557
-0.067799598 -0.44700193 0.055053115
-0.069238231 -0.44936472 0.047577109
-0.069361709 -0.44944835 0.047634032
-0.069502234 -0.44955647 0.047622796
-0.069644608 -0.4496569 0.047664598
-0.069800988 -0.44977564 0.047661338
-0.069958486 -0.44990095 0.047624625
-0.070115477 -0.4500294 0.047567144
-0.07027398 -0.45014936 0.047566183
-0.070435405 -0.45027998 0.047515597
-0.07059741 -0.45041221 0.04745809
-0.070751958 -0.45053646 0.047414474
-0.07090687 -0.45065761 0.047390454
-0.071070537 -0.45079035 0.047337554
-0.071220741 -0.45090559 0.047327414
-0.071381345 -0.45104051 0.047248006
-0.071537986 -0.45116672 0.047202058
-0.071695983 -0.45129201 0.047167651
-0.07184907 -0.45141494 0.047125194
-0.072011225 -0.4515461 0.047074605
-0.072171107 -0.45167676 0.047017109
-0.072326899 -0.45179799 0.046996552
-0.072480947 -0.45191988 0.04696447
-0.072637081 -0.45204711 0.046910457
-0.072796032 -0.45217684 0.046854123
-0.072942004 -0.45228454 0.046869386
-0.073098958 -0.45241472 0.046801526
-0.073254481 -0.45253697 0.046774045
-0.073410764 -0.45266625 0.046708502
-0.07356894 -0.45279089 0.046678703
-0.073719844 -0.45291215 0.046636257
-0.073869228 -0.4530248 0.046637651
-0.074030384 -0.45316821 0.04651095
-0.074183136 -0.45329544 0.046441965
-0.074330546 -0.45339853 0.046490658
-0.074472636 -0.45349267 0.04656823
-0.074623302 -0.4535937 0.046643429
-0.074776605 -0.45371798 0.04659405
-0.074929975 -0.45383188 0.046605811
-0.075087525 -0.45394638 0.046632521
-0.075232416 -0.45405367 0.046645481
-0.075375833 -0.45415118 0.046709202
-0.075523749 -0.45425564 0.046752121
-0.075674057 -0.45436114 0.046799656
-0.075815931 -0.45446575 0.046814933
-0.07596679 -0.45457283 0.046855535
-0.076113038 -0.45467839 0.046884634
-0.07625778 -0.45477948 0.046933349
-0.07640712 -0.45488816 0.046957809
-0.076553278 -0.45498714 0.047024969
-0.076697029 -0.45509142 0.047050621
-0.076844931 -0.45519567 0.047094703
-0.076992929 -0.45530018 0.047137629
-0.077139892 -0.45540807 0.047156345
-0.077283978 -0.45550665 0.047216594
-0.077422932 -0.45560217 0.047272265
-0.077571243 -0.45570752 0.047311731
-0.077725872 -0.45581982 0.04733846
-0.077869959 -0.45592532 0.047358342
-0.078013569 -0.45602179 0.047428988
-0.078162275 -0.45612842 0.047462679
-0.078304797 -0.45622841 0.047507949
-0.078449547 -0.45632851 0.047562428
-0.078605473 -0.45644552 0.047567241
-0.078749128 -0.45654145 0.047641341
-0.078892536 -0.45664448 0.047672756
-0.07904271 -0.45674807 0.047730662
-0.079190128 -0.4568494 0.047789741
-0.079340287 -0.4569526 0.047849957
-0.079500198 -0.45705003 0.04798739
-0.082754895 -0.45857432 0.053469326
-0.08290793 -0.45869428 0.053444177
-0.083046004 -0.45879778 0.053449098
-0.083190277 -0.45891011 0.05342976
-0.083369076 -0.45905468 0.053374462
-0.083521791 -0.45917517 0.053344697
-0.083672732 -0.45928073 0.053394526
-0.083824754 -0.45939597 0.053392444
-0.083976962 -0.45951372 0.053376522
-0.0841043 -0.45961756 0.053331915
-0.084237255 -0.45972684 0.053280346
-0.084413521 -0.45985276 0.053323109
-0.084587798 -0.45998642 0.053311657
-0.084739737 -0.46010593 0.053284205
-0.084891096 -0.46021831 0.053295974
-0.085042819 -0.46033704 0.053271972
-0.085180722 -0.46045026 0.053219229
-0.085343659 -0.46058184 0.053169791
-0.085466355 -0.46066406 0.053231329
-0.085640639 -0.46081251 0.05313338
-0.085802943 -0.46093708 0.053122006
-0.085953817 -0.46104693 0.053146459
-0.086104676 -0.46115541 0.053178988
-0.086255945 -0.46128994 0.05306042
-0.08640676 -0.46140584 0.05304911
-0.086560272 -0.4615173 0.053075857
-0.086710967 -0.46163923 0.053028807
-0.08686164 -0.46174774 0.053060178
-0.087012179 -0.46186697 0.053028114
-0.087162644 -0.46198419 0.053007595
-0.087312989 -0.46210247 0.052980151
-0.08746618 -0.46221843 0.052979209
-0.087605298 -0.46232647 0.052962214
-0.087728061 -0.46241286 0.052999534
-0.087861575 -0.46251586 0.052987177
-0.08801081 -0.4626469 0.052880157
-0.088163279 -0.462769 0.052840013
-0.088331528 -0.46291384 0.052736331
-0.088513337 -0.46303332 0.052841336
-0.088665955 -0.46314999 0.052833479
-0.088815413 -0.46326801 0.052803732
-0.088962883 -0.4633753 0.052828208
-0.089108162 -0.46350256 0.052725818
-0.08925198 -0.46361434 0.052707642
-0.089410387 -0.4637301 0.052730903
-0.089559644 -0.463846 0.052712686
-0.089709751 -0.46395525 0.052737139
-0.089856356 -0.46406758 0.052728184
-0.090002842 -0.4641802 0.0527169
-0.090143979 -0.46428722 0.052714892
-0.090287939 -0.46439576 0.052716315
-0.090418503 -0.46450895 0.052631326
-0.090581872 -0.46464792 0.052540358
-0.090760291 -0.4647733 0.052595787
-0.090904474 -0.46486372 0.052704483
-0.091027759 -0.46496311 0.052667972
-0.091197923 -0.46509799 0.052631173
-0.091337383 -0.46519646 0.052671853
-0.09150368 -0.4653469 0.052526653
-0.09165252 -0.46546012 0.052522287
-0.091789559 -0.46555498 0.052573361
-0.091952689 -0.46568924 0.052508924
-0.092101604 -0.46580175 0.05250917
-0.092239082 -0.46591917 0.052429896
-0.092390664 -0.46603349 0.052431278
-0.092543691 -0.46615422 0.052401509
-0.092691854 -0.4662683 0.05238907
-0.092827514 -0.46636784 0.052406698
-0.092954941 -0.46646112 0.052424371
-0.093097679 -0.4666014 0.052234344
-0.093261763 -0.46670845 0.052333694
-0.093391649 -0.46681425 0.052289061
-0.093548186 -0.46694273 0.052229285
-0.093690559 -0.46705204 0.05221919
-0.093864396 -0.46718085 0.052234277
-0.094010003 -0.46729085 0.052234542
-0.094164871 -0.46740451 0.05225436
-0.094312079 -0.46751925 0.052233845
-0.094460957 -0.4676384 0.052194886
-0.094594918 -0.46774963 0.052136391
-0.094742313 -0.46783873 0.052266985
-0.094886705 -0.46795923 0.052200351
-0.095060624 -0.46810344 0.052125476
-0.095208734 -0.46821532 0.052125726
-0.095357604 -0.46832564 0.05213866
-0.095501736 -0.46843785 0.052119322
-0.095647961 -0.46855325 0.052090745
-0.095783599 -0.46865943 0.052069157
-0.095950529 -0.46877906 0.052107356
-0.096076086 -0.46887526 0.052099671
-0.096212901 -0.46898609 0.052056156
-0.096353084 -0.46911126 0.051943421
-0.096511997 -0.46923092 0.051945917
-0.096658736 -0.46934435 0.051931176
-0.096793681 -0.4694508 0.051904973
-0.096968144 -0.4695777 0.051933907
-0.097118817 -0.46969113 0.05193644
-0.09727522 -0.46980831 0.051942412
-0.097419463 -0.46991906 0.051932305
-0.097551547 -0.47002923 0.051871523
-0.097687483 -0.47013369 0.051861465
-0.097829685 -0.4702411 0.051861748
-0.097994708 -0.47035792 0.051908027
-0.098130494 -0.47044533 0.051997162
-0.098253667 -0.47057238 0.051798031
-0.09840256 -0.47070456 0.051682934
-0.09856756 -0.47081584 0.051761508
-0.098708354 -0.47092476 0.051746812
-0.0988589 -0.47103789 0.051750507
-0.099003389 -0.47115296 0.051716171
-0.099157773 -0.47126684 0.051732533
-0.099302113 -0.4713611 0.05181931
-0.099448562 -0.47147903 0.051776901
-0.099590033 -0.47160733 0.051651467
-0.099748164 -0.47170714 0.051766992
-0.099887617 -0.47181228 0.051768452
-0.10001745 -0.47193235 0.051639628
-0.10014933 -0.47206444 0.051449664
-0.10032018 -0.47218075 0.051524743
-0.1004737 -0.47228593 0.051588397
-0.10062405 -0.47239438 0.051618621
-0.10077102 -0.47251543 0.051560063
-0.10091744 -0.47262761 0.051551092
-0.10107354 -0.47274005 0.051583584
-0.10121049 -0.47284269 0.05158852
-0.10134637 -0.4729597 0.051504645
-0.10150029 -0.47307855 0.05148986
-0.10166121 -0.47317395 0.051643439
-0.10181861 -0.47326413 0.051812034
-0.10193899 -0.47341508 0.051460657
-0.10207793 -0.47352454 0.051434431
-0.10221972 -0.47364011 0.05138512
-0.1023687 -0.47376251 0.051327698
-0.10252954 -0.47387576 0.051376309
-0.10268421 -0.47398967 0.051393822
-0.10282201 -0.47410378 0.051335312
-0.10297295 -0.47420835 0.051390916
-0.10311232 -0.47432917 0.05130009
-0.10324906 -0.47443974 0.051257737
-0.1033957 -0.47455132 0.051253378
-0.10354988 -0.47466564 0.051266279
-0.10369292 -0.47477961 0.051231962
-0.10384615 -0.47489455 0.051236793
-0.10398409 -0.47500408 0.051205963
-0.10412857 -0.47512069 0.051162396
-0.10426873 -0.47522873 0.051150013
-0.10441631 -0.47534338 0.051131807
-0.10456651 -0.47545645 0.051134355
-0.10471398 -0.47557473 0.051094241
-0.10486613 -0.47568673 0.051111765
-0.10501473 -0.47580075 0.051101632
-0.10516547 -0.47590303 0.051169913
-0.10530444 -0.47601175 0.051148307
-0.10544142 -0.4761284 0.051071346
-0.10558347 -0.47624573 0.051012807
-0.10573028 -0.47636056 0.050989993
-0.10588501 -0.47647491 0.051005192
-0.10602971 -0.47658738 0.050987013
-0.10617778 -0.47670159 0.050973427
-0.10632411 -0.47680995 0.050986376
-0.1064763 -0.47691905 0.0510212
-0.10661557 -0.47703722 0.050945375
-0.10675403 -0.4771556 0.050864946
-0.10690084 -0.47727025 0.050843284
-0.10705553 -0.47738159 0.050875794
-0.10720642 -0.4774946 0.050881796
-0.1073577 -0.47761065 0.05087164
-0.10749312 -0.47771728 0.050846592
-0.10762909 -0.47783297 0.050770789
-0.10778674 -0.47794655 0.050803281
-0.10794018 -0.47805876 0.05082541
-0.10808796 -0.47817609 0.050792214
-0.10823272 -0.47828841 0.050775182
-0.10836577 -0.47839874 0.050717853
-0.1085143 -0.4785127 0.05070772
-0.10865829 -0.47862521 0.050686076
-0.10881632 -0.47873616 0.050735865
-0.10896445 -0.47884157 0.050774183
-0.10910027 -0.47895378 0.050717987
-0.10925026 -0.4790732 0.05068247
-0.10939778 -0.4791933 0.050631974
-0.10952848 -0.47930107 0.050579268
-0.10967576 -0.47940975 0.050594512
-0.10982434 -0.47952378 0.05058438
-0.10996869 -0.47963619 0.050565042
-0.11011501 -0.47975361 0.050524935
-0.1102455 -0.47986671 0.050439943
-0.11039639 -0.47998011 0.050443638
-0.11054834 -0.48009059 0.050469235
-0.1107064 -0.48020783 0.050482113
-0.11084648 -0.48032388 0.050422434
-0.11099488 -0.48043263 0.05044229
-0.11115164 -0.48053968 0.050509386
-0.11128607 -0.48065951 0.050402451
-0.11143299 -0.48076871 0.050413087
-0.11158648 -0.48088193 0.050429456
-0.11172943 -0.48099464 0.050402056
-0.11187826 -0.48111141 0.050376922
-0.11202122 -0.48123178 0.05030454
-0.11214955 -0.4813419 0.050227627
-0.11231478 -0.48145571 0.050292365
-0.11245237 -0.48156673 0.050251156
-0.11260063 -0.48167598 0.050267555
-0.11275107 -0.48178747 0.050280482
-0.11291053 -0.48190263 0.050311804
-0.11306095 -0.48201922 0.050294727
-0.11320445 -0.48213923 0.05022696
-0.11333672 -0.48224601 0.050186936
-0.11348633 -0.48235294 0.050222933
-0.11363872 -0.48246688 0.050230078
-0.11378952 -0.48258829 0.050186485
-0.1139268 -0.48269928 0.050144121
-0.11407587 -0.48281366 0.050133985
-0.11422336 -0.48292351 0.050143465
-0.11438238 -0.48303694 0.05018286
-0.11451158 -0.48315105 0.050086338
-0.1146446 -0.48326236 0.050023239
-0.11479539 -0.48337665 0.050021172
-0.11494276 -0.48348898 0.050015658
-0.11510369 -0.48360485 0.050049279
-0.11525542 -0.48372382 0.050024129
-0.11539318 -0.48383239 0.049997911
-0.11553989 -0.48394263 0.050001629
-0.11569159 -0.48405486 0.050015695
-0.11583549 -0.48416987 0.049979065
-0.115989 -0.48428881 0.049961984
-0.11611425 -0.48440248 0.049850494
-0.11627093 -0.48451239 0.049900278
-0.11640882 -0.4846254 0.049848691
-0.11655832 -0.48473796 0.049851242
-0.11672708 -0.48485208 0.049929798
-0.11686727 -0.48497155 0.049850509
-0.11698703 -0.48508069 0.049741361
-0.11713688 -0.48519549 0.049732372
-0.11730208 -0.4853079 0.049805176
-0.11744062 -0.48542297 0.049744356
-0.11757736 -0.48553589 0.049688153
-0.11773434 -0.48565075 0.04971027
-0.11788945 -0.48576361 0.049735848
-0.11803912 -0.48587865 0.04972456
-0.11819234 -0.48599166 0.049740918
-0.11833948 -0.48610675 0.049718104
-0.11846803 -0.48621958 0.049626205
-0.1186222 -0.48633271 0.049646027
-0.11875299 -0.48644546 0.049564485
-0.11891218 -0.48656082 0.049593508
-0.119069 -0.48667416 0.049623694
-0.11921763 -0.48678941 0.049606632
-0.11937419 -0.48690495 0.049622983
-0.11950927 -0.48701978 0.049548343
-0.11965546 -0.48713097 0.049543981
-0.11980063 -0.48724616 0.049511962
-0.11995439 -0.48735976 0.049527168
-0.12011185 -0.48747557 0.04954581
-0.12026528 -0.48758933 0.049558718
-0.12038958 -0.48770347 0.049440313
-0.12054978 -0.48781958 0.049469322
-0.12069257 -0.48793474 0.049426924
-0.12084285 -0.4880465 0.049437542
-0.12099788 -0.4881644 0.049433142
-0.12113343 -0.48827526 0.049383868
-0.12129143 -0.48839346 0.049390979
-0.1214231 -0.48850587 0.049315199
-0.12157143 -0.48862147 0.049294688
-0.12171905 -0.48873517 0.049282253
-0.12186438 -0.48884869 0.049260609
-0.12201769 -0.48896295 0.049270049
-0.1221616 -0.4890801 0.049220733
-0.12232676 -0.48919743 0.049264699
-0.12247677 -0.48931155 0.049260329
-0.12260868 -0.48942024 0.04920762
-0.12276949 -0.48953915 0.049222782
-0.12290873 -0.48965043 0.049187336
-0.12306177 -0.48976684 0.049182937
-0.12321299 -0.48988128 0.04918202
-0.12334748 -0.48999387 0.049117763
-0.12349573 -0.49010804 0.049105324
-0.12365918 -0.49022582 0.04913893
-0.1238045 -0.49033976 0.049114969
-0.12395359 -0.49045414 0.049104832
-0.12409962 -0.49056819 0.049083184
-0.12424318 -0.49068195 0.049052313
-0.12439148 -0.49079636 0.049038723
-0.12453096 -0.49091136 0.048982505
-0.12468347 -0.49102637 0.048983879
-0.12483957 -0.49114195 0.04899792
-0.12498485 -0.49125779 0.04896244
-0.12513183 -0.49137217 0.048943087
-0.12528329 -0.49148896 0.048929479
-0.12542787 -0.49160132 0.048911288
-0.1255866 -0.49171928 0.048923008
-0.12572654 -0.49183443 0.048867948
-0.12586832 -0.49194646 0.048839394
-0.12602842 -0.49206308 0.048864953
-0.12617481 -0.49217761 0.048842143
-0.12632605 -0.49229464 0.048826225
-0.12645657 -0.49240658 0.048748143
-0.12662275 -0.49252447 0.048793275
-0.12675612 -0.49263525 0.048734784
-0.12694003 -0.49275964 0.048820168
-0.12705639 -0.49286917 0.048693731
-0.12721339 -0.49298739 0.048696239
-0.12736835 -0.49310368 0.048701059
-0.12750895 -0.4932158 0.048666757
-0.12768432 -0.4933359 0.0487395
-0.12783088 -0.4934541 0.048695933
-0.12798169 -0.49356824 0.048695017
-0.12811331 -0.493682 0.048611157
-0.12827893 -0.49380064 0.048649371
-0.1284283 -0.49391624 0.048633464
-0.12857002 -0.49403039 0.048592225
-0.12873186 -0.4941501 0.048607383
-0.12887192 -0.49426398 0.048560392
-0.12902935 -0.49438134 0.048569817
-0.12919118 -0.49449968 0.048593055
-0.12932315 -0.49461353 0.048510354
-0.12947944 -0.49473083 0.048515163
-0.12962398 -0.49484727 0.048472758
-0.12977865 -0.49496433 0.04847182
-0.12993084 -0.49508402 0.048444357
-0.1300672 -0.49519569 0.048393928
-0.13024545 -0.49531955 0.048457436
-0.13038187 -0.49543282 0.048397779
-0.1305307 -0.49555039 0.048368037
-0.13068299 -0.49566722 0.048357874
-0.13083906 -0.49578494 0.048359234
-0.13098896 -0.49590132 0.048341013
-0.13113992 -0.49601948 0.04831703
-0.13129331 -0.49613675 0.04830917
-0.13144808 -0.49625742 0.048287459
-0.13159637 -0.49637359 0.04826349
-0.13176163 -0.49649531 0.048282087
-0.13190404 -0.49661016 0.048239693
-0.13207145 -0.49673253 0.048264049
-0.13220595 -0.49684551 0.048197482
-0.13236481 -0.49696594 0.048195358
-0.13249123 -0.49707696 0.048104621
-0.1326682 -0.49720341 0.04814738
-0.13281494 -0.4973239 0.048091121
-0.13296819 -0.4974387 0.0480971
-0.13312855 -0.4975583 0.048106506
-0.13330191 -0.49768418 0.048136584
-0.13345404 -0.49780619 0.048095286
-0.13359386 -0.49791631 0.048069064
-0.13376111 -0.49804229 0.0480715
-0.13390228 -0.4981572 0.048023343
-0.13407335 -0.49828428 0.048036147
-0.13421954 -0.49840203 0.047993731
-0.13436916 -0.49851781 0.047977824
-0.13451868 -0.49863648 0.047944617
-0.13466926 -0.49875829 0.047897555
-0.13483645 -0.49887756 0.047939211
-0.13498785 -0.49899682 0.047910612
-0.13513857 -0.4991174 0.047871627
-0.13532285 -0.49924582 0.047935091
-0.13546917 -0.49936247 0.047899593
-0.13561964 -0.49948028 0.047875613
-0.13577116 -0.49960262 0.047829702
-0.13590586 -0.49971047 0.047794275
-0.13606325 -0.49983171 0.047780629
-0.13623784 -0.49995795 0.047814172
-0.1363766 -0.50007123 0.047764879
-0.13654609 -0.50019753 0.047775373
-0.13670017 -0.50031805 0.047751367
-0.13684502 -0.50043184 0.047726259
-0.13701323 -0.50056207 0.047707934
-0.13716455 -0.50068462 0.047659725
-0.13734579 -0.50081748 0.047683991
-0.13746241 -0.50091892 0.047605999
-0.13761033 -0.50103104 0.047603939
-0.13778131 -0.50115967 0.047607515
-0.13793385 -0.50128275 0.047561601
-0.13810344 -0.50140971 0.047568645
-0.13825832 -0.50152558 0.047575764
-0.13840394 -0.50164264 0.04753451
-0.056412973 -0.43825397 0.055889666
-0.056568142 -0.4383572 0.055971786
-0.056734364 -0.43847531 0.05601579
-0.056894038 -0.43858573 0.056075964
-0.05706834 -0.43871683 0.056079552
-0.057245359 -0.43885511 0.056053143
-0.057426009 -0.43899676 0.05602324
-0.058673125 -0.43997353 0.055822153
-0.058847547 -0.44010651 0.055815358
-0.05900792 -0.44021922 0.055865161
-0.059188809 -0.4403632 0.055822581
-0.059362195 -0.44049776 0.055801954
-0.059540682 -0.44063812 0.055769768
-0.059715576 -0.44077557 0.055738751
-0.05988957 -0.44090882 0.055728495
-0.060070336 -0.44105369 0.055680148
-0.060253985 -0.44120368 0.055614494
-0.060423177 -0.44133231 0.055610038
-0.060581692 -0.44143987 0.05568175
-0.060756411 -0.44157818 0.055644978
-0.060926054 -0.44170499 0.055653211
-0.061107062 -0.44185454 0.055578329
-0.061280385 -0.44198808 0.055563472
-0.061437629 -0.44209683 0.055622514
-0.061627366 -0.44225931 0.055510685
-0.061789338 -0.44237655 0.055540871
-0.061958645 -0.44250369 0.055545636
-0.062134627 -0.44264278 0.055510003
-0.062310584 -0.44278201 0.055473223
-0.062478237 -0.44290987 0.055466466
-0.062658548 -0.44305733 0.055400819
-0.062819019 -0.44317266 0.055435628
-0.062998667 -0.44331944 0.055371143
-0.063168064 -0.44345117 0.05534938
-0.065067947 -0.44622481 0.047508553
-0.065205187 -0.4463267 0.047519274
-0.065349214 -0.44643492 0.047523037
-0.065494664 -0.44653946 0.047554471
-0.065664686 -0.44667718 0.047500424
-0.065826744 -0.4468067 0.047459103
-0.065998599 -0.44695172 0.047370441
-0.066160873 -0.44708219 0.047324508
-0.066313066 -0.4472003 0.047306314
-0.066483051 -0.44733602 0.047263797
-0.066644341 -0.4474687 0.047200572
-0.066813149 -0.44760609 0.047143064
-0.066965491 -0.44772196 0.04713871
-0.067135975 -0.44786316 0.047066201
-0.067299582 -0.44799465 0.04702026
-0.067459397 -0.44811893 0.046999715
-0.067610815 -0.44823724 0.046976916
-0.067777939 -0.44837296 0.046921726
-0.067938022 -0.44850552 0.046853889
-0.068105757 -0.44863954 0.046811383
-0.068263277 -0.44877115 0.046737801
-0.068418249 -0.44888702 0.046744961
-0.068578325 -0.44901347 0.046712883
-0.068742804 -0.44915292 0.046624258
-0.068903923 -0.44927835 0.046602555
-0.069062203 -0.44940561 0.046557795
-0.069215707 -0.44952315 0.046548825
-0.06937921 -0.4496581 0.046482127
-0.069535241 -0.44978523 0.046428151
-0.069704786 -0.44992986 0.046331432
-0.069854796 -0.45004869 0.046299413
-0.070000686 -0.45015496 0.046322774
-0.070145853 -0.45024788 0.046421103
-0.070302397 -0.45036143 0.046449013
-0.070461646 -0.45048904 0.04640656
-0.070618831 -0.45060423 0.046427544
-0.070765808 -0.45070916 0.046463586
-0.070914082 -0.45081705 0.046488084
-0.071072757 -0.45092747 0.046543658
-0.071219027 -0.45103088 0.046585478
-0.071362697 -0.45112839 0.046650361
-0.071507618 -0.45123726 0.046654128
-0.071652837 -0.45133829 0.046705171
-0.07180658 -0.451446 0.046755005
-0.071947306 -0.45154086 0.046822224
-0.072101004 -0.45165285 0.046846688
-0.072242536 -0.45175403 0.046880454
-0.072391562 -0.45185953 0.046922248
-0.072534658 -0.45195994 0.046967544
-0.072688133 -0.45207158 0.046993162
-0.072827965 -0.45216399 0.047070764
-0.072980292 -0.45226806 0.047135606
-0.073124029 -0.45236993 0.047175121
-0.07327994 -0.45248774 0.047175363
-0.073423624 -0.45258957 0.047214877
-0.07357122 -0.45269144 0.047271676
-0.073718145 -0.45279652 0.04730656
-0.073868468 -0.45290023 0.047364496
-0.074011117 -0.45299932 0.047415551
-0.074160822 -0.45310649 0.04745042
-0.074305475 -0.45321086 0.047479559
-0.074456409 -0.453316 0.04753172
-0.074601598 -0.45341644 0.047586221
-0.074758418 -0.45352113 0.047667187
-0.074905351 -0.4536095 0.047800105
-0.078026854 -0.45497537 0.053620815
-0.078185 -0.4550972 0.053607199
-0.078341231 -0.45521227 0.053624727
-0.078491628 -0.45531407 0.053694203
-0.078644693 -0.45541713 0.053768255
-0.078797959 -0.45552957 0.053788114
-0.078957878 -0.45565924 0.053736426
-0.079110883 -0.45577109 0.053758599
-0.079267308 -0.45589694 0.053713851
-0.079423264 -0.45602146 0.053674877
-0.079581879 -0.45614776 0.053637035
-0.079736643 -0.45626822 0.053616516
-0.079891548 -0.45637935 0.053651363
-0.08004722 -0.45650443 0.053607773
-0.080203235 -0.45662093 0.053616084
-0.080358192 -0.45674369 0.053582877
-0.080514073 -0.45686007 0.053591188
-0.080668829 -0.45698291 0.05355683
-0.08082211 -0.4570989 0.053555928
-0.080976494 -0.45722082 0.053525034
-0.081132442 -0.45735145 0.053450301
-0.081283256 -0.45745572 0.053507082
-0.081440307 -0.45758048 0.053471562
-0.081594422 -0.4577032 0.053434897
-0.081746906 -0.45781723 0.053442083
-0.081900001 -0.45793504 0.053429641
-0.082056083 -0.45805648 0.053409114
-0.082209282 -0.45817596 0.053387456
-0.082363501 -0.45830271 0.053327732
-0.082515813 -0.45841777 0.053327985
-0.082641162 -0.45852029 0.053282272
-0.082820639 -0.45865041 0.053314667
-0.082975186 -0.4587833 0.053220332
-0.083121337 -0.45889232 0.053228706
-0.083280697 -0.45900545 0.053271595
-0.083432436 -0.45911869 0.053279921
-0.083584867 -0.45923835 0.053253658
-0.083737433 -0.45936012 0.053215854
-0.083860256 -0.45944598 0.05325665
-0.0840353 -0.4595865 0.053208333
-0.084192939 -0.45970991 0.053183187
-0.084344588 -0.45982605 0.053174216
-0.084496461 -0.45994571 0.053145647
-0.08464805 -0.46006298 0.053129766
-0.084799208 -0.46017522 0.053141557
-0.08495079 -0.46029443 0.053114139
-0.085102499 -0.4604173 0.053065967
-0.085253835 -0.46053615 0.0530397
-0.085404724 -0.46064779 0.053053804
-0.085555382 -0.46075431 0.053096745
-0.085707024 -0.46088639 0.052994359
-0.085855171 -0.46100202 0.052972727
-0.08600875 -0.46111923 0.052966058
-0.086156726 -0.46123457 0.052945588
-0.086310059 -0.46134293 0.052989665
-0.086460747 -0.46146482 0.052942641
-0.086611301 -0.46158898 0.052881792
-0.086761735 -0.46170402 0.052873977
-0.086912148 -0.46181506 0.052889243
-0.087062396 -0.46193486 0.052852608
-0.087212712 -0.46204704 0.052860945
-0.087362856 -0.46216401 0.052840456
-0.087496616 -0.46225774 0.052883495
-0.087629505 -0.46237326 0.05279506
-0.087812558 -0.46251887 0.052752465
-0.087962821 -0.46262726 0.052782722
-0.088112608 -0.46274337 0.05276569
-0.088262752 -0.46285346 0.052785568
-0.088411972 -0.46297541 0.052731644
-0.088561401 -0.46309304 0.052704237
-0.088710874 -0.46320909 0.052686058
-0.08885961 -0.46333167 0.052626368
-0.089009874 -0.4634383 0.052667003
-0.089159518 -0.46355096 0.052669585
-0.089306153 -0.4636631 0.052661791
-0.089433648 -0.46375841 0.052667961
-0.089580797 -0.46388885 0.052555233
-0.089732736 -0.46400499 0.05254741
-0.089896455 -0.46412435 0.052572977
-0.090049021 -0.46423608 0.052593991
-0.090197444 -0.4643541 0.052559681
-0.090339959 -0.46446943 0.052515015
-0.09049435 -0.46458784 0.052504875
-0.090632029 -0.46469417 0.052491378
-0.090793677 -0.4648234 0.052450061
-0.090937465 -0.46493024 0.052460756
-0.091086231 -0.46504378 0.05245411
-0.091227941 -0.46515989 0.052401379
-0.091387123 -0.46528369 0.052380838
-0.091508582 -0.46537444 0.05238704
-0.091646053 -0.46549302 0.052300889
-0.091785416 -0.4656162 0.052196275
-0.09197247 -0.46573254 0.052342787
-0.092126645 -0.46584901 0.052343041
-0.092272036 -0.46596101 0.052330647
-0.092423022 -0.46607664 0.052321691
-0.092569813 -0.46619481 0.052279301
-0.09271773 -0.46630892 0.052265752
-0.09284845 -0.46641254 0.052237306
-0.09301383 -0.46653575 0.05224786
-0.093158655 -0.46663806 0.05228968
-0.093281329 -0.46674445 0.052209381
-0.09344025 -0.4668659 0.052201528
-0.093601659 -0.46699002 0.052189041
-0.093753546 -0.46710181 0.052206594
-0.093898565 -0.46722215 0.052143469
-0.094037227 -0.46732217 0.052171491
-0.094184078 -0.46743745 0.052146398
-0.094337262 -0.46756321 0.052087843
-0.094475195 -0.46767327 0.052053582
-0.094628833 -0.46778896 0.052056141
-0.094777182 -0.46790004 0.052062187
-0.094919167 -0.46800885 0.052053273
-0.095060237 -0.46811166 0.052075513
-0.095213361 -0.46822834 0.052069992
-0.095350347 -0.46833947 0.052025359
-0.095485359 -0.46844676 0.051994588
-0.095640227 -0.46858168 0.051889874
-0.095808148 -0.46869141 0.051990382
-0.095935844 -0.46879041 0.051975794
-0.096089244 -0.46891299 0.05193682
-0.096223019 -0.46902171 0.051892217
-0.096375771 -0.46913138 0.05192592
-0.096517131 -0.46924701 0.05187434
-0.096660167 -0.46933991 0.051963456
-0.096803352 -0.46945888 0.051900335
-0.096942954 -0.46957043 0.051864907
-0.097099558 -0.46970585 0.051764812
-0.097258762 -0.46983677 0.051702753
-0.097396523 -0.46992588 0.051790737
-0.097526364 -0.47002077 0.051809583
-0.097651556 -0.47014031 0.051663533
-0.097799085 -0.47027498 0.051527724
-0.09797588 -0.47038633 0.051658157
-0.098124862 -0.47050121 0.051644601
-0.098261401 -0.47060415 0.051646098
-0.098422207 -0.47072604 0.051644005
-0.098556601 -0.47082618 0.051652435
-0.098709747 -0.47093576 0.051688444
-0.098848991 -0.47104627 0.051657636
-0.098988675 -0.4711614 0.051601458
-0.099134989 -0.47126859 0.051621355
-0.099285901 -0.47138613 0.051600862
-0.099433735 -0.47150195 0.051576924
-0.099581748 -0.47161236 0.051585283
-0.099715345 -0.47171837 0.05155566
-0.099863179 -0.47183892 0.051504046
-0.10000776 -0.47195286 0.051476676
-0.10015666 -0.47206712 0.051466569
-0.1002991 -0.47219259 0.051361941
-0.10045022 -0.47229022 0.051459074
-0.1006033 -0.47240508 0.051463936
-0.10074747 -0.4725191 0.05143426
-0.10088983 -0.4726347 0.051387288
-0.10102502 -0.47274762 0.051324215
-0.10117967 -0.4728564 0.051371742
-0.10132419 -0.47295198 0.051451631
-0.10146592 -0.47308993 0.051270876
-0.10162636 -0.47319835 0.051346049
-0.10176393 -0.4733001 0.05135908
-0.10190402 -0.47342128 0.051269449
-0.1020572 -0.47353166 0.051300846
-0.10222553 -0.47365963 0.051296391
-0.10235671 -0.47376639 0.051251803
-0.10250104 -0.4738754 0.051252104
-0.10264914 -0.47398573 0.051261611
-0.10279419 -0.47410235 0.051220391
-0.10294227 -0.47422072 0.051182613
-0.10308237 -0.4743287 0.05117026
-0.10322557 -0.47443846 0.051161341
-0.10337412 -0.47454849 0.051174305
-0.10352975 -0.47466549 0.051178001
-0.10367425 -0.47477445 0.051179461
-0.10382271 -0.47488087 0.051213186
-0.10396784 -0.47498953 0.051219255
-0.10412504 -0.47509825 0.051278297
-0.10426579 -0.47520968 0.05124864
-0.1044047 -0.4753148 0.051247813
-0.10454233 -0.47543529 0.051151291
-0.1046683 -0.47555855 0.050986778
-0.10482143 -0.47566617 0.051034316
-0.10498902 -0.47577664 0.051129043
-0.10513255 -0.47589687 0.051060166
-0.10528605 -0.47601166 0.051067334
-0.10541108 -0.47612044 0.050983563
-0.10555764 -0.47623527 0.050959632
-0.10569716 -0.47635701 0.050864238
-0.1058398 -0.4764736 0.050812654
-0.10598426 -0.4765892 0.050774906
-0.10613204 -0.47669652 0.050800554
-0.10627311 -0.476807 0.050777819
-0.10642829 -0.47692424 0.050778054
-0.10657196 -0.47703356 0.050773751
-0.10672355 -0.47715241 0.050748643
-0.10687844 -0.47726017 0.050803088
-0.10701587 -0.47737539 0.050736543
-0.10716344 -0.47747996 0.050777182
-0.10730449 -0.47759989 0.050699089
-0.10746644 -0.47771773 0.050725818
-0.10761517 -0.47782829 0.050736472
-0.10774519 -0.47792748 0.050731096
-0.10788465 -0.47804463 0.050662231
-0.10803561 -0.47816357 0.050633665
-0.10818156 -0.47827521 0.05062589
-0.108316 -0.47838482 0.050578959
-0.10847259 -0.47849584 0.050621867
-0.10862914 -0.47861883 0.050594419
-0.10875802 -0.47873011 0.050512925
-0.10889413 -0.47883609 0.050494827
-0.10904848 -0.47895092 0.050505448
-0.10920594 -0.47906199 0.050551809
-0.10934423 -0.47917885 0.050479494
-0.10948148 -0.47929019 0.050434858
-0.10963739 -0.47940189 0.050470851
-0.10977925 -0.47951475 0.050437719
-0.10991895 -0.47962812 0.05039192
-0.1100721 -0.47973517 0.050442915
-0.11021724 -0.47985268 0.050397083
-0.11037309 -0.47996745 0.050414618
-0.11052967 -0.48009303 0.05037218
-0.11064956 -0.48019204 0.050323039
-0.11079114 -0.4803021 0.050304908
-0.1109461 -0.48041722 0.050316676
-0.11108832 -0.48052719 0.050301999
-0.11122262 -0.48063886 0.050242394
-0.11137787 -0.48074612 0.050301448
-0.11151994 -0.48085618 0.050285622
-0.11165886 -0.48097724 0.050191395
-0.11179937 -0.48108494 0.050182488
-0.11193824 -0.48119298 0.050164372
-0.11209182 -0.48130608 0.050181918
-0.11223298 -0.48142388 0.050116513
-0.11237495 -0.48153645 0.05008569
-0.11253153 -0.48164412 0.050148197
-0.11268433 -0.48175502 0.050174978
-0.11282858 -0.48186734 0.050155669
-0.11296456 -0.48198086 0.050092593
-0.11311106 -0.48209527 0.050070975
-0.11325591 -0.48221236 0.050026294
-0.11338822 -0.48232132 0.049973622
-0.11354686 -0.48243174 0.050029196
-0.1137056 -0.48254949 0.0500421
-0.11384872 -0.48265958 0.05003088
-0.11399797 -0.48276663 0.050064601
-0.11413276 -0.48287293 0.050038442
-0.11427576 -0.48299021 0.049984545
-0.11442742 -0.48310891 0.049960583
-0.11456168 -0.4832176 0.049918275
-0.11470495 -0.48332542 0.049920894
-0.11484887 -0.48343787 0.049899288
-0.11499748 -0.48354995 0.049900725
-0.11513208 -0.48366085 0.049846876
-0.1152918 -0.48377442 0.049888607
-0.11543747 -0.48388684 0.049875062
-0.11559922 -0.48400274 0.04991217
-0.11573329 -0.48411816 0.049829505
-0.11587118 -0.48422882 0.049791787
-0.11601344 -0.48433921 0.049774799
-0.11616214 -0.48445153 0.049775075
-0.11630499 -0.48456416 0.049747709
-0.11645551 -0.48467651 0.049756054
-0.11659914 -0.48478913 0.049732141
-0.11673056 -0.48490646 0.049626425
-0.11687739 -0.48501682 0.049630173
-0.11702506 -0.48512718 0.049637374
-0.11718391 -0.48523951 0.049682565
-0.11734839 -0.48535827 0.04971505
-0.11748113 -0.48547328 0.049628921
-0.11761943 -0.4855797 0.04961773
-0.11776347 -0.48569244 0.049594965
-0.11790871 -0.48580727 0.049565282
-0.11804405 -0.4859221 0.04949183
-0.11817324 -0.48603263 0.049416106
-0.11834212 -0.4861435 0.049514297
-0.11848359 -0.48625627 0.049480017
-0.11864021 -0.48636928 0.049511384
-0.11879733 -0.48648447 0.049532373
-0.11893032 -0.48659709 0.049461242
-0.11907828 -0.48671615 0.049418855
-0.1192192 -0.48682693 0.049393799
-0.11937321 -0.48693815 0.049424034
-0.11952546 -0.4870514 0.049434677
-0.11967315 -0.48716453 0.049425729
-0.11981348 -0.48728529 0.049339559
-0.11994095 -0.48739356 0.049269613
-0.12009897 -0.48750329 0.049326353
-0.12024567 -0.48761648 0.0493128
-0.12039971 -0.48773009 0.049329195
-0.12055913 -0.48784798 0.049344394
-0.12068364 -0.48795989 0.04923987
-0.12082662 -0.48806909 0.049233258
-0.12097895 -0.48818278 0.049241595
-0.12112792 -0.4882963 0.049236108
-0.12127407 -0.48840964 0.049219102
-0.12141714 -0.48852658 0.049167514
-0.12155863 -0.48863581 0.049153991
-0.12170458 -0.48874921 0.049135834
-0.12186963 -0.488868 0.049170613
-0.12200835 -0.48898086 0.049123671
-0.12213863 -0.48909104 0.049054857
-0.12229255 -0.48920712 0.049056254
-0.12242624 -0.48931578 0.049011648
-0.12258877 -0.48943463 0.049034912
-0.12272628 -0.48954734 0.048983358
-0.12287668 -0.48965961 0.048991695
-0.12304486 -0.48977566 0.049056441
-0.12318283 -0.48989028 0.048995662
-0.12331546 -0.49000069 0.048936069
-0.12346523 -0.49011126 0.048951328
-0.12361731 -0.49022576 0.048953891
-0.12376453 -0.49033973 0.048938036
-0.12390184 -0.4904525 0.048885323
-0.12405349 -0.49056882 0.048875213
-0.12420082 -0.49068287 0.048859347
-0.1243712 -0.49079999 0.048927542
-0.12450895 -0.49091288 0.048875984
-0.12463532 -0.49102074 0.048803736
-0.12478447 -0.49113515 0.04879364
-0.12492727 -0.49124873 0.048760504
-0.12509741 -0.49136627 0.048825238
-0.1252439 -0.49148047 0.048804767
-0.12536316 -0.49159238 0.048677206
-0.12551993 -0.4917047 0.048713192
-0.12566684 -0.49181902 0.048693869
-0.12581478 -0.49193352 0.048678011
-0.12596326 -0.49204648 0.048673678
-0.12612104 -0.49216098 0.048701581
-0.12625962 -0.49227411 0.048652329
-0.12641749 -0.49239039 0.048669849
-0.1265424 -0.49250126 0.04857339
-0.12669572 -0.49261689 0.048574798
-0.12683667 -0.49273044 0.048533604
-0.12698326 -0.49284333 0.048521213
-0.12713206 -0.49295831 0.048506498
-0.12728557 -0.49307251 0.048517123
-0.12743464 -0.49318925 0.04849318
-0.12760414 -0.49330649 0.048556771
-0.12772828 -0.49341872 0.048448775
-0.1278884 -0.49353439 0.048480134
-0.12803246 -0.49364874 0.048448138
-0.12818143 -0.49376401 0.048432272
-0.12833285 -0.49387822 0.048433695
-0.12848553 -0.4939959 0.048420109
-0.12863684 -0.49411178 0.048411138
-0.12879741 -0.49422956 0.048432104
-0.12893368 -0.49434251 0.048373647
-0.12908059 -0.49445605 0.048358943
-0.12922508 -0.49457228 0.048317727
-0.12937139 -0.49468574 0.048300717
-0.12952782 -0.49480295 0.048306718
-0.12967391 -0.49491802 0.04827933
-0.12982149 -0.49503344 0.048256543
-0.12997204 -0.49514952 0.048242979
-0.13013363 -0.49526808 0.048263937
-0.13028841 -0.4953852 0.048263028
-0.13042273 -0.49549785 0.048197653
-0.13056688 -0.49561423 0.048154138
-0.13073668 -0.49573484 0.048199266
-0.13085331 -0.49584198 0.048087869
-0.13101937 -0.49596038 0.048129559
-0.13116933 -0.49607819 0.048103299
-0.13132735 -0.49619639 0.048110452
-0.13147056 -0.4963097 0.048080772
-0.13161483 -0.49642476 0.048045322
-0.13178326 -0.4965471 0.048074324
-0.13192272 -0.4966611 0.048023906
-0.1320897 -0.49678174 0.048056372
-0.13224038 -0.49689853 0.048039339
-0.132375 -0.49701142 0.047973961
-0.13252059 -0.49712554 0.047950037
-0.13267937 -0.49724588 0.047947951
-0.13281344 -0.49736011 0.047872197
-0.13301566 -0.49749151 0.047997862
-0.13313952 -0.49760178 0.047900259
-0.13328433 -0.49771586 0.047872882
-0.1334475 -0.49784052 0.047865003
-0.13360076 -0.4979569 0.0478618
-0.13375148 -0.49807408 0.047842458
-0.13388504 -0.4981854 0.047781706
-0.13406371 -0.4983086 0.047851
-0.13422106 -0.49843201 0.047824696
-0.13437489 -0.49854881 0.047821492
-0.13452438 -0.49867019 0.047772169
-0.13467281 -0.49878705 0.047744777
-0.13482124 -0.4989025 0.047725447
-0.13496608 -0.49901703 0.047695763
-0.1351133 -0.49912941 0.047689132
-0.13527983 -0.49925566 0.04768699
-0.13543037 -0.49937469 0.04765613
-0.13559569 -0.49949369 0.047690906
-0.13574937 -0.4996151 0.047660012
-0.13589683 -0.49973202 0.047628008
-0.13605233 -0.499854 0.047601715
-0.13621789 -0.49997476 0.04762727
-0.1363547 -0.50008732 0.04757341
-0.13649154 -0.50019991 0.047519557
-0.13665831 -0.50032538 0.047523189
-0.13680199 -0.50044274 0.047471598
-0.13699153 -0.50057495 0.04753622
-0.13712303 -0.50068885 0.047451261
-0.13727802 -0.5008083 0.04743766
-0.13744846 -0.50093645 0.04744127
-0.13757262 -0.50104952 0.047328673
-0.13773736 -0.50117201 0.047340386
-0.13788629 -0.50128037 0.047364879
-0.13802321 -0.50139326 0.047309875
-0.13818978 -0.50151515 0.047333118
-0.13837183 -0.50164193 0.047396623
-0.056483857 -0.43831411 0.055851161
-0.056652963 -0.4384397 0.055864006
-0.056832094 -0.43858138 0.055827182
-0.056996312 -0.43869677 0.055878125
-0.057184625 -0.43885344 0.055793963
-0.057364382 -0.43899399 0.055766366
-0.05754697 -0.43914202 0.055707619
-0.057724629 -0.43927962 0.055688113
-0.05789344 -0.43940577 0.055696342
-0.058069583 -0.43954125 0.055682607
-0.058236748 -0.43966499 0.055697776
-0.058412768 -0.43980056 0.05568289
-0.058583442 -0.43993029 0.05567842
-0.058756173 -0.44006357 0.055662405
-0.058885228 -0.44016141 0.055660497
-0.059105944 -0.44033495 0.055621121
-0.059281781 -0.44047391 0.055585481
-0.061314806 -0.44343475 0.047237262
-0.061464559 -0.44354492 0.047254831
-0.061612323 -0.44365457 0.047266651
-0.061790615 -0.44379678 0.047222912
-0.06195939 -0.44393688 0.047149248
-0.062115416 -0.4440583 0.047128722
-0.06228951 -0.44420245 0.047055021
-0.06245669 -0.44433782 0.047002122
-0.062621064 -0.44446576 0.046980396
-0.062787563 -0.4446004 0.046928652
-0.062949821 -0.44472793 0.046900008
-0.06310869 -0.44484973 0.046889845
-0.063295878 -0.44501263 0.046764161
-0.063450418 -0.44513017 0.046759795
-0.063618422 -0.44526574 0.046709199
-0.063778624 -0.44539368 0.046669029
-0.063951552 -0.44553262 0.046620715
-0.064117253 -0.44566783 0.046562064
-0.064278916 -0.44579607 0.046526507
-0.064447269 -0.44593057 0.04648399
-0.064614028 -0.44607151 0.046396494
-0.064770631 -0.44619435 0.046370186
-0.064933553 -0.44632277 0.04633924
-0.065092802 -0.44644466 0.046330225
-0.065266564 -0.4465903 0.046246137
-0.065428503 -0.44672075 0.04619905
-0.065591112 -0.4468495 0.046164636
-0.065760225 -0.44699696 0.046049438
-0.065915391 -0.4471187 0.046023145
-0.066055655 -0.44720614 0.046131898
-0.066217169 -0.4473272 0.046137866
-0.066376515 -0.44744423 0.046157688
-0.066526607 -0.44754699 0.046220243
-0.066682085 -0.44766995 0.046188183
-0.066833109 -0.44777125 0.046263419
-0.066979825 -0.44787422 0.046309844
-0.067129709 -0.44797996 0.046353944
-0.067291543 -0.44809887 0.046373751
-0.067426018 -0.44819158 0.046426017
-0.067574218 -0.4482941 0.046481661
-0.067730308 -0.44840178 0.046541873
-0.067880914 -0.44850907 0.046580203
-0.068016216 -0.44860339 0.046626698
-0.068169132 -0.44871536 0.046647705
-0.068317451 -0.44882169 0.046681434
-0.068477444 -0.44894099 0.046690874
-0.068620332 -0.44903633 0.046765
-0.06876196 -0.44913268 0.046827614
-0.068912566 -0.44924015 0.046864785
-0.069067165 -0.44935596 0.046870787
-0.069217265 -0.44945875 0.046933342
-0.069363803 -0.44956154 0.046979778
-0.069512092 -0.44966039 0.047057331
-0.069654629 -0.44976628 0.047068022
-0.069806233 -0.44987214 0.04711904
-0.069954172 -0.44997799 0.047153916
-0.070104666 -0.45008144 0.047214169
-0.070258215 -0.45019156 0.047249015
-0.070407376 -0.45029202 0.047320805
-0.070555091 -0.45038924 0.047405291
-0.07072033 -0.45050052 0.047485057
-0.070865273 -0.45059544 0.047570709
-0.074125975 -0.45196727 0.05397287
-0.074295208 -0.45211443 0.053859983
-0.074449696 -0.45222151 0.053916741
-0.074605584 -0.45233828 0.053922746
-0.074768968 -0.45247039 0.053872179
-0.074920312 -0.45257467 0.053931266
-0.075082764 -0.4527047 0.053888783
-0.0752443 -0.45283246 0.053855523
-0.075401351 -0.45294735 0.05387767
-0.075561613 -0.45307827 0.0538202
-0.07572367 -0.4532086 0.053774264
-0.075882405 -0.45333579 0.053731803
-0.076035582 -0.45343971 0.053801257
-0.076188967 -0.45355085 0.053829186
-0.076354228 -0.45369244 0.053731319
-0.07651373 -0.4538165 0.053710762
-0.076671101 -0.45393401 0.053719066
-0.076804146 -0.45403704 0.053704437
-0.076946497 -0.45414183 0.053720899
-0.077117272 -0.45429704 0.053567622
-0.077300683 -0.45442855 0.053609222
-0.077458106 -0.45454746 0.053609446
-0.07759577 -0.45466012 0.053559031
-0.077731766 -0.45475948 0.053578991
-0.07788793 -0.45486665 0.05364266
-0.078090459 -0.45504314 0.053505357
-0.078242436 -0.45515183 0.05354137
-0.078390911 -0.45524746 0.053638533
-0.078555509 -0.4553864 0.053553361
-0.078716494 -0.45552987 0.053425532
-0.078873418 -0.45564961 0.05341883
-0.079021715 -0.4557445 0.053519461
-0.07917852 -0.45586395 0.053513922
-0.079319417 -0.45597547 0.053484254
-0.079492204 -0.45611373 0.053439401
-0.079638429 -0.45621905 0.05346968
-0.079764873 -0.45630983 0.053497765
-0.079932511 -0.4564473 0.053434491
-0.080086224 -0.45657602 0.053360917
-0.080237553 -0.45668387 0.053399242
-0.080426767 -0.45683551 0.053348523
-0.080583781 -0.45697087 0.053250697
-0.080738746 -0.45708555 0.053264786
-0.080892466 -0.45720622 0.053238492
-0.081046268 -0.45731553 0.053279117
-0.08119829 -0.45742801 0.053293213
-0.081353053 -0.45754236 0.053308442
-0.081512794 -0.45768431 0.053184081
-0.081670351 -0.45781556 0.053112786
-0.08181987 -0.45791531 0.053190336
-0.081976444 -0.45804206 0.053140968
-0.082129374 -0.45816252 0.05311238
-0.082285538 -0.45828837 0.053066473
-0.082436554 -0.45839772 0.053094417
-0.082590945 -0.45851299 0.053102728
-0.082742356 -0.4586252 0.053115677
-0.082897417 -0.4587459 0.053095154
-0.083050296 -0.45886984 0.053045802
-0.083204769 -0.45898753 0.053040273
-0.083358377 -0.45909864 0.053069357
-0.083515324 -0.45923826 0.052946165
-0.083653174 -0.45934731 0.052917663
-0.08382035 -0.45946676 0.052958198
-0.083972678 -0.45959243 0.052896168
-0.084126495 -0.45970845 0.052897565
-0.084277987 -0.45982802 0.052867837
-0.084431946 -0.45994708 0.05285193
-0.084582187 -0.46005347 0.052893717
-0.084736466 -0.46017832 0.052845512
-0.084890909 -0.46030778 0.052770779
-0.085043713 -0.46041417 0.052824087
-0.085194543 -0.46053165 0.052803591
-0.085347898 -0.46064788 0.052801531
-0.085501552 -0.46077204 0.052754492
-0.085654631 -0.46088493 0.052770879
-0.085805275 -0.461007 0.052722696
-0.085958295 -0.46112141 0.052729867
-0.086108476 -0.4612321 0.052746281
-0.086261578 -0.46135506 0.052703854
-0.086414561 -0.46148047 0.052646428
-0.08656735 -0.46159273 0.05266514
-0.086717337 -0.46170643 0.052663099
-0.08687003 -0.46182492 0.052644894
-0.087000728 -0.46190768 0.052738711
-0.08716964 -0.46205619 0.052616592
-0.087324828 -0.46217814 0.052589141
-0.087477341 -0.46229199 0.052597478
-0.087621331 -0.46240431 0.052577011
-0.087748334 -0.46250984 0.052520897
-0.087908477 -0.4626393 0.0524715
-0.088074826 -0.46275946 0.05250397
-0.088232569 -0.46287826 0.052506503
-0.088384725 -0.46299303 0.052507907
-0.088528268 -0.46310499 0.052487448
-0.088684879 -0.46323472 0.05242078
-0.088831626 -0.46334201 0.052441824
-0.088977039 -0.46346208 0.052382141
-0.08911892 -0.46355864 0.052444745
-0.0892867 -0.46369132 0.052410301
-0.089440018 -0.46381778 0.052348256
-0.089586243 -0.46392784 0.052350856
-0.089743309 -0.46404728 0.052346472
-0.089894585 -0.46416411 0.052331731
-0.090026826 -0.46426439 0.052329797
-0.090182424 -0.46439177 0.052272353
-0.090331361 -0.46450272 0.052281857
-0.090482131 -0.46462074 0.052257895
-0.090640426 -0.46474841 0.052210826
-0.090781167 -0.4648681 0.052132703
-0.090933077 -0.46497872 0.05215719
-0.09109351 -0.46509442 0.052189693
-0.091227867 -0.46519765 0.052179664
-0.09136837 -0.46530202 0.052190367
-0.091531321 -0.46543458 0.052135192
-0.091690227 -0.46555641 0.052125029
-0.091834985 -0.4656693 0.052104563
-0.091982491 -0.46578386 0.052086394
-0.092135526 -0.46590224 0.052070495
-0.0922869 -0.46601442 0.052083436
-0.092430487 -0.46613038 0.052039914
-0.092580989 -0.46624523 0.05203326
-0.092713602 -0.46634126 0.052057847
-0.092860714 -0.46645594 0.052037366
-0.092997834 -0.46656954 0.051978882
-0.09316507 -0.46669531 0.051982511
-0.093317442 -0.46681395 0.051962007
-0.093452103 -0.46691388 0.051972743
-0.093611233 -0.46704239 0.051924512
-0.093755499 -0.46716318 0.051855598
-0.093888916 -0.4672659 0.051844433
-0.094051979 -0.46738338 0.051878072
-0.094193332 -0.46750158 0.051811486
-0.09434896 -0.46761107 0.051859017
-0.094508551 -0.46773678 0.051829234
-0.094655983 -0.46784854 0.051827215
-0.094801925 -0.46795544 0.051847108
-0.094928034 -0.4680495 0.051854435
-0.095065847 -0.46816579 0.05178326
