# .PCD v0.7 - Point Cloud Data file format
VERSION 0.7
FIELDS x y z
SIZE 4 4 4
TYPE F F F
COUNT 1 1 1
WIDTH 554
HEIGHT 1
VIEWPOINT 0 0 0 1 0 0 0
POINTS 554
DATA ascii
-0.27508813 -0.26857772 0.059726037
-0.27531004 -0.26858324 0.05953379
-0.27551708 -0.26856703 0.059511043
-0.27569166 -0.26853862 0.059600245
-0.27592078 -0.26854062 0.059428714
-0.27611637 -0.26851732 0.059465952
-0.27630737 -0.26849744 0.059481308
-0.27651554 -0.26848301 0.059444722
-0.27671278 -0.26846975 0.059407037
-0.27689943 -0.26844963 0.059427023
-0.27707204 -0.26843145 0.059442453
-0.27727985 -0.26842147 0.059373599
-0.27749491 -0.2684111 0.059302405
-0.27770814 -0.26839027 0.059309606
-0.27788755 -0.26836672 0.059359588
-0.27809593 -0.26834929 0.059344903
-0.27828932 -0.26833281 0.059333738
-0.27848974 -0.26831549 0.059323702
-0.27867693 -0.26830113 0.059301041
-0.27889675 -0.26828861 0.059242498
-0.2790927 -0.2682662 0.059272818
-0.2792747 -0.26825547 0.059227124
-0.27946594 -0.26823696 0.059232108
-0.27968064 -0.26821882 0.059218556
-0.27987304 -0.268217 0.059100192
-0.28005683 -0.26818913 0.059178978
-0.28026253 -0.2681748 0.059143558
-0.28044215 -0.26815674 0.059153199
-0.28068122 -0.26814619 0.059066921
-0.28087696 -0.26812398 0.059096094
-0.28105316 -0.2681067 0.059102297
-0.28125113 -0.26809874 0.059025403
-0.28143835 -0.26808655 0.0589866
-0.28164068 -0.26806295 0.059021514
-0.28182968 -0.2680423 0.059043791
-0.28202942 -0.26802629 0.059024535
-0.28224498 -0.2680054 0.059030566
-0.28242067 -0.26799384 0.058995269
-0.28260195 -0.26798534 0.058933444
-0.28281608 -0.26796252 0.058954462
-0.28303424 -0.26794639 0.058923606
-0.28319719 -0.26792046 0.05900247
-0.28341007 -0.26790842 0.058945127
-0.28359732 -0.26789832 0.058891334
-0.28377932 -0.26787233 0.058957446
-0.28397357 -0.26786157 0.058903627
-0.28417301 -0.2678467 0.058876306
-0.28438547 -0.26784256 0.058761328
-0.28454554 -0.26781768 0.058834437
-0.28475657 -0.26780409 0.058789779
-0.2849454 -0.26779148 0.058753274
-0.28513995 -0.26777548 0.058737494
-0.28533927 -0.26775387 0.05875973
-0.28552756 -0.26774067 0.058727849
-0.2857222 -0.26771697 0.058768541
-0.28591028 -0.26770362 0.058737807
-0.28614801 -0.26765868 0.058905125
-0.2863175 -0.26761866 0.0590831
-0.28651413 -0.26758015 0.059230987
-0.2866936 -0.26754439 0.059370883
-0.28687817 -0.26751125 0.059487708
-0.28707486 -0.26746997 0.059656344
-0.2872636 -0.2674261 0.059849221
-0.28745034 -0.26738569 0.060017899
-0.28763369 -0.26734501 0.060191214
-0.28782517 -0.26730514 0.060352951
-0.28801447 -0.2672686 0.060491659
-0.28820294 -0.26722836 0.060658023
-0.28839198 -0.26718855 0.06082093
-0.23752561 -0.27168709 0.062602118
-0.23776302 -0.27166966 0.062567756
-0.2380171 -0.27165535 0.062498733
-0.2382389 -0.27163386 0.062504768
-0.23846181 -0.27161273 0.062507346
-0.2386921 -0.27159375 0.062489152
-0.23891829 -0.27157217 0.062492862
-0.23913887 -0.27155063 0.06250006
-0.23938224 -0.27153561 0.062443763
-0.23960985 -0.27151623 0.062430181
-0.23984466 -0.27149746 0.062407352
-0.2400825 -0.27148125 0.062363759
-0.24033524 -0.27146786 0.062288977
-0.24055272 -0.27144599 0.062300801
-0.24078761 -0.27142766 0.062274508
-0.24101731 -0.27140951 0.06225054
-0.24122773 -0.27138579 0.06228083
-0.24146181 -0.27136913 0.062243015
-0.24170366 -0.2713533 0.06219364
-0.24192195 -0.27133214 0.062199704
-0.2421644 -0.27131674 0.062146865
-0.2423854 -0.27129656 0.06214368
-0.24261817 -0.27127844 0.062117398
-0.24282382 -0.27125373 0.062158082
-0.24304834 -0.27123326 0.062154893
-0.24329036 -0.27121994 0.062087074
-0.24351844 -0.27120242 0.062059663
-0.24373046 -0.27117991 0.062079571
-0.24397172 -0.2711651 0.062023282
-0.2441891 -0.27114448 0.062025879
-0.24442711 -0.27112886 0.061977677
-0.24464229 -0.2711094 0.061973363
-0.24486789 -0.27108833 0.061973624
-0.24508297 -0.27106732 0.061980844
-0.24530578 -0.27104887 0.061963819
-0.24553058 -0.27103117 0.061939869
-0.24575135 -0.27101055 0.061940156
-0.24598345 -0.2709955 0.061891977
-0.24621519 -0.27097872 0.061856471
-0.24644154 -0.27096197 0.061824448
-0.246656 -0.27093959 0.061842039
-0.24687973 -0.27092215 0.061816949
-0.24711081 -0.27090561 0.0617803
-0.24728058 -0.27089775 0.061721988
-0.24755159 -0.27087075 0.061734755
-0.24777514 -0.27085191 0.061720036
-0.24798499 -0.27082837 0.061749171
-0.24820417 -0.27080995 0.061734479
-0.24843206 -0.2707929 0.0617036
-0.2486494 -0.27077404 0.061693512
-0.24887854 -0.27075768 0.061656874
-0.24910274 -0.27074143 0.061622553
-0.24932066 -0.27072126 0.061621699
-0.24954164 -0.27070406 0.061596617
-0.24976853 -0.27068916 0.061550759
-0.24999377 -0.27067378 0.061509512
-0.25021154 -0.27065393 0.061506346
-0.25042957 -0.27063608 0.061488189
-0.25063697 -0.27061245 0.061519653
-0.25086495 -0.27059856 0.061465725
-0.25109425 -0.27058342 0.06141986
-0.25130057 -0.27056149 0.061439794
-0.25152317 -0.27054399 0.061415851
-0.25175041 -0.27053031 0.061360769
-0.25193194 -0.27049699 0.061481096
-0.25217336 -0.27048907 0.061374091
-0.25239891 -0.27047509 0.061322473
-0.25260404 -0.2704531 0.061343558
-0.25280595 -0.27042794 0.061390027
-0.25303942 -0.27041745 0.061307251
-0.25325248 -0.27039692 0.061312176
-0.25344864 -0.27037153 0.061364427
-0.2536808 -0.27035898 0.0612978
-0.25390378 -0.27034473 0.061249651
-0.25412884 -0.27032954 0.061207257
-0.25434268 -0.27031177 0.061191432
-0.25455594 -0.27029184 0.061191738
-0.2547828 -0.27027977 0.061125129
-0.25497794 -0.27025431 0.061178543
-0.25519857 -0.2702378 0.061148845
-0.25541779 -0.27022079 0.061123766
-0.25563264 -0.27020401 0.061099872
-0.25585467 -0.27018845 0.061062098
-0.25605315 -0.27016881 0.061070532
-0.25626495 -0.27014479 0.061101977
-0.25647646 -0.27012691 0.061088458
-0.25671828 -0.27012068 0.060968768
-0.25692269 -0.27009985 0.060981784
-0.25713173 -0.27007905 0.060991332
-0.25732484 -0.27007011 0.060924869
-0.25752994 -0.2700434 0.060980536
-0.25777683 -0.27002761 0.060927682
-0.25796714 -0.27001342 0.060901567
-0.25820738 -0.27001426 0.060731161
-0.2584241 -0.26997814 0.06084789
-0.25861406 -0.26995754 0.060869046
-0.25883704 -0.26993752 0.06086354
-0.25905189 -0.26992247 0.060826957
-0.25926036 -0.2699022 0.060833052
-0.25947458 -0.26988706 0.060797624
-0.2596857 -0.26986828 0.060791019
-0.25988916 -0.26984802 0.060800593
-0.26008534 -0.2698355 0.060758315
-0.26029602 -0.26982132 0.060718279
-0.26048747 -0.26979744 0.060762484
-0.26071811 -0.26978222 0.06071661
-0.26094639 -0.26976356 0.060697265
-0.26117462 -0.26975435 0.060608752
-0.26137358 -0.26973465 0.060617186
-0.26155373 -0.26971215 0.060659125
-0.26178557 -0.2696982 0.060602877
-0.26196986 -0.26967797 0.060625203
-0.26212755 -0.26965299 0.060700662
-0.26240307 -0.26965353 0.060508206
-0.26263249 -0.2696268 0.060547646
-0.26283783 -0.26960871 0.060539916
-0.26300311 -0.26958552 0.060596906
-0.26322871 -0.2695789 0.060491115
-0.26347092 -0.26955962 0.060467094
-0.26367354 -0.26954037 0.06046975
-0.26388785 -0.26952535 0.060433172
-0.26406962 -0.26950178 0.06048201
-0.26424006 -0.26948425 0.060494024
-0.26447484 -0.26946878 0.060446985
-0.26469615 -0.26944292 0.060485307
-0.26490399 -0.26942462 0.06047757
-0.26513103 -0.26942053 0.060352162
-0.26534766 -0.26940784 0.060297124
-0.26550952 -0.26939079 0.060311478
-0.26573658 -0.26937681 0.060258694
-0.26593262 -0.26935175 0.060308646
-0.26614597 -0.26933211 0.060306653
-0.26637015 -0.26931402 0.060286164
-0.26658559 -0.2693041 0.060211528
-0.26677993 -0.26927808 0.060269553
-0.26698351 -0.26926079 0.060257226
-0.26720518 -0.26925266 0.060165275
-0.2673859 -0.26922053 0.060277537
-0.26761669 -0.26921877 0.060132526
-0.26781386 -0.26920331 0.060110994
-0.26798928 -0.26918754 0.06010684
-0.26822895 -0.26916674 0.060095519
-0.26842645 -0.26915473 0.060048617
-0.26863497 -0.26913005 0.060086992
-0.26884145 -0.2691128 0.060072344
-0.26904783 -0.26909855 0.060035788
-0.26925617 -0.26908284 0.060008451
-0.26944512 -0.26906234 0.060029607
-0.26965579 -0.2690455 0.060009174
-0.26984474 -0.26902816 0.060007274
-0.27005959 -0.26901153 0.059982214
-0.27026594 -0.26899493 0.059962951
-0.27047122 -0.26897764 0.059949465
-0.27067235 -0.26896042 0.059938289
-0.27087566 -0.26894817 0.059889074
-0.27106339 -0.26893359 0.059867576
-0.27127093 -0.26892173 0.059812576
-0.27147508 -0.26889765 0.05984981
-0.27167088 -0.26888326 0.059821367
-0.27188534 -0.26886088 0.059838966
-0.2720944 -0.26884419 0.05981854
-0.27228254 -0.26883397 0.059764758
-0.27251229 -0.26882115 0.059701599
-0.27269852 -0.2687926 0.059783868
-0.27287939 -0.26878351 0.05972667
-0.2730611 -0.2687684 0.059713263
-0.27328855 -0.26875079 0.059687003
-0.27350548 -0.26873475 0.059656169
-0.27369356 -0.26871845 0.059647355
-0.27389413 -0.26870251 0.059626967
-0.27408996 -0.26868609 0.059613511
-0.27429473 -0.26867059 0.059587337
-0.27449611 -0.26865208 0.059585392
-0.27470061 -0.2686328 0.059586883
-0.27488557 -0.26861408 0.059597686
-0.27504846 -0.26859349 0.05963739
-0.27529404 -0.26858693 0.059517674
-0.27546117 -0.26855886 0.059609246
-0.2756747 -0.26854882 0.059536919
-0.27591789 -0.26853681 0.059458721
-0.27611524 -0.26852307 0.059424512
-0.27630207 -0.26850685 0.059415706
-0.27650619 -0.26848811 0.059413739
-0.27668935 -0.26846406 0.059464894
-0.27687785 -0.26845399 0.059409972
-0.27706575 -0.26844347 0.0593585
-0.27727258 -0.26843232 0.059298884
-0.27748618 -0.26840717 0.059337236
-0.27768683 -0.26838514 0.059361804
-0.27787119 -0.26837572 0.059304591
-0.27807266 -0.26835471 0.059321091
-0.2782889 -0.26834631 0.059234925
-0.27847555 -0.26832649 0.059252627
-0.27868253 -0.26830763 0.059249509
-0.27888054 -0.26828268 0.059297137
-0.27906662 -0.26827171 0.059250288
-0.27926606 -0.26825339 0.059248354
-0.27947292 -0.26823956 0.059208337
-0.27967617 -0.26822135 0.059202917
-0.27985787 -0.26820043 0.059232172
-0.28005779 -0.26819322 0.059148379
-0.28024423 -0.26817358 0.059164934
-0.2804524 -0.26816764 0.059066124
-0.28066573 -0.26813748 0.059141364
-0.28086385 -0.26812354 0.059108302
-0.28105307 -0.26810804 0.059092566
-0.28125623 -0.26809612 0.059041038
-0.28144556 -0.26806995 0.059103694
-0.28164402 -0.26805705 0.059062563
-0.28183803 -0.26804927 0.058986858
-0.28203294 -0.26803154 0.05898378
-0.28221992 -0.26800746 0.059032615
-0.28242901 -0.26800016 0.058943026
-0.28262207 -0.26797977 0.058960706
-0.28284189 -0.26795954 0.058958687
-0.28302169 -0.26794243 0.058961429
-0.28320506 -0.26792496 0.058964159
-0.28339612 -0.26790771 0.05895995
-0.28359666 -0.26790059 0.058875002
-0.28378603 -0.26788068 0.058891542
-0.28398627 -0.26786685 0.058856171
-0.28418034 -0.2678487 0.058856547
-0.28438902 -0.26782984 0.058852267
-0.28456339 -0.26782483 0.058769725
-0.28477991 -0.26780695 0.058752738
-0.28496626 -0.26779661 0.058701277
-0.28516552 -0.26777452 0.058726996
-0.28535393 -0.26775315 0.05875507
-0.2855432 -0.26773357 0.058769308
-0.28573003 -0.26771688 0.058763959
-0.28593644 -0.26769382 0.058791969
-0.28615522 -0.26765597 0.058920212
-0.28633872 -0.2676132 0.059108548
-0.28653979 -0.26757571 0.059246089
-0.28672323 -0.26753989 0.059383698
-0.28691596 -0.26749831 0.059556998
-0.28709096 -0.2674579 0.059733845
-0.28728768 -0.26741454 0.059917513
-0.28747243 -0.26737809 0.060058571
-0.28766674 -0.26733592 0.060235336
-0.28785467 -0.26729557 0.060402907
-0.28804195 -0.26725182 0.060595833
-0.28823611 -0.26721656 0.060721874
-0.23755723 -0.27168807 0.062573224
-0.23778765 -0.27166861 0.062558472
-0.2380375 -0.27165458 0.062490623
-0.23825318 -0.27162972 0.062525511
-0.23847899 -0.27160925 0.06252116
-0.23871177 -0.27159083 0.062497184
-0.23893461 -0.2715697 0.062499769
-0.23916139 -0.27154821 0.062502325
-0.23940761 -0.27153388 0.062439095
-0.23962767 -0.27151224 0.062447451
-0.23985957 -0.27149403 0.062422331
-0.24010603 -0.27147856 0.062367167
-0.24034472 -0.27146259 0.062321261
-0.24058062 -0.2714459 0.062282279
-0.2407995 -0.27142435 0.062290639
-0.24103734 -0.27140689 0.062256269
-0.24125257 -0.27138442 0.062273867
-0.24148384 -0.2713652 0.062256809
-0.24172878 -0.27135175 0.062187817
-0.24195141 -0.27133176 0.06218233
-0.24216586 -0.27130938 0.062199928
-0.24240601 -0.27129322 0.062154017
-0.24262287 -0.27127174 0.062163539
-0.24285537 -0.27125347 0.062138408
-0.24306521 -0.27122995 0.062167563
-0.24332877 -0.27122155 0.062048923
-0.2435405 -0.27119878 0.062071145
-0.24376251 -0.27117932 0.062062196
-0.24398814 -0.27116108 0.062041704
-0.24421874 -0.27114284 0.062017739
-0.24446282 -0.27113405 0.061915319
-0.24467626 -0.2711072 0.06196636
-0.24488279 -0.27108318 0.06200128
-0.2451162 -0.27106628 0.061965771
-0.24533184 -0.27104533 0.061971843
-0.24556585 -0.27102885 0.061932877
-0.24577591 -0.27100623 0.061955102
-0.24601385 -0.27099124 0.061902285
-0.24624634 -0.27097631 0.061852943
-0.24647775 -0.27095941 0.061818592
-0.2466889 -0.27093747 0.061835058
-0.2469032 -0.27091494 0.061853811
-0.24710006 -0.27090394 0.061799996
-0.24735975 -0.27090594 0.061607577
-0.24759564 -0.27086666 0.061734628
-0.24780172 -0.27084157 0.061777622
-0.24803598 -0.27082819 0.061715595
-0.24825063 -0.27080625 0.061729737
-0.24847554 -0.27078983 0.061696574
-0.24869405 -0.27076942 0.061696865
-0.24892925 -0.27075687 0.061627906
-0.24914871 -0.27073702 0.061623577
-0.2493678 -0.2707189 0.061606579
-0.24958895 -0.27069983 0.061595328
-0.24983168 -0.2706888 0.061510205
-0.2500442 -0.27066675 0.061526664
-0.25024891 -0.27064371 0.061555833
-0.25047296 -0.27062607 0.061531883
-0.25070316 -0.27061275 0.061472181
-0.25091904 -0.27059227 0.061474785
-0.2511318 -0.27057067 0.061487786
-0.25135532 -0.27055326 0.061462693
-0.25157103 -0.27053484 0.061450314
-0.25177845 -0.27051139 0.061480619
-0.25200197 -0.27049616 0.061439384
-0.25224626 -0.27048734 0.061336964
-0.25245091 -0.27046305 0.061375353
-0.25266737 -0.27044344 0.061371036
-0.25287655 -0.27042297 0.061378285
-0.25310501 -0.27040839 0.061328966
-0.25329438 -0.27037999 0.061407771
-0.25353056 -0.27036878 0.061328441
-0.25374475 -0.27035066 0.061314911
-0.25397348 -0.27033669 0.061260968
-0.25420099 -0.27032238 0.061210491
-0.25441658 -0.27030319 0.061203882
-0.25462997 -0.27028513 0.061190356
-0.25484884 -0.27026752 0.0611699
-0.25505826 -0.27024999 0.061155237
-0.25528273 -0.27023092 0.061141662
-0.25549236 -0.27021164 0.061139688
-0.25571376 -0.27019554 0.061106525
-0.25593343 -0.27018082 0.061064158
-0.25613585 -0.27015656 0.061103716
-0.25634724 -0.27013841 0.061092496
-0.25658011 -0.27012578 0.061025865
-0.25679484 -0.27010933 0.060999651
-0.25700229 -0.2700876 0.061017282
-0.25721839 -0.27008045 0.060921885
-0.25739771 -0.27006933 0.060880825
-0.25765029 -0.27003664 0.06094785
-0.25784802 -0.27001926 0.060940154
-0.2580744 -0.27002403 0.060750175
-0.25829288 -0.26998416 0.060893435
-0.25849265 -0.269968 0.060875356
-0.25871143 -0.26994568 0.060889482
-0.2589224 -0.26992849 0.060871355
-0.25913703 -0.26991096 0.060853217
-0.25934201 -0.26989102 0.060859323
-0.25956035 -0.2698755 0.06082388
-0.25977224 -0.26985916 0.060798824
-0.25997478 -0.2698473 0.060747288
-0.26019296 -0.2698321 0.060709536
-0.26037651 -0.2698063 0.06077338
-0.26059926 -0.26979131 0.060731001
-0.26082665 -0.26976961 0.060734719
-0.26105952 -0.26976249 0.060627725
-0.26126546 -0.26974151 0.060640745
-0.26145387 -0.26972547 0.060629621
-0.26166847 -0.26970449 0.060636848
-0.26186475 -0.26968566 0.060640685
-0.26201898 -0.26966101 0.060716175
-0.26227891 -0.26966473 0.060511075
-0.26251823 -0.26963344 0.060576998
-0.26272598 -0.26961637 0.060560048
-0.26289392 -0.26959202 0.060623948
-0.26310372 -0.26958609 0.060523964
-0.26336065 -0.26956731 0.060486056
-0.26356393 -0.26954564 0.060506012
-0.26377586 -0.26952899 0.060483262
-0.26397562 -0.26951298 0.060464025
-0.26413462 -0.2694962 0.060478393
-0.26434064 -0.26947382 0.060501799
-0.26458752 -0.26945502 0.060470838
-0.26475748 -0.26942939 0.060542807
-0.26502049 -0.26942307 0.060409173
-0.26523638 -0.26941216 0.060341455
-0.26541325 -0.26939875 0.060318846
-0.26562524 -0.26937786 0.060327243
-0.26584399 -0.2693612 0.060299858
-0.26603657 -0.26934445 0.06029103
-0.26626676 -0.26932171 0.060300499
-0.26647964 -0.26930982 0.060242005
-0.26667994 -0.26928735 0.060270041
-0.26687437 -0.26926383 0.060309634
-0.26710078 -0.26925838 0.060194597
-0.26728231 -0.26922932 0.06028381
-0.26751044 -0.26922262 0.060176838
-0.26771346 -0.26920789 0.060146064
-0.26789457 -0.26919284 0.06013266
-0.26812106 -0.26917422 0.060114469
-0.26834109 -0.26915994 0.060068641
-0.26853636 -0.26913744 0.060100161
-0.26874048 -0.26911822 0.060101651
-0.26893693 -0.26910552 0.060060531
-0.26915607 -0.26908818 0.060037754
-0.26935142 -0.26907197 0.060023151
-0.26956138 -0.26905125 0.060031548
-0.26976269 -0.26903653 0.060001928
-0.26995525 -0.26901853 0.06000232
-0.27015832 -0.26900223 0.059983067
-0.27037606 -0.26898143 0.059986822
-0.2705763 -0.26896316 0.059983727
-0.27079424 -0.26895538 0.059891783
-0.27098086 -0.26893964 0.059879526
-0.27117729 -0.26892522 0.05985108
-0.27138239 -0.2689015 0.059884861
-0.27157792 -0.26888654 0.059861023
-0.27177733 -0.26886821 0.05985909
-0.27200368 -0.26884848 0.059848972
-0.27221307 -0.2688385 0.059778962
-0.27242315 -0.26882595 0.059727408
-0.27260807 -0.26879594 0.059821226
-0.27280334 -0.26878491 0.059768565
-0.27298272 -0.26877785 0.059697531
-0.27320141 -0.26875931 0.05968399
-0.27341062 -0.26873615 0.05971083
-0.27361667 -0.26872098 0.059681188
-0.27381846 -0.26870215 0.059681553
-0.27401215 -0.26868701 0.059660032
-0.27422297 -0.26866922 0.059646517
-0.27442697 -0.26865265 0.05962842
-0.27462107 -0.2686345 0.059628807
-0.27480793 -0.26861718 0.059628073
-0.2749849 -0.26860583 0.059590481
-0.27521884 -0.26859152 0.059535369
-0.27538306 -0.26856422 0.059623495
-0.27560449 -0.26855358 0.059549987
-0.27583843 -0.26853582 0.059520241
-0.27604637 -0.26852426 0.059462927
-0.27625003 -0.26850852 0.059439056
-0.2764509 -0.26848599 0.059467092
-0.2766189 -0.26846224 0.059526384
-0.27682084 -0.2684575 0.05942297
-0.27700463 -0.26845068 0.059347313
-0.27721795 -0.26843327 0.059329167
-0.27741647 -0.26840845 0.059375662
-0.27762884 -0.26838577 0.059396729
-0.27783036 -0.26837307 0.059352115
-0.27802289 -0.2683593 0.059321389
-0.27824816 -0.26834267 0.05928937
-0.27843228 -0.26832861 0.059266739
-0.27863234 -0.26830566 0.059298232
-0.27883062 -0.26828524 0.059312437
-0.27903008 -0.26827586 0.059244774
-0.2792089 -0.26825568 0.059270591
-0.27942222 -0.26823968 0.059242085
-0.27962542 -0.26822084 0.05924128
-0.27979794 -0.26819766 0.059293628
-0.28002068 -0.26819429 0.059165932
-0.28020188 -0.26817748 0.059165213
-0.2804181 -0.26816624 0.05909979
-0.28062719 -0.26814026 0.059147403
-0.28081813 -0.26812649 0.059117813
-0.28101832 -0.26810968 0.059104342
-0.28122133 -0.2680915 0.059098937
-0.28140339 -0.2680597 0.059207745
-0.28160137 -0.26805675 0.059093975
-0.28180027 -0.26804993 0.059007876
-0.28200686 -0.2680319 0.058998987
-0.28219029 -0.26801363 0.059007488
-0.28239739 -0.2680026 0.058946714
-0.28259325 -0.26798007 0.058978226
-0.28280041 -0.26795709 0.059005082
-0.28299424 -0.26794368 0.05897088
-0.28318602 -0.26792702 0.058962047
-0.28338188 -0.2679109 0.058946289
-0.28357315 -0.26790026 0.058893654
-0.28377315 -0.26788518 0.058867499
-0.28397602 -0.26786858 0.058850557
-0.2841714 -0.26784527 0.058887839
-0.28436673 -0.26782891 0.058874384
-0.28455904 -0.26782882 0.058743339
-0.28477481 -0.26780128 0.058797825
-0.28496307 -0.26779407 0.058722146
-0.28516203 -0.26777059 0.058758251
-0.28534824 -0.26774377 0.058827855
-0.2855404 -0.26772955 0.058800574
-0.28573543 -0.26772186 0.058723718
-0.2859458 -0.26769012 0.058812808
-0.2861684 -0.26765141 0.058944523
-0.28633171 -0.2676132 0.059113372
-0.28654271 -0.26757166 0.059273951
-0.28673619 -0.2675319 0.059433457
-0.28692475 -0.26748803 0.059626404
-0.28710851 -0.26744995 0.05978018
-0.28730264 -0.26740855 0.059951209
-0.28748485 -0.2673744 0.060077317
-0.28768167 -0.2673274 0.060287531
-0.28787333 -0.26728576 0.060462028
-0.28806192 -0.26724473 0.060634233
-0.28825417 -0.26720211 0.060815644
