# .PCD v0.7 - Point Cloud Data file format
VERSION 0.7
FIELDS x y z
SIZE 4 4 4
TYPE F F F
COUNT 1 1 1
WIDTH 1298
HEIGHT 1
VIEWPOINT 0 0 0 1 0 0 0
POINTS 1298
DATA ascii
-0.077556461 -0.31434336 0.057285912
-0.077703141 -0.3144415 0.057252035
-0.077874899 -0.31454656 0.057274587
-0.078052573 -0.3146632 0.057247542
-0.078208216 -0.314767 0.057213627
-0.078370214 -0.31487063 0.057206221
-0.078524843 -0.31497124 0.057188459
-0.078691795 -0.31507564 0.057196036
-0.078853384 -0.31517223 0.057231318
-0.079018302 -0.31528154 0.057199687
-0.07917165 -0.31538647 0.05714963
-0.079324774 -0.31548429 0.057143413
-0.07951048 -0.31560346 0.057132479
-0.079683617 -0.31570828 0.057161957
-0.079844579 -0.31582299 0.057080742
-0.07998687 -0.31591946 0.057039946
-0.080150329 -0.31602234 0.057042919
-0.080306076 -0.31612569 0.057012472
-0.080469631 -0.31623194 0.056994684
-0.080632463 -0.31633517 0.056993045
-0.080788486 -0.31643832 0.056964897
-0.080955043 -0.31653988 0.056988627
-0.081112534 -0.3166489 0.056929342
-0.081271887 -0.31675047 0.056924254
-0.081424572 -0.31685498 0.056874201
-0.081585377 -0.31695914 0.05685873
-0.081754848 -0.31706604 0.056860529
-0.081928581 -0.31717122 0.056890007
-0.082078271 -0.31726742 0.05688034
-0.082241818 -0.31737679 0.056842942
-0.082399845 -0.31747901 0.056828629
-0.082562447 -0.31757641 0.056862749
-0.082719341 -0.31769127 0.056764245
-0.082868822 -0.31779358 0.056715351
-0.08302328 -0.31789702 0.056679141
-0.083186626 -0.31799728 0.056698259
-0.083361566 -0.31810248 0.056732353
-0.083513588 -0.31820676 0.056681141
-0.083678819 -0.31830952 0.056692194
-0.083837681 -0.31840858 0.056700949
-0.084004283 -0.31851676 0.056683149
-0.084161803 -0.31861922 0.05666538
-0.084327348 -0.3187249 0.056659125
-0.084488198 -0.31883201 0.056625195
-0.084648818 -0.31893915 0.056590114
-0.084808879 -0.31903806 0.056604631
-0.084980264 -0.31913939 0.056649104
-0.085141957 -0.31924906 0.056602493
-0.085302979 -0.31935886 0.056552418
-0.08546257 -0.31946349 0.056528881
-0.085627496 -0.31956679 0.056535304
-0.085794553 -0.31966957 0.056553274
-0.085975237 -0.31978777 0.056528505
-0.086131126 -0.31989339 0.056484219
-0.08628574 -0.319994 0.05646646
-0.086435489 -0.32008785 0.05647178
-0.086592048 -0.32019851 0.056398645
-0.086757205 -0.32029936 0.056421228
-0.086918987 -0.32039842 0.056441508
-0.087084115 -0.32050458 0.056430634
-0.087239884 -0.3206127 0.056370195
-0.08740963 -0.32071793 0.056383535
-0.087570623 -0.32082495 0.056350764
-0.087737679 -0.32093582 0.056317966
-0.087895557 -0.32103592 0.056316346
-0.088069931 -0.32114792 0.056305453
-0.088240325 -0.3212508 0.05633609
-0.088384047 -0.3213535 0.056261845
-0.088555619 -0.32146117 0.056267098
-0.088722728 -0.32157207 0.0562343
-0.088877626 -0.32167521 0.056201547
-0.089023404 -0.32177499 0.056153826
-0.089180604 -0.32187778 0.056132596
-0.089333355 -0.32197887 0.056104459
-0.08951205 -0.32208332 0.05615814
-0.089675263 -0.32218772 0.056150742
-0.089843556 -0.32229146 0.056167543
-0.090008497 -0.32239807 0.056153212
-0.090187781 -0.32251444 0.056134228
-0.09035033 -0.32261679 0.056137197
-0.090492666 -0.32271695 0.056073338
-0.090669081 -0.32282913 0.056069359
-0.090822704 -0.32293481 0.056015842
-0.09098877 -0.32304138 0.056006126
-0.091153085 -0.3231459 0.056002174
-0.091300294 -0.32324767 0.055947527
-0.091460563 -0.32334819 0.055952813
-0.09164001 -0.3234559 0.055989195
-0.091801241 -0.32356086 0.055970263
-0.091969922 -0.32366744 0.055970915
-0.092124268 -0.323773 0.055920858
-0.092296332 -0.32388374 0.055908814
-0.092457995 -0.32398659 0.05590488
-0.092613623 -0.32409206 0.055860586
-0.092772998 -0.32419512 0.05584627
-0.092945322 -0.32430381 0.055848062
-0.093106002 -0.32440898 0.055825673
-0.093268707 -0.32451618 0.055798657
-0.093434006 -0.32462114 0.055795863
-0.093596503 -0.3247284 0.0557677
-0.093762726 -0.32483339 0.055768359
-0.093916766 -0.32493895 0.055717152
-0.094076999 -0.32504219 0.055705141
-0.094254203 -0.32515106 0.055725381
-0.094413817 -0.32525849 0.055684537
-0.094569772 -0.32536194 0.055654079
-0.094748333 -0.3254669 0.055704299
-0.094916441 -0.32558024 0.055659972
-0.095076174 -0.32568169 0.055657193
-0.095243528 -0.32578909 0.05564747
-0.095401853 -0.32589662 0.055600859
-0.095567696 -0.32600009 0.055609602
-0.095729768 -0.32610762 0.055577971
-0.095894538 -0.32621318 0.055569418
-0.096031845 -0.3263188 0.055451356
-0.096204765 -0.32642436 0.055475064
-0.096390456 -0.326534 0.055524115
-0.096548125 -0.32663965 0.055486735
-0.096723199 -0.32674935 0.055493128
-0.096902542 -0.32685918 0.055515669
-0.097053066 -0.32696289 0.055462163
-0.097215749 -0.32707059 0.055431698
-0.097382165 -0.32717463 0.055439267
-0.09753859 -0.32728225 0.055384595
-0.097715609 -0.32739043 0.055408292
-0.097877845 -0.32749826 0.055375516
-0.098042153 -0.32760242 0.055373877
-0.098208152 -0.32771042 0.05535493
-0.09837012 -0.32781273 0.055355605
-0.098543413 -0.32792661 0.055328555
-0.098716751 -0.32803321 0.055347655
-0.098866448 -0.32814059 0.055267625
-0.099030867 -0.32824501 0.055264831
-0.099203475 -0.32835534 0.055257395
-0.099371873 -0.3284601 0.055268429
-0.099528052 -0.32856241 0.055246055
-0.099685967 -0.32867023 0.055195983
-0.099864468 -0.32878467 0.055186231
-0.10003452 -0.32888973 0.055201869
-0.10020169 -0.32900175 0.055162162
-0.10037996 -0.32910928 0.055195075
-0.10053758 -0.32921892 0.055132329
-0.10071287 -0.32932985 0.055131804
-0.10086044 -0.3294335 0.055066776
-0.10100912 -0.32953548 0.055016734
-0.10117777 -0.32964772 0.05498163
-0.10134417 -0.32975635 0.054960374
-0.10147154 -0.32985309 0.054858498
-0.10167201 -0.32996637 0.054943252
-0.10185391 -0.33007306 0.054995775
-0.10205129 -0.33019322 0.055025183
-0.10221631 -0.33030537 0.05497624
-0.10239273 -0.33041352 0.054997642
-0.10255031 -0.33051655 0.054976411
-0.10270245 -0.33061907 0.054936737
-0.10285223 -0.33072302 0.054878622
-0.10304445 -0.33083972 0.054909196
-0.10322045 -0.33094984 0.054916747
-0.10338259 -0.33105683 0.054888584
-0.10354301 -0.33116367 0.054854658
-0.10367708 -0.33126101 0.054775827
-0.10386227 -0.33137068 0.054822572
-0.10404329 -0.33148819 0.05480358
-0.10420761 -0.33159071 0.054812316
-0.10434751 -0.33169684 0.054701176
-0.10451777 -0.33179855 0.05473873
-0.10471699 -0.33191362 0.054807343
-0.10488476 -0.3320297 0.054744564
-0.10504334 -0.33213979 0.054682955
-0.10517843 -0.33223242 0.054637574
-0.10538058 -0.33235303 0.054683112
-0.10555273 -0.33246657 0.054653764
-0.10572596 -0.33257711 0.054647483
-0.10590033 -0.33268473 0.054664269
-0.10606436 -0.33279568 0.054618802
-0.10621694 -0.33289719 0.054587208
-0.10638962 -0.33300629 0.054587848
-0.1065549 -0.33312061 0.054526217
-0.10669971 -0.33321795 0.054490037
-0.10690359 -0.33334109 0.054526344
-0.1070664 -0.33345202 0.054476261
-0.10725114 -0.33356014 0.054531075
-0.10741522 -0.33366674 0.054513283
-0.10758553 -0.33377433 0.054513931
-0.10774658 -0.33387899 0.054496162
-0.1079333 -0.33399844 0.054487534
-0.10808942 -0.33410698 0.054425932
-0.10826054 -0.33421493 0.054427736
-0.10843164 -0.33431989 0.054447982
-0.10859606 -0.33443588 0.054372527
-0.10877792 -0.33454877 0.054385833
-0.10894045 -0.33465546 0.054361127
-0.10911953 -0.33477101 0.054346751
-0.10928316 -0.33488244 0.054296665
-0.10943929 -0.33497778 0.054318115
-0.10962199 -0.33509853 0.05428528
-0.10977041 -0.33519998 0.054237552
-0.10995686 -0.33531266 0.05427045
-0.11014189 -0.33542812 0.054280274
-0.1102962 -0.33553365 0.054230228
-0.11045256 -0.33564106 0.054176703
-0.11063315 -0.33575147 0.054200388
-0.11080398 -0.33586308 0.05417797
-0.11097294 -0.33597147 0.054168236
-0.1111809 -0.33609888 0.054194152
-0.11132675 -0.33620584 0.054101441
-0.11150371 -0.33631307 0.054130908
-0.11165785 -0.33641595 0.054096997
-0.11184926 -0.33653471 0.054111425
-0.1120197 -0.33664513 0.054094765
-0.11216936 -0.33674863 0.054038964
-0.11234142 -0.3368623 0.054008462
-0.11249989 -0.33696479 0.053994156
-0.11272381 -0.33709753 0.054050002
-0.11285575 -0.33719331 0.053972334
-0.11305187 -0.3373121 0.054005202
-0.11321744 -0.33742607 0.053947043
-0.11339075 -0.33753887 0.053926915
-0.11355703 -0.33764189 0.053940266
-0.11374226 -0.33776426 0.053907413
-0.11389917 -0.3378599 0.053930022
-0.11409599 -0.33797657 0.053979039
-0.11424627 -0.33809295 0.053844787
-0.11441898 -0.33820316 0.053838514
-0.11460815 -0.33832252 0.053840257
-0.0312507 -0.28946206 0.02958688
-0.031393982 -0.28954631 0.029626824
-0.031535611 -0.28962845 0.029673692
-0.031680241 -0.28971833 0.029683638
-0.0318214 -0.28980178 0.029720129
-0.031963151 -0.28988415 0.029765848
-0.032098927 -0.28996056 0.029825434
-0.032236572 -0.29003942 0.029876925
-0.032371838 -0.29011512 0.029938821
-0.032501228 -0.29017904 0.03005149
-0.032633081 -0.29024619 0.030153763
-0.032761324 -0.29031229 0.030247977
-0.032898046 -0.29038784 0.030316778
-0.03302671 -0.29045442 0.030409843
-0.033151407 -0.29051352 0.030534063
-0.033276521 -0.29057509 0.030644435
-0.033403803 -0.29063749 0.030758262
-0.033531439 -0.29070231 0.030858245
-0.033656277 -0.29076117 0.030984774
-0.033779342 -0.29081741 0.031120531
-0.033907481 -0.29088053 0.031233203
-0.03403879 -0.2909354 0.031410478
-0.03413612 -0.29096583 0.031606305
-0.034255512 -0.29102048 0.031737462
-0.034379508 -0.29107293 0.031900913
-0.034471538 -0.291078 0.032235198
-0.03457598 -0.29111952 0.032389477
-0.034688234 -0.29116103 0.032574877
-0.030132644 -0.28364828 0.06171672
-0.030328631 -0.28378186 0.06165614
-0.030507859 -0.28388831 0.061699443
-0.03070733 -0.2840274 0.061618075
-0.030880067 -0.28412735 0.06167639
-0.031069268 -0.28425169 0.061646976
-0.031265736 -0.2843841 0.061595615
-0.031450406 -0.28450209 0.061588146
-0.031637255 -0.28462344 0.061567955
-0.031828765 -0.28474906 0.061539687
-0.032021537 -0.28487673 0.061503343
-0.032206308 -0.2849955 0.061491244
-0.032397803 -0.28512165 0.061459512
-0.032576658 -0.28523174 0.061478585
-0.032762673 -0.28534982 0.06147572
-0.032935873 -0.28546053 0.061468273
-0.033130284 -0.28558266 0.061473452
-0.033319078 -0.28570858 0.061432503
-0.033514373 -0.2858417 0.061371915
-0.033699524 -0.28596234 0.061349429
-0.033892341 -0.2860921 0.061300401
-0.03407494 -0.28620911 0.061290614
-0.034263428 -0.28633246 0.061264664
-0.03443573 -0.28643343 0.061314903
-0.034616955 -0.28654867 0.061310891
-0.034805343 -0.28667229 0.061282627
-0.034989629 -0.28679278 0.06125785
-0.035173539 -0.28691283 0.061234213
-0.035364654 -0.28704149 0.061185189
-0.035543211 -0.28715321 0.061192721
-0.035726987 -0.28727025 0.06118755
-0.035912525 -0.28739372 0.061148912
-0.036094539 -0.28750819 0.061152976
-0.036276132 -0.28762549 0.061137434
-0.036463708 -0.28774953 0.061103404
-0.036653351 -0.28788075 0.061032459
-0.036836475 -0.28799772 0.061024979
-0.037017167 -0.28811428 0.061010592
-0.037195202 -0.28822294 0.061035424
-0.037373092 -0.28833497 0.061038353
-0.037555505 -0.28845134 0.061032027
-0.037732992 -0.28856292 0.061036106
-0.037917126 -0.28868258 0.061015937
-0.038101573 -0.28880665 0.06096923
-0.038286641 -0.28892836 0.060939826
-0.038465969 -0.28904387 0.060926594
-0.038650837 -0.28916565 0.060896032
-0.038824622 -0.28927159 0.06092089
-0.039011218 -0.28939682 0.060875334
-0.039192125 -0.28951591 0.060845949
-0.039372571 -0.28963047 0.060843088
-0.039542772 -0.28973818 0.060842577
-0.039704282 -0.28983399 0.060882457
-0.039908592 -0.2899732 0.060819548
-0.040090472 -0.29009107 0.060801692
-0.040266715 -0.29020259 0.060801156
-0.040473457 -0.29036772 0.060584791
-0.040635183 -0.29046056 0.060644299
-0.040810823 -0.29056329 0.060696829
-0.040978968 -0.29065996 0.060757469
-0.041169137 -0.290795 0.060664598
-0.041343868 -0.29090467 0.060669832
-0.04152314 -0.29101902 0.060663529
-0.041698769 -0.29113072 0.060659535
-0.041872106 -0.29123366 0.060701691
-0.04206365 -0.29137743 0.060559213
-0.042247243 -0.29150134 0.060510196
-0.042412534 -0.29159293 0.060591612
-0.042593911 -0.29171723 0.060531065
-0.042775035 -0.29184601 0.060441684
-0.042944904 -0.29193792 0.060539231
-0.043124825 -0.29206005 0.060486771
-0.043306753 -0.29218197 0.060443543
-0.043479949 -0.29229048 0.060449932
-0.043658234 -0.29240513 0.060437858
-0.043838851 -0.29252988 0.060371555
-0.04401242 -0.29263973 0.060371026
-0.04417488 -0.2927554 0.060289778
-0.044358902 -0.29286855 0.060309984
-0.044533547 -0.29296607 0.060391363
-0.044707906 -0.29307312 0.06041161
-0.044887118 -0.29319644 0.06034876
-0.045060761 -0.29330745 0.06034131
-0.045238025 -0.29342696 0.060294636
-0.04541786 -0.29354739 0.060252551
-0.045586899 -0.2936483 0.060290109
-0.045765273 -0.29376578 0.060260728
-0.045941353 -0.29388365 0.060219817
-0.046116114 -0.29399863 0.060191602
-0.046284799 -0.29409915 0.060230315
-0.046461813 -0.29421431 0.060210168
-0.046599485 -0.29427338 0.060386263
-0.046812192 -0.29444817 0.060132965
-0.046982486 -0.29455319 0.060149752
-0.047163349 -0.29467919 0.06007652
-0.047333818 -0.29478508 0.060088698
-0.047510289 -0.29490042 0.060065091
-0.047687188 -0.29502356 0.05999418
-0.047854654 -0.29512203 0.060040973
-0.048027568 -0.29523513 0.060017377
-0.048201844 -0.2953456 0.060015693
-0.048376579 -0.29546428 0.059964396
-0.048539784 -0.2955648 0.059981216
-0.048720282 -0.29568657 0.059933364
-0.048893064 -0.29579371 0.059946682
-0.049065392 -0.29590681 0.059920777
-0.049233049 -0.2960065 0.059960656
-0.049409322 -0.29613182 0.059873592
-0.049581561 -0.29623806 0.059890375
-0.049745694 -0.29632726 0.059982173
-0.049931496 -0.29648337 0.059739344
-0.050102234 -0.29658574 0.059774585
-0.050265543 -0.29668048 0.059828311
-0.050436534 -0.29678357 0.059860095
-0.050612904 -0.29690436 0.059801884
-0.050784096 -0.29701692 0.059774823
-0.050958302 -0.29713139 0.059747763
-0.051123019 -0.29724005 0.059719577
-0.051298175 -0.2973496 0.059727117
-0.051454537 -0.29744747 0.05973357
-0.051641122 -0.29757068 0.059700705
-0.051812738 -0.29768699 0.059651725
-0.051985022 -0.29779658 0.05964775
-0.052153304 -0.29790106 0.059659924
-0.052313562 -0.29800504 0.059643295
-0.052494824 -0.29813021 0.059576981
-0.052654199 -0.29823145 0.059574191
-0.052835405 -0.2983467 0.059570178
-0.05300742 -0.29845703 0.059560433
-0.053176183 -0.29856512 0.059551843
-0.0533465 -0.29868042 0.059504025
-0.053514868 -0.29878753 0.059500054
-0.053687014 -0.29889995 0.059477616
-0.0538496 -0.29899296 0.059539422
-0.054015197 -0.29911372 0.059438549
-0.054181091 -0.29922348 0.059408054
-0.054341976 -0.29932201 0.059428327
-0.054530662 -0.29943737 0.059453141
-0.054678258 -0.29953849 0.059404232
-0.054855734 -0.29965338 0.059387542
-0.055016078 -0.29976568 0.059319001
-0.055203069 -0.29988915 0.059286121
-0.055378698 -0.29999462 0.059321351
-0.055545934 -0.30009991 0.059324309
-0.055717617 -0.30021665 0.059273034
-0.055878274 -0.3003163 0.059285238
-0.056054741 -0.30042833 0.059282392
-0.056219105 -0.30053511 0.059264593
-0.056376893 -0.30063552 0.059260648
-0.056540869 -0.30074021 0.059254386
-0.056726865 -0.3008627 0.059223823
-0.056882396 -0.30097067 0.059163362
-0.057064369 -0.30108455 0.059170887
-0.0572313 -0.30119315 0.059151918
-0.057397816 -0.30129796 0.059154879
-0.057564266 -0.30140239 0.059160143
-0.057715911 -0.30150571 0.05911354
-0.057878513 -0.3015987 0.059175346
-0.05802707 -0.30170244 0.059113748
-0.058209706 -0.30183417 0.059011668
-0.058391023 -0.30194488 0.059036501
-0.058541715 -0.30203915 0.059042968
-0.058712997 -0.30212116 0.059208579
-0.058864802 -0.3022497 0.059003916
-0.059064653 -0.3023802 0.058977932
-0.059236735 -0.30249295 0.058953188
-0.059396379 -0.30259034 0.058975779
-0.059568308 -0.30270702 0.058925647
-0.059737142 -0.30280453 0.058983974
-0.059899706 -0.30291402 0.058941942
-0.060052987 -0.30301541 0.058913793
-0.06020597 -0.30312416 0.058838341
-0.060401838 -0.30325437 0.058798522
-0.060561761 -0.30333924 0.058900721
-0.0607065 -0.30341545 0.058997184
-0.060898535 -0.30355588 0.058877774
-0.061065953 -0.30367741 0.058779202
-0.061234251 -0.30378339 0.05878216
-0.061402544 -0.30388898 0.058787413
-0.061576635 -0.30400172 0.058770731
-0.06172701 -0.30409047 0.058810659
-0.061869677 -0.30419138 0.058743317
-0.062041678 -0.30429164 0.058797017
-0.062192895 -0.30440164 0.05870657
-0.062378172 -0.30452713 0.058654092
-0.062554851 -0.30464152 0.058637414
-0.062738292 -0.3047547 0.058655314
-0.062894106 -0.30485165 0.058665223
-0.063048512 -0.30495727 0.058615144
-0.063226745 -0.30508068 0.058547698
-0.0633903 -0.30517137 0.058627959
-0.063536607 -0.30526397 0.058627512
-0.06370265 -0.30537802 0.058570478
-0.063856065 -0.30548576 0.058503103
-0.064039417 -0.30561408 0.058425255
-0.064213201 -0.30572206 0.058437414
-0.064381503 -0.30582362 0.058468055
-0.064531282 -0.30591494 0.058489524
-0.064692721 -0.30603012 0.058407113
-0.064874455 -0.30613449 0.058473486
-0.065023199 -0.30622974 0.05846611
-0.065187305 -0.30634663 0.058383703
-0.065352201 -0.30645996 0.058326669
-0.065544032 -0.30656725 0.058414925
-0.065708444 -0.30668157 0.058349818
-0.065871075 -0.30677807 0.058389708
-0.066023067 -0.30687371 0.0583927
-0.066182248 -0.30699152 0.058284935
-0.066356517 -0.30710769 0.058247484
-0.066523761 -0.30721205 0.058256213
-0.066710442 -0.3073346 0.058227956
-0.066867135 -0.30741727 0.058331318
-0.067024007 -0.30751929 0.058313526
-0.067180552 -0.3076314 0.058231145
-0.067366645 -0.30775467 0.058195971
-0.067528404 -0.30786255 0.058160871
-0.067687556 -0.30794969 0.058245763
-0.067830905 -0.3080551 0.058153033
-0.068019517 -0.30818051 0.058114395
-0.06818904 -0.30827954 0.058165792
-0.068359248 -0.30839369 0.058124892
-0.068518363 -0.30849788 0.0581025
-0.068696357 -0.30861199 0.058092728
-0.068850033 -0.3087109 0.05808188
-0.069007225 -0.30881074 0.058079094
-0.069160514 -0.30891767 0.058016334
-0.069338277 -0.30902448 0.058051556
-0.069495477 -0.30913129 0.058004938
-0.069648817 -0.30923036 0.05799178
-0.069836318 -0.30935583 0.057948526
-0.070007592 -0.30945963 0.057976849
-0.070158146 -0.30955619 0.057968318
-0.070313886 -0.30965129 0.057989769
-0.070466645 -0.3097575 0.057929315
-0.070632301 -0.30986986 0.057881512
-0.070806131 -0.30998904 0.057823297
-0.070984431 -0.31010151 0.057825062
-0.071142428 -0.3101995 0.057837278
-0.071322493 -0.31030959 0.057860956
-0.071488909 -0.31042024 0.057827
-0.071624972 -0.31051186 0.057791974
-0.071775638 -0.31060189 0.05782498
-0.071967818 -0.3107312 0.057775941
-0.072126999 -0.31083342 0.057766221
-0.072300479 -0.31095165 0.057712629
-0.072459683 -0.31104818 0.057738688
-0.072631434 -0.31116274 0.057701249
-0.072795168 -0.3112649 0.057709977
-0.072941244 -0.31135517 0.057723384
-0.073106468 -0.311461 0.057714812
-0.073258191 -0.31155556 0.057723574
-0.073421136 -0.31166384 0.057690777
-0.073584557 -0.31177148 0.057663754
-0.073749401 -0.31188753 0.057589415
-0.073917158 -0.31199059 0.057608522
-0.074095547 -0.31210276 0.057612598
-0.074258469 -0.31221539 0.057552114
-0.074424528 -0.31232011 0.057553917
-0.074579395 -0.31241173 0.057593826
-0.074739717 -0.31252182 0.057539113
-0.074902229 -0.31263897 0.057448633
-0.075063899 -0.31273833 0.057466604
-0.075237297 -0.31284571 0.057481077
-0.075398326 -0.31294578 0.057492122
-0.075550489 -0.31304887 0.057448979
-0.075732209 -0.31317139 0.057401128
-0.075898796 -0.31327131 0.057435237
-0.076044075 -0.31336674 0.057412874
-0.076222345 -0.31348324 0.057389259
-0.076380022 -0.31358173 0.057396859
-0.07653366 -0.31367916 0.057395235
-0.076690368 -0.3137908 0.057316314
-0.076863386 -0.31389865 0.057326175
-0.077010132 -0.31398878 0.057343032
-0.077177465 -0.31409669 0.057329841
-0.077340603 -0.31420746 0.057282038
-0.077505603 -0.31432474 0.057200782
-0.077664636 -0.31443015 0.057170305
-0.077834651 -0.31453225 0.057204403
-0.078006074 -0.31463358 0.057248875
-0.078152768 -0.31473157 0.05721613
-0.078321181 -0.31483868 0.057212152
-0.078498848 -0.31495517 0.057186235
-0.078656703 -0.31505379 0.057193838
-0.078809313 -0.31515551 0.057161074
-0.07897336 -0.31526151 0.057146735
-0.079138733 -0.31535959 0.057187766
-0.079312809 -0.315478 0.057135317
-0.079474516 -0.31558532 0.057103679
-0.079637103 -0.31568858 0.057100877
-0.079800978 -0.31579468 0.057085391
-0.079971656 -0.31590763 0.057053722
-0.080129683 -0.31600636 0.057061318
-0.0802854 -0.31610969 0.057030853
-0.080466598 -0.31621408 0.057094902
-0.080621772 -0.31632441 0.057018295
-0.080772728 -0.31642324 0.056997065
-0.080933385 -0.31653407 0.056938898
-0.081099533 -0.31664234 0.056918781
-0.081261672 -0.31674588 0.056912526
-0.081431054 -0.31684631 0.056954697
-0.081598714 -0.31695718 0.056924194
-0.081760176 -0.31706741 0.056872949
-0.081915841 -0.31717053 0.056843631
-0.082087599 -0.31727025 0.056899641
-0.08224047 -0.31736827 0.056891102
-0.082394511 -0.31747511 0.056831796
-0.082568817 -0.31758946 0.056805886
-0.082710013 -0.31769183 0.05672355
-0.082881115 -0.31779519 0.056754176
-0.083044566 -0.31790137 0.056736376
-0.083203144 -0.31800634 0.056707054
-0.083370708 -0.31811109 0.05671462
-0.083528697 -0.31821328 0.056700297
-0.083699711 -0.31832865 0.056654789
-0.08385887 -0.31842756 0.056665841
-0.084023379 -0.31853056 0.056672268
-0.084194727 -0.31864581 0.056629058
-0.084354222 -0.31874472 0.056641269
-0.084517397 -0.31884542 0.056656927
-0.084678531 -0.31895804 0.056589521
-0.084842287 -0.319067 0.056555577
-0.085002974 -0.31917125 0.056538936
-0.085162453 -0.31927037 0.056549985
-0.085328661 -0.3193759 0.056547176
-0.085496709 -0.31948373 0.056537442
-0.085656248 -0.31958836 0.056513876
-0.085816979 -0.31968734 0.056530703
-0.085978247 -0.31979692 0.056482915
-0.086136326 -0.31990191 0.056451283
-0.086303413 -0.32001007 0.056435775
-0.086472027 -0.32010999 0.056477956
-0.086632073 -0.32021457 0.056456707
-0.086796656 -0.32032076 0.056443516
-0.086977765 -0.32043886 0.056421045
-0.087124154 -0.32054123 0.056359462
-0.08729507 -0.32064867 0.05636356
-0.087457962 -0.32075524 0.056341141
-0.087611578 -0.32085356 0.05633375
-0.087774932 -0.32096004 0.056313641
-0.087924287 -0.32106668 0.056237053
-0.088068463 -0.32116672 0.056181237
-0.088235192 -0.32126766 0.056209572
-0.088419057 -0.32137799 0.056247089
-0.088590294 -0.32148322 0.056266185
-0.088764302 -0.32159537 0.056252964
-0.088927358 -0.32170206 0.056230549
-0.089095369 -0.32181516 0.056187358
-0.089240618 -0.3219102 0.056167305
-0.089397147 -0.32201076 0.056157604
-0.089574285 -0.32212725 0.056129377
-0.08973749 -0.32222927 0.056136958
-0.089897424 -0.32233176 0.056128398
-0.090073623 -0.32243687 0.056168247
-0.090229131 -0.32254463 0.056108937
-0.090389073 -0.32264951 0.056085378
-0.090549849 -0.32276118 0.056022592
-0.090717107 -0.32286978 0.056004785
-0.090871274 -0.32296625 0.05601123
-0.091040365 -0.32307473 0.056001492
-0.091211006 -0.32318309 0.055998661
-0.091379911 -0.32328945 0.056001619
-0.091531388 -0.32339302 0.055952705
-0.091727376 -0.32350147 0.05605017
-0.091872007 -0.32361224 0.055928599
-0.092024729 -0.32371569 0.055885453
-0.092185959 -0.32381845 0.055880349
-0.092354663 -0.32392505 0.055880986
-0.092506416 -0.32402641 0.055847071
-0.09269648 -0.32413167 0.055941097
-0.092851318 -0.32424358 0.05585295
-0.093010716 -0.32434666 0.055838622
-0.093181759 -0.32445547 0.05583464
-0.093343243 -0.32456061 0.055815697
-0.093507193 -0.32466564 0.055807129
-0.093668148 -0.32477504 0.055759341
-0.093832254 -0.32488218 0.055738069
-0.093991674 -0.32498747 0.055709906
-0.09416955 -0.32509419 0.055746276
-0.094323285 -0.32519975 0.055693902
-0.094467834 -0.32530552 0.055603474
-0.094647363 -0.32541439 0.055632927
-0.094819777 -0.32552147 0.055645097
-0.094982184 -0.32562885 0.055615764
-0.095155314 -0.32573804 0.055617545
-0.095326513 -0.32584932 0.055598564
-0.095469497 -0.32595101 0.055527762
-0.095608242 -0.32604873 0.055465039
-0.095807157 -0.32615793 0.055569425
-0.095974229 -0.32626936 0.055533148
-0.096140563 -0.32637295 0.055543028
-0.096311502 -0.32648444 0.055521749
-0.096478045 -0.32659206 0.055507399
-0.096641555 -0.32669774 0.05549306
-0.096807763 -0.32680732 0.055464868
-0.096963346 -0.32691294 0.055419404
-0.097125672 -0.32701677 0.055411987
-0.097305477 -0.32712671 0.055435665
-0.097470656 -0.32723638 0.055402867
-0.09762723 -0.32734209 0.055360861
-0.097791635 -0.32744613 0.055360369
-0.097970285 -0.32755443 0.055389822
-0.098140821 -0.32766256 0.055388149
-0.098311141 -0.32777071 0.055385318
-0.098439738 -0.32787171 0.055261493
-0.098628432 -0.32798436 0.055303603
-0.098727189 -0.32808205 0.055081796
-0.098959923 -0.3281914 0.055319909
-0.099118538 -0.32830644 0.055227131
-0.099291727 -0.32841679 0.055221993
-0.099480659 -0.32853526 0.055228338
-0.099662207 -0.32864979 0.055230096
-0.09981209 -0.32874995 0.055196188
-0.099983357 -0.32885507 0.055216432
-0.10013722 -0.3289662 0.055129439
-0.10029364 -0.32906684 0.055118583
-0.10045946 -0.32916993 0.055129625
-0.10064927 -0.32928714 0.055147506
-0.10081143 -0.32939711 0.055100862
-0.10098467 -0.3295027 0.055125721
-0.1011512 -0.32961655 0.055072147
-0.10130848 -0.32971406 0.055084363
-0.10149403 -0.32983297 0.055074573
-0.10165584 -0.32994473 0.05501524
-0.10180026 -0.33004126 0.054982498
-0.10196967 -0.33014518 0.05500276
-0.10215428 -0.33025905 0.055020656
-0.10232969 -0.33036879 0.0550282
-0.10246731 -0.33046818 0.054950483
-0.10264127 -0.33058122 0.054931503
-0.10280766 -0.33069184 0.054897539
-0.10298443 -0.33080024 0.05491893
-0.10316424 -0.33091566 0.054908
-0.10332105 -0.33102372 0.054852143
-0.10347433 -0.33112147 0.054847065
-0.10367443 -0.3312459 0.054860309
-0.1038053 -0.33134121 0.054781459
-0.10399653 -0.33145654 0.054816645
-0.10416593 -0.33156776 0.05479075
-0.10432012 -0.33167398 0.054736063
-0.10448387 -0.33177486 0.054752871
-0.1046134 -0.33187482 0.05463941
-0.10484358 -0.33198896 0.054837145
-0.10500827 -0.33210784 0.054744359
-0.10517268 -0.33221868 0.054701172
-0.10532892 -0.33232528 0.054652248
-0.10545973 -0.33242053 0.054573402
-0.10569097 -0.33254358 0.054719217
-0.10583869 -0.33264753 0.054653011
-0.10602184 -0.33276582 0.054637454
-0.10617892 -0.33287421 0.05458045
-0.10634793 -0.33297807 0.05459955
-0.10653457 -0.33309546 0.054603603
-0.10669424 -0.33320275 0.054563887
-0.10684526 -0.33330876 0.05449767
-0.10702641 -0.33342084 0.054513276
-0.10720377 -0.3335309 0.054526582
-0.10738904 -0.33365145 0.054505251
-0.10754505 -0.33375221 0.054492094
-0.10770755 -0.33385706 0.054478906
-0.10787353 -0.33397165 0.054418415
-0.10806125 -0.33408365 0.054460533
-0.10822152 -0.33419132 0.054420825
-0.10840073 -0.3342976 0.054465272
-0.10856856 -0.33440509 0.054456692
-0.10873383 -0.33452272 0.054374274
-0.10891549 -0.3346386 0.054367959
-0.10906231 -0.33473518 0.054344442
-0.10924389 -0.33485413 0.05431851
-0.1094203 -0.33496928 0.054296054
-0.10958187 -0.33507445 0.054277103
-0.10975805 -0.33518669 0.054271955
-0.10994285 -0.33530349 0.054272555
-0.11009096 -0.3354049 0.054223653
-0.11026384 -0.33551523 0.054217357
-0.11044382 -0.33562547 0.054239884
-0.1106267 -0.33574361 0.054224327
-0.11077505 -0.3358452 0.054175429
-0.11097555 -0.33596385 0.054226734
-0.11111934 -0.33606896 0.054137468
-0.11130991 -0.33618441 0.054169197
-0.11147598 -0.33629814 0.054114465
-0.11164659 -0.33640704 0.054108184
-0.1118243 -0.33652022 0.054103032
-0.11198613 -0.33663034 0.054054081
-0.11218223 -0.33674732 0.054098483
-0.11234154 -0.33685419 0.054059926
-0.11253008 -0.33696416 0.054118197
-0.11269787 -0.33708411 0.054031163
-0.11287238 -0.33719841 0.054006405
-0.11301506 -0.33729219 0.053984057
-0.1132015 -0.33741182 0.053973109
-0.11334944 -0.33751094 0.05393805
-0.11355454 -0.33764297 0.053923588
-0.11372407 -0.33775228 0.053910382
-0.11390438 -0.33785978 0.053951368
-0.11407422 -0.33797204 0.053920854
-0.11425383 -0.33809745 0.053846471
-0.11441655 -0.33820686 0.053805608
-0.11458452 -0.3383106 0.053821243
-0.031320404 -0.28952795 0.029449716
-0.031474255 -0.28962806 0.029431935
-0.031623535 -0.28972417 0.029421097
-0.031777829 -0.28982514 0.029399857
-0.031929009 -0.28992212 0.029391315
-0.032079857 -0.29001683 0.029395461
-0.032224808 -0.29010767 0.029400785
-0.032372646 -0.2902005 0.029404949
-0.032523226 -0.29029709 0.029396407
-0.032671217 -0.29038835 0.029410951
-0.032808952 -0.29046983 0.029446295
-0.032947335 -0.29055026 0.029490864
-0.033091322 -0.29063827 0.029510029
-0.033231158 -0.29072073 0.029547675
-0.033367921 -0.29079902 0.029599167
-0.033501413 -0.29087287 0.029665668
-0.033634435 -0.29094404 0.029747169
-0.033770751 -0.29101968 0.029813662
-0.033903621 -0.2910926 0.029883625
-0.034031667 -0.29115677 0.029989369
-0.034156132 -0.29121792 0.030099742
-0.034284618 -0.29128459 0.030191647
-0.034412712 -0.29135063 0.030285852
-0.034541838 -0.29141381 0.030401971
-0.034667432 -0.29147828 0.030496191
-0.034793869 -0.29153958 0.030613471
-0.034916781 -0.29159793 0.030735387
-0.035043616 -0.29166171 0.030838825
-0.035165466 -0.2917183 0.030967664
-0.035295516 -0.29178208 0.031083781
-0.035398662 -0.29180941 0.031322274
-0.03551662 -0.29186425 0.031446517
-0.035637517 -0.29191875 0.031584576
-0.035870314 -0.29199845 0.032009572
-0.035963308 -0.29201841 0.032253861
-0.031823788 -0.28474677 0.061534218
-0.032009803 -0.28486726 0.061516345
-0.032195203 -0.28498697 0.061500773
-0.03239223 -0.28512451 0.061419412
-0.032558706 -0.28521574 0.061507735
-0.032752402 -0.28534859 0.061442532
-0.032931007 -0.28545851 0.061461598
-0.033124611 -0.28559169 0.061394084
-0.033295125 -0.28568932 0.061458167
-0.033494245 -0.28583148 0.06135603
-0.033680368 -0.2859537 0.06132777
-0.033828687 -0.28603876 0.061382689
-0.034034211 -0.286176 0.061337058
-0.034222707 -0.28630242 0.06129149
-0.034406532 -0.28641528 0.061312847
-0.034588147 -0.28653115 0.061306514
-0.034781523 -0.28666601 0.061227474
-0.03496125 -0.2867792 0.061230376
-0.03514104 -0.28689262 0.061232127
-0.035322562 -0.28700897 0.061222345
-0.035511266 -0.28713721 0.061166387
-0.035694432 -0.2872566 0.061143901
-0.035877667 -0.28737295 0.061141036
-0.036055993 -0.28748471 0.061147407
-0.036236007 -0.28759935 0.061142243
-0.036409773 -0.28771061 0.061133631
-0.036594376 -0.28782636 0.061139986
-0.03677465 -0.28795585 0.061042517
-0.036968291 -0.28808025 0.061030392
-0.037140317 -0.28818214 0.061073702
-0.037326414 -0.28830817 0.061021209
-0.037506379 -0.2884239 0.061009124
-0.037687704 -0.28854215 0.060986642
-0.037864197 -0.28865221 0.06099648
-0.038044557 -0.2887691 0.060978629
-0.03822621 -0.28888845 0.060950376
-0.038414538 -0.2890161 0.060896724
-0.038587943 -0.28912124 0.060925037
-0.038772587 -0.28924656 0.0608714
-0.0389098 -0.28932127 0.060947116
-0.039098412 -0.28946945 0.060765412
-0.039310798 -0.28959945 0.060792446
-0.039479945 -0.28970137 0.060824223
-0.039666325 -0.28982317 0.060799431
-0.039846893 -0.28994241 0.060767721
-0.040026829 -0.2900607 0.060739476
-0.040196359 -0.29015973 0.060790874
-0.040386021 -0.29029664 0.060684159
-0.04054217 -0.29039106 0.060711365
-0.040731624 -0.2905117 0.060706172
-0.040913858 -0.29062703 0.060705606
-0.041094288 -0.29074746 0.060665831
-0.041271992 -0.29086286 0.060646817
-0.041447747 -0.29097465 0.060642812
-0.041628879 -0.29109716 0.060592644
-0.041785534 -0.2912108 0.060501024
-0.041986309 -0.29133347 0.060528107
-0.042157229 -0.29143631 0.060561027
-0.04232996 -0.29155189 0.060521275
-0.042510476 -0.29166538 0.060525335
-0.042689219 -0.29178455 0.060486712
-0.04286572 -0.29189938 0.060466558
-0.043045677 -0.29201695 0.060442932
-0.043220133 -0.29212791 0.060438931
-0.043393359 -0.29223645 0.060445316
-0.043565519 -0.29234284 0.06046094
-0.043742113 -0.29245883 0.060433865
-0.043919627 -0.29257703 0.060396399
-0.044093631 -0.29268789 0.060391247
-0.044270813 -0.29280591 0.060353793
-0.044440668 -0.29291302 0.060355574
-0.044621095 -0.29303363 0.060314637
-0.044801556 -0.29315463 0.060271401
-0.044956546 -0.29326007 0.060224779
-0.045109183 -0.29333392 0.060367368
-0.045268953 -0.29345596 0.060235351
-0.045456544 -0.29355669 0.06034784
-0.045665756 -0.29370248 0.060262971
-0.045841157 -0.29381862 0.060230128
-0.046001408 -0.29389879 0.060363468
-0.046188906 -0.29404441 0.060193293
-0.04636253 -0.29415703 0.060175456
-0.046537116 -0.29426643 0.060181841
-0.046707161 -0.29437056 0.060203243
-0.046882436 -0.29448792 0.060162321
-0.047058575 -0.29460782 0.06010871
-0.047217693 -0.29471514 0.060066685
-0.047406614 -0.29483157 0.060085718
-0.047584996 -0.29495841 0.059997492
-0.047752932 -0.2950581 0.060038507
-0.047933444 -0.295185 0.059958354
-0.048100732 -0.29528317 0.060006287
-0.048275005 -0.29540044 0.059961908
-0.048447557 -0.2955133 0.059938308
-0.04861559 -0.2956138 0.059974708
-0.048788276 -0.29572746 0.059946492
-0.048964623 -0.29584494 0.059909031
-0.049139425 -0.29596549 0.059846193
-0.049310923 -0.29607677 0.059828363
-0.04948106 -0.29618427 0.059828989
-0.049653139 -0.29629025 0.059846923
-0.049824268 -0.29640111 0.059830241
-0.049999915 -0.2965185 0.059790481
-0.050167542 -0.29661891 0.059825726
-0.050326705 -0.29674074 0.059692562
-0.050510854 -0.29684591 0.059763521
-0.050680533 -0.29694507 0.059814919
-0.050854042 -0.2970655 0.059747469
-0.051029861 -0.29718575 0.059690397
-0.051196031 -0.29728195 0.059746422
-0.051365919 -0.29739112 0.059735514
-0.051535778 -0.29750043 0.059723459
-0.051710434 -0.29761815 0.059677918
-0.051880896 -0.29773042 0.059649713
-0.052050762 -0.29784086 0.059630722
-0.052219614 -0.29794773 0.059630208
-0.052391578 -0.29805675 0.059628524
-0.052546933 -0.29815212 0.059646502
-0.052699365 -0.29825723 0.059591815
-0.052892473 -0.29840016 0.059460856
-0.053070679 -0.29849204 0.059591822
-0.053242519 -0.29861364 0.059510544
-0.053403363 -0.29871085 0.05953889
-0.053582557 -0.29883066 0.05949796
-0.053747863 -0.29892373 0.059570134
-0.053922258 -0.29904732 0.059486531
-0.054093868 -0.29915813 0.059472159
-0.054262981 -0.29927048 0.059438184
-0.054430675 -0.29937604 0.059441123
-0.054601133 -0.29949677 0.059359848
-0.054740965 -0.299586 0.059354801
-0.054937832 -0.29970181 0.059409566
-0.055109702 -0.299817 0.059368666
-0.055265918 -0.29992229 0.059327804
-0.055408709 -0.30001393 0.059319295
-0.055591993 -0.30013287 0.059300266
-0.055774752 -0.30024889 0.059297398
-0.055935729 -0.30035079 0.059296906
-0.056109317 -0.30046266 0.059283681
-0.056265622 -0.30057332 0.059209369
-0.056454092 -0.30069205 0.059212245
-0.056603029 -0.30079126 0.05918064
-0.056763131 -0.30088836 0.059206679
-0.056926958 -0.3009935 0.059196945
-0.05712558 -0.30112949 0.05913173
-0.057282366 -0.30122322 0.059165854
-0.057458844 -0.30134243 0.05911801
-0.057634395 -0.30145168 0.059129007
-0.057804309 -0.30156472 0.059093878
-0.057970669 -0.30167037 0.059091061
-0.05813707 -0.30177772 0.059077851
-0.058290601 -0.3018679 0.059121218
-0.058451086 -0.30197811 0.059066504
-0.058626488 -0.30209041 0.059057891
-0.05878637 -0.3021903 0.059065476
-0.058955707 -0.30230626 0.059009578
-0.059115432 -0.30240425 0.059028696
-0.05927179 -0.30247661 0.0591955
-0.059425674 -0.30259362 0.059071578
-0.059613038 -0.30272469 0.058992557
-0.059772655 -0.30282551 0.058993217
-0.059928909 -0.30294108 0.05888775
-0.060112983 -0.30305246 0.058919486
-0.060272321 -0.30315587 0.058902852
-0.060437657 -0.30326492 0.058874648
-0.060605951 -0.30337599 0.058845297
-0.060798611 -0.30350289 0.058813553
-0.0609641 -0.30360395 0.058836114
-0.061123028 -0.30370802 0.05881371
-0.061285377 -0.30380803 0.058830515
-0.061455701 -0.30392829 0.058751538
-0.061617583 -0.30403221 0.058741815
-0.061767306 -0.30412734 0.058739047
-0.061947025 -0.30424657 0.058703881
-0.062116068 -0.30434367 0.058765661
-0.062283441 -0.3044551 0.058730531
-0.062449135 -0.30457848 0.058613509
-0.062613435 -0.30468577 0.058592223
-0.062765025 -0.30478829 0.058550231
-0.062958516 -0.3049005 0.058614239
-0.063129306 -0.3050082 0.058616027
-0.063278623 -0.30510309 0.058613259
-0.063458167 -0.30521837 0.058602322
-0.063605815 -0.30532151 0.058540724
-0.063767672 -0.30542138 0.058556378
-0.063927136 -0.30551627 0.058593959
-0.064077139 -0.30560717 0.058618873
-0.064238258 -0.3057414 0.058415331
-0.064412005 -0.30584937 0.05842749
-0.064590365 -0.30596718 0.058395788
-0.064749949 -0.30606121 0.058439143
-0.064910077 -0.30616698 0.058410957
-0.065093957 -0.30628976 0.058370013
-0.065259159 -0.3063769 0.058479108
-0.065424025 -0.30647829 0.05849706
-0.06557256 -0.30658588 0.058411233
-0.065726854 -0.30668592 0.058395762
-0.065896265 -0.30680689 0.058308713
-0.066072285 -0.30691829 0.058308166
-0.066251926 -0.30702978 0.058321454
-0.066428557 -0.30713937 0.058334768
-0.066596232 -0.307253 0.05828695
-0.066753216 -0.30735475 0.05827146
-0.066899747 -0.30744436 0.058290627
-0.067062497 -0.30754095 0.058330506
-0.06721659 -0.30764031 0.058318496
-0.067372628 -0.30776235 0.058171503
-0.067543365 -0.30787608 0.0581352
-0.067713089 -0.30797434 0.058192365
-0.067870714 -0.30809096 0.058085747
-0.068061873 -0.30820224 0.058146309
-0.068227738 -0.30827603 0.05834192
-0.068364091 -0.30836251 0.058340341
-0.068511687 -0.30849829 0.058073394
-0.068675064 -0.30862513 0.057925217
-0.068856716 -0.30873168 0.057977732
-0.069017619 -0.30883938 0.057940312
-0.069200665 -0.30894369 0.058012437
-0.06938225 -0.30905822 0.058014184
-0.069548793 -0.30915594 0.058062121
-0.069699883 -0.30923781 0.058148187
-0.069843441 -0.30933949 0.058079671
-0.069995128 -0.30945492 0.057956919
-0.070149325 -0.30957249 0.057830699
-0.070339449 -0.30969959 0.057787426
-0.070504121 -0.30979374 0.057850376
-0.070676349 -0.30988973 0.057931751
-0.070850261 -0.31000254 0.057913914
-0.071012139 -0.31010756 0.057897259
-0.0711696 -0.31021252 0.057863317
-0.071332842 -0.31031549 0.057865132
-0.071496703 -0.31042358 0.057836931
-0.07164634 -0.31052673 0.057783406
-0.071799308 -0.31062537 0.0577714
-0.07196556 -0.31072435 0.057810105
-0.072128996 -0.31084391 0.057708085
-0.072312079 -0.31095594 0.057731748
-0.072466061 -0.3110477 0.057767041
-0.072622769 -0.31116357 0.057661571
-0.072807871 -0.3112787 0.057673696
-0.072974265 -0.31138843 0.057645492
-0.073136851 -0.31148654 0.057674989
-0.073299505 -0.31158474 0.057704479
-0.073441274 -0.31168473 0.057639442
-0.073620468 -0.31180108 0.057620436
-0.073790461 -0.31191176 0.057600297
-0.073944904 -0.31201336 0.057575598
-0.074102879 -0.31210655 0.057617798
-0.074264504 -0.31221563 0.057574607
-0.074428499 -0.31231758 0.057585645
-0.074596785 -0.31242502 0.057579353
-0.074742064 -0.3125208 0.057554688
-0.074921779 -0.31263182 0.057571441
-0.075081639 -0.3127284 0.057599787
-0.075240359 -0.31281254 0.057701968
-0.075408667 -0.31295592 0.057469569
-0.075538225 -0.31305569 0.057357259
-0.075743183 -0.31316781 0.057467386
-0.075894982 -0.31327102 0.057421926
-0.076045491 -0.31337085 0.057392616
-0.076219916 -0.31348181 0.057388626
-0.076375596 -0.31358603 0.057352379
-0.076546274 -0.31368726 0.057394546
-0.076697364 -0.31378654 0.057371005
-0.076846689 -0.31389114 0.057307091
-0.077029854 -0.31400394 0.057326142
-0.077176146 -0.31410643 0.057263389
-0.077342674 -0.31421477 0.05724442
-0.077514037 -0.31432375 0.057240427
-0.077685207 -0.31442511 0.05728374
-0.077851906 -0.31453338 0.057265922
-0.078017585 -0.31464225 0.057240039
-0.078172423 -0.31473511 0.057271861
-0.078333601 -0.31483549 0.057281747
-0.078491524 -0.31493413 0.057289343
-0.07865154 -0.3150501 0.05719655
-0.078816354 -0.31515935 0.0571649
-0.078970127 -0.31526035 0.057141352
-0.079130627 -0.31536832 0.057100475
-0.079299107 -0.31547186 0.057119578
-0.079465881 -0.31558344 0.057080992
-0.079620034 -0.31568414 0.057060901
-0.079782732 -0.31578729 0.057059243
-0.079935759 -0.31588852 0.057031088
-0.080099083 -0.31599483 0.05701213
-0.080257758 -0.31610003 0.056981646
-0.080432653 -0.31620741 0.05700187
-0.080592617 -0.31631196 0.05698061
-0.080757096 -0.31641769 0.056969721
-0.080924593 -0.31652206 0.056979597
-0.081083417 -0.31662387 0.056971032
-0.081242993 -0.31673181 0.056926697
-0.081429973 -0.31684393 0.056965344
-0.081591249 -0.31695113 0.056932546
-0.08173947 -0.31704786 0.056913629
-0.081909686 -0.3171545 0.056920029
-0.08206825 -0.31726274 0.056869939
-0.082236171 -0.31737339 0.056841727
-0.082391836 -0.31747338 0.056832023
-0.082536042 -0.31757164 0.056787744
-0.082718819 -0.31767666 0.056854092
-0.082886748 -0.31778735 0.056825891
-0.083053604 -0.3178924 0.05682883
-0.083212025 -0.31799451 0.056816805
-0.083368815 -0.31810015 0.05677595
-0.083539322 -0.31820402 0.056800805
-0.083685651 -0.3183102 0.056714986
-0.083837979 -0.31841138 0.05668452
-0.083997875 -0.31851587 0.056663264
-0.084171876 -0.31862453 0.056671951
-0.084339797 -0.31873226 0.056662209
-0.084478192 -0.31883198 0.05658564
-0.084652923 -0.31894329 0.056580488
-0.084807627 -0.31904927 0.056529246
-0.084982157 -0.3191579 0.056540255
-0.085141838 -0.31926519 0.056500539
-0.085307814 -0.31936252 0.056548476
-0.085475475 -0.31946772 0.056553736
-0.085634865 -0.31956971 0.056546316
-0.085799947 -0.31967562 0.056536585
-0.085957438 -0.31978083 0.056501485
-0.086122662 -0.31988409 0.056509059
-0.086285993 -0.31999317 0.056472793
-0.086439423 -0.32009923 0.056415789
-0.086599603 -0.32020375 0.05639568
-0.086764105 -0.32030988 0.056382485
-0.086922362 -0.32041478 0.056352004
-0.087074094 -0.32051852 0.056303084
-0.087237783 -0.32061973 0.056317572
-0.087416902 -0.32072043 0.056396626
-0.087591663 -0.32082978 0.056404166
-0.087760568 -0.32094529 0.056349423
-0.087899946 -0.32104632 0.056268234
-0.08806812 -0.32114947 0.056288488
-0.088240087 -0.32125941 0.05628103
-0.088415064 -0.32136887 0.056288566
-0.088566817 -0.32146767 0.056270804
-0.088739619 -0.32157758 0.056266807
-0.088883348 -0.3216801 0.05619368
-0.089038879 -0.3217831 0.056164369
-0.089216165 -0.32188761 0.056212272
-0.089380011 -0.32198948 0.056223311
-0.08954215 -0.32210106 0.05616628
-0.089714944 -0.32221118 0.056161132
-0.089878105 -0.3223179 0.056138705
-0.090026915 -0.32241723 0.056105953
-0.0901682 -0.32251745 0.056037441
-0.090339236 -0.32262093 0.056066919
-0.090518102 -0.32273048 0.056089438
-0.09068349 -0.32283479 0.056091234
-0.090837739 -0.32293808 0.056054994
-0.091002226 -0.32304257 0.056052182
-0.091151536 -0.32314861 0.055979043
-0.091325156 -0.32325447 0.056003891
-0.09147843 -0.32336009 0.055949196
-0.091643572 -0.3234646 0.05594869
-0.091809794 -0.32357347 0.055925101
-0.091974296 -0.32367593 0.055934981
-0.092139058 -0.32378498 0.055904478
-0.092298515 -0.32388788 0.055891301
-0.092465386 -0.32399681 0.055870015
-0.092616469 -0.32410252 0.055806108
-0.09278091 -0.3242009 0.05584136
-0.092936561 -0.32430419 0.055810884
-0.093103006 -0.32441318 0.055787299
-0.093260691 -0.32451427 0.055778734
-0.093434066 -0.32462087 0.055797815
-0.093614146 -0.32472935 0.055831872
-0.093763843 -0.32483509 0.05576219
-0.093913101 -0.32493871 0.055704046
-0.094105601 -0.32505101 0.055763446
-0.094254941 -0.32515672 0.055692613
-0.094404399 -0.32525828 0.055648319
-0.094577491 -0.32536325 0.055676632
-0.094740674 -0.32546854 0.055663429
-0.094907559 -0.32556975 0.055690609
-0.095060438 -0.32567936 0.055609375
-0.095198616 -0.32578111 0.05551897
-0.095396489 -0.32589 0.055621039
-0.095594697 -0.32599914 0.055723108
-0.095726117 -0.32610688 0.055568106
-0.095892139 -0.32620847 0.055589516
-0.096070446 -0.32632187 0.055585504
-0.096225008 -0.32642943 0.055523887
-0.096386753 -0.3265292 0.055539541
-0.096539222 -0.32663286 0.055494074
-0.096707895 -0.32674438 0.055463564
-0.096871316 -0.32684818 0.055460751
-0.097036429 -0.32695395 0.055452172
-0.097194135 -0.32705963 0.05541477
-0.097359449 -0.32716739 0.055394646
-0.097540125 -0.32727367 0.055444852
-0.097698793 -0.32738507 0.055375144
-0.097852215 -0.32748693 0.055344675
-0.098028749 -0.32759517 0.055366054
-0.098202698 -0.32770526 0.05536551
-0.098370284 -0.32781702 0.055329233
-0.09853629 -0.32791951 0.055344876
-0.098686539 -0.32802689 0.055267122
-0.098829918 -0.32812294 0.055233225
-0.098989859 -0.32822528 0.055225804
-0.099183388 -0.32834023 0.055272512
-0.099370703 -0.32845861 0.055273093
-0.099523321 -0.32856071 0.055238008
-0.099686027 -0.32866699 0.055216741
-0.099854633 -0.32877901 0.05518277
-0.10001247 -0.32888147 0.055166136
-0.10018514 -0.3289867 0.05519098
-0.10037211 -0.3291001 0.055221558
-0.10052697 -0.3292025 0.055193394
-0.10069512 -0.32931992 0.055123657
-0.10085692 -0.32942635 0.055097774
-0.10101599 -0.32952741 0.05509498
-0.10119298 -0.32963684 0.055110589
-0.10135895 -0.3297472 0.055076621
-0.1015386 -0.32985356 0.055122212
-0.10168523 -0.32996231 0.05502139
-0.10185638 -0.33006808 0.055037014
-0.10201906 -0.33017653 0.055001911
-0.10217318 -0.33028251 0.054948363
-0.10237045 -0.330396 0.055019289
-0.10252275 -0.33050522 0.054938059
-0.10268447 -0.33061033 0.054920256
-0.1028351 -0.33071098 0.054886334
-0.10301393 -0.33081791 0.054925006
-0.10319301 -0.33092996 0.054932542
-0.10336177 -0.33104265 0.054895099
-0.1035137 -0.33114523 0.054854255
-0.10366778 -0.33124641 0.054830708
-0.10383452 -0.33135724 0.05479674
-0.10401621 -0.3314715 0.054800797
-0.10417046 -0.3315728 0.054777246
-0.10434031 -0.3316825 0.054762878
-0.10450983 -0.33179381 0.054736972
-0.1046389 -0.33189529 0.054611977
-0.10481524 -0.33199462 0.054688729
-0.10503942 -0.33211303 0.054835718
-0.10516549 -0.33221573 0.054691121
-0.10535514 -0.3323299 0.05472745
-0.10551929 -0.33244553 0.054653116
-0.10563047 -0.33253497 0.054532789
-0.10586575 -0.33265397 0.054720111
-0.10603221 -0.33277786 0.054603085
-0.10620919 -0.33288747 0.054617532
-0.10635859 -0.33298695 0.054585926
-0.10653807 -0.3331002 0.054587681
-0.10670545 -0.33321017 0.054561779
-0.10686574 -0.333316 0.054533601
-0.10705426 -0.33343387 0.054542251
-0.10722965 -0.33355439 0.054481719
-0.1074108 -0.33365896 0.054544613
-0.10756248 -0.33375752 0.054527998
-0.10773078 -0.33387247 0.05447441
-0.10788497 -0.33397758 0.05442664
-0.10805725 -0.33408862 0.054413415
-0.10824252 -0.33420184 0.05443823
-0.10840675 -0.33431017 0.054410029
-0.10855458 -0.33441585 0.054333434
-0.10874596 -0.33453476 0.054346688
-0.10892799 -0.33465073 0.054341517
-0.10909683 -0.334757 0.05434446
-0.10925215 -0.33485806 0.054326676
-0.10942134 -0.33497047 0.054292701
-0.10959379 -0.33508199 0.054277167
-0.10978124 -0.33519623 0.054304283
-0.10993294 -0.33530122 0.054247282
-0.11011709 -0.33540475 0.054328624
-0.110266 -0.33552098 0.05418973
-0.11044187 -0.33562899 0.054209951
-0.11061813 -0.33574733 0.054166727
-0.11080292 -0.33585858 0.054201923
-0.11097407 -0.33597463 0.054152947
-0.11115324 -0.33608931 0.054144308
-0.11131587 -0.33619368 0.054134581
-0.11149975 -0.33631226 0.054120176
-0.11166053 -0.33641639 0.054104686
-0.1118332 -0.33653432 0.054049931
-0.11202775 -0.33665231 0.054081637
-0.11219707 -0.33676112 0.054070733
-0.11236283 -0.33686787 0.054058686
-0.1125199 -0.33697149 0.054031666
-0.11269712 -0.33709189 0.053979203
-0.11288366 -0.33721563 0.053942867
-0.11305418 -0.33731934 0.053968873
-0.11323542 -0.33743092 0.053987931
-0.11338881 -0.33753955 0.053914778
-0.11357601 -0.33765253 0.053948812
-0.11371149 -0.33774909 0.053880334
-0.1139269 -0.33788067 0.053909659
-0.11408859 -0.33798978 0.053866476
-0.1142796 -0.33810937 0.053873964
-0.11445627 -0.33822045 0.053878035
-0.11462639 -0.33833563 0.05383021
-0.031348173 -0.28952491 0.029579168
-0.031513155 -0.28963959 0.029514078
-0.031674333 -0.2897495 0.029463992
-0.031834092 -0.28985959 0.029406998
-0.031989571 -0.28996423 0.029367305
-0.032146789 -0.2900694 0.029331077
-0.032300889 -0.29017061 0.029307537
-0.032454789 -0.29027167 0.029284006
-0.032607045 -0.29037261 0.029254701
-0.032755375 -0.29046649 0.029254258
-0.032905888 -0.29056337 0.029243415
-0.033055287 -0.29066086 0.029224508
-0.03320393 -0.29075551 0.029220592
-0.033351429 -0.29084867 0.029221298
-0.033496525 -0.29093865 0.02923239
-0.033644021 -0.29103202 0.029231949
-0.033782437 -0.29111704 0.02924767
