# .PCD v0.7 - Point Cloud Data file format
VERSION 0.7
FIELDS x y z
SIZE 4 4 4
TYPE F F F
COUNT 1 1 1
WIDTH 1154
HEIGHT 1
VIEWPOINT 0 0 0 1 0 0 0
POINTS 1154
DATA ascii
-0.34262678 -0.25382468 0.055032264
-0.34283671 -0.25379869 0.055033643
-0.34304214 -0.25376996 0.05505925
-0.34323612 -0.25374845 0.055042256
-0.343411 -0.25374252 0.054928504
-0.34364271 -0.25369781 0.055047378
-0.34382632 -0.25368464 0.054978546
-0.34400681 -0.25367156 0.054912034
-0.3442122 -0.2536433 0.054934181
-0.34440428 -0.25362501 0.054895289
-0.34459347 -0.25360849 0.054846033
-0.34480506 -0.25357854 0.054875068
-0.34502578 -0.2535432 0.054935198
-0.34521028 -0.25352961 0.054868672
-0.34540278 -0.25351128 0.054829776
-0.34559262 -0.25349453 0.054781668
-0.34577712 -0.25348097 0.054715142
-0.34600967 -0.25343913 0.0548121
-0.34620181 -0.25342116 0.054770909
-0.34641245 -0.2533924 0.054791871
-0.34660614 -0.25337362 0.054755282
-0.34682614 -0.25333962 0.05480618
-0.34698746 -0.25333786 0.054674048
-0.34719247 -0.25331265 0.054674298
-0.34740603 -0.25328261 0.054702178
-0.34760022 -0.25326201 0.054678254
-0.3477996 -0.25324187 0.054646246
-0.34801871 -0.25320894 0.054690242
-0.34820387 -0.25319529 0.054623712
-0.24637876 -0.2646006 0.062712863
-0.24660611 -0.26457232 0.062715359
-0.24684978 -0.26454961 0.062662438
-0.24707577 -0.26452121 0.062667251
-0.24731407 -0.26449743 0.062627047
-0.2475379 -0.26446864 0.062636465
-0.24776757 -0.26444292 0.062618203
-0.24801505 -0.26442021 0.062561825
-0.24822184 -0.26438892 0.062604748
-0.24846622 -0.26436567 0.062555291
-0.24868943 -0.26433867 0.062552035
-0.2489024 -0.26430759 0.062588021
-0.2491509 -0.26428729 0.062513195
-0.2500895 -0.26418984 0.0623824
-0.25031388 -0.26416382 0.062371075
-0.25054771 -0.26413885 0.062343568
-0.25074592 -0.26410437 0.062417656
-0.25099576 -0.26408547 0.062331293
-0.25121367 -0.26405647 0.062347658
-0.25257182 -0.26390284 0.062250815
-0.25280881 -0.26388142 0.062194481
-0.25300941 -0.26384807 0.062258184
-0.25324857 -0.26382747 0.062193766
-0.25349599 -0.26380777 0.062115487
-0.25370929 -0.26377997 0.062127255
-0.25395069 -0.26375881 0.062065147
-0.25417867 -0.26373547 0.062030748
-0.25438601 -0.26370445 0.062071353
-0.25459933 -0.26367697 0.06208083
-0.25479993 -0.26364738 0.062116861
-0.25499663 -0.26362175 0.062127553
-0.25525382 -0.26359582 0.062086113
-0.25550324 -0.26357967 0.061980158
-0.25572804 -0.26355436 0.061963066
-0.25595373 -0.26353118 0.061929826
-0.25618276 -0.26350743 0.061897732
-0.25638124 -0.26347592 0.06194992
-0.25660843 -0.26345176 0.061922442
-0.25684354 -0.263432 0.061855726
-0.25706413 -0.26340595 0.061847877
-0.25727925 -0.26337823 0.061857339
-0.25751567 -0.26335752 0.061796397
-0.25773448 -0.26333296 0.061779328
-0.25796053 -0.26330909 0.061750706
-0.25815737 -0.26327747 0.0618052
-0.25838581 -0.26325458 0.06176734
-0.25861415 -0.26323357 0.061715648
-0.25880745 -0.26319906 0.061794363
-0.25906739 -0.26318902 0.061634179
-0.25926286 -0.26315537 0.061704822
-0.25948715 -0.26313344 0.061663523
-0.25969291 -0.2631034 0.061698388
-0.2599178 -0.26308188 0.061653629
-0.26012334 -0.26305187 0.06168849
-0.2603322 -0.2630249 0.061697975
-0.26054156 -0.26299632 0.061718985
-0.26080263 -0.26298818 0.061543815
-0.26104608 -0.26297212 0.061442494
-0.26123327 -0.26293772 0.061525855
-0.26144707 -0.26291111 0.0615284
-0.26167545 -0.26289183 0.061464034
-0.26192054 -0.26287511 0.061366163
-0.26211992 -0.26284537 0.061404508
-0.26232597 -0.26281622 0.061432444
-0.26252493 -0.26278639 0.06147195
-0.26273859 -0.26276216 0.061457213
-0.26294398 -0.26273876 0.061443657
-0.2631731 -0.26271281 0.061427694
-0.26340193 -0.26269475 0.061354101
-0.2636306 -0.26267481 0.061294347
-0.26383585 -0.26264781 0.061307304
-0.26404306 -0.26261964 0.061327167
-0.26423156 -0.26258606 0.061403602
-0.26447231 -0.26257139 0.06129422
-0.26468724 -0.2625486 0.061267953
-0.2649014 -0.2625235 0.061258968
-0.26511684 -0.26250109 0.06122924
-0.26532945 -0.26247558 0.061224882
-0.26554099 -0.26245174 0.061208993
-0.26576778 -0.26243442 0.06113195
-0.26596212 -0.26240355 0.061182998
-0.26615012 -0.26238263 0.06116721
-0.26636094 -0.26235464 0.061182454
-0.26660746 -0.26232937 0.061145678
-0.26682252 -0.26230764 0.061111335
-0.26704425 -0.26228684 0.061064281
-0.26726276 -0.26226687 0.061013781
-0.26745549 -0.26224646 0.060989913
-0.26766679 -0.26221922 0.060999393
-0.267896 -0.26219353 0.060981128
-0.26810458 -0.2621696 0.060968708
-0.26831168 -0.26214507 0.060962066
-0.26851183 -0.26211965 0.060968131
-0.26873171 -0.2620945 0.060954515
-0.26894772 -0.26207438 0.060907498
-0.2691772 -0.26205626 0.060833901
-0.26936787 -0.26202443 0.060895339
-0.2695792 -0.26200014 0.060882904
-0.2697871 -0.26197663 0.060868196
-0.27000484 -0.26195568 0.060825773
-0.2702111 -0.26193154 0.060816821
-0.27041385 -0.26190343 0.060840167
-0.27062064 -0.26187974 0.060827766
-0.2708399 -0.26186237 0.060757674
-0.27104661 -0.26183647 0.060761407
-0.27127087 -0.2618196 0.060683213
-0.27147397 -0.26179445 0.060684662
-0.27167508 -0.26176593 0.060712621
-0.27189079 -0.26174507 0.060671359
-0.27210557 -0.26172382 0.060633559
-0.27230409 -0.26169655 0.060654625
-0.27250335 -0.2616722 0.060653768
-0.27270231 -0.26165023 0.060635634
-0.27289948 -0.26162738 0.060625575
-0.27313945 -0.26160544 0.060570385
-0.27334568 -0.26158023 0.060569502
-0.27354804 -0.26155546 0.060568642
-0.27375302 -0.26153481 0.060535498
-0.27396512 -0.26151061 0.060521916
-0.27417475 -0.26148766 0.060501426
-0.27437344 -0.26146114 0.060516723
-0.27458906 -0.26144189 0.060463939
-0.27480561 -0.26142594 0.060385782
-0.27501562 -0.26140374 0.060359534
-0.27520922 -0.26137453 0.060399048
-0.275419 -0.26135236 0.060372807
-0.27561688 -0.26132581 0.060389247
-0.27582464 -0.26130259 0.060372233
-0.27602535 -0.26127788 0.060372531
-0.27622947 -0.26125261 0.060373973
-0.27643168 -0.26122901 0.060365044
-0.27664503 -0.26120967 0.060314573
-0.27684531 -0.26118502 0.060314871
-0.27705187 -0.26116166 0.060300164
-0.27726361 -0.26114175 0.06025546
-0.27745745 -0.26111317 0.060290366
-0.27766767 -0.26109251 0.060252585
-0.27787501 -0.26107299 0.060209058
-0.27807817 -0.26105082 0.060188599
-0.27828491 -0.2610282 0.060168121
-0.27847689 -0.26099858 0.060212262
-0.27868631 -0.26097801 0.060174484
-0.27889016 -0.2609567 0.060147103
-0.27908954 -0.26092935 0.060168166
-0.27930576 -0.26091707 0.060063496
-0.27950567 -0.26089028 0.06007994
-0.27971095 -0.26087052 0.060039878
-0.27991566 -0.26085052 0.060002118
-0.28011036 -0.26082325 0.060026649
-0.28031138 -0.26080072 0.060010813
-0.28051665 -0.26077831 0.059990346
-0.28071085 -0.26075077 0.060017183
-0.2809082 -0.2607224 0.06004747
-0.28112614 -0.26071337 0.059917435
-0.28133297 -0.26069266 0.059883125
-0.28152806 -0.26066613 0.059901901
-0.28172672 -0.26064247 0.059896439
-0.28193218 -0.26062441 0.059843697
-0.28212908 -0.2605961 0.059873983
-0.28232384 -0.26056945 0.059893906
-0.28253001 -0.26055241 0.059833094
-0.28273031 -0.26053059 0.059812643
-0.2829349 -0.26050904 0.059786409
-0.28313622 -0.26048836 0.059756741
-0.28333187 -0.26046288 0.059767436
-0.2835353 -0.26044428 0.059720457
-0.28374061 -0.2604239 0.059685007
-0.28393507 -0.26039761 0.05970262
-0.28413832 -0.26037937 0.059653345
-0.28433526 -0.26035544 0.05965136
-0.28453648 -0.26033178 0.059643589
-0.28473279 -0.26030746 0.059645057
-0.28492686 -0.26028106 0.059663832
-0.28512296 -0.26025662 0.059666459
-0.28532776 -0.26023677 0.059627552
-0.28552848 -0.2602171 0.059590958
-0.28572291 -0.26018718 0.059635088
-0.28588638 -0.26017538 0.059574448
-0.28610024 -0.26017806 0.05936259
-0.28633642 -0.26014131 0.05941923
-0.28652903 -0.26010972 0.059477203
-0.28672788 -0.26008901 0.059449844
-0.28692013 -0.26007009 0.059415594
-0.28712532 -0.26004341 0.059426248
-0.28731677 -0.26001936 0.059430044
-0.28749138 -0.25998998 0.059488092
-0.28771412 -0.25996968 0.059436422
-0.2879146 -0.25995162 0.059388317
-0.28811547 -0.25992957 0.059369016
-0.28829086 -0.25990105 0.059420146
-0.28850958 -0.25988626 0.059331615
-0.28870279 -0.25986013 0.059349231
-0.28890517 -0.25984043 0.059311487
-0.28909302 -0.2598176 0.059309542
-0.28930628 -0.25980207 0.0592314
-0.28949809 -0.25977436 0.059261706
-0.28969404 -0.25975212 0.059248194
-0.28988177 -0.25974005 0.059167858
-0.29007769 -0.25970742 0.059230424
-0.29026979 -0.25969103 0.059177734
-0.29048145 -0.25965837 0.059226401
-0.29068163 -0.25964272 0.059160996
-0.29087883 -0.25962302 0.05912789
-0.29107597 -0.25960347 0.059093617
-0.29127154 -0.25957593 0.059119307
-0.29146528 -0.25955147 0.059124239
-0.29166603 -0.25953194 0.059086509
-0.2918641 -0.25951451 0.059036095
-0.29205281 -0.25948229 0.059102148
-0.29225737 -0.25947586 0.058965262
-0.29245248 -0.2594479 0.058994398
-0.29264405 -0.25942039 0.059023559
-0.29283994 -0.2593936 0.059043478
-0.293037 -0.25937563 0.058997676
-0.29323667 -0.25935578 0.058963411
-0.29342782 -0.25933462 0.058946453
-0.2936236 -0.25930786 0.058966376
-0.29381832 -0.2592864 0.058948256
-0.29402012 -0.25927147 0.058875933
-0.29421657 -0.25925392 0.058827832
-0.29441106 -0.25922495 0.058865048
-0.29460439 -0.25920129 0.058864225
-0.29479861 -0.25917158 0.0589072
-0.29499486 -0.25915435 0.058856804
-0.29517502 -0.25914365 0.058773041
-0.29537755 -0.25911573 0.058795232
-0.29556453 -0.25908658 0.058840554
-0.29572767 -0.25907212 0.058799513
-0.29597598 -0.25905532 0.058699325
-0.29615343 -0.25902101 0.058790781
-0.296336 -0.25899947 0.058784254
-0.29655945 -0.25898758 0.058670335
-0.29674804 -0.25896263 0.058683366
-0.29694629 -0.25893337 0.058719404
-0.29714632 -0.25892007 0.05863671
-0.29733026 -0.25889254 0.058672819
-0.29752493 -0.25887504 0.058625877
-0.29772726 -0.25884682 0.058650386
-0.29790026 -0.25883183 0.058604687
-0.2981135 -0.25881582 0.05853001
-0.29830685 -0.25878227 0.058601812
-0.29848641 -0.25875148 0.058665603
-0.29866046 -0.25874153 0.058581866
-0.29885927 -0.25872856 0.058498025
-0.29907212 -0.25869876 0.058524787
-0.29926622 -0.25868273 0.058467485
-0.29945585 -0.2586638 0.058435544
-0.29965505 -0.25863865 0.058440469
-0.29983911 -0.25861064 0.058480036
-0.30001652 -0.25860485 0.058362857
-0.30022764 -0.25858596 0.058311239
-0.30045456 -0.25855395 0.058341399
-0.3006399 -0.25853384 0.058322161
-0.30081388 -0.25851065 0.058335256
-0.30099627 -0.25849575 0.0582803
-0.30123055 -0.25846428 0.058300056
-0.30141538 -0.25844136 0.058301579
-0.30161858 -0.25842154 0.058263831
-0.30180928 -0.25838548 0.058356389
-0.30199853 -0.258371 0.05829218
-0.302194 -0.25834647 0.058295969
-0.30235428 -0.2583316 0.058260698
-0.30255342 -0.25830898 0.058247179
-0.30278799 -0.25828108 0.058240417
-0.30296227 -0.25826386 0.058209706
-0.30315098 -0.25825575 0.058099393
-0.30334255 -0.25822538 0.058149304
-0.30355206 -0.2581982 0.05815994
-0.30372253 -0.25817749 0.058158055
-0.30392858 -0.25814757 0.058191761
-0.30413806 -0.25812733 0.058151685
-0.30430511 -0.25810295 0.058179792
-0.30449325 -0.2580834 0.058153637
-0.30467445 -0.25805953 0.058165543
-0.30487618 -0.25804776 0.058070168
-0.30506384 -0.25803253 0.05801288
-0.30526474 -0.25802577 0.057881769
-0.30546293 -0.2580061 0.057847496
-0.30566177 -0.25797847 0.057870861
-0.30586442 -0.25794819 0.057910349
-0.30607766 -0.25791848 0.057935961
-0.30624765 -0.25790006 0.057917938
-0.30643612 -0.25787371 0.057941344
-0.3066172 -0.2578508 0.057946343
-0.30682439 -0.25781646 0.058011167
-0.30701116 -0.25780231 0.057946973
-0.30720958 -0.25777975 0.057933446
-0.30739897 -0.25774953 0.057984516
-0.30759564 -0.25773665 0.057901844
-0.30777812 -0.25772458 0.057826139
-0.30797964 -0.25770307 0.05780223
-0.3081705 -0.25768289 0.057778358
-0.30836886 -0.25765973 0.057769455
-0.3085525 -0.2576406 0.057744466
-0.30874944 -0.25762311 0.05769521
-0.3089408 -0.2576139 0.057590652
-0.30914468 -0.25758189 0.057641659
-0.30933967 -0.25755805 0.057640832
-0.30953473 -0.25753403 0.057641156
-0.30972406 -0.25750613 0.057674933
-0.3099176 -0.25748751 0.057637222
-0.31010914 -0.25746411 0.05763641
-0.31030941 -0.25744542 0.057592914
-0.31049535 -0.25743923 0.057471082
-0.31069353 -0.2574158 0.05746448
-0.31089035 -0.25738654 0.057501677
-0.31108722 -0.25736701 0.05746742
-0.31128106 -0.257337 0.057512701
-0.31147584 -0.257314 0.057506107
-0.31167081 -0.25729045 0.05750297
-0.31185287 -0.257283 0.057393849
-0.31205776 -0.25724268 0.057504788
-0.31225505 -0.257222 0.057478596
-0.31245095 -0.25719649 0.057489287
-0.31264389 -0.257162 0.057568006
-0.31282553 -0.25715446 0.057460032
-0.31302431 -0.25712258 0.057514522
-0.31322604 -0.25709948 0.057502132
-0.31341282 -0.25707239 0.057532463
-0.31361046 -0.25705105 0.057510875
-0.31380135 -0.25704396 0.057391331
-0.31398806 -0.25701717 0.057419352
-0.31417981 -0.2570008 0.057366665
-0.31437406 -0.25698587 0.057301287
-0.3145605 -0.256973 0.057227876
-0.31475389 -0.25695282 0.057201698
-0.31495273 -0.2569285 0.057200857
-0.31514403 -0.2569122 0.057148173
-0.31533435 -0.25689146 0.057128914
-0.31552866 -0.25686944 0.057115406
-0.31572926 -0.25684205 0.057135306
-0.31592843 -0.2568174 0.057136767
-0.31612518 -0.25679129 0.057150915
-0.31632298 -0.25676915 0.057135083
-0.31651872 -0.25675607 0.057054717
-0.31670049 -0.25673857 0.057019364
-0.31689861 -0.25671577 0.057008151
-0.31708848 -0.25669569 0.056984287
-0.31728157 -0.25667569 0.056956954
-0.31747165 -0.25665531 0.056935396
-0.31767166 -0.25662959 0.056943774
-0.31786129 -0.25660986 0.056917604
-0.31805664 -0.25658643 0.056913316
-0.31825304 -0.25656638 0.05688367
-0.31844088 -0.2565541 0.056804486
-0.3186388 -0.25652692 0.056825541
-0.31883761 -0.25650322 0.056820091
-0.3190282 -0.25648212 0.056803145
-0.31921434 -0.25646722 0.056744713
-0.31941167 -0.25644121 0.056757711
-0.31960505 -0.25642073 0.056733832
-0.31981379 -0.2563881 0.056784816
-0.32000712 -0.25637218 0.056727506
-0.32018685 -0.25635698 0.056677181
-0.32040355 -0.25631425 0.056794986
-0.3206003 -0.25629383 0.05676765
-0.32079893 -0.25627929 0.056695335
-0.32097268 -0.25626341 0.0566554
-0.32116067 -0.25624576 0.056615412
-0.32136005 -0.25622186 0.056611098
-0.32155791 -0.25619593 0.056622941
-0.32176101 -0.25616765 0.056647435
-0.3219651 -0.2561422 0.056650028
-0.32213962 -0.25612921 0.056588192
-0.32233557 -0.25610587 0.056582753
-0.32252711 -0.25608402 0.056570407
-0.32271671 -0.25606826 0.056515433
-0.32289824 -0.25605062 0.056481227
-0.32309085 -0.25602755 0.056476954
-0.3232981 -0.25598788 0.056580968
-0.32350346 -0.25595063 0.056668859
-0.32371512 -0.25591025 0.056774005
-0.32389724 -0.25591365 0.056585342
-0.32408017 -0.25589821 0.056533843
-0.32429489 -0.25585842 0.056632061
-0.32449323 -0.2558367 0.056612778
-0.32468879 -0.25581798 0.056573909
-0.32487804 -0.25580931 0.056467053
-0.32506767 -0.25579336 0.056413218
-0.32524577 -0.25578278 0.056330625
-0.32543749 -0.25576124 0.05631597
-0.32564738 -0.25572422 0.056398075
-0.3258498 -0.25569192 0.056452546
-0.32602993 -0.25568563 0.056336515
-0.32621384 -0.25567213 0.056270029
-0.32644424 -0.25563103 0.056363571
-0.32663015 -0.25562185 0.056263648
-0.32682225 -0.25559708 0.056272045
-0.32700559 -0.25557482 0.056270119
-0.32720834 -0.25554907 0.056276176
-0.32741457 -0.25552309 0.056281056
-0.32759139 -0.25551328 0.056193855
-0.32779396 -0.25548488 0.056219511
-0.32798836 -0.25545543 0.056260183
-0.32819834 -0.25543794 0.056199346
-0.32837531 -0.25542197 0.056157097
-0.32857826 -0.25539938 0.056140095
-0.32878572 -0.25536409 0.056211837
-0.3289656 -0.25534838 0.056164965
-0.32916373 -0.25532746 0.05613992
-0.32935941 -0.25531155 0.056080289
-0.32956201 -0.25528112 0.056120928
-0.32975647 -0.25526631 0.056054398
-0.3299498 -0.25525245 0.055982109
-0.33014664 -0.25522727 0.05598934
-0.33033618 -0.25520849 0.055956259
-0.33053234 -0.25517869 0.055998076
-0.33072338 -0.25515077 0.056030698
-0.33092713 -0.25512269 0.056052882
-0.33112168 -0.25510252 0.05602555
-0.33130696 -0.25508758 0.055968277
-0.33150494 -0.25506717 0.055939771
-0.33172148 -0.25504163 0.055931933
-0.33188692 -0.25502768 0.055885118
-0.33209834 -0.25499886 0.055906128
-0.33228967 -0.25497136 0.055935282
-0.33248645 -0.25496715 0.055789202
-0.33268562 -0.2549409 0.055802193
-0.33289337 -0.25491282 0.055820901
-0.33308715 -0.2548984 0.055752065
-0.33326656 -0.25487584 0.055755921
-0.33345652 -0.25485229 0.055757415
-0.33366948 -0.25482044 0.055799168
-0.33385515 -0.25480041 0.055778783
-0.33405265 -0.25478554 0.055709928
-0.33423254 -0.25476763 0.055679195
-0.33445343 -0.25472772 0.055772774
-0.33464444 -0.25471318 0.05570741
-0.33483386 -0.25469977 0.055635147
-0.33503765 -0.25467548 0.055629663
-0.33523574 -0.25465095 0.055631131
-0.3354255 -0.25463042 0.055610728
-0.33565089 -0.25459939 0.055635128
-0.33581883 -0.25458831 0.055565253
-0.33601448 -0.25455683 0.05561975
-0.33620667 -0.25453696 0.055592421
-0.33644086 -0.254511 0.055571828
-0.33662319 -0.25449389 0.055533014
-0.33681321 -0.25447127 0.055527601
-0.33701122 -0.25444517 0.055540591
-0.33720762 -0.25442684 0.055498254
-0.3373892 -0.25440603 0.055487107
-0.33759347 -0.25438216 0.055478178
-0.33779019 -0.25435513 0.055499241
-0.33799595 -0.25433674 0.055448804
-0.33818817 -0.25432143 0.055388041
-0.33835655 -0.25430995 0.055320472
-0.33858752 -0.25426582 0.055435911
-0.33876836 -0.25425631 0.055342924
-0.33895832 -0.25424048 0.055287935
-0.33918482 -0.25420395 0.055351529
-0.33938798 -0.25418335 0.055319544
-0.33956587 -0.25416759 0.055274982
-0.33974358 -0.25414586 0.055274229
-0.33994219 -0.25412238 0.055267621
-0.3401494 -0.25409925 0.0552506
-0.3403171 -0.25409228 0.055150762
-0.34052581 -0.25406423 0.055168316
-0.34074327 -0.25403449 0.055190444
-0.34094816 -0.25400519 0.055220697
-0.34115103 -0.2539832 0.055199087
-0.34136248 -0.25395766 0.055195883
-0.3415519 -0.25393859 0.055165105
-0.34173656 -0.25392264 0.055115908
-0.34194255 -0.25390264 0.055076994
-0.34212103 -0.2538887 0.055018596
-0.34231278 -0.25386825 0.054995887
-0.34252664 -0.25383767 0.05502725
-0.3427183 -0.25381929 0.054989547
-0.34293315 -0.25378829 0.055023216
-0.34312782 -0.25376809 0.054995876
-0.34331912 -0.25374818 0.054969706
-0.34351856 -0.25372884 0.054931972
-0.34371319 -0.2537069 0.054917313
-0.34393078 -0.25367102 0.054984406
-0.34412062 -0.25365582 0.054924801
-0.24641566 -0.26460382 0.062656239
-0.24662933 -0.2645739 0.062683001
-0.24687561 -0.26455197 0.062621988
-0.24709146 -0.26452276 0.062641814
-0.24729902 -0.26449153 0.062683597
-0.24753419 -0.26446718 0.062650308
-0.2478029 -0.26444978 0.06253618
-0.24804452 -0.2644273 0.062483259
-0.24825475 -0.2643986 0.062504277
-0.2484405 -0.26436377 0.062592246
-0.24866498 -0.26433411 0.062607437
-0.24889562 -0.26430923 0.06258224
-0.24911854 -0.26428244 0.062577829
-0.24933216 -0.26425332 0.062598832
-0.2495978 -0.26423627 0.062484704
-0.24981137 -0.26420733 0.062504545
-0.25004354 -0.26418334 0.062471271
-0.25030303 -0.26416674 0.06235949
-0.25053895 -0.26414403 0.062313512
-0.25076124 -0.26411781 0.062305652
-0.25097257 -0.26408708 0.062340491
-0.25119534 -0.26406109 0.062330317
-0.25143176 -0.26403895 0.062279731
-0.25164926 -0.26401174 0.062283419
-0.25186434 -0.2639823 0.062305551
-0.25208348 -0.26395565 0.062303461
-0.25231767 -0.2639333 0.062256351
-0.25254259 -0.26390848 0.062235791
-0.25278136 -0.26388606 0.062185194
-0.25297952 -0.26385379 0.062243152
-0.25321028 -0.26383093 0.062202968
-0.2534599 -0.26381364 0.06210506
-0.25367516 -0.26378652 0.062109903
-0.25382337 -0.26375487 0.062208418
-0.25412166 -0.26373556 0.062081482
-0.25431871 -0.26370326 0.062140595
-0.25456479 -0.26368561 0.062048458
-0.25476161 -0.26365337 0.06210757
-0.25500396 -0.26363319 0.062037364
-0.25524193 -0.26361352 0.061967172
-0.255449 -0.26358286 0.06200549
-0.25568822 -0.26356384 0.061929524
-0.25590482 -0.263538 0.061923988
-0.25610095 -0.26350927 0.061957739
-0.25632125 -0.2634795 0.06197755
-0.25653487 -0.26345292 0.061980106
-0.25675768 -0.26342756 0.061965317
-0.2570073 -0.26341262 0.061850108
-0.25723237 -0.26338825 0.061826095
-0.2573882 -0.26335391 0.061937265
-0.25762904 -0.26332414 0.061938543
-0.2578322 -0.2633124 0.06184198
-0.2580941 -0.26328981 0.061771691
-0.25832701 -0.26326495 0.061744176
-0.25853971 -0.26323706 0.061757103
-0.25876826 -0.26321635 0.061703093
-0.25900793 -0.26319778 0.06162367
-0.25920385 -0.26316625 0.061678179
-0.2594125 -0.26313725 0.061702654
-0.25963667 -0.26311553 0.061660193
-0.25985643 -0.26309055 0.061645418
-0.26007408 -0.26306677 0.061623737
-0.26024017 -0.26304534 0.061631098
-0.2604537 -0.26301467 0.06166362
-0.26073229 -0.26299605 0.06154944
-0.26094452 -0.26297072 0.061543927
-0.26116601 -0.26294696 0.061518766
-0.26138306 -0.26292357 0.06149479
-0.26159537 -0.26289853 0.061486959
-0.26180014 -0.26287082 0.061505694
-0.26202083 -0.26284716 0.061480541
-0.2622298 -0.26282111 0.0614831
-0.26244724 -0.26279643 0.061468337
-0.26267225 -0.26277664 0.061410882
-0.26288739 -0.26275125 0.061403051
-0.26309726 -0.26272592 0.061399855
-0.26331872 -0.26270515 0.061352789
-0.26354235 -0.26268536 0.061296493
-0.26374754 -0.26265648 0.061323289
-0.2639631 -0.26263374 0.061295856
-0.26417747 -0.26260865 0.061286859
-0.26438934 -0.26258463 0.061272129
-0.26460099 -0.26255858 0.061272383
-0.26481578 -0.26253593 0.061244946
-0.26502502 -0.26250911 0.061253272
-0.26523474 -0.26248455 0.061244305
-0.26545429 -0.26246211 0.061211094
-0.26566833 -0.26243958 0.061183661
-0.26588997 -0.26242036 0.06112507
-0.26607674 -0.26238647 0.061204977
-0.26629409 -0.26236352 0.061177529
-0.26651853 -0.26234585 0.061105095
-0.26674107 -0.26232541 0.061054565
-0.26694685 -0.26229993 0.061055992
-0.2671521 -0.26227215 0.061074719
-0.26736575 -0.26225027 0.061042681
-0.26757744 -0.26222551 0.061033707
-0.26778573 -0.26220146 0.061022438
-0.267993 -0.26217484 0.061030775
-0.26820755 -0.2621538 0.060991816
-0.26842242 -0.26213083 0.060966685
-0.26862496 -0.26210448 0.060977355
-0.26884404 -0.26208368 0.060932606
-0.26901332 -0.2620419 0.061086372
-0.26924992 -0.2620295 0.060964309
-0.26947671 -0.26201499 0.060866497
-0.26970017 -0.26199681 0.060798675
-0.26989198 -0.26196578 0.060853191
-0.27009922 -0.26193997 0.060855769
-0.27029976 -0.26191324 0.06087105
-0.27051905 -0.26189351 0.06081824
-0.27073076 -0.26187253 0.060781591
-0.27094653 -0.26185134 0.060742624
-0.27115732 -0.26182777 0.060725592
-0.27137369 -0.26180714 0.060682006
-0.27157071 -0.2617791 0.060709994
-0.27177787 -0.26175392 0.060707957
-0.27199361 -0.26173574 0.060647082
-0.27219534 -0.26170793 0.060669273
-0.2724092 -0.26168901 0.060615327
-0.27261481 -0.26166341 0.060617913
-0.27281731 -0.26163864 0.060617045
-0.27302295 -0.26161316 0.060618479
-0.27323672 -0.26159474 0.060561072
-0.27344841 -0.26157281 0.060531341
-0.27364618 -0.26154578 0.060551248
-0.27385411 -0.26152194 0.060538836
-0.27405357 -0.26149598 0.060549513
-0.27425122 -0.26147416 0.06053137
-0.27447319 -0.26145348 0.060483158
-0.2746819 -0.26143047 0.060463823
-0.27488625 -0.2614077 0.060446814
-0.27509335 -0.26138395 0.060434401
-0.27529767 -0.26136133 0.060416237
-0.27551338 -0.261343 0.060356513
-0.27571627 -0.26131976 0.060344115
-0.2759189 -0.26129371 0.060352474
-0.27611819 -0.26126841 0.060358547
-0.27632678 -0.2612462 0.060333438
-0.27653551 -0.26122698 0.060286433
-0.27674729 -0.26120707 0.060241714
-0.27693659 -0.26117572 0.060300857
-0.27714667 -0.26115492 0.06026423
-0.27735102 -0.2611334 0.060237985
-0.27754837 -0.26110739 0.060250983
-0.27777559 -0.26109836 0.060112823
-0.27796361 -0.26106337 0.060199637
-0.27817786 -0.261049 0.060112253
-0.27837706 -0.26102164 0.060133308
-0.27858558 -0.2610037 0.060077086
-0.27878425 -0.26097611 0.060100447
-0.27898437 -0.26095259 0.060092673
-0.27917749 -0.26092109 0.060149491
-0.27937412 -0.26089516 0.060162488
-0.27958426 -0.26087591 0.060114324
-0.27979031 -0.26085702 0.060067326
-0.27998811 -0.26083219 0.060071092
-0.2801986 -0.26081371 0.060017161
-0.2804015 -0.26078969 0.06001053
-0.28059667 -0.26076314 0.060029291
-0.28080401 -0.26074266 0.059992671
-0.28099167 -0.26073012 0.059915777
-0.2811918 -0.26070771 0.059899934
-0.28141552 -0.26068395 0.059872463
-0.28160685 -0.26064798 0.059963882
-0.28180203 -0.26062176 0.059980344
-0.28202331 -0.26061344 0.059842199
-0.28219613 -0.26059324 0.059834551
-0.28235748 -0.26056704 0.059881128
-0.2826224 -0.26054347 0.059815429
-0.28281516 -0.26051202 0.059872262
-0.28302401 -0.26049799 0.059787199
-0.28322369 -0.26047263 0.059793271
-0.28341731 -0.26044565 0.059816658
-0.28362298 -0.26042569 0.059777733
-0.28382087 -0.26040259 0.059768818
-0.28399345 -0.26038671 0.059730038
-0.28421855 -0.26036611 0.059678342
-0.28442925 -0.26034003 0.059679747
-0.28462535 -0.26031572 0.059681222
-0.28483438 -0.26029992 0.059608847
-0.2850326 -0.26027396 0.059620686
-0.28523365 -0.26026276 0.059521828
-0.28543139 -0.26022851 0.059594765
-0.28563029 -0.26020339 0.059599679
-0.28583312 -0.26019058 0.0595112
-0.28603682 -0.26016644 0.059504569
-0.28622815 -0.26013801 0.059540644
-0.28643054 -0.26011688 0.059513263
-0.28662464 -0.26009142 0.05952511
-0.28682551 -0.26006889 0.059509266
-0.28701982 -0.26004374 0.059518818
-0.28720182 -0.26003611 0.059410825
-0.28741634 -0.2600069 0.059431814
-0.28762302 -0.25998241 0.059425168
-0.28782511 -0.25996196 0.059393167
-0.28802341 -0.25993723 0.059395783
-0.28819048 -0.25990862 0.059455022
-0.28840584 -0.25988528 0.059432201
-0.28857926 -0.2598691 0.059394564
-0.28877944 -0.25986165 0.059269197
-0.28901958 -0.25983039 0.059282009
-0.28921834 -0.25980687 0.059275389
-0.28940478 -0.25977257 0.059358761
-0.28958485 -0.25976583 0.05924616
-0.28979495 -0.25974202 0.059231423
-0.29000136 -0.25971332 0.059255905
-0.29020298 -0.25969419 0.059214704
-0.29040334 -0.25967348 0.059186175
-0.29059708 -0.25964916 0.05918996
-0.29079723 -0.25962844 0.05916144
-0.29099038 -0.25960341 0.059170984
-0.29117906 -0.25957751 0.059190929
-0.29138371 -0.25955814 0.059148557
-0.29157981 -0.25953183 0.059165016
-0.29177594 -0.25951162 0.05913651
-0.29196236 -0.25950077 0.059048094
-0.29212481 -0.25947022 0.059125792
-0.29234856 -0.25945798 0.059014153
-0.29257143 -0.25943184 0.059005141
-0.29276544 -0.25940242 0.059045814
-0.2929405 -0.25938669 0.059003569
-0.29314628 -0.25935775 0.059030347
-0.29335418 -0.25933957 0.058976434
-0.29354846 -0.2593177 0.058961768
-0.29374337 -0.25930443 0.058883697
-0.29394409 -0.25927326 0.058931254
-0.29413614 -0.25924742 0.058947735
-0.29433355 -0.25923243 0.05888002
-0.29451331 -0.25920478 0.058920756
-0.29469198 -0.25919065 0.058863498
-0.29489774 -0.25914562 0.059007898
-0.29511917 -0.25914297 0.058828246
-0.29530278 -0.25912398 0.058802098
-0.2954852 -0.25910246 0.058795549
-0.29570141 -0.2590721 0.058823455
-0.29586783 -0.2590481 0.058849268
-0.29607195 -0.25903419 0.058767684
-0.29629385 -0.25901854 0.058682576
-0.29647559 -0.25899601 0.058684103
-0.29668128 -0.2589677 0.058706291
-0.29687685 -0.25894222 0.058716983
-0.29707265 -0.25892821 0.058643512
-0.29726568 -0.25889546 0.058709558
-0.29745543 -0.25886342 0.058773316
-0.29763243 -0.25884935 0.058717217
-0.29779887 -0.25883752 0.058654245
-0.29799765 -0.25882328 0.058579613
-0.29820079 -0.25879923 0.058572985
-0.29840443 -0.25877717 0.05855136
-0.29860497 -0.25875753 0.058514766
-0.29879013 -0.25872102 0.058615431
-0.29898998 -0.25869879 0.058598436
-0.29918054 -0.25868398 0.058535367
-0.29938462 -0.25866517 0.058489531
-0.29958466 -0.25864512 0.058456391
-0.29977545 -0.25861582 0.058499396
-0.29996854 -0.25859788 0.058457062
-0.30015653 -0.25859269 0.058325987
-0.30035821 -0.25856361 0.058357403
-0.3005659 -0.25852624 0.058444142
-0.30072913 -0.25850472 0.058454975
-0.30092931 -0.2584886 0.058393009
-0.30111465 -0.25847065 0.05835763
-0.30129716 -0.25845984 0.058272693
-0.30151585 -0.2584208 0.058361687
-0.30172318 -0.25840899 0.058261652
-0.30190122 -0.25839385 0.058212474
-0.30206513 -0.25838262 0.058147211
-0.30228746 -0.25834078 0.058253482
-0.30249646 -0.25830972 0.05829294
-0.30268112 -0.25828901 0.058278315
-0.30286267 -0.25827926 0.058186464
-0.30306137 -0.25825766 0.058166012
-0.30326352 -0.25823325 0.058162846
-0.30345497 -0.25820622 0.05818855
-0.30362174 -0.25819907 0.058090985
-0.30381674 -0.25815222 0.058258489
-0.30400479 -0.25813156 0.058240388
-0.30419999 -0.25810486 0.05826031
-0.30439481 -0.25809208 0.058178768
-0.30457148 -0.25808701 0.058056962
-0.3047601 -0.25804865 0.05816799
-0.30496496 -0.25803748 0.058065657
-0.30514845 -0.25802654 0.057980716
-0.30534366 -0.25799793 0.058014467
-0.30554548 -0.25797516 0.057999771
-0.30573985 -0.25795642 0.057962045
-0.30593428 -0.25793645 0.057933547
-0.30611414 -0.25792107 0.057884358
-0.30630609 -0.25789174 0.0579262
-0.30650836 -0.25786451 0.057943784
-0.30669573 -0.25784427 0.057923377
-0.30688226 -0.25780648 0.05803211
-0.30707714 -0.25778344 0.058025513
-0.30726236 -0.25777623 0.057911739
-0.30745971 -0.25775778 0.057869397
-0.30764744 -0.2577531 0.057734851
-0.30784574 -0.25772837 0.05773747
-0.30804729 -0.25770468 0.057729688
-0.30824175 -0.257682 0.057720788
-0.30842954 -0.25765824 0.057725746
-0.30861774 -0.25761837 0.057848312
-0.30880821 -0.25759855 0.057822138
-0.3090049 -0.25758111 0.057772871
-0.30918983 -0.25755599 0.057790525
-0.30938381 -0.25753543 0.057766646
-0.30957356 -0.25751773 0.057725482
-0.31033203 -0.25745666 0.057490509
-0.31052259 -0.25744531 0.057402067
-0.31070778 -0.25743937 0.05727908
-0.31090054 -0.25742036 0.057244819
-0.31110716 -0.25738108 0.057346549
-0.3112902 -0.2573798 0.057191275
-0.31149334 -0.25734141 0.057289559
-0.31169432 -0.25729164 0.057473168
-0.31189084 -0.2572895 0.057312071
-0.31209865 -0.25725794 0.057356156
-0.31228986 -0.25720116 0.057599749
-0.31248954 -0.25719061 0.057497438
-0.31266978 -0.2571618 0.057546247
-0.31285354 -0.25714076 0.057535093
-0.31304866 -0.25710917 0.057590745
-0.31324035 -0.25709313 0.057535741
-0.31343585 -0.25706846 0.057540677
-0.31363145 -0.25703651 0.057598636
-0.31382483 -0.25702372 0.057518259
-0.31401387 -0.25699887 0.057530142
-0.31421366 -0.25697255 0.057543114
-0.31440216 -0.25694904 0.057545774
-0.31459805 -0.25694382 0.057407737
-0.31478739 -0.25692493 0.0573758
-0.31498411 -0.25689188 0.057440683
-0.31518734 -0.25688437 0.057312995
-0.31538028 -0.2568647 0.057283346
-0.31559357 -0.25685012 0.057198275
-0.31575596 -0.25683168 0.057187203
-0.31595057 -0.25680301 0.057222117
-0.31614047 -0.25678277 0.057199392
-0.31632173 -0.25676596 0.057159428
-0.31652337 -0.25675359 0.057068639
-0.31671357 -0.25672168 0.057131238
-0.31692043 -0.25669512 0.057139575
-0.31710416 -0.25668478 0.057050016
-0.31731015 -0.25665441 0.05708719
-0.31749755 -0.25662249 0.0571521
-0.31768566 -0.25661021 0.057072904
-0.31788316 -0.25658828 0.057055913
-0.31806755 -0.25657138 0.057013623
-0.31826839 -0.25654936 0.056994323
-0.31845641 -0.25652212 0.05702465
-0.31866249 -0.25651157 0.056916554
-0.31884682 -0.25648507 0.056944586
-0.31903109 -0.2564542 0.057004899
-0.31921339 -0.25643554 0.056977611
-0.31940764 -0.25640926 0.056995228
-0.31960204 -0.25638738 0.056980561
-0.3197991 -0.25635746 0.057022382
-0.31998464 -0.25634769 0.056927048
-0.32018211 -0.25632605 0.056907758
-0.32037944 -0.25630036 0.056918442
-0.32055572 -0.25628543 0.056869272
-0.32075799 -0.2562618 0.056860339
-0.32095551 -0.25624016 0.056841053
-0.32115853 -0.25621155 0.056867853
-0.32136512 -0.25620693 0.056715939
-0.32153073 -0.25618494 0.056727909
-0.32171926 -0.25616646 0.056693669
-0.32191157 -0.25615111 0.056632906
-0.32210377 -0.25612038 0.056685112
-0.32229859 -0.25610584 0.056616262
-0.32247666 -0.2560921 0.056556698
-0.32266846 -0.25607339 0.056521293
-0.32285205 -0.25604936 0.05653204
-0.32306394 -0.25601116 0.056621071
-0.32326567 -0.2559849 0.05663174
-0.32344288 -0.2559793 0.05651338
-0.32364658 -0.25594732 0.056564391
-0.32385269 -0.2559199 0.056579657
-0.32404366 -0.25589529 0.056588061
-0.32423979 -0.25587556 0.056556094
-0.32443497 -0.25584996 0.056567952
-0.32461879 -0.25584009 0.056474932
-0.32481185 -0.25583035 0.056372646
-0.32501379 -0.25579762 0.056430589
-0.32519725 -0.25577787 0.056410201
-0.32540601 -0.25574824 0.056439288
-0.32560506 -0.25571901 0.056474175
-0.3257938 -0.2557005 0.056439944
-0.32598698 -0.25568065 0.056411449
-0.32618505 -0.25566226 0.056367941
-0.32638001 -0.2556375 0.056374028
-0.32657692 -0.25560772 0.056414694
-0.32675406 -0.25560072 0.056306709
-0.32696378 -0.25556785 0.056358851
-0.32716653 -0.25556022 0.056232318
-0.32734862 -0.25554505 0.056179665
-0.32752895 -0.25552252 0.056182347
-0.32773632 -0.25548929 0.056239117
-0.32794368 -0.25545621 0.056294717
-0.3281495 -0.25543654 0.056253485
-0.32833734 -0.2554161 0.056234237
-0.32852817 -0.25541893 0.056042042
-0.32867783 -0.25541621 0.055927269
-0.3288942 -0.2553696 0.056073911
-0.32911658 -0.25533482 0.056128308
-0.32932991 -0.25530845 0.056129701
-0.32954022 -0.25528762 0.056093067
-0.32970303 -0.25527573 0.05603357
-0.32987717 -0.25525931 0.055997092
-0.33008927 -0.25523418 0.055990413
-0.33031553 -0.25519407 0.056080535
-0.33049452 -0.25517628 0.056049794
-0.33068886 -0.25515598 0.056023601
-0.33087134 -0.25513524 0.056011293
-0.3310816 -0.25511724 0.055953901
-0.33126879 -0.25510302 0.055889692
-0.33147651 -0.25506896 0.055952217
-0.33169317 -0.25504309 0.055946678
-0.33187994 -0.25502923 0.055880163
-0.33206862 -0.2550112 0.055842474
-0.33226141 -0.2549848 0.055862393
-0.33245361 -0.25496396 0.055841979
-0.33263931 -0.25494093 0.055843491
-0.33286572 -0.254915 0.055829845
-0.3330586 -0.25489378 0.055811729
-0.33325383 -0.2548658 0.055840872
-0.33342782 -0.25484988 0.055800926
-0.33364201 -0.25482652 0.05577926
-0.33383599 -0.25481179 0.055712722
-0.33403006 -0.25478977 0.055699207
-0.33423367 -0.25476521 0.055696033
-0.33440012 -0.25475746 0.055603087
-0.33461657 -0.25472546 0.055642515
-0.33480504 -0.25470558 0.055618659
-0.3350403 -0.25465271 0.055794045
-0.33524123 -0.25464436 0.055674437
-0.33540148 -0.25464571 0.055520423
-0.33560628 -0.25461832 0.055536833
-0.33581549 -0.25458327 0.055605121
-0.33598864 -0.25457266 0.055527136
-0.33619288 -0.25454596 0.055538945
-0.33638108 -0.25452876 0.055495486
-0.33659577 -0.25449905 0.055519931
-0.33675724 -0.25449678 0.055391267
-0.33694226 -0.25448188 0.055333994
-0.3371737 -0.25444034 0.055429846
-0.33737561 -0.25441787 0.05541284
-0.33758444 -0.25438839 0.055440769
-0.3378067 -0.25436026 0.055446744
-0.33798778 -0.25434616 0.055387177
-0.33817863 -0.25432312 0.055384047
-0.3383624 -0.25431138 0.05530487
-0.33857504 -0.25428176 0.055330474
-0.33876795 -0.25426164 0.055304289
-0.33897689 -0.2542285 0.055358745
-0.33918014 -0.25419736 0.055403985
-0.33937028 -0.25418749 0.055305183
-0.33956692 -0.25416708 0.055277824
-0.33976138 -0.25414613 0.05525624
-0.33996212 -0.25412506 0.055230021
-0.34016749 -0.25409696 0.055251047
-0.24642643 -0.26458961 0.062750578
-0.24666737 -0.26456627 0.062704556
-0.24690995 -0.26454198 0.062664308
-0.2471296 -0.2645137 0.062673733
-0.24736261 -0.26448727 0.062657729
-0.24764274 -0.26447412 0.062502004
-0.2478462 -0.26444057 0.062564552
-0.24804214 -0.26440668 0.062636346
-0.24830696 -0.26438865 0.062530272
-0.24855417 -0.26436788 0.062460013
-0.24875377 -0.26433355 0.062531792
-0.24899331 -0.26431105 0.062481172
-0.24920432 -0.26427972 0.062520631
-0.24940951 -0.26424849 0.062564716
-0.24964456 -0.26422352 0.062536024
-0.24992307 -0.26421168 0.06237223
-0.25013292 -0.26418036 0.062412828
-0.25034067 -0.26415005 0.062447686
-0.25059962 -0.26413196 0.06234739
-0.25082108 -0.26410392 0.062353346
-0.25106639 -0.26408243 0.06229002
-0.2512702 -0.26405138 0.062334113
-0.25152165 -0.26403183 0.062251151
-0.25174966 -0.26400757 0.062223651
-0.25193444 -0.26398921 0.06219171
-0.25216541 -0.26395136 0.062261064
-0.25242803 -0.26393062 0.062176894
-0.25262299 -0.26389906 0.062232558
-0.25285134 -0.26387206 0.062224653
-0.25307834 -0.2638481 0.062195994
-0.25331599 -0.26382565 0.062146544
-0.25353897 -0.26380074 0.062128276
-0.2537342 -0.26377782 0.062120512
-0.25398904 -0.26375076 0.062089436
-0.25422063 -0.26372701 0.062054992
-0.25444755 -0.26370367 0.062021717
-0.25468603 -0.26368225 0.061964184
-0.25489742 -0.26365277 0.061989795
-0.25512829 -0.26362926 0.061954208
-0.25533557 -0.26360551 0.06194178
-0.25557241 -0.26357889 0.061923459
-0.25574341 -0.26355785 0.061923869
-0.25598276 -0.26353565 0.061870944
-0.25621668 -0.26349807 0.061935663
-0.25644219 -0.26347351 0.061912782
-0.25666204 -0.26344898 0.061894529
-0.25688383 -0.26342344 0.061882041
-0.25711998 -0.26340434 0.061809532
-0.25734201 -0.26337907 0.061794728
-0.25756198 -0.26335502 0.061773024
-0.25779128 -0.26333234 0.061732821
-0.25798115 -0.26329857 0.061809264
-0.25821179 -0.26327652 0.061763294
-0.25842956 -0.26325208 0.061746206
-0.25864843 -0.26323715 0.061658777
-0.2588585 -0.26320672 0.061692469
-0.25908986 -0.26317811 0.061693773
-0.25931022 -0.26315495 0.061665148
-0.2595177 -0.26312566 0.06169308
-0.25974438 -0.26310486 0.061641354
-0.25998643 -0.2630896 0.061535373
-0.26017135 -0.26305819 0.061599154
-0.26040095 -0.26303136 0.061588936
-0.26060909 -0.26300448 0.06159842
-0.26083121 -0.26298079 0.06157209
-0.26106319 -0.26296267 0.061496124
-0.26128185 -0.26293799 0.061480194
-0.2615158 -0.26292089 0.061395001
-0.2617147 -0.26288915 0.061448336
-0.26192632 -0.26286408 0.06144166
-0.26214007 -0.26283795 0.061440736
-0.26234758 -0.26281145 0.061447911
-0.262568 -0.26278797 0.061421588
-0.26277739 -0.26276237 0.061420694
-0.26300299 -0.26274109 0.061373591
-0.2632198 -0.26271853 0.061343826
-0.26344764 -0.26269838 0.06128633
-0.26367378 -0.2626797 0.061219625
-0.26385069 -0.26263979 0.061352625
-0.26407796 -0.26262179 0.06128015
-0.2643151 -0.26260588 0.061183415
-0.26449063 -0.26256737 0.061307192
-0.2647168 -0.26254728 0.061250865
-0.26493233 -0.26252502 0.061219957
-0.26515144 -0.26250234 0.061189026
-0.26535273 -0.26247442 0.061212368
-0.26555774 -0.26244605 0.061235704
-0.26577252 -0.26242387 0.061204791
-0.26598534 -0.26240101 0.061180808
-0.26620921 -0.26238292 0.061111808
-0.26642197 -0.26235819 0.061101668
-0.26662681 -0.26233217 0.061107695
-0.26684296 -0.26230907 0.061082542
-0.26704413 -0.26228163 0.061102435
-0.26726222 -0.26225954 0.061068051
-0.26748431 -0.26224151 0.061000206
-0.26769558 -0.26221883 0.060976233
-0.26788908 -0.26218823 0.061026134
-0.268114 -0.26216972 0.060959436
-0.26831526 -0.26214275 0.060975865
-0.26853618 -0.26212266 0.060924172
-0.26873529 -0.26209486 0.060948674
-0.26893997 -0.26206967 0.060948946
-0.26916286 -0.26205313 0.060869575
-0.26937231 -0.26202816 0.060864046
-0.26958832 -0.26200867 0.060812376
-0.26978326 -0.26197916 0.060853049
-0.26999784 -0.26195922 0.060805991
-0.270208 -0.26193497 0.060794707
-0.27040631 -0.26190725 0.060819224
-0.27062386 -0.26188913 0.060756013
-0.27081841 -0.26185969 0.060796686
-0.27103508 -0.26184139 0.060735792
-0.27124521 -0.26181996 0.060703747
-0.27144951 -0.26179323 0.060715541
-0.27165684 -0.26177055 0.060695045
-0.2718721 -0.26175213 0.060636461
-0.27206838 -0.26172388 0.06066674
-0.27228311 -0.26170295 0.060626611
-0.27247611 -0.26167306 0.060671899
-0.27267581 -0.26164675 0.060684875
-0.27289203 -0.26162946 0.060617063
-0.27309409 -0.26160458 0.060617346
-0.27330446 -0.26158437 0.060576074
-0.27351347 -0.26156104 0.060559027
-0.27371329 -0.2615352 0.060568545
-0.27392358 -0.26151529 0.060524967
-0.27413115 -0.26149401 0.060494091
-0.27432856 -0.26146704 0.060513996
-0.27454281 -0.26144981 0.060447332
-0.27475405 -0.26142842 0.060414132
-0.27495605 -0.26140434 0.060408644
-0.27515021 -0.26137573 0.060443554
-0.27535379 -0.26135808 0.06038963
-0.27557653 -0.26134139 0.060311407
-0.27576852 -0.26131162 0.060356706
-0.27596501 -0.26128459 0.060377762
-0.27617007 -0.26126015 0.060372263
-0.27636704 -0.26123905 0.060349509
-0.27658111 -0.26122329 0.060272474
-0.27678758 -0.26119724 0.060277343
-0.27698305 -0.26116988 0.06030187
-0.27720386 -0.26115611 0.060204059
-0.27740541 -0.2611329 0.060192809
-0.2776016 -0.26110622 0.060211569
-0.27780557 -0.26108477 0.060185306
-0.27799726 -0.26105517 0.060229458
-0.27821124 -0.26104066 0.060143195
-0.27840868 -0.26101512 0.060152724
-0.27860278 -0.26098728 0.060181864
-0.27882189 -0.26097387 0.060082898
-0.27901679 -0.26094675 0.060106277
-0.27921951 -0.26092824 0.060059272
-0.27942356 -0.26090473 0.060048014
-0.27961618 -0.26087612 0.060084086
-0.27982399 -0.2608586 0.060025528
-0.2800211 -0.26083338 0.060032748
-0.28021792 -0.26081437 0.059995003
-0.28042412 -0.26079294 0.05996643
-0.28063169 -0.26076946 0.0599517
-0.28083092 -0.26074618 0.05994276
-0.28102306 -0.26071751 0.059979983
-0.28122059 -0.26069304 0.059981443
-0.28143013 -0.26067811 0.059902117
-0.28162244 -0.26064971 0.05993703
-0.28182057 -0.26062596 0.059932724
-0.28202963 -0.26060781 0.059877615
-0.28223151 -0.26058739 0.059845615
-0.2824316 -0.26056561 0.059825148
-0.28259009 -0.26054764 0.059814081
-0.28278166 -0.26052594 0.059800565
-0.2829873 -0.26050207 0.059790459
-0.28321433 -0.26046437 0.059862129
-0.28342074 -0.2604486 0.059792038
-0.28362304 -0.26042575 0.059777327
-0.28379098 -0.2604093 0.059746623
-0.28398079 -0.26038656 0.059742346
-0.28422084 -0.26036084 0.059714787
-0.28441131 -0.26033124 0.059760094
-0.28461573 -0.26031476 0.059696928
-0.28481787 -0.26029634 0.059649937
-0.28501403 -0.26027235 0.059649084
-0.28521129 -0.2602495 0.059639014
-0.28541413 -0.26023227 0.059582781
-0.28560892 -0.26020718 0.059591159
-0.28580129 -0.26017973 0.059619159
-0.28600371 -0.26016253 0.05956294
