# .PCD v0.7 - Point Cloud Data file format
VERSION 0.7
FIELDS x y z
SIZE 4 4 4
TYPE F F F
COUNT 1 1 1
WIDTH 1175
HEIGHT 1
VIEWPOINT 0 0 0 1 0 0 0
POINTS 1175
DATA ascii
-0.14571707 -0.46817672 0.024488829
-0.14585517 -0.46825567 0.024534237
-0.14598738 -0.46833503 0.024554312
-0.14611614 -0.46841353 0.024566326
-0.14625357 -0.4684906 0.024620967
-0.14638929 -0.46856862 0.024662938
-0.14652765 -0.46864811 0.024706034
-0.14666054 -0.46872512 0.024743402
-0.14679767 -0.46880293 0.024792274
-0.14693846 -0.46887931 0.024864204
-0.14707802 -0.46895641 0.024926903
-0.14722207 -0.4690319 0.025017262
-0.14736852 -0.46910906 0.025106449
-0.14751285 -0.46918488 0.025195647
-0.14766125 -0.46925938 0.025309049
-0.15648322 -0.47109482 0.048207622
-0.15663674 -0.4711875 0.048227578
-0.15676259 -0.4712714 0.048194636
-0.15690187 -0.47135979 0.048185844
-0.15704998 -0.47145817 0.048149321
-0.15719995 -0.47155619 0.048122022
-0.15736099 -0.47165468 0.04813502
-0.15750811 -0.47175094 0.04810774
-0.15766378 -0.47184813 0.048108079
-0.15781668 -0.471948 0.048080765
-0.15797794 -0.47204441 0.048107598
-0.15813404 -0.47214389 0.048095256
-0.15828364 -0.47224209 0.048065651
-0.15843564 -0.47234213 0.048033725
-0.15858792 -0.47243997 0.048016783
-0.15874925 -0.47253883 0.048028629
-0.15890385 -0.47263643 0.048022065
-0.1590564 -0.47273648 0.047992446
-0.15920883 -0.47283864 0.047948979
-0.15936413 -0.4729341 0.047958557
-0.15951441 -0.47303438 0.047918558
-0.15966265 -0.47313488 0.047869354
-0.15982404 -0.47323191 0.047892738
-0.15998247 -0.47332934 0.04790229
-0.16013536 -0.47342938 0.047873817
-0.16028541 -0.4735297 0.047832683
-0.16044115 -0.47362748 0.047829561
-0.16061005 -0.47372627 0.047871351
-0.16076595 -0.4738282 0.047842864
-0.160906 -0.47392726 0.047770638
-0.16105586 -0.47402155 0.047766399
-0.16122887 -0.47412235 0.047811635
-0.16138111 -0.4742246 0.047767017
-0.16153675 -0.47432062 0.047774285
-0.16168085 -0.47442332 0.047695119
-0.16184147 -0.47452509 0.047686212
-0.16199316 -0.47462142 0.047676191
-0.16214438 -0.47472173 0.047639661
-0.16231772 -0.47481719 0.047719479
-0.16246501 -0.47491968 0.047654133
-0.16260798 -0.47501647 0.047607269
-0.16277695 -0.47511622 0.047643289
-0.16290383 -0.47521928 0.047495022
-0.16305801 -0.47531569 0.047494221
-0.16323856 -0.47541344 0.047587842
-0.16338822 -0.47551391 0.047544397
-0.16354561 -0.47561231 0.047543578
-0.16371524 -0.47571248 0.047579605
-0.16386034 -0.47581118 0.047529258
-0.16402933 -0.47591335 0.047550291
-0.16418147 -0.47601387 0.047516063
-0.16433242 -0.47611624 0.047465682
-0.16447933 -0.47621125 0.047445323
-0.1646485 -0.47630817 0.047499798
-0.1648041 -0.47640696 0.047489759
-0.16495609 -0.47650757 0.047454372
-0.16510223 -0.47660452 0.047419019
-0.16525868 -0.47670698 0.047389377
-0.16541748 -0.47680593 0.047390856
-0.16556416 -0.47690472 0.047346272
-0.16571636 -0.4770036 0.047322422
-0.16587645 -0.47710446 0.047316976
-0.16602625 -0.47720331 0.047283903
-0.1661821 -0.47730413 0.047262333
-0.16633382 -0.47740307 0.047236174
-0.16650248 -0.47750264 0.047272205
-0.16664867 -0.47760147 0.047225315
-0.16681072 -0.47770262 0.047225628
-0.16696446 -0.47780007 0.047216758
-0.16711579 -0.47789916 0.047188293
-0.16727385 -0.47799855 0.047184009
-0.16743459 -0.47809815 0.047188938
-0.16760363 -0.47820333 0.047191523
-0.16775095 -0.4783023 0.047148094
-0.16788851 -0.47839907 0.047080491
-0.1680544 -0.47849745 0.047113068
-0.16822541 -0.47859958 0.04714217
-0.16837616 -0.47869721 0.047120627
-0.16853553 -0.47879872 0.047108267
-0.16867936 -0.47889921 0.047041781
-0.1688519 -0.47899842 0.04709509
-0.16900317 -0.47909784 0.047064316
-0.16915651 -0.47919744 0.047040459
-0.16929968 -0.47929791 0.046971675
-0.16945007 -0.47939566 0.046947826
-0.16961962 -0.47949985 0.046958476
-0.16977917 -0.47960165 0.046944965
-0.16992964 -0.47970113 0.046910737
-0.17009817 -0.47980061 0.046946771
-0.17024703 -0.4799 0.04690678
-0.17039175 -0.47999904 0.046852987
-0.17055984 -0.4801034 0.046856727
-0.17071716 -0.4802005 0.046863973
-0.17087179 -0.48030055 0.046842411
-0.17102225 -0.48040017 0.046807043
-0.17118189 -0.48050392 0.046781994
-0.17133425 -0.48060068 0.046771973
-0.17149174 -0.4807027 0.046749245
-0.17165871 -0.48080266 0.046776056
-0.17182273 -0.48090395 0.046783276
-0.17198409 -0.48100653 0.046772055
-0.17214039 -0.48110706 0.046753943
-0.1722862 -0.48120639 0.046702452
-0.17245463 -0.4813084 0.04672233
-0.17259392 -0.48140699 0.046650108
-0.17275962 -0.48150876 0.046660781
-0.17292283 -0.48160881 0.046672616
-0.17308331 -0.48171157 0.046656787
-0.17323264 -0.48180997 0.046624877
-0.17339922 -0.48191211 0.046636704
-0.17356557 -0.48201576 0.046638142
-0.1737249 -0.48211709 0.046626933
-0.17387263 -0.48221686 0.046580043
-0.17401962 -0.48231509 0.046540063
-0.17417191 -0.48241699 0.046497755
-0.17432767 -0.48251793 0.046475038
-0.17449157 -0.48262006 0.046476491
-0.17465563 -0.48272082 0.046487171
-0.17480397 -0.48282081 0.046441425
-0.17496663 -0.48292291 0.046438277
-0.17514187 -0.48302695 0.046471961
-0.17528298 -0.48312593 0.046404339
-0.17544481 -0.48322806 0.046397734
-0.17561774 -0.48333195 0.046423357
-0.17576681 -0.4834322 0.046378765
-0.17591552 -0.48353243 0.046333019
-0.1760833 -0.48363569 0.046342518
-0.17624804 -0.48373854 0.04634282
-0.17639412 -0.48383841 0.046289016
-0.1765703 -0.48394322 0.046321537
-0.1767209 -0.4840439 0.046280399
-0.17686832 -0.48414406 0.04623004
-0.17704049 -0.4842484 0.046249907
-0.17720754 -0.48435193 0.046254802
-0.17736861 -0.48445454 0.046242431
-0.17753963 -0.48455888 0.046257693
-0.17769274 -0.48466021 0.046222299
-0.17783806 -0.48476014 0.046165034
-0.178002 -0.48486343 0.046159569
-0.17817478 -0.48496833 0.046178281
-0.17832692 -0.48506957 0.046139434
-0.17849497 -0.48517376 0.046144322
-0.17864725 -0.48527509 0.046105474
-0.17881769 -0.48537984 0.046116121
-0.17898321 -0.48548374 0.046112955
-0.17914675 -0.4855873 0.046104033
-0.17929128 -0.48568732 0.046043321
-0.17944817 -0.48578969 0.046015974
-0.17962655 -0.48589626 0.046046186
-0.17978582 -0.4859992 0.046024606
-0.17994389 -0.48610196 0.045999564
-0.18010847 -0.48620468 0.045999866
-0.1802642 -0.48630837 0.045959838
-0.18042119 -0.48640969 0.045939423
-0.18057743 -0.48651221 0.045908622
-0.1807543 -0.48661765 0.045940001
-0.18090071 -0.48671958 0.045874659
-0.18108103 -0.48682716 0.045906007
-0.18123326 -0.48692903 0.045863699
-0.18140197 -0.48703438 0.045863979
-0.18154991 -0.48713538 0.045810167
-0.18171929 -0.48724097 0.04581159
-0.1015023 -0.43981522 0.029139804
-0.10166603 -0.43993112 0.029054761
-0.10183164 -0.44004783 0.028972007
-0.10198776 -0.44015417 0.028916989
-0.10214531 -0.44026065 0.028866574
-0.1023043 -0.44036731 0.028820772
-0.10245714 -0.44046789 0.028788839
-0.10261068 -0.44056761 0.028764974
-0.10276272 -0.44066548 0.028746884
-0.10291511 -0.44076392 0.028726492
-0.10306842 -0.44086573 0.02868879
-0.10321639 -0.4409605 0.028674182
-0.10336873 -0.44105929 0.028651483
-0.1035158 -0.44115108 0.028651867
-0.10367002 -0.44125068 0.028631467
-0.10381606 -0.44134128 0.028635316
-0.10396646 -0.44143996 0.028605707
-0.10411742 -0.4415375 0.028585315
-0.10426526 -0.44162884 0.028591476
-0.10441465 -0.44172451 0.02857686
-0.10456167 -0.44181904 0.028559947
-0.10470948 -0.44191483 0.028538421
-0.10486037 -0.44201085 0.028527258
-0.10500769 -0.4421041 0.028519573
-0.10515581 -0.44219857 0.028507276
-0.1052999 -0.44228962 0.028500758
-0.10545018 -0.44238529 0.028489597
-0.10559143 -0.44247252 0.028495792
-0.10573217 -0.44255477 0.028530817
-0.1058721 -0.44264024 0.028542779
-0.10802185 -0.44491529 0.022732405
-0.10815863 -0.44500917 0.022679795
-0.10829426 -0.44510585 0.022605283
-0.10842794 -0.44519332 0.022580365
-0.10856507 -0.44528389 0.02254967
-0.10869627 -0.44536579 0.022550143
-0.10882291 -0.44543868 0.022588704
-0.10897394 -0.44554386 0.022521017
-0.10911655 -0.44563213 0.022526046
-0.10925241 -0.44571248 0.02255418
-0.10937938 -0.44578835 0.022575442
-0.10951933 -0.44587958 0.022551648
-0.1096452 -0.44595164 0.022592513
-0.10978093 -0.44602969 0.022634488
-0.10992426 -0.44611952 0.022632591
-0.11005206 -0.44619462 0.022661917
-0.11019059 -0.44628179 0.022657741
-0.11032654 -0.44636035 0.022697402
-0.110456 -0.44644058 0.022701344
-0.11058573 -0.44651654 0.022732968
-0.11072391 -0.44660351 0.022728793
-0.11085949 -0.44668645 0.02273963
-0.11099268 -0.44676808 0.02274931
-0.1111218 -0.44684568 0.022768252
-0.11125499 -0.44692251 0.022807937
-0.11139078 -0.44700855 0.022800306
-0.11152747 -0.44709367 0.022801906
-0.11165825 -0.44717672 0.022793151
-0.11178438 -0.44725227 0.022813261
-0.11193126 -0.44734174 0.022827493
-0.11207277 -0.44743264 0.02281177
-0.11221536 -0.4475255 0.022787962
-0.11233391 -0.44759911 0.022790805
-0.11246562 -0.44767389 0.022837419
-0.11259958 -0.44775248 0.022869023
-0.11274523 -0.44784302 0.022871723
-0.11287764 -0.44792712 0.022862962
-0.11301555 -0.44801542 0.022849558
-0.11314902 -0.4480989 0.022848867
-0.11327336 -0.44817758 0.022842459
-0.11340418 -0.44825384 0.022876387
-0.11352763 -0.44832271 0.022927646
-0.11364677 -0.44839239 0.02295702
-0.11377308 -0.44846919 0.022970207
-0.11390585 -0.44855186 0.02297182
-0.11403824 -0.44863391 0.022975745
-0.11417026 -0.44871831 0.022963535
-0.11430369 -0.44879955 0.022976683
-0.11443337 -0.448874 0.023017526
-0.11455845 -0.44894591 0.023056097
-0.11468509 -0.4490177 0.023101578
-0.11481325 -0.4490923 0.023135513
-0.11493613 -0.4491601 0.023191392
-0.11506489 -0.4492358 0.023220712
-0.1151941 -0.44931549 0.023226965
-0.11532857 -0.44939905 0.023229729
-0.11546407 -0.44949099 0.023184044
-0.11559098 -0.4495602 0.023246823
-0.1157057 -0.4496088 0.023390405
-0.11583982 -0.44969511 0.023374712
-0.11597644 -0.44978645 0.0233371
-0.11611057 -0.44986978 0.023339866
-0.1162368 -0.44994077 0.023388807
-0.11637191 -0.45002618 0.02338234
-0.11650039 -0.45010173 0.023411663
-0.11662768 -0.45017487 0.023451371
-0.11675847 -0.45025519 0.023459924
-0.11688948 -0.45033249 0.023488073
-0.11701234 -0.45039636 0.023568181
-0.11714289 -0.45047265 0.023600951
-0.11727942 -0.45056525 0.02355526
-0.11741981 -0.45066637 0.023471493
-0.1175551 -0.45075321 0.023456946
-0.11768104 -0.45081994 0.023531266
-0.1177972 -0.4508689 0.023678299
-0.11793022 -0.4509508 0.023685681
-0.11805891 -0.45102701 0.023711544
-0.11819513 -0.45112017 0.023661247
-0.11832416 -0.45119736 0.023682486
-0.11845525 -0.45127526 0.023707187
-0.11858269 -0.45134479 0.023769962
-0.1187089 -0.45141131 0.023846578
-0.11884054 -0.45149457 0.023840139
-0.11896613 -0.45156369 0.023898304
-0.11909169 -0.45163682 0.023931103
-0.11922801 -0.45172727 0.0238981
-0.11935859 -0.45180836 0.023900885
-0.11949516 -0.45189545 0.023889801
-0.11962172 -0.45196682 0.023937581
-0.11975057 -0.45204389 0.023958832
-0.1198829 -0.45212516 0.023967378
-0.12001621 -0.45221373 0.023934392
-0.12014022 -0.45227852 0.024013335
-0.12027088 -0.45236042 0.024011498
-0.12040551 -0.45244813 0.023988886
-0.12052868 -0.45251036 0.02408052
-0.12065742 -0.45258734 0.024101773
-0.12079147 -0.45267376 0.024084922
-0.12092039 -0.45275143 0.024102712
-0.12105447 -0.45283306 0.024115857
-0.12117545 -0.45290428 0.024142912
-0.12130558 -0.45298013 0.024176834
-0.12143624 -0.45306295 0.024169244
-0.12156949 -0.4531424 0.024192778
-0.12169878 -0.45322141 0.024203639
-0.12182818 -0.45330086 0.024212191
-0.12195656 -0.45337725 0.024235755
-0.12208921 -0.45346096 0.02423045
-0.12221704 -0.45353571 0.024262086
-0.12234424 -0.45360842 0.024304094
-0.12248038 -0.45369744 0.024279173
-0.12261137 -0.45377621 0.024298104
-0.12273784 -0.45384642 0.024352813
-0.12286903 -0.45393255 0.024326758
-0.12299769 -0.45401025 0.024343396
-0.12312331 -0.45408416 0.024371574
-0.12325417 -0.45416269 0.024391655
-0.12337931 -0.45423484 0.024429074
-0.12350826 -0.45431364 0.024439937
-0.12363859 -0.45439774 0.024423117
-0.12376756 -0.45447689 0.024431668
-0.12389751 -0.45455205 0.024469063
-0.12402536 -0.45462683 0.024500698
-0.12415361 -0.45470315 0.024524253
-0.1242878 -0.45478728 0.024522401
-0.12441704 -0.4548679 0.024522884
-0.12454744 -0.45494485 0.024551045
-0.124678 -0.45502242 0.024575748
-0.12480322 -0.45509443 0.024614308
-0.12493201 -0.45517331 0.02462402
-0.12505966 -0.45525685 0.024600295
-0.12518901 -0.45533887 0.024592699
-0.12532224 -0.4554196 0.024608159
-0.12545237 -0.45549524 0.024643242
-0.12558295 -0.45557302 0.024666784
-0.12571159 -0.45565179 0.024676498
-0.1258378 -0.45572907 0.024686225
-0.12596615 -0.45580637 0.024704013
-0.12609729 -0.45588765 0.024707954
-0.12622765 -0.45596418 0.024738416
-0.12635595 -0.45604128 0.024757363
-0.12648496 -0.45612326 0.024748618
-0.12661353 -0.45620236 0.024756024
-0.12674154 -0.45627761 0.024785347
-0.12687179 -0.45635295 0.02482274
-0.12699802 -0.45643115 0.024826698
-0.12712674 -0.45651186 0.024824876
-0.12725498 -0.45658872 0.024844971
-0.12738304 -0.45666382 0.024875455
-0.12751369 -0.45674217 0.024895538
-0.12764189 -0.45681828 0.024920244
-0.1277751 -0.45690012 0.024928784
-0.12791057 -0.45698208 0.02494538
-0.12803838 -0.45705238 0.025004692
-0.1281642 -0.45712569 0.025037488
-0.12829281 -0.45720688 0.025032217
-0.12841925 -0.45729113 0.024999259
-0.12854791 -0.45737603 0.024970919
-0.12867612 -0.45745197 0.024996784
-0.12880684 -0.45753279 0.025001869
-0.12893507 -0.45760834 0.025030043
-0.12906571 -0.45768541 0.025058195
-0.12919398 -0.45776027 0.025090978
-0.12932467 -0.45784 0.02510299
-0.12945302 -0.45791969 0.025105789
-0.12958372 -0.4579981 0.02512587
-0.12971207 -0.45807302 0.025158653
-0.12984283 -0.45815089 0.025182195
-0.12997116 -0.45823005 0.025188453
-0.13010177 -0.45831227 0.02518432
-0.13023011 -0.45839015 0.025198642
-0.13035867 -0.45846388 0.025239503
-0.13048698 -0.45854264 0.02524806
-0.13061756 -0.4586243 0.025247386
-0.13074596 -0.45870164 0.025265172
-0.13087668 -0.45878118 0.025278347
-0.13100494 -0.4588601 0.025285752
-0.13113561 -0.45894015 0.025295457
-0.13126357 -0.45902184 0.025284408
-0.1313943 -0.4591012 0.02529873
-0.13152261 -0.45917922 0.025311906
-0.1316538 -0.45925498 0.025350442
-0.13178429 -0.4593364 0.025350921
-0.13191399 -0.45942289 0.025316793
-0.13204227 -0.45950106 0.025328821
-0.13217294 -0.45958075 0.025340823
-0.13230027 -0.45966446 0.025314791
-0.13243182 -0.45975357 0.025271438
-0.13256368 -0.4598403 0.02524423
-0.13269345 -0.45992368 0.025229713
-0.13282533 -0.46000949 0.025208272
-0.13295241 -0.46009231 0.025186852
-0.13308574 -0.46018291 0.025141178
-0.13321681 -0.46027097 0.025102437
-0.13336274 -0.46037558 0.02501864
-0.13349673 -0.46047232 0.024937209
-0.13362305 -0.46056595 0.024845429
-0.13374531 -0.46066332 0.024714468
-0.13387246 -0.4607521 0.024656141
-0.13399926 -0.46084139 0.024593197
-0.13412371 -0.46093771 0.024477212
-0.13424675 -0.46102855 0.024390072
-0.13437054 -0.46112505 0.02427063
-0.1344922 -0.46121833 0.02416274
-0.13461627 -0.46131203 0.024061756
-0.13473879 -0.46140125 0.023982687
-0.13486113 -0.46149811 0.023855185
-0.13498248 -0.46159658 0.02371384
-0.13510652 -0.46168712 0.023632454
-0.13522667 -0.46177948 0.023524571
-0.13534743 -0.46187666 0.023389
-0.13546865 -0.46196485 0.023311097
-0.13559106 -0.46205658 0.023215881
-0.13571085 -0.46215352 0.023078004
-0.13583204 -0.46224654 0.022970116
-0.13595092 -0.46233734 0.022866853
-0.13607208 -0.46242905 0.022767033
-0.13619049 -0.46251959 0.022663768
-0.1363114 -0.46261054 0.022567412
-0.13643084 -0.46270376 0.022451455
-0.13655075 -0.46279541 0.022347024
-0.13666984 -0.46288228 0.022269132
-0.13678929 -0.46297365 0.022164704
-0.13690336 -0.46306849 0.022017641
-0.13702197 -0.46316007 0.021908598
-0.13713804 -0.46325004 0.021799587
-0.1372585 -0.46333742 0.021723988
-0.13737623 -0.46342883 0.02161265
-0.13761035 -0.46360707 0.021413058
-0.13772646 -0.46369931 0.0212902
-0.13784145 -0.46378788 0.021185795
-0.13793941 -0.46390539 0.020834658
-0.13804387 -0.46398425 0.020749917
-0.13814582 -0.46404782 0.020750551
-0.13825929 -0.46411824 0.020753419
-0.13838503 -0.46419445 0.02076776
-0.13850717 -0.46427992 0.02071061
-0.13930608 -0.4640187 0.025448052
-0.13941222 -0.46410266 0.025337927
-0.13953246 -0.46419081 0.02525657
-0.13966671 -0.46426642 0.025307778
-0.13980995 -0.46434027 0.025405072
-0.13993262 -0.46441293 0.025429806
-0.14006285 -0.46448955 0.025459122
-0.14018968 -0.46456999 0.025451548
-0.14031789 -0.46465296 0.025433579
-0.14044337 -0.46473476 0.025412166
-0.14057083 -0.46481836 0.025387291
-0.1406951 -0.46490124 0.025354344
-0.14082377 -0.46498728 0.025319079
-0.14094634 -0.46506783 0.025294228
-0.14109902 -0.46513444 0.025473358
-0.1412449 -0.46520439 0.025605254
-0.14137149 -0.46528894 0.025571145
-0.14148603 -0.46537703 0.025467893
-0.14159204 -0.46547237 0.025286268
-0.1417021 -0.4655636 0.025146138
-0.14183241 -0.46564752 0.025130466
-0.14197405 -0.46572185 0.025218546
-0.14210086 -0.46579504 0.025255948
-0.14222457 -0.46587425 0.025243774
-0.1423547 -0.46595508 0.025246561
-0.14248468 -0.46603602 0.0252482
-0.14261419 -0.46611735 0.025245221
-0.14273876 -0.46619916 0.025220353
-0.14285967 -0.46628365 0.02516436
-0.14297318 -0.46638298 0.024987303
-0.14305857 -0.46648303 0.024696209
-0.14317624 -0.46656567 0.024639081
-0.14330871 -0.46664724 0.024646476
-0.14342888 -0.46673107 0.024591636
-0.14354587 -0.46681386 0.024531053
-0.14367996 -0.46689126 0.024570733
-0.14380339 -0.46697271 0.024543563
-0.14392561 -0.46705192 0.024525627
-0.1440575 -0.46713385 0.024528407
-0.14418845 -0.46721056 0.024560023
-0.14431496 -0.46729004 0.024557063
-0.1444446 -0.46737057 0.024559852
-0.14456764 -0.46745214 0.024530375
-0.14469792 -0.46753234 0.024537781
-0.14482355 -0.46761516 0.024510596
-0.14495952 -0.46769223 0.024559485
-0.1450841 -0.46777016 0.024558844
-0.14520834 -0.46785098 0.024538597
-0.14534837 -0.46792895 0.024597844
-0.14547257 -0.46800718 0.024593744
-0.14560902 -0.46808454 0.024642631
-0.14574027 -0.468162 0.024670789
-0.14587966 -0.46824086 0.02472196
-0.14601766 -0.4683179 0.024778916
-0.14615631 -0.46839482 0.02483933
-0.14629565 -0.46847159 0.024903197
-0.1464316 -0.46854752 0.024959005
-0.14656873 -0.4686231 0.025021736
-0.14671336 -0.46870062 0.025101725
-0.14685453 -0.46877483 0.025188649
-0.14700148 -0.46884933 0.02529631
-0.14714958 -0.46892363 0.025409725
-0.15536126 -0.47038665 0.048253853
-0.15553278 -0.47048005 0.048339464
-0.15565649 -0.47056702 0.048278853
-0.15578851 -0.47065699 0.04823203
-0.15593421 -0.47075129 0.048211664
-0.15610264 -0.47084808 0.048263855
-0.15625891 -0.47094509 0.048267663
-0.15641572 -0.47103259 0.048332583
-0.15657824 -0.47113091 0.048352502
-0.15671562 -0.47123626 0.048230689
-0.15686932 -0.47133386 0.048220668
-0.15702976 -0.47143495 0.048215222
-0.15716134 -0.47153407 0.048109587
-0.15732028 -0.47163311 0.048111066
-0.15747407 -0.471733 0.048087198
-0.15763101 -0.47183466 0.048064474
-0.15778428 -0.47192791 0.048079822
-0.15795565 -0.47202972 0.048112389
-0.15809779 -0.4721314 0.048032064
-0.15824278 -0.47222596 0.048007093
-0.15838966 -0.47232467 0.047963656
-0.15853271 -0.47241727 0.047943305
-0.15870927 -0.47251216 0.048039276
-0.15885785 -0.47261286 0.047990069
-0.15902752 -0.47271746 0.047998413
-0.1591852 -0.47281924 0.047977991
-0.15934342 -0.47292095 0.047959868
-0.15949956 -0.47302082 0.047945227
-0.15964559 -0.47311753 0.047911011
-0.15979442 -0.47321394 0.047889482
-0.15995383 -0.47331771 0.047863282
-0.16011371 -0.47341937 0.04785208
-0.1602667 -0.47351336 0.047861662
-0.16040653 -0.47361064 0.047799803
-0.16057774 -0.47370937 0.047850821
-0.16071676 -0.47380668 0.047785521
-0.16086388 -0.47390738 0.047730543
-0.16101155 -0.47400197 0.047715936
-0.16116959 -0.47409987 0.04772089
-0.16134426 -0.47420079 0.047771886
-0.16149025 -0.47430357 0.047699619
-0.16164933 -0.47440156 0.04770802
-0.1617966 -0.4744983 0.047678426
-0.1619578 -0.47460023 0.047670666
-0.16211031 -0.47469673 0.047662962
-0.16227093 -0.4747968 0.047664434
-0.16242774 -0.47489709 0.047649778
-0.16258639 -0.47499928 0.047630504
-0.1627268 -0.47509634 0.047572102
-0.16287644 -0.47519308 0.047551725
-0.16304632 -0.47529116 0.047601588
-0.1631991 -0.47539172 0.047569659
-0.16336335 -0.47549388 0.04757227
-0.163517 -0.47559258 0.04755532
-0.16367617 -0.4756912 0.047560271
-0.16382647 -0.47579184 0.047517963
-0.16397557 -0.47589064 0.047482591
-0.16413726 -0.47599122 0.047485217
-0.16429465 -0.47608817 0.047493625
-0.16445738 -0.47619069 0.047488175
-0.16459386 -0.47628954 0.047403272
-0.16475257 -0.47638842 0.047404751
-0.164903 -0.47648731 0.047373984
-0.16507576 -0.47659186 0.047395006
-0.16523564 -0.47669092 0.047399938
-0.16538064 -0.47679159 0.047336906
-0.16553326 -0.47688702 0.04733612
-0.1656964 -0.47698629 0.047352575
-0.1658566 -0.47708556 0.047357507
-0.16600163 -0.47718978 0.047272556
-0.16614892 -0.47728521 0.047251035
-0.16632375 -0.47738677 0.047298573
-0.16647796 -0.4774895 0.047258563
-0.16662407 -0.47758847 0.047210511
-0.16679394 -0.4776901 0.047238465
-0.16694994 -0.47778952 0.047226124
-0.167115 -0.47789106 0.047235649
-0.16727066 -0.47799397 0.047200244
-0.16742364 -0.47809333 0.04717638
-0.16757117 -0.47819245 0.04713295
-0.16774109 -0.47829446 0.047158595
-0.16788119 -0.47839153 0.047099046
-0.16805266 -0.47849709 0.047108538
-0.16821441 -0.4785988 0.047104236
-0.16835617 -0.47869763 0.047040068
-0.16850848 -0.47879383 0.047033515
-0.16868302 -0.47889817 0.047062594
-0.16882512 -0.47899702 0.046999577
-0.16901411 -0.47909763 0.04710817
-0.16915609 -0.4792031 0.047003627
-0.16931671 -0.47930503 0.046993569
-0.1694808 -0.47940728 0.046995029
-0.16965231 -0.47951344 0.04700106
-0.16978946 -0.4796055 0.046961136
-0.16993953 -0.4797051 0.046924602
-0.17010902 -0.47980961 0.046932951
-0.17028093 -0.47991601 0.046938982
-0.17043264 -0.48001108 0.046937041
-0.17058751 -0.4801144 0.046895869
-0.1707429 -0.48021308 0.046885841
-0.17090452 -0.48031712 0.046866551
-0.17105246 -0.48041666 0.046821944
-0.17121826 -0.48051962 0.046825707
-0.17137395 -0.48061845 0.046815667
-0.17154321 -0.48072192 0.04682979
-0.17168476 -0.48081931 0.046773694
-0.17186369 -0.4809255 0.046808518
-0.17198327 -0.48102045 0.046682183
-0.17216785 -0.48112738 0.046734285
-0.17230892 -0.48122782 0.046657424
-0.17249185 -0.48133168 0.046722226
-0.17263407 -0.48143226 0.046648826
-0.17280424 -0.48153776 0.046653707
-0.17295967 -0.48163849 0.04663099
-0.17313373 -0.48174161 0.04666584
-0.17327107 -0.48183861 0.046595931
-0.17344394 -0.48194468 0.046607722
-0.17359069 -0.48204443 0.046557367
-0.1737747 -0.48215061 0.046611771
-0.17392421 -0.48225227 0.04656025
-0.17408587 -0.4823541 0.046554796
-0.17424652 -0.48245439 0.046555117
-0.17440689 -0.48255616 0.046545062
-0.17456423 -0.48265901 0.046516567
-0.17471668 -0.48275971 0.046482325
-0.17488682 -0.48286593 0.046482597
-0.17504917 -0.48296672 0.046486378
-0.17519639 -0.48306677 0.046436019
-0.17536178 -0.48317242 0.046421316
-0.17552818 -0.48327684 0.046418145
-0.1756705 -0.48337474 0.046362046
-0.17582998 -0.48347819 0.046338156
-0.17600854 -0.48358467 0.046369523
-0.17615323 -0.48368442 0.046311099
-0.17632386 -0.48378837 0.046327524
-0.17647609 -0.48389077 0.046281748
-0.17663454 -0.48399282 0.046262473
-0.1768046 -0.48409826 0.046267364
-0.17697255 -0.484202 0.046274565
-0.17715713 -0.48431003 0.046319745
-0.17729691 -0.48440912 0.046246354
-0.17745627 -0.48451155 0.046228234
-0.17762189 -0.48461515 0.046227377
-0.17777011 -0.4847171 0.046168935
-0.1779595 -0.48482499 0.046233699
-0.17812654 -0.48493037 0.046227068
-0.17827481 -0.48503107 0.046176702
-0.1784291 -0.48513421 0.046134382
-0.17858875 -0.485237 0.046115104
-0.17874679 -0.48533955 0.04609121
-0.17892236 -0.48544675 0.04610645
-0.17908072 -0.48555082 0.046074487
-0.17926106 -0.48565638 0.046118535
-0.17941071 -0.48575884 0.046062402
-0.17958467 -0.4858647 0.046079949
-0.17973617 -0.48596758 0.046028417
-0.17992076 -0.48607561 0.046073601
-0.18006895 -0.48617792 0.046012849
-0.18023573 -0.48628259 0.046009686
-0.1804001 -0.48638818 0.045991529
-0.18055972 -0.4864915 0.04596879
-0.18073045 -0.48659846 0.045966744
-0.18088895 -0.48670167 0.045940552
-0.18105158 -0.48680708 0.045916647
-0.18120275 -0.48690882 0.045870874
-0.18136907 -0.48701376 0.045864247
-0.18153195 -0.48711804 0.045848418
-0.18169004 -0.48722264 0.045811839
-0.095596232 -0.4321475 0.053935833
-0.095780887 -0.43226558 0.053918697
-0.095962912 -0.43238035 0.053911962
-0.096142352 -0.43249184 0.053915627
-0.096322954 -0.43260497 0.053913511
-0.096520059 -0.43274009 0.053838633
-0.096698813 -0.43284875 0.053857293
-0.096882761 -0.43296677 0.053837858
-0.10518773 -0.44217023 0.028808199
-0.10534719 -0.44228274 0.028727747
-0.10550635 -0.44239503 0.028647298
-0.1056631 -0.4425042 0.028577249
-0.10581825 -0.44260696 0.028540667
-0.10596959 -0.44270661 0.028508712
-0.10612301 -0.4428094 0.028465211
-0.1062728 -0.44290718 0.028439034
-0.10641907 -0.44300216 0.028416347
-0.10656649 -0.44309679 0.028400563
-0.10671309 -0.44319031 0.028388243
-0.10686662 -0.44329187 0.028352818
-0.10701068 -0.4433842 0.028338213
-0.10715897 -0.44348067 0.028314356
-0.10730883 -0.44357955 0.02828126
-0.1074497 -0.44366527 0.028295506
-0.10759953 -0.44376212 0.028275101
-0.10774422 -0.44385371 0.02826741
-0.10789036 -0.44394529 0.02826548
-0.10803645 -0.44403926 0.028248554
-0.10818261 -0.44413343 0.028230468
-0.10833269 -0.44423139 0.028204288
-0.1084765 -0.44432464 0.028182767
-0.10862216 -0.44441855 0.028164683
-0.10876525 -0.44450858 0.02816046
-0.10891548 -0.44460735 0.028129674
-0.1090571 -0.44469535 0.028132379
-0.1092018 -0.44478828 0.028116617
-0.10934621 -0.4448784 0.028116997
-0.10949083 -0.44497144 0.028100081
-0.10963568 -0.44506499 0.02808086
-0.10977633 -0.44515204 0.02808588
-0.10992225 -0.44524756 0.028058566
-0.11006682 -0.44533852 0.028054345
-0.1102113 -0.44543204 0.028033957
-0.11035356 -0.44552213 0.028026281
-0.11049625 -0.44561303 0.028015142
-0.11064067 -0.44570687 0.027992457
-0.11078534 -0.44579864 0.027983617
-0.11093152 -0.44589302 0.027964378
-0.11106928 -0.445979 0.027964804
-0.11121437 -0.44607455 0.027934037
-0.11135699 -0.44616616 0.027918279
-0.11150149 -0.44625559 0.027923286
-0.11164265 -0.44634777 0.027898308
-0.11178555 -0.44643754 0.027895236
-0.11192766 -0.44652879 0.027879491
-0.11207115 -0.44662261 0.027853351
-0.11221281 -0.44671345 0.027838748
-0.11235489 -0.44680232 0.02783799
-0.1124958 -0.44689208 0.027826861
-0.11263724 -0.44698295 0.027811119
-0.11278114 -0.44707537 0.027795356
-0.11292118 -0.44716406 0.027787689
-0.11306353 -0.44725698 0.027762705
-0.11320366 -0.44734609 0.027752731
-0.11334461 -0.44743684 0.027735831
-0.11348738 -0.44752797 0.027723543
-0.11363049 -0.44761989 0.027707782
-0.11376681 -0.44770572 0.027703596
-0.11390892 -0.44779608 0.027693611
-0.11404835 -0.44788474 0.027683649
-0.11418871 -0.44797531 0.027665593
-0.11432835 -0.44806468 0.027652163
-0.114467 -0.44815233 0.027645655
-0.11460715 -0.44824293 0.02762646
-0.11474644 -0.44833207 0.027613033
-0.11488676 -0.44842336 0.027590366
-0.1150285 -0.44851422 0.027575763
-0.11516374 -0.44860271 0.027550817
-0.11530481 -0.44869259 0.027539687
-0.11544453 -0.44877997 0.027538953
-0.11558512 -0.4488692 0.027530124
-0.11572346 -0.44895759 0.027517859
-0.1158637 -0.4490464 0.027510185
-0.11600196 -0.44913492 0.027496759
-0.11614142 -0.44922602 0.027471799
-0.11628023 -0.44931597 0.027451444
-0.1164199 -0.44940424 0.02744494
-0.11655378 -0.44948798 0.027444229
-0.11669249 -0.44957826 0.027421573
-0.11683071 -0.44966766 0.02740238
-0.11696843 -0.44975621 0.027386649
-0.11710458 -0.44984153 0.027384773
-0.11724545 -0.44993335 0.027360957
-0.11737973 -0.45001879 0.027351014
-0.11751859 -0.45010656 0.027344506
-0.11765625 -0.45019582 0.027324166
-0.11779343 -0.45028421 0.027307287
-0.11792799 -0.45037097 0.027290413
-0.11806929 -0.45046082 0.027280441
-0.11820603 -0.45054874 0.027264714
-0.11834289 -0.4506371 0.02724668
-0.11847919 -0.45072439 0.027233267
-0.11861812 -0.45081368 0.027217539
-0.11875162 -0.45089903 0.02720529
-0.11889084 -0.45098943 0.027183782
-0.11902475 -0.45107615 0.027164612
-0.11916064 -0.45116335 0.027150052
-0.11929912 -0.45125255 0.027133163
-0.11943778 -0.45134243 0.02711281
-0.11957413 -0.45143139 0.027089018
-0.11971056 -0.4515208 0.027062915
-0.11984657 -0.45160937 0.027040273
-0.11998513 -0.45169991 0.02701531
-0.12012108 -0.45178884 0.026990362
-0.12025692 -0.45187768 0.026965411
-0.12038907 -0.45196199 0.026954329
-0.12053052 -0.4520562 0.026917821
-0.12066291 -0.45214158 0.02690096
-0.12079819 -0.45222992 0.026877172
-0.12093843 -0.45232704 0.026817594
-0.12107697 -0.45241982 0.026778782
-0.12121273 -0.45251045 0.026742304
-0.12134738 -0.45259818 0.026719671
-0.12148233 -0.45268703 0.026691254
-0.12162131 -0.45278245 0.026637454
-0.12176041 -0.45287871 0.026579041
-0.12336568 -0.4542135 0.024508955
-0.12350278 -0.45432201 0.024366327
-0.12364107 -0.45442867 0.024239847
-0.12377783 -0.45453829 0.024089152
-0.12429292 -0.45484877 0.024159092
-0.12439698 -0.45481443 0.024778048
-0.12477439 -0.45505345 0.024757585
-0.12491019 -0.45513505 0.024777628
-0.12503362 -0.45521724 0.024745828
-0.12516089 -0.4552983 0.024735915
-0.125297 -0.45538196 0.024744427
-0.12543029 -0.45546198 0.024764486
-0.12555644 -0.45553774 0.024783423
-0.12568274 -0.45561433 0.024797749
-0.12581784 -0.45570475 0.024760116
-0.12594068 -0.45578656 0.024728319
-0.12607318 -0.45586258 0.024770297
-0.12619887 -0.45593601 0.024801936
-0.12632965 -0.45601428 0.024823159
-0.12647356 -0.45610818 0.024798164
-0.12659013 -0.45617869 0.024812544
-0.12670869 -0.45624763 0.02484422
-0.1268445 -0.4563311 0.024852725
-0.12697683 -0.45642218 0.024800109
-0.12709881 -0.45650181 0.024778696
-0.12722006 -0.45657542 0.024791893
-0.1273485 -0.45665389 0.024802746
-0.1274817 -0.45673555 0.024812428
-0.12760735 -0.45680857 0.024846366
-0.12774037 -0.45688823 0.024867583
-0.12786874 -0.45696631 0.024880741
-0.12799948 -0.45704585 0.024893891
-0.12812789 -0.4571245 0.02490359
-0.12825608 -0.45719987 0.024932904
-0.12838192 -0.45727393 0.02496108
-0.12851265 -0.45735273 0.024978844
-0.1286411 -0.4574329 0.024979312
-0.12877178 -0.45751092 0.025001692
-0.12890019 -0.45759028 0.02500678
-0.12903325 -0.45766926 0.025032608
-0.12915449 -0.45774415 0.025037734
-0.12928283 -0.4578222 0.025050892
-0.12940881 -0.45790079 0.025051381
-0.12953712 -0.45798123 0.025049549
-0.12966542 -0.45805925 0.025062706
-0.12979853 -0.45813769 0.025091995
-0.12992463 -0.45820934 0.025136318
-0.13005315 -0.45828214 0.025182938
-0.13017903 -0.45836216 0.025174193
-0.130312 -0.45844641 0.025166566
-0.13043559 -0.45852169 0.025178598
-0.13057092 -0.45860633 0.025177876
-0.13069929 -0.45868385 0.025194502
-0.13082762 -0.45876187 0.025207657
-0.13095595 -0.4588401 0.025219673
-0.13108408 -0.45892042 0.025217835
-0.13121985 -0.45899978 0.025251726
-0.13134657 -0.45906979 0.025308736
-0.13146941 -0.4591518 0.025275778
-0.13159229 -0.45923272 0.025249748
-0.13172017 -0.45931399 0.025240991
-0.13184875 -0.45939013 0.025266843
-0.13197644 -0.45947242 0.025251169
-0.13210702 -0.45955241 0.025260853
-0.13223501 -0.45963228 0.025261331
-0.13236549 -0.45971277 0.025267558
-0.13249767 -0.4597984 0.025248395
-0.1326274 -0.4598825 0.025229249
-0.13275664 -0.45996869 0.025195109
-0.13288639 -0.46005189 0.025181731
-0.13301539 -0.46013829 0.025145289
-0.13314942 -0.46022582 0.025121501
-0.13327488 -0.46031466 0.025056234
-0.13340938 -0.46041027 0.024983987
-0.13353513 -0.46049649 0.024936026
-0.13366549 -0.46058542 0.024889179
-0.13378701 -0.46067587 0.024798559
-0.13390464 -0.46075961 0.024734484
-0.13403143 -0.46084946 0.024668049
-0.1341629 -0.46095076 0.024548529
-0.13428544 -0.46104369 0.024446351
-0.13440782 -0.46113613 0.024346488
-0.13453822 -0.46122918 0.024274273
-0.13466883 -0.46132919 0.024159364
-0.13478896 -0.46142542 0.024027217
-0.13490897 -0.46152103 0.023898529
-0.13502982 -0.46161345 0.023792904
-0.13515182 -0.46170217 0.023714958
-0.1352753 -0.46179384 0.023624325
-0.13539611 -0.4618842 0.023531387
-0.13551417 -0.46198043 0.02339117
-0.13563435 -0.46207762 0.023253253
-0.13574983 -0.46216449 0.023161495
-0.13586704 -0.46225351 0.023062816
-0.13598791 -0.46234688 0.022951422
-0.13610803 -0.46244109 0.022831962
-0.1362313 -0.46253428 0.022730941
-0.13634525 -0.46262127 0.022632273
-0.13646315 -0.46271187 0.022526665
-0.13658154 -0.46280092 0.02243259
-0.13670489 -0.4628973 0.022311961
-0.13680181 -0.46299049 0.0221084
-0.13690226 -0.46305999 0.022066336
-0.13703424 -0.46315032 0.022017192
-0.13715629 -0.46325183 0.021859648
-0.13729379 -0.46334779 0.021796614
-0.13740835 -0.46343943 0.021671414
-0.13752264 -0.46353093 0.021546219
-0.13763748 -0.4636209 0.021432545
-0.13775462 -0.46371174 0.02132233
-0.13787256 -0.46379605 0.021255944
-0.13798627 -0.46388623 0.02113652
-0.13810168 -0.4639734 0.021042462
-0.13821678 -0.46406519 0.02091841
-0.13833182 -0.46413845 0.020909721
-0.13846016 -0.46421167 0.020952884
-0.14007793 -0.46450871 0.0253985
-0.14019801 -0.46460456 0.025268652
-0.14031616 -0.46468604 0.025220724
-0.14043199 -0.46476975 0.025149738
-0.14057244 -0.46484354 0.02523667
-0.14072852 -0.46490189 0.02548041
-0.14088112 -0.46496847 0.025659569
-0.14101194 -0.46504545 0.025688872
-0.14113264 -0.46513224 0.02561786
-0.14124951 -0.46521866 0.025534173
-0.14136292 -0.46531165 0.025396293
-0.14146818 -0.4654043 0.02522845
-0.14158823 -0.46549401 0.025136678
-0.1417082 -0.46557644 0.025089897
-0.14183128 -0.46566305 0.025029251
-0.14195125 -0.46574864 0.024962857
-0.14210482 -0.46581653 0.025137391
-0.14223956 -0.46588674 0.025224362
-0.14236748 -0.46596602 0.025228292
-0.14249361 -0.46604672 0.025216084
-0.14262192 -0.46612903 0.025202712
-0.1427484 -0.46620941 0.025193973
-0.14288056 -0.46629208 0.025193268
-0.14299668 -0.46638322 0.025077289
-0.14308952 -0.46649072 0.024768766
-0.14320302 -0.46657649 0.024675878
-0.14332139 -0.46665868 0.024624491
-0.14344512 -0.46674013 0.024598446
-0.14357409 -0.46682411 0.024577003
-0.14369786 -0.46690246 0.024570579
-0.14382777 -0.46698278 0.024575658
-0.14395492 -0.46706489 0.024558824
-0.14408855 -0.46714589 0.02457427
-0.14420772 -0.46722707 0.024532104
-0.14433859 -0.46730688 0.024544097
-0.14446966 -0.46738663 0.024557248
-0.14460017 -0.46746677 0.024565782
-0.14472046 -0.46754998 0.024515541
-0.14484458 -0.46763092 0.024494115
-0.14497715 -0.46770996 0.024517637
-0.145109 -0.46778947 0.024535395
-0.14523728 -0.46786821 0.024543943
-0.14537466 -0.46794766 0.024583593
-0.14550802 -0.46802661 0.02461057
-0.14564939 -0.4681043 0.024676727
-0.14578192 -0.46818125 0.024712937
-0.14591908 -0.46825871 0.02476413
-0.14605874 -0.46833512 0.024831455
-0.14619485 -0.46841341 0.024873415
-0.14633669 -0.46849173 0.024937261
-0.14647546 -0.4685691 0.024995362
-0.14661753 -0.46864519 0.025074206
-0.14676207 -0.46872041 0.025168043
-0.1469115 -0.46879625 0.02527684
-0.1470563 -0.46886942 0.025384521
-0.14721039 -0.46894395 0.025519829
-0.15476848 -0.47003996 0.048107214
-0.15493464 -0.47012165 0.048244767
-0.15509415 -0.47021511 0.048283149
-0.15525436 -0.47032329 0.048232689
-0.15540293 -0.47041935 0.04821229
-0.15554014 -0.47052035 0.048116963
-0.15570426 -0.47061059 0.048193384
-0.15586528 -0.47070408 0.048237517
-0.15602478 -0.47080994 0.048198603
-0.15617539 -0.47091043 0.048158582
-0.15634203 -0.47100538 0.048215374
-0.15648989 -0.47110879 0.048146524
-0.15663722 -0.47120517 0.048119213
-0.15679143 -0.47130033 0.048126467
-0.15694535 -0.47140253 0.048088733
-0.1571089 -0.47150072 0.048113242
-0.1572749 -0.47159863 0.04814928
-0.15740803 -0.47169745 0.048051666
-0.15756419 -0.47179472 0.048053142
-0.15771964 -0.47188994 0.04806501
-0.15788004 -0.47199118 0.048058394
-0.1580465 -0.47209379 0.048066732
-0.15820217 -0.47219577 0.048037063
-0.15834238 -0.47229329 0.047975186
-0.15850943 -0.47239593 0.047985829
-0.1586581 -0.47249445 0.047950432
-0.15882248 -0.47259319 0.04797494
-0.15896167 -0.47268856 0.047922287
-0.15913072 -0.47279114 0.047940999
-0.15928307 -0.47289142 0.04790904
-0.1594343 -0.47298545 0.047911704
-0.15959975 -0.47308224 0.04795235
-0.15975577 -0.47318223 0.047936529
-0.15991291 -0.47328424 0.047912624
-0.16005366 -0.47338152 0.047854193
-0.16020977 -0.47348359 0.047825672
-0.16035949 -0.47357798 0.047820263
-0.16050541 -0.47368091 0.047746807
-0.16067518 -0.47378394 0.047765523
-0.16084564 -0.47388089 0.047824606
-0.16099183 -0.47397974 0.047777683
-0.16115345 -0.47407952 0.047784895
-0.1613097 -0.47418374 0.047743697
-0.16146564 -0.47427997 0.047750942
-0.16162732 -0.47438386 0.047732782
-0.16177571 -0.4744885 0.04765816
-0.16192307 -0.47457936 0.047665454
-0.16207363 -0.47467798 0.047636963
-0.16222998 -0.47477633 0.047632668
-0.1623878 -0.47487855 0.047609918
-0.16256003 -0.4749783 0.047658611
-0.16270356 -0.47507918 0.047588624
-0.16282128 -0.47517318 0.0474611
-0.16301665 -0.47527239 0.047603112
-0.16318935 -0.47537819 0.047616042
-0.16330335 -0.47547781 0.047438927
-0.16346318 -0.47557443 0.04745885
-0.16364542 -0.47567451 0.047544397
-0.16382068 -0.47577488 0.047601152
-0.16395834 -0.47587764 0.047496594
-0.16409613 -0.47597474 0.0474278
-0.16428642 -0.47607523 0.047542151
-0.16442092 -0.47617972 0.047414534
-0.16457285 -0.47627679 0.047401037
-0.16475418 -0.47637945 0.047466986
-0.16491033 -0.47648209 0.047435004
-0.16507189 -0.47658482 0.047423773
-0.16522886 -0.47668391 0.047417164
-0.16537367 -0.47678465 0.047352951
-0.16553041 -0.4768838 0.047345195
-0.16568387 -0.47698292 0.047324769
-0.16584626 -0.47708225 0.047337748
-0.16601312 -0.47718534 0.047344934
-0.16616537 -0.47728628 0.04730837
-0.16629504 -0.47738478 0.047199234
-0.16646956 -0.47748819 0.047234073
-0.16662705 -0.47758761 0.047227465
-0.16678408 -0.47768879 0.047208179
-0.16692649 -0.47778767 0.047146276
-0.16709219 -0.47788927 0.047158089
-0.16727245 -0.47799331 0.047211345
-0.16742758 -0.47809625 0.047173612
-0.1675694 -0.47819513 0.047109406
-0.16774911 -0.47829771 0.047169596
-0.16790237 -0.47839892 0.047135323
-0.1680501 -0.47849983 0.04708147
-0.16822012 -0.47860542 0.047085192
-0.16838039 -0.47870713 0.047075104
-0.16853017 -0.47880489 0.04704893
-0.16869058 -0.47890669 0.047038853
-0.16885146 -0.47900528 0.047050681
-0.16900937 -0.47910699 0.047031391
-0.16916531 -0.47920862 0.04700518
-0.1693169 -0.47930989 0.046963997
-0.16947646 -0.47940856 0.046970073
-0.16963494 -0.47951046 0.046951931
-0.16979349 -0.47961241 0.046933774
-0.16996753 -0.4797157 0.046967469
-0.17011558 -0.47981679 0.046913605
-0.17028438 -0.47991979 0.04692886
-0.17043871 -0.48002151 0.046895742
-0.17059518 -0.48012343 0.046869531
-0.17075625 -0.48022583 0.046858288
-0.17090458 -0.48032546 0.046814825
-0.17108272 -0.48042965 0.046858862
-0.17124762 -0.48053259 0.046859141
-0.17140745 -0.4806366 0.046832923
-0.17156003 -0.48073834 0.046792883
-0.17170356 -0.48083755 0.046733286
-0.17186841 -0.48094064 0.046732415
-0.17203408 -0.48104391 0.046733838
-0.17219146 -0.48114473 0.046718009
-0.17236146 -0.48125011 0.04672287
-0.17252412 -0.48135167 0.046723157
-0.17267376 -0.48145321 0.046672758
-0.17282635 -0.48155513 0.046631567
-0.17300558 -0.48166037 0.046673302
-0.17315237 -0.4817616 0.04661369
-0.17332225 -0.48186582 0.046625476
-0.17348702 -0.48196945 0.046621148
-0.1736508 -0.48207298 0.046613351
-0.1737947 -0.48217243 0.046553753
-0.17394727 -0.4822745 0.046511404
-0.17412947 -0.48238069 0.04655889
-0.17429897 -0.4824852 0.046567224
-0.17446938 -0.48258993 0.04657786
-0.17463338 -0.48269528 0.046559673
-0.1747821 -0.482797 0.046504669
-0.17493971 -0.48289999 0.046476141
-0.17509627 -0.48300144 0.046453398
-0.17525402 -0.48310453 0.046424869
-0.17542401 -0.48320809 0.046441264
-0.17557614 -0.48330897 0.046404701
-0.17575291 -0.48341656 0.046422221
-0.17590822 -0.48351943 0.046385635
-0.17606239 -0.48362216 0.046345588
-0.17622656 -0.48372647 0.04633433
-0.17637604 -0.48382849 0.04628047
-0.17654373 -0.48393208 0.046287663
-0.17671302 -0.4840374 0.046290215
-0.17687356 -0.48414132 0.046267454
-0.17703623 -0.48424566 0.046250433
-0.17719857 -0.48434997 0.046232268
-0.17736959 -0.48445579 0.046238281
-0.17751414 -0.48455712 0.046169452
-0.17767243 -0.48465946 0.046147838
-0.17785534 -0.48476756 0.046186093
-0.178012 -0.48487109 0.046150651
-0.17818242 -0.48497713 0.04615321
-0.17835258 -0.48508316 0.046154618
-0.17850892 -0.48518538 0.046126097
-0.17867891 -0.48529154 0.046126347
-0.17884949 -0.48539785 0.046127751
-0.1790071 -0.48550177 0.046093456
-0.17917708 -0.4856081 0.046092555
-0.17932421 -0.48571011 0.046029482
-0.17952773 -0.48582295 0.046118375
-0.17968276 -0.48592657 0.046076022
-0.17984042 -0.48603073 0.046040576
-0.18000028 -0.48613533 0.046010885
-0.18016154 -0.48624027 0.045984656
-0.18034068 -0.48634881 0.046005625
-0.18049951 -0.48645201 0.04598055
-0.18066764 -0.48655847 0.04597158
-0.18080959 -0.48665965 0.045893535
-0.18097836 -0.48676631 0.045885712
-0.18114461 -0.48687249 0.045870986
-0.18132207 -0.48698106 0.045885041
-0.1815086 -0.48709163 0.045922127
-0.1816548 -0.48719382 0.045854438
-0.18184084 -0.48730442 0.045889214
-0.095479116 -0.43207067 0.053958796
-0.09566541 -0.43218848 0.053949688
-0.095846266 -0.43230161 0.053948689
-0.096041031 -0.43243083 0.053901453
-0.096225627 -0.43254685 0.053896971
-0.096413746 -0.43266764 0.053876318
-0.096605182 -0.43279535 0.053825639
-0.096787833 -0.43290922 0.053826939
-0.096961245 -0.43301323 0.053853668
-0.097125426 -0.43310261 0.053935826
-0.097345956 -0.43326998 0.053751156
-0.097536832 -0.43339545 0.053712018
-0.097715706 -0.43350732 0.053711031
-0.09790355 -0.4336291 0.053683449
-0.098065659 -0.43371844 0.053757552
-0.098248161 -0.43383315 0.053753074
-0.098430678 -0.43395045 0.053732447
-0.098611563 -0.43406323 0.053733759
-0.098784313 -0.43416739 0.053757031
-0.098974273 -0.43429786 0.053683281
-0.099173918 -0.43444699 0.053531036
-0.09933497 -0.43455288 0.05349784
-0.099562459 -0.4346987 0.053474657
-0.099731311 -0.43479559 0.053527948
-0.099915653 -0.43491682 0.053490005
-0.10009286 -0.43502563 0.053501714
-0.10027114 -0.43513861 0.053491488
-0.10045553 -0.43525782 0.053466246
-0.1006383 -0.43537751 0.053431772
-0.10081142 -0.43548098 0.05346081
-0.10099886 -0.43560764 0.053400926
-0.10117854 -0.43572077 0.053395312
