# .PCD v0.7 - Point Cloud Data file format
VERSION 0.7
FIELDS x y z
SIZE 4 4 4
TYPE F F F
COUNT 1 1 1
WIDTH 1292
HEIGHT 1
VIEWPOINT 0 0 0 1 0 0 0
POINTS 1292
DATA ascii
-0.28125191 -0.1340825 0.057616405
-0.2814478 -0.13401674 0.057566844
-0.28163573 -0.13394965 0.057549652
-0.28179479 -0.13387832 0.057644621
-0.28198567 -0.13381657 0.057578918
-0.28218195 -0.13374808 0.057548989
-0.28238869 -0.13367605 0.057516679
-0.28254634 -0.13361765 0.057518139
-0.28273028 -0.13354483 0.057555236
-0.28291959 -0.13347921 0.057523027
-0.28312835 -0.13340536 0.057498801
-0.28331685 -0.13333942 0.057471208
-0.28351423 -0.13326883 0.057453971
-0.28369892 -0.13321535 0.057343267
-0.28387648 -0.13314563 0.057374638
-0.28406915 -0.13306807 0.057423234
-0.28426352 -0.13300715 0.057341352
-0.28444198 -0.13294202 0.057335757
-0.28459445 -0.13286059 0.057525445
-0.28481129 -0.13280594 0.057333741
-0.28497821 -0.13273971 0.057368625
-0.28516436 -0.13268107 0.057292558
-0.28535593 -0.1326108 0.057289205
-0.28554338 -0.1325454 0.057260476
-0.28573358 -0.13247411 0.057268672
-0.28591949 -0.13240759 0.057252649
-0.28609866 -0.13234372 0.057235505
-0.28628865 -0.13226806 0.057277195
-0.28649211 -0.13220029 0.057221815
-0.28665906 -0.13213862 0.057222061
-0.28684357 -0.1320757 0.057182953
-0.28702748 -0.13200778 0.057183102
-0.28721642 -0.13194489 0.057131272
-0.28741381 -0.13188136 0.057060916
-0.28759587 -0.13180248 0.057148829
-0.28777876 -0.13174812 0.057049688
-0.28794745 -0.13167432 0.057136528
-0.28814256 -0.13161393 0.057048865
-0.28833184 -0.13155244 0.056985479
-0.2885308 -0.1314819 0.056963608
-0.28871205 -0.13140669 0.057026125
-0.28888175 -0.13133866 0.057066765
-0.28906026 -0.13127564 0.057045013
-0.28925097 -0.13121672 0.056958534
-0.28943154 -0.13115661 0.056909047
-0.28962651 -0.13109824 0.056806371
-0.28981096 -0.13102691 0.056830771
-0.28998959 -0.13094793 0.056929104
-0.2901575 -0.13087168 0.05703672
-0.29035032 -0.13082284 0.05686824
-0.290539 -0.13075715 0.056838356
-0.29072863 -0.13068697 0.056839623
-0.29091009 -0.13061735 0.056859426
-0.29110196 -0.13056916 0.056688637
-0.29128125 -0.13049024 0.056784656
-0.29145578 -0.13041645 0.056855291
-0.29165164 -0.13034965 0.056813814
-0.2918413 -0.1302865 0.056761969
-0.29201695 -0.13022102 0.056766789
-0.29220644 -0.13016498 0.056661833
-0.29239577 -0.13010211 0.056608848
-0.29257631 -0.1300313 0.056640193
-0.29275253 -0.12995994 0.056687728
-0.29293516 -0.12989265 0.056686729
-0.29312387 -0.12982926 0.056639522
-0.2932986 -0.12975462 0.056715928
-0.29348171 -0.12969634 0.056645654
-0.29367933 -0.12965184 0.056430962
-0.29386657 -0.12957016 0.056525774
-0.29403079 -0.12948944 0.056677297
-0.2942203 -0.12943769 0.056540009
-0.29441479 -0.12937137 0.056498542
-0.29459241 -0.12929323 0.056593407
-0.29477724 -0.12925084 0.056398422
-0.29496926 -0.12916969 0.056475885
-0.2951557 -0.12910344 0.056456398
-0.2953372 -0.12904468 0.056394208
-0.29551977 -0.12897879 0.05638282
-0.29570881 -0.12890975 0.05637718
-0.29588997 -0.12882876 0.056483574
-0.29606345 -0.12876959 0.056446828
-0.29624504 -0.12871249 0.05637195
-0.29643548 -0.1286483 0.056325868
-0.29662091 -0.12858012 0.056323711
-0.29680216 -0.12851043 0.056344666
-0.29698187 -0.1284485 0.056311347
-0.29716066 -0.12838325 0.056305751
-0.29734659 -0.12831734 0.056285113
-0.29753733 -0.12825641 0.05621364
-0.29771394 -0.12818229 0.056280799
-0.29790089 -0.12812154 0.056218587
-0.29808444 -0.12804487 0.056285709
-0.29828212 -0.12798445 0.056191109
-0.29845035 -0.12792169 0.056195959
-0.29864314 -0.1278557 0.056156807
-0.29880974 -0.12778284 0.056242496
-0.29898262 -0.12772635 0.056187291
-0.29917228 -0.12766442 0.056126215
-0.29935023 -0.12759487 0.056155261
-0.29954016 -0.12753654 0.056066476
-0.29973617 -0.12747197 0.056007668
-0.2999137 -0.1273986 0.056066748
-0.30008885 -0.12733498 0.056058861
-0.30027452 -0.12727377 0.056003585
-0.30046323 -0.12720792 0.055974837
-0.30063742 -0.12713118 0.056068573
-0.3008194 -0.12706766 0.056041025
-0.30099455 -0.12700512 0.056025054
-0.30117646 -0.12694237 0.055991732
-0.30136508 -0.1268784 0.055949137
-0.30155021 -0.1268134 0.055923887
-0.30173525 -0.12674369 0.055934418
-0.30192029 -0.12668209 0.055883765
-0.30210206 -0.12661083 0.055915102
-0.30228367 -0.12654851 0.055879474
-0.30246225 -0.12647566 0.055931613
-0.30264327 -0.12642735 0.055792071
-0.30282432 -0.1263715 0.055709094
-0.30301037 -0.12628444 0.055847798
-0.30318794 -0.12623081 0.055757929
-0.3033759 -0.12616675 0.05571764
-0.30355436 -0.12609869 0.055733982
-0.30374333 -0.12602326 0.055776838
-0.30392104 -0.12596406 0.055728529
-0.30410215 -0.12590222 0.05569059
-0.30428979 -0.12583922 0.055643376
-0.30446866 -0.12576902 0.055674739
-0.30465806 -0.12569267 0.055723354
-0.30484238 -0.1256301 0.055681936
-0.30502188 -0.12557791 0.055575885
-0.30519369 -0.12553251 0.055439856
-0.30538964 -0.12545495 0.055479199
-0.30556965 -0.12537944 0.055547491
-0.30574819 -0.12531275 0.055553447
-0.30594167 -0.12524973 0.055490039
-0.30614403 -0.12517302 0.055505112
-0.30631682 -0.12510446 0.055541109
-0.30649221 -0.12503861 0.055549394
-0.30667099 -0.12497151 0.055557661
-0.3068561 -0.1249171 0.055452731
-0.30704424 -0.12483676 0.05553484
-0.30721763 -0.12479155 0.055393025
-0.30740786 -0.12472727 0.055348113
-0.30758864 -0.1246527 0.055407163
-0.30777675 -0.12458507 0.055393443
-0.30796248 -0.12452599 0.055321991
-0.30814508 -0.12445641 0.055338323
-0.30832899 -0.12439279 0.05530614
-0.30851337 -0.12432745 0.055285506
-0.30869076 -0.12426547 0.055259135
-0.30887148 -0.12419291 0.055303186
-0.30906081 -0.12412161 0.055313695
-0.30925062 -0.12404907 0.055332296
-0.30943775 -0.12399329 0.05523197
-0.30960241 -0.123934 0.055220678
-0.30978426 -0.12386762 0.055215068
-0.30996448 -0.12380581 0.055179454
-0.3101503 -0.12373658 0.055184212
-0.31033757 -0.12366359 0.055213213
-0.31052309 -0.12359555 0.055209897
-0.31069762 -0.12354824 0.055080775
-0.31087866 -0.12348399 0.055061311
-0.31105316 -0.12343592 0.054937966
-0.31124279 -0.12334354 0.055106666
-0.31141606 -0.12329807 0.054967169
-0.31160069 -0.1232253 0.055001952
-0.3117882 -0.12314612 0.055077136
-0.31198424 -0.1230673 0.055125717
-0.31217313 -0.12300489 0.055070423
-0.31234452 -0.12295614 0.054960951
-0.31255168 -0.12286573 0.055066049
-0.31273538 -0.12279621 0.055078901
-0.31291369 -0.12275011 0.054930139
-0.31309521 -0.12268506 0.054915294
-0.31326842 -0.12262002 0.054923579
-0.31344217 -0.12256534 0.054852199
-0.31363794 -0.12248281 0.054929651
-0.31381449 -0.12242785 0.054852486
-0.31400645 -0.1223533 0.054880302
-0.31418359 -0.1222917 0.054851621
-0.31436703 -0.12222856 0.05481714
-0.31454027 -0.12216397 0.054821968
-0.31472656 -0.12210053 0.054781698
-0.31491643 -0.12203042 0.054781817
-0.31509486 -0.12197141 0.054730039
-0.31527293 -0.1219032 0.054748699
-0.3154538 -0.12183978 0.054723457
-0.3156409 -0.12177482 0.054692421
-0.31582338 -0.12171325 0.054648709
-0.31600419 -0.12164526 0.054658115
-0.31618929 -0.12157462 0.054675572
-0.31637624 -0.12150542 0.054676868
-0.31655386 -0.12144764 0.054618161
-0.31673878 -0.12138195 0.054598685
-0.31693083 -0.12130889 0.054614954
-0.31711158 -0.12124581 0.054587413
-0.31728944 -0.12118319 0.054564502
-0.31747475 -0.12111706 0.054547332
-0.31765991 -0.12104701 0.054560177
-0.31784707 -0.12097804 0.05455916
-0.31803933 -0.12090936 0.054541945
-0.31821564 -0.12084929 0.054504029
-0.31839222 -0.12078883 0.054468427
-0.3185856 -0.12071451 0.054490473
-0.31876007 -0.12065727 0.054436408
-0.3189452 -0.12059166 0.05441577
-0.31913051 -0.120522 0.05442515
-0.31931654 -0.12045898 0.054382566
-0.3194952 -0.12039544 0.054364275
-0.31967437 -0.12033494 0.054321732
-0.31986535 -0.12026106 0.054347243
-0.32006651 -0.12017637 0.054425817
-0.32022741 -0.12013837 0.054264449
-0.32041997 -0.12006252 0.054300349
-0.32061139 -0.11998495 0.054352418
-0.3207953 -0.11992148 0.054319084
-0.32096612 -0.11987951 0.054159965
-0.32114857 -0.11981107 0.054168209
-0.32135138 -0.11971843 0.054302193
-0.32153773 -0.11965512 0.054260772
-0.32172105 -0.11959922 0.054172013
-0.32190979 -0.11952937 0.054173298
-0.32210115 -0.1194529 0.054217279
-0.32228872 -0.11939129 0.054159679
-0.32247183 -0.1193226 0.054167923
-0.32264057 -0.11926946 0.054098882
-0.32282132 -0.11921021 0.054042466
-0.32301465 -0.11913484 0.054072589
-0.32319692 -0.1190706 0.054049663
-0.3233929 -0.11898906 0.054119028
-0.32358512 -0.11892466 0.054069478
-0.32376552 -0.11885987 0.054055799
-0.32393438 -0.11880349 0.054011002
-0.32411933 -0.11874207 0.053959183
-0.32430249 -0.11867397 0.053962812
-0.32449898 -0.11859852 0.053984828
-0.32468888 -0.11852823 0.053986106
-0.32487145 -0.11846404 0.053962018
-0.32505232 -0.11840475 0.053905606
-0.32524088 -0.1183391 0.053875711
-0.32542512 -0.11827014 0.053882785
-0.32560837 -0.11820523 0.053862154
-0.32577702 -0.11815748 0.053752705
-0.32595199 -0.11810219 0.053682465
-0.32616115 -0.11800722 0.053816423
-0.32633406 -0.11795714 0.053712722
-0.32653239 -0.11787502 0.053779762
-0.32671124 -0.11781541 0.053731449
-0.32692003 -0.1177244 0.053836536
-0.32707477 -0.11769479 0.053629011
-0.32727396 -0.11760961 0.053716831
-0.32745534 -0.11754982 0.053662725
-0.3276507 -0.11747188 0.053706698
-0.32784 -0.11740335 0.053696431
-0.32802466 -0.11733746 0.053679258
-0.32820636 -0.1172774 0.053626303
-0.32840177 -0.11720233 0.053648338
-0.32858694 -0.11713855 0.053613834
-0.32878345 -0.11706003 0.053658951
-0.3289569 -0.11700898 0.053561021
-0.32915127 -0.11693292 0.053593446
-0.32934386 -0.1168638 0.053578541
-0.32952583 -0.11679875 0.053562541
-0.32970953 -0.11673672 0.053518809
-0.32989421 -0.11667128 0.053498175
-0.33009326 -0.1165932 0.053532884
-0.33027643 -0.11653183 0.053485699
-0.33045748 -0.11647034 0.053445458
-0.33064726 -0.1163998 0.053449038
-0.33084601 -0.11632473 0.053461816
-0.33104002 -0.11625233 0.053467687
-0.33121079 -0.11620381 0.053358212
-0.33138615 -0.11614593 0.053306453
-0.33160025 -0.11605556 0.053391889
-0.33177352 -0.11600213 0.053312421
-0.33197066 -0.11592689 0.053330973
-0.33218697 -0.11583035 0.053456817
-0.33235395 -0.11578552 0.053330041
-0.33253598 -0.11572779 0.05325862
-0.33272636 -0.11566179 0.053226404
-0.33291596 -0.11559436 0.053206898
-0.33313617 -0.11549915 0.053311925
-0.33330375 -0.11545347 0.053189769
-0.33350632 -0.11537364 0.053227924
-0.33369181 -0.11531051 0.053187661
-0.33387563 -0.11524477 0.053171638
-0.33406788 -0.11517515 0.053161357
-0.33425871 -0.11510698 0.053144149
-0.33446079 -0.1150385 0.053098023
-0.33463687 -0.11497623 0.053077437
-0.33482558 -0.11490609 0.053081024
-0.33500871 -0.11484335 0.053044233
-0.3351959 -0.11477685 0.053024732
-0.33538583 -0.11470778 0.053016774
-0.33555242 -0.11466064 0.052908473
-0.33576521 -0.1145683 0.05301239
-0.33594984 -0.1145084 0.052950192
-0.33614266 -0.1144349 0.052967615
-0.33635828 -0.11434443 0.053049572
-0.33653337 -0.11429539 0.052931998
-0.33673474 -0.1142241 0.052908964
-0.33692989 -0.11414883 0.052933302
-0.33711517 -0.11408653 0.052887261
-0.33731109 -0.11401266 0.052898895
-0.33749765 -0.11395311 0.052828591
-0.33770174 -0.11387394 0.052857503
-0.33788779 -0.11380538 0.05285649
-0.33807069 -0.11373784 0.05285665
-0.33828139 -0.11366434 0.052824326
-0.33845231 -0.11360948 0.052762195
-0.33866906 -0.11351952 0.052837223
-0.33884758 -0.1134617 0.05277621
-0.3390204 -0.11340522 0.052721001
-0.3392058 -0.11334319 0.052672639
-0.33943099 -0.11324813 0.052762635
-0.33961904 -0.11318389 0.052723508
-0.33981615 -0.11311723 0.0526774
-0.33999085 -0.11305746 0.052641809
-0.3402026 -0.11297639 0.052663751
-0.34039932 -0.11289947 0.052696165
-0.34058401 -0.11284014 0.052629333
-0.34076658 -0.11277732 0.052594859
-0.34095034 -0.11271527 0.052551132
-0.34114057 -0.11264946 0.052517761
-0.34135038 -0.1125688 0.052542027
-0.34154105 -0.11250099 0.052522507
-0.34174669 -0.11242232 0.052543331
-0.34191978 -0.11236604 0.052485812
-0.34212554 -0.11228918 0.052492768
-0.34233043 -0.11221138 0.052508973
-0.34251037 -0.11215457 0.052436404
-0.34270972 -0.11208326 0.052419148
-0.34290254 -0.11201237 0.05241695
-0.34309587 -0.11194451 0.05239049
-0.34327933 -0.11188319 0.052342147
-0.3434692 -0.11181492 0.052328408
-0.34367955 -0.1117365 0.052334197
-0.34386149 -0.11167818 0.05226738
-0.34409565 -0.11158702 0.052303057
-0.34428227 -0.11152331 0.052263934
-0.34446633 -0.11146008 0.052228291
-0.34466895 -0.11138344 0.052242197
-0.34485924 -0.11131363 0.052238852
-0.3450402 -0.11125629 0.052167427
-0.34525663 -0.11117196 0.052200891
-0.34544492 -0.11110397 0.052189469
-0.34564531 -0.11102952 0.052193001
-0.34583062 -0.11097042 0.052122716
-0.24465948 -0.14762957 0.057327677
-0.24489352 -0.147551 0.057268605
-0.24512982 -0.14747253 0.057202607
-0.24536322 -0.14739558 0.057133153
-0.24560912 -0.14731586 0.05704977
-0.24584387 -0.14723916 0.056974545
-0.24609582 -0.14715967 0.056872651
-0.24635553 -0.14708158 0.056738373
-0.24656928 -0.14700697 0.056705996
-0.24678479 -0.14692971 0.056688599
-0.24701457 -0.14685242 0.056631871
-0.24724019 -0.14677665 0.056575172
-0.24745953 -0.14669965 0.056545053
-0.24767944 -0.14662415 0.056502245
-0.24790914 -0.14654733 0.056442045
-0.24814725 -0.14647064 0.056357555
-0.24838245 -0.14639409 0.056280002
-0.24860394 -0.14631908 0.0562291
-0.24882267 -0.14624278 0.05619552
-0.24905717 -0.14616664 0.056116823
-0.24929127 -0.14609066 0.05603813
-0.24951306 -0.14601614 0.055982597
-0.24973866 -0.14594036 0.055925898
-0.24996474 -0.14586473 0.055866882
-0.25019455 -0.14578927 0.055796295
-0.25042504 -0.14571537 0.055711847
-0.25065085 -0.14564013 0.055650521
-0.25087392 -0.14556499 0.055596136
-0.25111613 -0.1454903 0.055485062
-0.25132766 -0.14541666 0.055451524
-0.25154617 -0.14534181 0.055407561
-0.25176752 -0.14526716 0.055354346
-0.25199288 -0.14519271 0.055288408
-0.25220832 -0.14511961 0.055239838
-0.25242874 -0.1450453 0.055186629
-0.25265306 -0.14497122 0.055120688
-0.25286859 -0.14489703 0.055080205
-0.25308767 -0.14482304 0.055028163
-0.25331101 -0.14474934 0.054962225
-0.25352392 -0.14467688 0.054915983
-0.25374246 -0.14460325 0.054862782
-0.25395691 -0.14452961 0.054821152
-0.25416622 -0.14445587 0.054794565
-0.2543847 -0.14438409 0.054727506
-0.25459796 -0.14431073 0.054687034
-0.25481391 -0.14423761 0.054637313
-0.2550244 -0.14416434 0.054603782
-0.25523797 -0.14409286 0.054548297
-0.25545344 -0.14402005 0.054497425
-0.25566423 -0.14394714 0.054460429
-0.25587258 -0.14387421 0.054430388
-0.25608107 -0.14380291 0.054387629
-0.25636375 -0.14372985 0.054151617
-0.25654444 -0.14364797 0.054266073
-0.2566703 -0.14357817 0.054442033
-0.2568889 -0.14350943 0.054351881
-0.25720936 -0.14344281 0.053962067
-0.25739476 -0.14337389 0.053965632
-0.25759175 -0.14329642 0.054001465
-0.25775251 -0.14322586 0.054086011
-0.25796506 -0.14315429 0.054034002
-0.25816789 -0.14308369 0.054001678
-0.25837818 -0.1430122 0.053955451
-0.25858444 -0.14294049 0.053921942
-0.25880307 -0.14286667 0.053869903
-0.25898999 -0.14279842 0.053864222
-0.25919864 -0.14272723 0.053820316
-0.25941312 -0.14265341 0.053779837
-0.25960308 -0.14258404 0.053774141
-0.2598041 -0.14251411 0.053741824
-0.2600098 -0.14244308 0.053704858
-0.26021904 -0.1423692 0.053679429
-0.26041126 -0.14230037 0.053663325
-0.26061049 -0.14223066 0.05363448
-0.26081398 -0.1421598 0.053602159
-0.26100826 -0.14208977 0.053589504
-0.26120329 -0.14201823 0.053586092
-0.26139531 -0.14194641 0.053593095
-0.26157987 -0.14187551 0.053613987
-0.26175231 -0.14180157 0.053691529
-0.2619274 -0.14172618 0.053772531
-0.26206443 -0.14164798 0.053980768
-0.26110953 -0.14103255 0.061280876
-0.26114058 -0.14092924 0.061973568
-0.26136214 -0.1408565 0.061905339
-0.26180685 -0.14060768 0.06254372
-0.26385283 -0.14030558 0.059125558
-0.26406911 -0.1402351 0.059055049
-0.26427361 -0.14014934 0.059132412
-0.2645207 -0.14007071 0.059037484
-0.26471582 -0.13999897 0.059035219
-0.26489675 -0.13992681 0.059075769
-0.26511428 -0.13985127 0.059039883
-0.26531497 -0.13978468 0.058983322
-0.26549911 -0.1397251 0.058919929
-0.26570874 -0.13964251 0.058959156
-0.26591736 -0.13957377 0.058896773
-0.26610184 -0.13950656 0.058889959
-0.26631832 -0.13942344 0.058914136
-0.2665039 -0.13935047 0.058947723
-0.26667017 -0.13928387 0.058987204
-0.26689672 -0.13921723 0.058858894
-0.26709026 -0.13916048 0.058748089
-0.26727155 -0.13908067 0.058845229
-0.26750633 -0.13899556 0.058833502
-0.2676909 -0.13892893 0.058822069
-0.26791587 -0.13885447 0.058757275
-0.26810616 -0.13878298 0.058766596
-0.26827583 -0.1387217 0.058756392
-0.26845986 -0.138651 0.058777291
-0.26869825 -0.13857159 0.05871243
-0.26889065 -0.138503 0.05869402
-0.26910189 -0.13843253 0.058637403
-0.26929772 -0.13836497 0.058601648
-0.26947162 -0.13829647 0.058634154
-0.26967362 -0.13822404 0.05861799
-0.26985651 -0.13815787 0.05860772
-0.27003947 -0.13808511 0.058647096
-0.27025464 -0.13802084 0.058532715
-0.27042454 -0.13795595 0.058549076
-0.27062452 -0.13787661 0.058590665
-0.27085939 -0.13780233 0.058496956
-0.27101299 -0.13773534 0.058574617
-0.27122265 -0.13767263 0.058463722
-0.27141666 -0.1375964 0.058498424
-0.27161661 -0.13752657 0.058468424
-0.27180198 -0.13745721 0.05847545
-0.27199745 -0.13738151 0.058502063
-0.27219611 -0.13731629 0.058440894
-0.27236533 -0.13724689 0.058493055
-0.27259934 -0.13718335 0.058320824
-0.27280438 -0.13710858 0.058313884
-0.27298 -0.13703652 0.058368322
-0.27316713 -0.13696575 0.058381118
-0.27335832 -0.13690373 0.058316529
-0.27356181 -0.13683611 0.058259942
-0.27375063 -0.13676117 0.058299296
-0.27396375 -0.13668711 0.058264598
-0.27413937 -0.13662271 0.058261298
-0.27434421 -0.13655353 0.058212787
-0.27454355 -0.13648252 0.058193184
-0.27472514 -0.13642053 0.058155201
-0.2748875 -0.13634893 0.0582432
-0.27508947 -0.13627911 0.058207415
-0.27529842 -0.13621469 0.058111541
-0.27548701 -0.13614 0.058149733
-0.27568299 -0.13607085 0.058125533
-0.27588058 -0.13601047 0.058030877
-0.27605468 -0.13593546 0.058111884
-0.27626225 -0.13586862 0.058037952
-0.27643996 -0.13581142 0.057974592
-0.27663809 -0.13573276 0.058016196
-0.27683836 -0.13565776 0.058024302
-0.27703312 -0.13558599 0.058023192
-0.2772122 -0.13551864 0.05803258
-0.27739313 -0.13545214 0.058030393
-0.27759486 -0.13539222 0.057920709
-0.27777967 -0.13532197 0.057935826
-0.27798554 -0.13525286 0.057883848
-0.27816424 -0.13517693 0.057959054
-0.27835363 -0.1351119 0.057922188
-0.27855688 -0.13504483 0.05786214
-0.2787514 -0.13498557 0.057767503
-0.27893072 -0.13491598 0.057793051
-0.27912301 -0.13484085 0.057824299
-0.2793209 -0.13477467 0.057772364
-0.27951586 -0.13470407 0.057762019
-0.27968425 -0.134635 0.057814185
-0.27986959 -0.13456871 0.057798125
-0.28007519 -0.13450719 0.05768957
-0.28026474 -0.13443398 0.057713896
-0.28043821 -0.13436458 0.057754487
-0.28065544 -0.13430382 0.057607759
-0.28084823 -0.13423266 0.057607822
-0.28104523 -0.13416068 0.057602085
-0.28124455 -0.13408357 0.057628669
-0.28144476 -0.13402037 0.057547864
-0.28162053 -0.13395256 0.057569966
-0.28178498 -0.13388111 0.057651013
-0.28198376 -0.13382088 0.057551742
-0.28218076 -0.13374938 0.057542536
-0.28237411 -0.13368258 0.057507958
-0.28253791 -0.13362117 0.057515107
-0.28272504 -0.13354686 0.057554472
-0.28291476 -0.13347788 0.057546467
-0.28313455 -0.13340794 0.057462078
-0.28331676 -0.1333376 0.057485297
-0.28352627 -0.13327189 0.057397511
-0.28368804 -0.13322055 0.057334229
-0.28388238 -0.1331367 0.057425514
-0.28407943 -0.1330661 0.057409391
-0.28426412 -0.13300939 0.057322882
-0.28442696 -0.13293225 0.057451297
-0.28462648 -0.13285981 0.057442084
-0.28481156 -0.13280785 0.057318632
-0.28498927 -0.13273826 0.05734881
-0.28518909 -0.13267459 0.05727262
-0.2853761 -0.13260461 0.057279639
-0.28556386 -0.13253529 0.057279728
-0.28575721 -0.13246666 0.057259001
-0.28593671 -0.13240297 0.057239518
-0.28611675 -0.13233557 0.057246573
-0.28632268 -0.13226123 0.057233863
-0.28650504 -0.13219604 0.057217825
-0.28668356 -0.13213181 0.05720526
-0.28686529 -0.13206622 0.057193846
-0.28705528 -0.1319996 0.057167366
-0.28725171 -0.13193947 0.057073869
-0.28744009 -0.13186227 0.057131696
-0.28763804 -0.13179944 0.057054356
-0.28780505 -0.13173348 0.057086904
-0.28798175 -0.13166317 0.057125166
-0.28818333 -0.13160482 0.057003919
-0.28838226 -0.13153905 0.056946218
-0.28857267 -0.131464 0.056982089
-0.28874889 -0.13138805 0.057064235
-0.28892535 -0.13132778 0.057027441
-0.28910357 -0.13126442 0.057009112
-0.28930724 -0.13119979 0.056929432
-0.28949249 -0.13114548 0.056823306
-0.28968114 -0.13107383 0.056838401
-0.28986236 -0.13100386 0.056861624
-0.29003641 -0.13091874 0.057018846
-0.29022282 -0.13085528 0.056978524
-0.29041672 -0.13080804 0.056794968
-0.29060653 -0.13073213 0.05683893
-0.29078439 -0.13066339 0.056862172
-0.29097599 -0.13060215 0.05679065
-0.29117069 -0.13054587 0.056672916
-0.29134661 -0.13045534 0.056865923
-0.29153508 -0.13038988 0.056834828
-0.29173008 -0.1303283 0.056756362
-0.29191494 -0.13025744 0.056776099
-0.2920998 -0.13020036 0.056691907
-0.29228926 -0.13013744 0.05663887
-0.29247898 -0.13006817 0.056633174
-0.2926591 -0.12999645 0.056672573
-0.29283988 -0.12992571 0.056702729
-0.29303205 -0.12986103 0.056655452
-0.29320583 -0.12979227 0.056690261
-0.29338819 -0.12972447 0.056693844
-0.29358676 -0.12968132 0.056466393
-0.293782 -0.12960787 0.056476831
-0.29395038 -0.12951934 0.056675654
-0.29413423 -0.12946355 0.056584537
-0.2943337 -0.12940814 0.056447156
-0.29451481 -0.12932011 0.056606639
-0.29469883 -0.12927529 0.056432385
-0.29489145 -0.12920509 0.056425512
-0.29507411 -0.12912922 0.056489147
-0.29526755 -0.12907112 0.056388743
-0.29544547 -0.12900296 0.056407373
-0.29563576 -0.12893716 0.056373954
-0.29581749 -0.12885779 0.056466468
-0.29599658 -0.12879258 0.05645968
-0.2961823 -0.12873641 0.056366246
-0.29637596 -0.12867011 0.056327045
-0.29656157 -0.12860249 0.056320213
-0.29674265 -0.12853195 0.056348063
-0.29692215 -0.12846904 0.056322802
-0.29710802 -0.1284024 0.05630789
-0.29729378 -0.12833549 0.056295283
-0.29748484 -0.12827551 0.056215681
-0.29766145 -0.12820126 0.056283973
-0.29785183 -0.12813924 0.05622169
-0.29803562 -0.12806371 0.056279533
-0.29823634 -0.12800002 0.056201037
-0.29840821 -0.12793685 0.056198906
-0.29860124 -0.12787202 0.056150459
-0.29876783 -0.127799 0.05623728
-0.29894713 -0.1277377 0.056200475
-0.29913726 -0.12767836 0.056118563
-0.29931512 -0.12760809 0.056153357
-0.29950833 -0.12754732 0.056073736
-0.29970452 -0.12748347 0.056009114
-0.29988205 -0.12740979 0.056070466
-0.30006063 -0.12734522 0.056060221
-0.30024633 -0.12728339 0.056009505
-0.30043852 -0.12721734 0.055972625
-0.30061278 -0.12714119 0.056061707
-0.30079478 -0.12707719 0.056037582
-0.30097333 -0.12701342 0.056021564
-0.30115864 -0.1269488 0.055992797
-0.30134732 -0.12688497 0.055948999
-0.30152911 -0.12682089 0.055926036
-0.30171758 -0.12674993 0.055936512
-0.30190268 -0.12668785 0.055889271
-0.30208784 -0.12661627 0.055913635
-0.30226952 -0.12655348 0.055881426
-0.30245149 -0.12647985 0.055930056
-0.30263257 -0.1264312 0.055792764
-0.30281708 -0.12637395 0.055710882
-0.30299982 -0.12628779 0.055851884
-0.30318066 -0.12623464 0.055749238
-0.30336541 -0.12617071 0.055717014
-0.30354729 -0.12610126 0.05573447
-0.30373633 -0.12602547 0.055779587
-0.30391398 -0.12596722 0.0557243
-0.30409846 -0.12590462 0.055682842
-0.30428642 -0.12583935 0.055651758
-0.30446854 -0.12576903 0.055674978
-0.30465806 -0.12569217 0.055727016
-0.30483899 -0.12563165 0.055679813
-0.30502498 -0.12557842 0.055563278
-0.3052038 -0.12552924 0.055436395
-0.30539349 -0.1254517 0.055493057
-0.30557314 -0.12537862 0.055544011
-0.30575874 -0.12530778 0.055561434
-0.30594856 -0.12524781 0.055485301
-0.30615136 -0.12516911 0.055514175
-0.30632395 -0.12510186 0.055540912
-0.30650285 -0.12503426 0.055552602
-0.30667746 -0.12497222 0.055534292
-0.30687046 -0.12491047 0.055462763
-0.30705464 -0.12483403 0.055526376
-0.30723441 -0.12478786 0.055374093
-0.3074193 -0.12472081 0.055364963
-0.3076027 -0.12464803 0.055403184
-0.30779049 -0.12458176 0.05538018
-0.30798063 -0.12451784 0.055332914
-0.30815929 -0.12445171 0.055334203
-0.3083466 -0.12438683 0.055301975
-0.30853429 -0.12432059 0.055278968
-0.3087121 -0.12425739 0.055260643
-0.3088904 -0.12418327 0.055323139
-0.30908149 -0.12411593 0.055298965
-0.30927515 -0.12404092 0.055325583
-0.30945668 -0.12398429 0.055247191
-0.30962336 -0.12392778 0.055209294
-0.30980939 -0.12385803 0.055217478
-0.30998963 -0.12379621 0.055181816
-0.31017891 -0.12372571 0.05518651
-0.31036207 -0.12365608 0.05520165
-0.3105472 -0.12358911 0.055191357
-0.3107183 -0.12354322 0.055061057
-0.31091052 -0.12347271 0.05505766
-0.31107578 -0.12342621 0.054948177
-0.3112731 -0.12332933 0.055129513
-0.31144822 -0.1232864 0.054965697
-0.31162915 -0.12321576 0.054994699
-0.31182182 -0.1231313 0.055095226
-0.31202078 -0.12305249 0.055135671
-0.31220415 -0.12299626 0.055049185
-0.31238297 -0.12294355 0.054948851
-0.31258792 -0.12284584 0.055115137
-0.3127723 -0.1227871 0.055044807
-0.31294951 -0.12273744 0.054926019
-0.313131 -0.12267256 0.054909982
-0.3133058 -0.12260433 0.054937858
-0.31347582 -0.1225573 0.054819111
-0.31367904 -0.12247095 0.054904565
-0.31385896 -0.12240941 0.054867756
-0.31404492 -0.12234136 0.054863233
-0.31422639 -0.12227681 0.054844886
-0.31440336 -0.12221558 0.054813862
-0.31458223 -0.12215075 0.054804768
-0.31477326 -0.12208359 0.054779433
-0.31496331 -0.12201327 0.054780662
-0.31513575 -0.1219554 0.054736964
-0.31531632 -0.12188765 0.054745182
-0.31549805 -0.12182759 0.054692186
-0.31569231 -0.1217548 0.054700319
-0.31586561 -0.12169998 0.054631211
-0.31605133 -0.1216282 0.054655559
-0.3162393 -0.12155725 0.054667205
-0.31642181 -0.12149125 0.05465693
-0.31660479 -0.12142888 0.054617789
-0.31678885 -0.12136474 0.054589029
-0.31698287 -0.12128852 0.05462373
-0.31716591 -0.12122614 0.054584589
-0.31734481 -0.12116191 0.054570869
-0.31752491 -0.12109999 0.054536369
-0.31771368 -0.12102846 0.054550312
-0.31790543 -0.12095644 0.054559618
-0.31809333 -0.12089059 0.054533146
-0.31826445 -0.12083457 0.054479063
-0.3184576 -0.12076066 0.054498747
-0.31863958 -0.12069989 0.054450378
-0.31881958 -0.12063435 0.054443583
-0.31900451 -0.12056912 0.054420594
-0.31919852 -0.12049428 0.054444898
-0.31936675 -0.12044623 0.054338861
-0.31955183 -0.12037713 0.054344743
-0.31973597 -0.12030943 0.054342549
-0.31993192 -0.12023219 0.054379541
-0.32012793 -0.12016228 0.054361112
-0.32029232 -0.12011565 0.054255098
-0.32048601 -0.1200348 0.054325595
-0.32068291 -0.11995675 0.054366056
-0.32085702 -0.11990347 0.054283082
-0.32102695 -0.11985923 0.054143552
-0.32122025 -0.11977944 0.054207116
-0.32142547 -0.11969052 0.054306421
-0.3216055 -0.11963245 0.054243051
-0.32178432 -0.11957929 0.054146189
-0.32197821 -0.11950265 0.054184355
-0.32216695 -0.11942974 0.054208688
-0.32234985 -0.11937431 0.054117579
-0.32253662 -0.1193009 0.05415117
-0.32270914 -0.11924607 0.054084368
-0.32288969 -0.11918399 0.054049864
-0.32308301 -0.11911184 0.054055698
-0.32326892 -0.11904305 0.05405695
-0.32346934 -0.11896218 0.054108936
-0.3236537 -0.1189016 0.054052465
-0.32383451 -0.11883636 0.054041047
-0.32400844 -0.11877672 0.054006569
-0.32418504 -0.11872268 0.053922433
-0.3243902 -0.11863653 0.054000951
-0.32458395 -0.11856163 0.05402641
-0.32476091 -0.11850424 0.053966515
-0.32495067 -0.11843434 0.053965446
-0.32512641 -0.11838122 0.053876691
-0.32532707 -0.11829842 0.053942524
-0.32549173 -0.11825275 0.053828422
-0.3256864 -0.11817446 0.053876981
-0.32585359 -0.11813124 0.053737462
-0.32603112 -0.11807026 0.053702965
-0.32623577 -0.11798339 0.053788416
-0.32641661 -0.11791874 0.053772382
-0.32660872 -0.11784936 0.053760901
-0.32679763 -0.11777562 0.053791009
-0.32698771 -0.11770865 0.053766839
-0.32714915 -0.11766618 0.053637743
-0.32735258 -0.11758418 0.053689711
-0.3275418 -0.1175131 0.053699031
-0.32773337 -0.11744206 0.053701412
-0.3279222 -0.11737157 0.053707272
-0.3281073 -0.11730781 0.053672742
-0.32828814 -0.11724625 0.053633604
-0.32848093 -0.11717415 0.0536406
-0.32866886 -0.1171049 0.053639531
-0.32886341 -0.11703108 0.053654604
-0.32902974 -0.11698527 0.05353703
-0.32923445 -0.11690066 0.053605154
-0.32941687 -0.11684004 0.053554468
-0.32960567 -0.11677263 0.053537231
-0.32978326 -0.1167147 0.053479634
-0.32998517 -0.11663358 0.053529304
-0.33017468 -0.1165656 0.053514373
-0.33035463 -0.11650527 0.053468324
-0.33053687 -0.11644257 0.053433802
-0.33073491 -0.11636823 0.053443071
-0.33092749 -0.11629499 0.053459309
-0.33111694 -0.11622733 0.053442065
-0.3312889 -0.11617531 0.053355642
-0.33147162 -0.11611228 0.053322278
-0.33166188 -0.11604617 0.053291172
-0.33185863 -0.11596678 0.053342018
-0.33206269 -0.11588472 0.053392835
-0.33227161 -0.11579794 0.053465549
-0.33241767 -0.115774 0.05323955
-0.33262315 -0.11569079 0.053294972
-0.33280706 -0.11563345 0.053215407
-0.33301187 -0.11554682 0.05329854
-0.33318755 -0.11549541 0.053197078
-0.33339256 -0.11541314 0.053246725
-0.33358467 -0.11534574 0.053220235
-0.33376339 -0.11528709 0.053164955
-0.33395728 -0.11521167 0.053193882
-0.33414203 -0.11514729 0.053165119
-0.3343491 -0.11507405 0.053140856
-0.33452469 -0.11501642 0.053086735
-0.33471367 -0.11494602 0.053091444
-0.33490077 -0.11487953 0.053071901
-0.3350794 -0.11481909 0.053030472
-0.3352688 -0.11475053 0.053020168
-0.33544976 -0.11469199 0.052957941
-0.33562383 -0.11463383 0.052911915
-0.33585724 -0.11452838 0.053057253
-0.33601028 -0.11448991 0.05292128
-0.33622515 -0.11439803 0.05301591
-0.3364169 -0.11433169 0.052982494
-0.33661309 -0.11426323 0.052952506
-0.33680719 -0.11419478 0.052928314
-0.33699679 -0.11412662 0.052914545
-0.33717284 -0.11406696 0.052874282
-0.33738458 -0.11398651 0.05289156
-0.3375645 -0.11392726 0.052837417
-0.33776036 -0.11385556 0.052832849
-0.33793691 -0.1137899 0.052836463
-0.33813626 -0.11371524 0.052844577
-0.33833757 -0.11364643 0.052803021
-0.33851367 -0.11358323 0.052789316
-0.33871612 -0.11350604 0.052807808
-0.33888218 -0.11345559 0.05272603
-0.33908102 -0.11338355 0.052715663
-0.3392767 -0.11330885 0.052734192
-0.33946565 -0.113242 0.052712329
-0.33968028 -0.11316185 0.052719206
-0.3398549 -0.11310579 0.052655853
-0.34003997 -0.11303883 0.052645572
-0.34025231 -0.11295371 0.052696332
-0.34044084 -0.1128893 0.052657161
-0.34062612 -0.11282595 0.052619159
-0.34079543 -0.11277275 0.052548908
-0.3409943 -0.11269781 0.052560486
-0.34118116 -0.11263493 0.0525144
-0.34138015 -0.11256178 0.052512117
-0.34158918 -0.11248017 0.05254557
-0.34177285 -0.11241496 0.05252606
-0.34195551 -0.11235409 0.052476525
-0.34216481 -0.11227254 0.052508831
-0.34235746 -0.11220508 0.052481182
-0.34253776 -0.11214632 0.052422423
-0.3427335 -0.11207633 0.052405145
-0.34293333 -0.11199966 0.052427106
-0.34311515 -0.1119414 0.052360259
-0.34329635 -0.11187863 0.052329205
-0.34350929 -0.11179634 0.052356876
-0.34370643 -0.11172386 0.0523546
-0.34391755 -0.11165159 0.05231183
-0.34411412 -0.11158469 0.052269153
-0.34429628 -0.11151972 0.05225195
-0.34448862 -0.11144978 0.052243929
-0.34468719 -0.11137646 0.052243959
-0.34487468 -0.11131061 0.052218653
-0.34506458 -0.11124769 0.052164454
-0.34526932 -0.11116475 0.052219879
-0.34546369 -0.11109835 0.052179523
-0.3456552 -0.11102626 0.052189983
-0.34584376 -0.1109646 0.052130025
-0.244717 -0.14761147 0.057304062
-0.24494621 -0.147533 0.057257704
-0.24518956 -0.14745438 0.057173178
-0.24542591 -0.14737603 0.057105996
-0.24566936 -0.14729905 0.057008766
-0.24590664 -0.14722097 0.056936964
-0.24616887 -0.14713998 0.056817673
-0.24641055 -0.14706488 0.056711219
-0.24662977 -0.14698748 0.056684554
-0.24684577 -0.14691021 0.056665994
-0.24707469 -0.14683291 0.056611553
-0.24730031 -0.14675577 0.056565233
-0.2475163 -0.14668016 0.056533962
-0.24774803 -0.14660323 0.056469128
-0.2479794 -0.1465264 0.056404289
-0.24821039 -0.14644973 0.05633945
-0.24844809 -0.14637318 0.056254953
-0.24866381 -0.14629677 0.05623062
-0.24889451 -0.14622188 0.056153081
-0.24912529 -0.14614575 0.056084786
-0.24935201 -0.14606972 0.056026898
-0.24957877 -0.14599383 0.055967867
-0.24980968 -0.1459181 0.055896103
-0.25003737 -0.14584248 0.055832434
-0.2502622 -0.14576839 0.055765331
-0.25049278 -0.14569308 0.055691257
-0.2507194 -0.14561786 0.055627607
-0.25095284 -0.14554289 0.055543128
-0.25118428 -0.14546803 0.055463277
-0.25139162 -0.14539286 0.055452853
-0.25161707 -0.14531961 0.055377647
-0.25183609 -0.1452449 0.055331361
-0.25206026 -0.14517042 0.055268873
-0.25228253 -0.14509603 0.055211019
-0.25250059 -0.14502168 0.055164728
-0.25272262 -0.14494753 0.055105723
-0.25294024 -0.14487486 0.055047885
-0.25315741 -0.14480083 0.055001609
-0.25337693 -0.14472699 0.054947235
-0.25359389 -0.14465319 0.054899797
-0.25381508 -0.14457966 0.054838486
-0.25402763 -0.14450595 0.054802623
-0.25424221 -0.14443241 0.054759812
-0.25445911 -0.14435908 0.054708924
-0.25467238 -0.14428572 0.054668434
-0.25488389 -0.14421239 0.054632574
-0.25510144 -0.14414097 0.054565512
-0.25531608 -0.14406802 0.054518085
-0.25552678 -0.14399499 0.054482233
-0.2557354 -0.14392196 0.054452166
-0.25595069 -0.14384939 0.054400124
-0.25618297 -0.14377637 0.054304108
-0.25641349 -0.14369726 0.054258905
-0.25657102 -0.14362162 0.054390773
-0.25674805 -0.14355487 0.054401301
-0.25699106 -0.14347835 0.054301761
-0.25728169 -0.14341767 0.053950232
-0.25747991 -0.14334649 0.053935234
-0.25761384 -0.14326775 0.054156154
-0.25783277 -0.14319965 0.054060213
-0.25804311 -0.14312951 0.054003574
-0.25824812 -0.1430575 0.053975839
-0.25845397 -0.14298566 0.053944636
-0.25865972 -0.1429123 0.05392497
-0.25886646 -0.14284393 0.053864904
-0.25906992 -0.1427722 0.053839479
-0.25927618 -0.14270081 0.053803653
-0.25948766 -0.14262673 0.053773567
-0.25967932 -0.14255749 0.053762067
-0.25988525 -0.14248636 0.05372509
-0.26010436 -0.1424133 0.053666104
-0.26028925 -0.14234534 0.05366388
-0.26048633 -0.14227366 0.053655822
-0.26068911 -0.14220263 0.053626936
-0.26089007 -0.14213319 0.05359114
-0.26108468 -0.14206317 0.053577319
-0.26127526 -0.14199112 0.053590074
-0.26146895 -0.14191778 0.053603973
-0.26164624 -0.14184771 0.053638749
-0.26181656 -0.14177348 0.053724356
-0.26197031 -0.14169726 0.053871267
-0.26060733 -0.14112464 0.061984569
-0.26092952 -0.1410701 0.061498925
-0.26106003 -0.14098175 0.061801836
-0.26122493 -0.1409014 0.061948679
-0.26143366 -0.14082879 0.061915137
-0.26173979 -0.14066243 0.062317502
-0.26220056 -0.14041445 0.06290485
-0.26395482 -0.14027737 0.059054479
-0.26414725 -0.14020112 0.059093781
-0.26437539 -0.14011921 0.059076302
-0.26460049 -0.14004272 0.05902651
-0.26477271 -0.13997482 0.059059002
-0.26498511 -0.13990025 0.059030063
-0.26518923 -0.13982627 0.059019655
-0.26539528 -0.13976461 0.058911085
-0.26554996 -0.13969767 0.058985241
-0.26580974 -0.13961436 0.058890224
-0.26598996 -0.13954827 0.058886871
-0.26619965 -0.1394698 0.058894906
-0.26638433 -0.13939457 0.058948107
-0.26656428 -0.13932246 0.058990948
-0.26676211 -0.139256 0.05894132
-0.26698393 -0.13920076 0.058740284
-0.26715168 -0.13913253 0.058787808
-0.26739034 -0.13903987 0.058822233
-0.26758003 -0.13896799 0.058836155
-0.26777866 -0.13890232 0.058778431
-0.26798967 -0.13882688 0.058759898
-0.26816988 -0.13875942 0.058766939
-0.26834723 -0.13869561 0.058754366
-0.26857895 -0.13861454 0.058720708
-0.26876724 -0.13854915 0.058689602
-0.26898101 -0.13847269 0.058671042
-0.2691904 -0.13840611 0.058590174
-0.26936471 -0.13833547 0.058637664
-0.26954776 -0.13826697 0.05864469
-0.26975721 -0.13819638 0.058593839
-0.26993659 -0.13812707 0.058617048
-0.27010104 -0.13806282 0.058643818
-0.27032816 -0.13799721 0.058506258
-0.27050212 -0.13792211 0.058588393
-0.27073833 -0.13784121 0.05854084
-0.27091831 -0.13777459 0.058542117
-0.27108434 -0.13771328 0.058542319
-0.27131078 -0.1376369 0.058487903
-0.27150622 -0.13756566 0.058480997
-0.27169988 -0.13749631 0.058464874
-0.2718702 -0.13742712 0.058512386
-0.27208987 -0.13735156 0.058470707
-0.27226615 -0.1372866 0.058469694
-0.2724613 -0.13722038 0.058425851
-0.27270341 -0.13714987 0.058283582
-0.27288067 -0.13707829 0.058329906
-0.27305377 -0.13700533 0.058398187
-0.27325833 -0.13694023 0.058319651
-0.27344975 -0.13687338 0.058290839
-0.27364984 -0.13679966 0.058289681
-0.27384436 -0.13672908 0.058280475
-0.27404469 -0.13665557 0.058277015
-0.27424005 -0.1365905 0.058223933
-0.27443385 -0.13652247 0.058197409
-0.27463865 -0.13645084 0.058167368
-0.27479336 -0.13638926 0.058201116
-0.27497998 -0.13631362 0.058251999
-0.27519432 -0.13625103 0.058127224
-0.2753889 -0.13618118 0.058112245
-0.27557781 -0.13610654 0.058149256
-0.27577791 -0.13604431 0.058061503
-0.27595869 -0.13597724 0.058063924
-0.27616632 -0.13589953 0.058071971
-0.27634469 -0.13584515 0.0579855
-0.27654222 -0.13577162 0.057990134
-0.27674606 -0.13569805 0.057977416
-0.27691054 -0.13562153 0.05809655
-0.2771188 -0.13555552 0.058014527
-0.27728182 -0.13548382 0.058101341
-0.27749759 -0.13542713 0.057928056
-0.27768373 -0.13536024 0.057914279
-0.27788365 -0.13528538 0.057922367
-0.27806979 -0.13521282 0.057951316
-0.27825937 -0.13514481 0.05793637
-0.27844903 -0.13507694 0.057920266
-0.27866268 -0.13501492 0.057793181
-0.27883601 -0.1349512 0.057791032
-0.27902478 -0.13487722 0.05782342
-0.27922615 -0.13481268 0.057749517
-0.27941725 -0.13473693 0.057788834
-0.27959624 -0.13467021 0.057793573
-0.27976856 -0.1346 0.057843387
-0.27997482 -0.13454176 0.057708256
-0.28017381 -0.13446724 0.057716351
-0.28035182 -0.13439706 0.057749972
-0.28054941 -0.13433468 0.05767031
-0.28075469 -0.13426396 0.057632186
-0.28095728 -0.13419513 0.057587139
-0.28115627 -0.13411769 0.057617169
-0.2813583 -0.13404877 0.057574436
-0.28154016 -0.13398454 0.057552606
-0.28169608 -0.13391455 0.057646386
-0.28188807 -0.1338533 0.057573698
-0.28208408 -0.13378446 0.057547167
-0.28229609 -0.13370864 0.057528626
-0.28245631 -0.13365176 0.057511538
-0.2826395 -0.1335783 0.057555508
-0.28283143 -0.13351066 0.057531305
-0.28304112 -0.13343723 0.057501234
-0.28323281 -0.13336968 0.057477046
-0.28343496 -0.13329858 0.057450477
-0.28361768 -0.13324718 0.057329338
-0.28380245 -0.13317131 0.057387166
-0.28399336 -0.13309607 0.057423007
-0.28419152 -0.13303393 0.057339888
-0.28436473 -0.13296461 0.05738046
-0.28451735 -0.13288711 0.057540074
-0.28473952 -0.13283236 0.057334423
-0.2849088 -0.13276386 0.057379641
-0.2851038 -0.13270412 0.057287291
-0.28528967 -0.13263305 0.057305858
-0.28548557 -0.13256624 0.057264313
-0.28567666 -0.13249552 0.057265516
-0.28586262 -0.13242885 0.057250597
-0.28604195 -0.13236493 0.057233393
-0.28623906 -0.13228682 0.057273827
-0.28644127 -0.13221768 0.057232246
-0.28660977 -0.13215728 0.057218578
-0.28679353 -0.13209341 0.057188649
-0.28698227 -0.13202541 0.057176016
-0.28717843 -0.13196018 0.05712178
-0.28737798 -0.13188927 0.057101
-0.28755927 -0.1318188 0.057127666
-0.28773859 -0.13176055 0.057067752
-0.28790918 -0.13168852 0.057136036
-0.28811362 -0.13162805 0.057022862
-0.28830504 -0.1315638 0.056974418
-0.28850499 -0.13148908 0.056981355
-0.28867891 -0.13141552 0.057051934
-0.28885949 -0.13134944 0.057047434
-0.28903842 -0.13128674 0.057022154
-0.28923535 -0.13122444 0.056943655
-0.28942266 -0.13116692 0.056855988
-0.28961372 -0.13109806 0.05684334
-0.28979531 -0.13103393 0.05682151
-0.28997138 -0.13094579 0.056995995
-0.2901468 -0.13087335 0.057053875
-0.29035071 -0.1308333 0.056788292
-0.29053694 -0.13075826 0.056835707
-0.29072541 -0.13068621 0.056854255
-0.29090655 -0.13062192 0.056834742
-0.29110765 -0.13057464 0.05663152
-0.29128084 -0.13048007 0.0568626
-0.29146171 -0.13041557 0.056845397
-0.29165882 -0.13035046 0.056787685
-0.29184851 -0.13028042 0.056787744
-0.29203105 -0.13021913 0.056741662
-0.29221579 -0.13016181 0.056659766
-0.29241776 -0.13009213 0.056622811
-0.29259503 -0.13002239 0.056655277
-0.29277453 -0.12994921 0.05670736
-0.29296651 -0.12988386 0.056665838
-0.29314673 -0.12981945 0.056649789
-0.29332274 -0.12974694 0.056706503
-0.29351985 -0.12970036 0.056509081
-0.29371729 -0.12963925 0.056420192
-0.29388857 -0.12954859 0.05662705
-0.29406807 -0.12948309 0.056621391
-0.29426631 -0.12943317 0.056445897
-0.29445165 -0.12934574 0.056589164
-0.294635 -0.12928969 0.056501508
-0.29483023 -0.12923476 0.056372218
-0.29500788 -0.12914619 0.056545548
-0.29520604 -0.12908973 0.056419708
-0.29538432 -0.12902206 0.056433693
-0.29557607 -0.12895983 0.056369081
-0.29575968 -0.12888576 0.056416512
-0.29593968 -0.12881179 0.056473203
-0.29612535 -0.12875487 0.056385547
-0.29631242 -0.12869115 0.056345209
-0.29649812 -0.1286232 0.056340668
-0.29668316 -0.12855305 0.056354612
-0.29686576 -0.12848745 0.056340866
-0.29705241 -0.12842314 0.056306306
-0.29723477 -0.12835702 0.056297172
-0.29742497 -0.12829277 0.056252196
-0.29760674 -0.12822443 0.056261547
-0.29779255 -0.12815781 0.056246616
-0.29798132 -0.12808797 0.056247845
-0.29816973 -0.12801641 0.056262922
-0.2983532 -0.12795663 0.05620297
-0.29854637 -0.12789159 0.056155682
-0.2987203 -0.12781924 0.056217022
-0.29889244 -0.12775721 0.056205641
-0.29908359 -0.12770377 0.056076378
-0.29926768 -0.12762707 0.056142289
-0.29945353 -0.12756273 0.056110039
-0.29964373 -0.12750629 0.056006178
-0.29983839 -0.12742816 0.056053557
-0.30001006 -0.12736368 0.056061804
-0.30018896 -0.12730207 0.056028448
-0.30038792 -0.12723213 0.056001898
-0.3005662 -0.12716293 0.056027431
-0.30074468 -0.1270961 0.056034479
-0.30092338 -0.12703349 0.056009203
-0.30111197 -0.12696202 0.056023128
-0.30129412 -0.12690364 0.055956259
-0.3014794 -0.12683752 0.055939034
-0.30166465 -0.12677296 0.055910259
-0.30185661 -0.12670377 0.055897605
-0.30203846 -0.12663601 0.055902325
-0.30222023 -0.12657271 0.055873565
-0.30240217 -0.12650371 0.055887528
-0.3025873 -0.12643825 0.055865679
-0.30276811 -0.12639323 0.055701841
-0.30295759 -0.12630519 0.055838142
-0.30313244 -0.12624538 0.055802498
-0.30331355 -0.12618798 0.055731025
-0.30349872 -0.12611993 0.055728801
-0.30368081 -0.12604979 0.055750847
-0.30386972 -0.12597696 0.055774007
-0.30404735 -0.12591965 0.055711791
-0.30423138 -0.12586135 0.05563914
-0.30441359 -0.12579115 0.055661187
-0.30459914 -0.12572035 0.055678584
-0.30479163 -0.12564622 0.055701725
-0.30497548 -0.12558736 0.055633698
-0.30514678 -0.12554692 0.055461824
-0.30533856 -0.12547626 0.055460721
-0.30552649 -0.12539218 0.055571634
-0.30570105 -0.12533078 0.05554869
-0.305893 -0.1252602 0.055546436
-0.30608737 -0.12519336 0.055509523
-0.306274 -0.12511863 0.055553474
-0.30644581 -0.12505564 0.055550173
-0.30662569 -0.12498431 0.055587243
-0.30680639 -0.12493642 0.05544534
-0.30700141 -0.1248534 0.055528499
-0.30717325 -0.1248028 0.055431679
-0.30736867 -0.1247429 0.055339344
-0.30754593 -0.12467056 0.055391431
-0.30773446 -0.12460186 0.055384569
-0.30792379 -0.12454115 0.055315353
-0.30810362 -0.12447122 0.055342026
-0.30828488 -0.1244069 0.055322509
-0.30847585 -0.12434006 0.055294853
-0.30865324 -0.12427854 0.055264972
-0.30883229 -0.12421165 0.055270862
-0.30901793 -0.12413377 0.055341378
-0.30920562 -0.12406815 0.05531374
-0.30940041 -0.12400757 0.05522833
-0.30956581 -0.12394647 0.055228535
-0.30975094 -0.1238795 0.055218231
-0.3099311 -0.12381817 0.055179089
-0.31010994 -0.12375244 0.055176906
-0.31030095 -0.12367763 0.055209294
-0.3104828 -0.12361187 0.055199008
-0.31066057 -0.12355664 0.055120617
-0.31083617 -0.12349929 0.055064186
-0.31101939 -0.12344418 0.054969605
-0.31120145 -0.12336364 0.055070169
-0.31138638 -0.12330425 0.055003289
-0.31156427 -0.12324101 0.054984942
-0.31175077 -0.12316433 0.055043913
-0.31194827 -0.12308238 0.055112049
-0.31214002 -0.1230139 0.055094786
-0.3123107 -0.12296709 0.054972559
-0.31251469 -0.12288382 0.055032585
-0.3127051 -0.12280005 0.055134244
-0.31287855 -0.12275881 0.054962359
-0.31306303 -0.12269375 0.054939363
-0.31323746 -0.12263225 0.054917574
-0.31341198 -0.12257056 0.054896943
-0.31359991 -0.12249856 0.054916639
-0.31378096 -0.12244043 0.054850936
-0.31397489 -0.12236226 0.05490062
-0.31415075 -0.12230344 0.054854583
-0.31433481 -0.12223931 0.054825805
-0.3145082 -0.12217467 0.054830581
-0.31469417 -0.12211213 0.054784477
-0.31488544 -0.12203968 0.054798387
-0.31506699 -0.12198012 0.054741923
-0.31524143 -0.12191388 0.054755926
-0.31542277 -0.12184983 0.0547341
-0.31560874 -0.12178713 0.054689147
-0.31579271 -0.12172318 0.054659229
-0.31597233 -0.12165748 0.054654732
-0.31615767 -0.12158659 0.054673288
-0.31634581 -0.12151559 0.054684907
-0.3165229 -0.12145893 0.05461923
-0.31670761 -0.12139378 0.054596219
-0.31690052 -0.1213195 0.054619357
-0.31708255 -0.12125459 0.05460215
-0.31725958 -0.12119349 0.054569948
-0.31744239 -0.12112737 0.054559655
-0.31762874 -0.12105979 0.054550499
-0.31781441 -0.12098925 0.054565601
-0.31800887 -0.12091731 0.054566786
-0.31818658 -0.12085933 0.054509185
-0.318362 -0.12080083 0.05446199
-0.31855753 -0.12072344 0.054501273
-0.31873149 -0.12066716 0.054441389
-0.31891283 -0.12060356 0.054416098
-0.31910169 -0.1205326 0.0544254
-0.31928942 -0.12046728 0.05439546
-0.31946671 -0.12040594 0.054364413
-0.3196449 -0.12034703 0.054312583
-0.31984058 -0.1202702 0.054347254
-0.3200365 -0.12018593 0.054437332
-0.32020178 -0.12014907 0.054255109
-0.32039121 -0.12007423 0.054292116
-0.32058662 -0.11999474 0.054347567
-0.3207719 -0.11992954 0.054323412
-0.32094473 -0.11988501 0.054178081
-0.32112426 -0.1198207 0.054163195
-0.32133049 -0.11972697 0.054295942
-0.32151702 -0.11966361 0.054254457
-0.32169816 -0.11960744 0.054173749
-0.32189238 -0.11953374 0.054188795
-0.32207757 -0.1194623 0.054211967
-0.32226679 -0.11939873 0.054164693
-0.32244971 -0.11933041 0.054170568
-0.32262039 -0.1192781 0.054089915
-0.32280299 -0.11921664 0.054044992
-0.32299697 -0.11914059 0.054078512
-0.32317495 -0.11907885 0.054048616
-0.32337654 -0.1189934 0.05413175
-0.32356381 -0.11893237 0.054070629
-0.32374972 -0.11886388 0.05406956
-0.32391778 -0.11881161 0.053995848
-0.32410252 -0.11875059 0.053941667
-0.3242901 -0.1186772 0.053972919
-0.32449058 -0.11859998 0.053997166
-0.32467613 -0.11853223 0.053991474
-0.32486284 -0.11846605 0.053970776
-0.32503787 -0.11841106 0.053898178
-0.32523656 -0.11833633 0.053908587
-0.32541311 -0.11827665 0.053867146
-0.32559684 -0.11820851 0.053869553
-0.32576874 -0.11815988 0.05375772
-0.32594103 -0.11810513 0.053690922
-0.32615378 -0.11800884 0.053824779
-0.3263298 -0.11795532 0.053738322
-0.32652825 -0.11787593 0.053784516
