# .PCD v0.7 - Point Cloud Data file format
VERSION 0.7
FIELDS x y z
SIZE 4 4 4
TYPE F F F
COUNT 1 1 1
WIDTH 1286
HEIGHT 1
VIEWPOINT 0 0 0 1 0 0 0
POINTS 1286
DATA ascii
-0.25996491 -0.15544736 0.060443237
-0.26026493 -0.15530527 0.060882408
-0.26076293 -0.15509319 0.061414871
-0.26249287 -0.15504408 0.057582475
-0.26268661 -0.15498233 0.057618022
-0.26291525 -0.15491489 0.057615206
-0.26314932 -0.15485241 0.05755803
-0.26332879 -0.15479712 0.057575207
-0.26354212 -0.15473601 0.057557467
-0.26374808 -0.15467528 0.057554811
-0.26395983 -0.1546254 0.057448119
-0.26411641 -0.15457283 0.057498965
-0.26438013 -0.15450439 0.057418466
-0.26456872 -0.15444961 0.057409
-0.26477438 -0.15438728 0.057420209
-0.26496634 -0.15432368 0.057475425
-0.26515257 -0.15426458 0.057507567
-0.26534444 -0.15421081 0.057481907
-0.26557609 -0.15416694 0.057276856
-0.26575321 -0.15411374 0.0572825
-0.26598966 -0.1540356 0.057348929
-0.26618388 -0.15397678 0.057359062
-0.26636699 -0.15392728 0.057319604
-0.26659623 -0.15386356 0.057284415
-0.26678795 -0.15380633 0.057287633
-0.26697272 -0.15375549 0.057255097
-0.26719162 -0.15369135 0.057248875
-0.2673952 -0.1536355 0.057211563
-0.2676034 -0.15357479 0.05720311
-0.26781914 -0.15352054 0.057122968
-0.26800123 -0.15346308 0.057151683
-0.26817575 -0.15340981 0.057164267
-0.26840258 -0.15334849 0.057115231
-0.26857331 -0.15329634 0.057127856
-0.26874658 -0.15324065 0.057163559
-0.2689904 -0.15318704 0.057009265
-0.2691586 -0.15312991 0.057069272
-0.26938114 -0.15306342 0.057073422
-0.26959282 -0.15300462 0.057040676
-0.26975003 -0.15295285 0.057083435
-0.26998302 -0.1528967 0.056976587
-0.27016729 -0.15283817 0.05700874
-0.27037027 -0.15278138 0.056980692
-0.27055177 -0.15272424 0.057008252
-0.27076811 -0.15266071 0.0570032
-0.27095839 -0.15261132 0.056945197
-0.27113754 -0.15255347 0.05698432
-0.27138731 -0.15250215 0.056796476
-0.27158076 -0.15244021 0.05683434
-0.27175483 -0.15238065 0.056900084
-0.2719529 -0.15232517 0.056873221
-0.27214697 -0.1522731 0.056827899
-0.27235627 -0.15221487 0.056796327
-0.27254456 -0.15215838 0.056801878
-0.2727637 -0.15209682 0.056773707
-0.27294451 -0.15204491 0.056759678
-0.27315086 -0.15198839 0.056721196
-0.27335858 -0.15193005 0.056694254
-0.27353469 -0.1518815 0.056664087
-0.27371007 -0.15182 0.056742527
-0.27391243 -0.15176731 0.056682117
-0.2741254 -0.15171416 0.056599677
-0.27431151 -0.15165216 0.056656092
-0.27451327 -0.15159698 0.056617644
-0.27471119 -0.15154813 0.056536473
-0.27489498 -0.15148513 0.056606766
-0.27510467 -0.15143391 0.056516267
-0.27529258 -0.15138899 0.056427091
-0.27549329 -0.15132044 0.056501873
-0.27569029 -0.15125549 0.05655589
-0.27588734 -0.15120158 0.056518629
-0.27606612 -0.1511444 0.05655314
-0.27625552 -0.15109247 0.056518253
-0.27646428 -0.15104474 0.056401186
-0.27665418 -0.15098482 0.056430995
-0.27686027 -0.15092754 0.05639945
-0.27704281 -0.15086673 0.056454726
-0.27723223 -0.15081535 0.056415208
-0.27743962 -0.15076202 0.05634784
-0.27764004 -0.15071397 0.05625394
-0.27782384 -0.15065697 0.056274556
-0.27801529 -0.1505952 0.056315903
-0.27821875 -0.15054025 0.056271665
-0.27841687 -0.15048237 0.056264438
-0.27858666 -0.1504266 0.056309413
-0.27877426 -0.15037505 0.056275692
-0.27898344 -0.15032399 0.056185201
-0.27917564 -0.15026283 0.056219608
-0.2793535 -0.15020886 0.056229867
-0.27957046 -0.15015997 0.056102335
-0.27976656 -0.15010145 0.056105528
-0.2799682 -0.15004323 0.056092493
-0.28017163 -0.14997961 0.056119896
-0.28038391 -0.14992525 0.056049023
-0.28055358 -0.14987299 0.056065112
-0.28071892 -0.14981434 0.056144781
-0.28092092 -0.14976707 0.056040466
-0.28111741 -0.14970927 0.056036718
-0.28132042 -0.14965262 0.056007512
-0.2814877 -0.14960596 0.055983178
-0.28167668 -0.14954282 0.056041881
-0.28187162 -0.14948772 0.056019656
-0.28208816 -0.14943071 0.055960305
-0.28227204 -0.14937481 0.055971667
-0.2824814 -0.14932005 0.055911206
-0.28265831 -0.14928161 0.055795535
-0.2828531 -0.14921172 0.05589579
-0.28305188 -0.14915268 0.05589664
-0.28324145 -0.14910573 0.05582016
-0.28340438 -0.14904442 0.055927575
-0.283582 -0.14898339 0.055996753
-0.28379658 -0.14894234 0.055810325
-0.28397068 -0.14888653 0.055844862
-0.28417021 -0.14883693 0.055765994
-0.28436032 -0.14877892 0.055779621
-0.2845546 -0.14872484 0.055750474
-0.28474653 -0.14866866 0.055744447
-0.28493321 -0.14861628 0.055719979
-0.28511795 -0.14856209 0.055715159
-0.28532094 -0.14849915 0.055737935
-0.28551394 -0.14844434 0.055718046
-0.28569001 -0.14839523 0.055692494
-0.2858766 -0.14834328 0.055664558
-0.28606936 -0.14828855 0.055644661
-0.28626561 -0.14823779 0.055583145
-0.28646559 -0.14817673 0.055597857
-0.28665394 -0.14812231 0.055586081
-0.28683406 -0.14807367 0.055546634
-0.2870028 -0.14801681 0.055603169
-0.28720987 -0.14796957 0.055486117
-0.28740373 -0.14791717 0.055444263
-0.28760684 -0.14785504 0.05546011
-0.28778124 -0.1477944 0.055533931
-0.28796688 -0.1477426 0.055507153
-0.28814909 -0.14769208 0.055478103
-0.2883476 -0.14764096 0.055414252
-0.28853136 -0.1475988 0.055312395
-0.28872392 -0.14753993 0.055327155
-0.28890955 -0.14748912 0.055292297
-0.28909039 -0.14741287 0.055479303
-0.28927109 -0.14735442 0.055519581
-0.2894727 -0.14732838 0.05524081
-0.28965873 -0.14726584 0.055301834
-0.28985119 -0.14720686 0.05531776
-0.29003614 -0.14715567 0.055287521
-0.29023439 -0.14712057 0.05509197
-0.29040983 -0.14703934 0.055333324
-0.29059756 -0.14698623 0.055312298
-0.29079747 -0.14693357 0.055257685
-0.29099068 -0.14687617 0.055258594
-0.29117298 -0.14682844 0.055206418
-0.29135704 -0.14678465 0.055117268
-0.29156181 -0.14672719 0.055090357
-0.29174313 -0.1466701 0.055117905
-0.29192337 -0.14661068 0.055167433
-0.29211488 -0.14655867 0.055127904
-0.2923016 -0.14650488 0.055114985
-0.29247531 -0.14644794 0.055159926
-0.2926732 -0.1464121 0.054971311
-0.29287305 -0.14636323 0.054885507
-0.29305092 -0.14628731 0.055077154
-0.29323 -0.14623408 0.055078156
-0.29342917 -0.14619464 0.054916095
-0.29362035 -0.14612205 0.055047572
-0.29380205 -0.14607701 0.054974616
-0.29400009 -0.14603664 0.054822959
-0.29418311 -0.1459606 0.055003017
-0.29438639 -0.14591393 0.05489061
-0.29456538 -0.14586143 0.054885842
-0.29475632 -0.14581199 0.054826673
-0.29494771 -0.14575052 0.054865718
-0.29512808 -0.14568868 0.054934874
-0.29531237 -0.14564314 0.054859586
-0.29550293 -0.14559367 0.054801568
-0.29569191 -0.14553739 0.054803658
-0.29588091 -0.14548109 0.054805744
-0.29606313 -0.14542724 0.054804407
-0.29625306 -0.1453764 0.054759122
-0.29643545 -0.14532404 0.054745071
-0.2966285 -0.14527144 0.054706685
-0.29681769 -0.1452172 0.054691441
-0.29700273 -0.14515886 0.054720126
-0.29719216 -0.14510706 0.05468408
-0.29738402 -0.14504518 0.054725431
-0.29757723 -0.14499687 0.054651227
-0.29776642 -0.14494444 0.054620959
-0.29795155 -0.14488566 0.054653108
-0.2981267 -0.14483361 0.054654136
-0.29831293 -0.14479393 0.054525685
-0.29850143 -0.14473096 0.054584391
-0.29868689 -0.14467809 0.054566853
-0.29888275 -0.14463067 0.054478776
-0.29908177 -0.14457002 0.054492339
-0.29926023 -0.14451377 0.054519918
-0.29943869 -0.14446577 0.054479335
-0.29963765 -0.14440961 0.054455921
-0.29982638 -0.14435467 0.054447606
-0.30000159 -0.14429812 0.054485612
-0.30018333 -0.14424819 0.054453082
-0.30037564 -0.14418937 0.054467857
-0.30055693 -0.14414459 0.054393746
-0.30074897 -0.14408894 0.054383099
-0.30093393 -0.14403805 0.054350547
-0.30112964 -0.14397866 0.054361828
-0.30131459 -0.14392692 0.054336213
-0.30150333 -0.14387113 0.054334827
-0.30168861 -0.1438165 0.054332323
-0.30186749 -0.14376068 0.054355275
-0.30205625 -0.14372656 0.054174811
-0.30224958 -0.14366172 0.054236941
-0.30242887 -0.14360383 0.054276075
-0.30261508 -0.14356208 0.05416495
-0.30280736 -0.14350426 0.054171629
-0.30298948 -0.14344889 0.054183006
-0.30318326 -0.14338434 0.054241665
-0.30336261 -0.14334236 0.054149084
-0.30354962 -0.14329408 0.054089941
-0.30374196 -0.14323623 0.054096632
-0.30392334 -0.1431843 0.05408144
-0.30411845 -0.14311586 0.054168977
-0.30430514 -0.14306822 0.054105222
-0.30448511 -0.14303321 0.053953703
-0.30467099 -0.14298721 0.0538784
-0.30487061 -0.14291492 0.053986702
-0.30504826 -0.14286478 0.053965755
-0.30523852 -0.14280407 0.054001343
-0.30543086 -0.14275672 0.053921364
-0.30563241 -0.14269015 0.053977661
-0.30580756 -0.14263824 0.053977542
-0.30599084 -0.1425807 0.054003935
-0.30616853 -0.14253937 0.053910203
-0.30637208 -0.14247681 0.053928349
-0.30655032 -0.14242497 0.05392012
-0.30673945 -0.14238486 0.053788178
-0.30692235 -0.14232856 0.053805329
-0.30711222 -0.14227019 0.053822424
-0.30730265 -0.1422181 0.053786367
-0.3074941 -0.14216347 0.053768791
-0.30767602 -0.14210996 0.053765155
-0.30787024 -0.14205591 0.053736001
-0.30805725 -0.14200455 0.05370228
-0.30824208 -0.14195132 0.053689376
-0.30842173 -0.14188968 0.053758539
-0.30861133 -0.14183922 0.053710938
-0.30881548 -0.1417765 0.053729091
-0.30899438 -0.14172977 0.053676952
-0.30917007 -0.14168343 0.053629443
-0.30935663 -0.14162675 0.053640787
-0.30953577 -0.14157924 0.053594425
-0.30973005 -0.14151902 0.05361611
-0.30991569 -0.14146443 0.053612441
-0.31010163 -0.14140932 0.05361224
-0.31027466 -0.14137328 0.053486187
-0.31047431 -0.14131412 0.053485882
-0.31064451 -0.14127737 0.053372562
-0.31084171 -0.14119628 0.05355946
-0.31101677 -0.14116621 0.053379089
-0.31120309 -0.14111044 0.053383499
-0.31140116 -0.14103916 0.053487197
-0.31160775 -0.14096844 0.053565413
-0.31178498 -0.14092879 0.05345897
-0.31197414 -0.14088307 0.053373247
-0.31218064 -0.14079882 0.053563528
-0.31237745 -0.14074987 0.053485841
-0.31254575 -0.14071494 0.053362139
-0.31273258 -0.1406635 0.053329572
-0.31290805 -0.1406077 0.053360641
-0.31308371 -0.14056949 0.053246133
-0.31329066 -0.14049965 0.05331625
-0.31347069 -0.14045006 0.053284891
-0.31366348 -0.14039378 0.053277701
-0.31384698 -0.14034317 0.053246327
-0.31402782 -0.14029238 0.053223051
-0.31420636 -0.14024085 0.053211346
-0.31439844 -0.14018576 0.05319608
-0.31459713 -0.14012507 0.053210795
-0.31477374 -0.14008041 0.053147115
-0.31495774 -0.14002518 0.053152706
-0.315146 -0.13997553 0.05310164
-0.31534094 -0.13991651 0.053111777
-0.3155129 -0.13987435 0.053038884
-0.31570524 -0.13981526 0.053055964
-0.31590092 -0.13975546 0.053070702
-0.31608418 -0.13970158 0.053067055
-0.31626996 -0.13965154 0.053025261
-0.31645989 -0.13959959 0.052989207
-0.31665611 -0.13953587 0.053035147
-0.31684148 -0.13948637 0.052989881
-0.31702399 -0.13943368 0.052978154
-0.31720743 -0.13938324 0.052945614
-0.3173978 -0.13932739 0.052940764
-0.31759635 -0.13926464 0.052972808
-0.31778932 -0.139209 0.052959852
-0.3179594 -0.13916865 0.052876577
-0.31815836 -0.13910565 0.052909784
-0.3183454 -0.13905412 0.052877218
-0.31852895 -0.13900365 0.052844677
-0.31871173 -0.13895409 0.05280637
-0.31891236 -0.13888948 0.052848812
-0.31908479 -0.13884912 0.052759737
-0.31927422 -0.13879481 0.052744485
-0.31946304 -0.13874124 0.052724615
-0.31966078 -0.13867733 0.052768238
-0.31985945 -0.13861553 0.052792203
-0.32002324 -0.13858487 0.052644271
-0.32022327 -0.1385186 0.052701734
-0.3204231 -0.13845283 0.052755728
-0.32060319 -0.13840644 0.0526978
-0.32077792 -0.13837171 0.05255672
-0.32097122 -0.13831052 0.052588806
-0.32118335 -0.13823439 0.052698176
-0.32136571 -0.13818832 0.052632146
-0.3215546 -0.13814059 0.052563746
-0.32174775 -0.13808 0.052591227
-0.32193416 -0.13802406 0.052596789
-0.32212985 -0.13797447 0.052527197
-0.32231522 -0.13791701 0.05254779
-0.32248652 -0.13787714 0.052457575
-0.32267368 -0.13782322 0.052444652
-0.32287529 -0.13776207 0.05245588
-0.32305869 -0.13770954 0.052440681
-0.32326463 -0.13763902 0.052518893
-0.32345167 -0.13759059 0.052460913
-0.32363957 -0.13753615 0.052450296
-0.32381293 -0.137494 0.052373927
-0.32399771 -0.13744777 0.052303255
-0.32419896 -0.13738003 0.052369948
-0.32439899 -0.13731615 0.052407775
-0.32458302 -0.1372658 0.052372918
-0.32477266 -0.13721241 0.052349579
-0.32494834 -0.13717026 0.052267421
-0.32515711 -0.13710058 0.052331749
-0.32532555 -0.1370631 0.052228842
-0.32551241 -0.13700534 0.052248277
-0.32568783 -0.13696802 0.052126832
-0.32586417 -0.13692276 0.052068923
-0.32608292 -0.13684173 0.052202515
-0.32626227 -0.136796 0.052141115
-0.3264598 -0.13673536 0.052158155
-0.32664236 -0.13668433 0.052132566
-0.32685357 -0.13661337 0.052201502
-0.32700717 -0.1365916 0.052005112
-0.32721734 -0.1365173 0.052104089
-0.32739657 -0.1364695 0.05206003
-0.32759863 -0.13640516 0.052096684
-0.32778808 -0.13635027 0.052086055
-0.32797679 -0.13629827 0.052053485
-0.328159 -0.13625 0.052005932
-0.32835695 -0.13618757 0.05203684
-0.32854274 -0.13613614 0.052006595
-0.32874528 -0.13607194 0.052040927
-0.3289142 -0.13603558 0.051927619
-0.32911888 -0.13596752 0.05198852
-0.32930344 -0.13591729 0.051951356
-0.32949284 -0.13586494 0.051919922
-0.32967675 -0.13581534 0.051879294
-0.32987326 -0.13575682 0.051881328
-0.33007079 -0.1356955 0.051904149
-0.33025339 -0.13564712 0.0518566
-0.3304365 -0.1355983 0.051811349
-0.33063391 -0.13553925 0.051815689
-0.3308363 -0.13547607 0.051841937
-0.33102867 -0.13541947 0.051838219
-0.33119595 -0.13538416 0.051720306
-0.33137691 -0.13533723 0.051664677
-0.33159158 -0.13526399 0.051743984
-0.3317742 -0.13521574 0.051695272
-0.33197537 -0.13515209 0.051728472
-0.33219147 -0.13507618 0.05182625
-0.33234891 -0.13505074 0.051650632
-0.33254564 -0.13499288 0.051646888
-0.33273044 -0.13494483 0.051591232
-0.33292699 -0.13488533 0.051601347
-0.33314645 -0.13481472 0.051647119
-0.33331934 -0.1347727 0.051570754
-0.33352095 -0.13470933 0.051600475
-0.33370629 -0.13466097 0.051545963
-0.33390269 -0.13460195 0.051552624
-0.3340995 -0.13454264 0.051560424
-0.3342911 -0.13449118 0.051516272
-0.33448553 -0.13443749 0.051483661
-0.3346715 -0.13438517 0.051460348
-0.33485255 -0.13433319 0.051446307
-0.33503911 -0.13428225 0.051410288
-0.33523202 -0.13422632 0.051399637
-0.33542305 -0.13417196 0.051380903
-0.33559147 -0.13413519 0.051272228
-0.33580953 -0.13405646 0.051388483
-0.33599216 -0.13401045 0.05132129
-0.33618551 -0.13395274 0.051324498
-0.33640316 -0.13387819 0.051407248
-0.33658251 -0.13383818 0.051298488
-0.33678544 -0.13378015 0.051280826
-0.33697939 -0.13372226 0.05128403
-0.33716404 -0.13367145 0.051251482
-0.33736429 -0.13361225 0.051250018
-0.33754998 -0.13356408 0.0511932
-0.33775598 -0.13350235 0.051198628
-0.33794874 -0.13344397 0.051208772
-0.33813369 -0.13338985 0.051202796
-0.33833843 -0.13333255 0.051174723
-0.33852249 -0.13328569 0.051110994
-0.3387329 -0.13321455 0.051183395
-0.33891526 -0.13316904 0.051112738
-0.33907461 -0.13313074 0.051038787
-0.33928281 -0.13306947 0.05103495
-0.33950499 -0.13299331 0.051119983
-0.33969074 -0.13294539 0.051060859
-0.33989164 -0.13288964 0.051029351
-0.34007132 -0.13284142 0.050987594
-0.3402808 -0.13277642 0.051011484
-0.3404848 -0.13271081 0.051053897
-0.34066588 -0.13266638 0.050977472
-0.34085956 -0.13260981 0.050970279
-0.34103632 -0.13256541 0.050904281
-0.34123152 -0.13251092 0.050876282
-0.34143531 -0.1324504 0.050877105
-0.34163284 -0.13239285 0.050868724
-0.3418346 -0.13233235 0.050874181
-0.3420127 -0.13228559 0.050824352
-0.34221745 -0.13222465 0.050826319
-0.34242803 -0.1321582 0.050859451
-0.34261438 -0.13211025 0.050799161
-0.34281331 -0.13205354 0.050780367
-0.34299773 -0.13200252 0.050750136
-0.34320188 -0.13194232 0.050747491
-0.34338543 -0.13189492 0.050689537
-0.3435733 -0.13184161 0.050669678
-0.34379196 -0.13177307 0.05070043
-0.3439725 -0.13172781 0.050632089
-0.34420264 -0.13165879 0.050638497
-0.34440264 -0.13160178 0.050619707
-0.34458715 -0.13155101 0.050587159
-0.34479794 -0.13148534 0.050613355
-0.34498081 -0.13143437 0.0505866
-0.34515944 -0.13138911 0.050522901
-0.34537643 -0.13132232 0.050543264
-0.34557635 -0.13126001 0.050568376
-0.34577098 -0.13120554 0.050541535
-0.34594995 -0.1311616 0.050466284
-0.24280412 -0.16108783 0.055877354
-0.24303135 -0.16102666 0.055826001
-0.24327214 -0.16096471 0.055747982
-0.24350862 -0.16090278 0.055680394
-0.24374816 -0.16084106 0.055603527
-0.24398936 -0.16078082 0.055510476
-0.24424177 -0.1607185 0.055406943
-0.244491 -0.16065882 0.05528957
-0.24470635 -0.16059685 0.055274133
-0.24491885 -0.16053613 0.055255245
-0.24515222 -0.16047497 0.055188835
-0.2453759 -0.16041486 0.055137508
-0.2455952 -0.16035339 0.055108175
-0.24581966 -0.16029222 0.055063784
-0.24605577 -0.16023165 0.054985791
-0.24628475 -0.16017221 0.054915942
-0.24651885 -0.16011183 0.054841436
-0.24674153 -0.16005103 0.054798204
-0.24696432 -0.15999036 0.054753825
-0.24720222 -0.15993053 0.05466542
-0.2474308 -0.15987037 0.054602511
-0.24765158 -0.15981126 0.054550052
-0.24787787 -0.15975121 0.054491777
-0.24810421 -0.1596913 0.054432347
-0.24833381 -0.15963168 0.054362498
-0.24856819 -0.15957247 0.054277584
-0.24879347 -0.15951286 0.054218162
-0.24901423 -0.15945446 0.054159928
-0.24925098 -0.15939581 0.054064598
-0.24947405 -0.15933645 0.054008659
-0.24968708 -0.15927655 0.053981677
-0.24990423 -0.15921837 0.053930409
-0.25013331 -0.15915975 0.05385362
-0.25035241 -0.15910056 0.053805795
-0.25057352 -0.15904164 0.053751033
-0.25079775 -0.15898305 0.05368584
-0.25101253 -0.15892389 0.053648446
-0.25123236 -0.15886521 0.053594846
-0.2514537 -0.15880677 0.053535443
-0.25167251 -0.15874824 0.053483006
-0.25188953 -0.15868969 0.053435195
-0.2521081 -0.15863137 0.053381603
-0.25231677 -0.15857235 0.05335813
-0.25253662 -0.15851435 0.053298742
-0.25275287 -0.15845616 0.053249784
-0.25296363 -0.15839903 0.05320549
-0.25317425 -0.15834056 0.053172756
-0.25339073 -0.15828271 0.053120334
-0.2536087 -0.15822513 0.053062119
-0.25381958 -0.15816699 0.053025905
-0.25402808 -0.15810871 0.052996654
-0.25424165 -0.15805103 0.052950032
-0.25448528 -0.15799356 0.052828074
-0.2547119 -0.15792868 0.052809082
-0.2548677 -0.15786681 0.052938532
-0.25504696 -0.15781327 0.052941844
-0.25529042 -0.15775333 0.052840684
-0.25557753 -0.15771027 0.052493073
-0.25577167 -0.15765429 0.052480105
-0.25591484 -0.15758511 0.052700926
-0.25613344 -0.15753196 0.052604571
-0.25634408 -0.15747501 0.052559122
-0.25655106 -0.15741774 0.052525256
-0.2567578 -0.15736054 0.052491397
-0.25696298 -0.15730324 0.052462161
-0.25717726 -0.15724564 0.052413218
-0.2573747 -0.15718909 0.052396763
-0.25758353 -0.15713254 0.052352481
-0.25780135 -0.15707262 0.052313913
-0.25798732 -0.15701793 0.052310243
-0.25819317 -0.15696128 0.052274071
-0.25841153 -0.15690331 0.052218165
-0.25860158 -0.15684782 0.052211002
-0.2588 -0.15679042 0.052199155
-0.25900209 -0.15673362 0.052173413
-0.25920749 -0.15667738 0.052134939
-0.25940856 -0.15662061 0.052111514
-0.25959998 -0.15656248 0.052122831
-0.25979227 -0.15650453 0.052130673
-0.25998071 -0.15644602 0.05215241
-0.26015267 -0.15638497 0.052235506
-0.2603271 -0.15632266 0.052323211
-0.26046619 -0.15625623 0.052531362
-0.2595658 -0.15563521 0.059868872
-0.25961697 -0.1555429 0.060506381
-0.25983566 -0.15548678 0.060434289
-0.26029885 -0.15527448 0.061053764
-0.26088732 -0.15508822 0.061151162
-0.26232502 -0.15508375 0.057665862
-0.26254785 -0.15502767 0.057583347
-0.26274273 -0.15495861 0.057676688
-0.26298913 -0.15489653 0.057585906
-0.26320076 -0.15483662 0.057562411
-0.26337397 -0.15477984 0.057607371
-0.26359254 -0.1547197 0.057568796
-0.26380533 -0.1546603 0.057538349
-0.26400289 -0.15461476 0.057430595
-0.26416764 -0.15455432 0.057526466
-0.2644203 -0.15449277 0.057415999
-0.26460132 -0.15443997 0.057408892
-0.26482013 -0.15437277 0.057428095
-0.26500693 -0.15431167 0.057475269
-0.26518279 -0.15425381 0.057522524
-0.26538953 -0.15419956 0.057464384
-0.26560313 -0.15416104 0.057259452
-0.26577917 -0.15410143 0.057320565
-0.26601931 -0.15402599 0.057355788
-0.2662102 -0.15396816 0.057365954
-0.26640078 -0.15391839 0.057310253
-0.2666252 -0.15385526 0.057282034
-0.26680434 -0.15380064 0.057294592
-0.26698351 -0.15375018 0.057272494
-0.26721376 -0.15368479 0.057248853
-0.26740915 -0.15363066 0.057217378
-0.26762325 -0.15356933 0.057199642
-0.26783302 -0.1535174 0.057114907
-0.26801327 -0.15345922 0.057154045
-0.26819101 -0.15340458 0.057170082
-0.26840755 -0.15334645 0.057119962
-0.26857811 -0.15329407 0.057134889
-0.26875344 -0.15323664 0.057179838
-0.26898476 -0.15318771 0.057017524
-0.26916066 -0.1531262 0.05709482
-0.26938504 -0.15306225 0.057073541
-0.26958829 -0.15300721 0.057030454
-0.26974303 -0.15295447 0.057087101
-0.26997325 -0.15289941 0.056977957
-0.27016079 -0.15283951 0.057013568
-0.27035668 -0.15278468 0.056986712
-0.27054232 -0.15272646 0.057013098
-0.27075335 -0.15266547 0.056999996
-0.27094176 -0.15261522 0.056953557
-0.27112123 -0.15255728 0.056992687
-0.27136552 -0.15250842 0.056797929
-0.27155551 -0.15244737 0.056836985
-0.27173853 -0.15238613 0.056894585
-0.27192768 -0.1523319 0.056879342
-0.27211997 -0.15228136 0.05682594
-0.27233088 -0.15222348 0.056787424
-0.27251679 -0.15216587 0.056808017
-0.27272975 -0.15210655 0.056776412
-0.2729097 -0.15205407 0.056769326
-0.27311283 -0.15199849 0.056730866
-0.27332115 -0.15194012 0.05670277
-0.27350172 -0.15189067 0.056669086
-0.2736631 -0.15183331 0.056747645
-0.2738713 -0.15177512 0.056718394
-0.27407765 -0.15172657 0.056614041
-0.27427018 -0.1516645 0.056655392
-0.27446511 -0.15160869 0.056638949
-0.27466547 -0.15156065 0.056545042
-0.27484024 -0.1515013 0.056607328
-0.27505633 -0.15144469 0.056545664
-0.27523193 -0.15140188 0.056469269
-0.27542958 -0.15133701 0.056520976
-0.27564085 -0.15127581 0.056509033
-0.27582452 -0.15121523 0.056559697
-0.27601027 -0.15116395 0.0565283
-0.27618724 -0.15110563 0.056576699
-0.27639857 -0.15106162 0.056422621
-0.2765891 -0.15100461 0.056427002
-0.2767908 -0.15094765 0.056403577
-0.27697736 -0.15088578 0.056457683
-0.27716932 -0.15083253 0.056427393
-0.27736384 -0.15077783 0.056402866
-0.27757207 -0.15073068 0.056282319
-0.27775046 -0.1506764 0.056293733
-0.27794358 -0.15061527 0.056325831
-0.2781412 -0.1505658 0.056250431
-0.27833423 -0.15050469 0.056282528
-0.27851662 -0.1504498 0.056289297
-0.278689 -0.15039213 0.0563435
-0.27889806 -0.15034683 0.056205615
-0.27909845 -0.15028717 0.056207627
-0.27927676 -0.15022999 0.056243304
-0.27947173 -0.15017991 0.056179471
-0.27968681 -0.15012318 0.056121282
-0.27988464 -0.15006876 0.056086332
-0.28008226 -0.15000768 0.056106843
-0.2802847 -0.1499498 0.056089185
-0.28047955 -0.1498971 0.056047328
-0.28063768 -0.14984015 0.056130528
-0.28082421 -0.14978878 0.056097962
-0.28102353 -0.14973602 0.056045659
-0.28123212 -0.14967589 0.056031421
-0.28140002 -0.14962934 0.056004781
-0.28158262 -0.149572 0.056031182
-0.28178006 -0.14951476 0.056020491
-0.28197935 -0.14945529 0.056023665
-0.28218374 -0.14940354 0.05595053
-0.28237465 -0.14934529 0.055964153
-0.28257725 -0.1493001 0.055841342
-0.28274429 -0.14925365 0.055815861
-0.2829434 -0.14918292 0.055912636
-0.28314459 -0.14912945 0.055861469
-0.28332442 -0.14908203 0.055812776
-0.28347832 -0.14901261 0.056009255
-0.2836957 -0.14896528 0.055867855
-0.28387716 -0.14891556 0.055834167
-0.2840583 -0.14886564 0.055802807
-0.28425702 -0.14881082 0.055769004
-0.28444713 -0.14875673 0.055750273
-0.2846376 -0.14869875 0.055762749
-0.28483456 -0.14864261 0.055743985
-0.28501183 -0.14859399 0.055711489
-0.28519773 -0.1485361 0.055734396
-0.28540894 -0.14847647 0.055709742
-0.28558618 -0.14842352 0.055713072
-0.2857666 -0.14837396 0.055680554
-0.28595573 -0.1483196 0.055666462
-0.28614578 -0.14826635 0.055640817
-0.28635198 -0.14821644 0.055548023
-0.28653243 -0.14815275 0.055632215
-0.28673095 -0.14810456 0.055544097
-0.28689903 -0.14805165 0.05556944
-0.28708097 -0.14799452 0.055595856
-0.28728133 -0.14794928 0.055478834
-0.28748661 -0.14789461 0.055427648
-0.2876749 -0.1478349 0.055459782
-0.2878556 -0.14777085 0.055546291
-0.2880331 -0.14772467 0.05549299
-0.28821152 -0.14767431 0.05547205
-0.28841361 -0.14762184 0.055410489
-0.28859812 -0.14758031 0.05530167
-0.28879058 -0.14752077 0.055322222
-0.28897724 -0.14746489 0.055326633
-0.28915301 -0.14739266 0.055492915
-0.28933701 -0.14733869 0.055488098
-0.2895366 -0.1473092 0.055242822
-0.28972945 -0.1472438 0.055310741
-0.28990868 -0.14718927 0.055322152
-0.2900978 -0.1471377 0.055284951
-0.29029539 -0.14710097 0.05510439
-0.2904751 -0.14701933 0.055338819
-0.29066345 -0.14696671 0.055312023
-0.29085773 -0.14691782 0.055240113
-0.29104698 -0.14685978 0.055256065
-0.29122958 -0.1468121 0.055202734
-0.29142028 -0.1467651 0.055123918
-0.29161897 -0.14671056 0.055087797
-0.29179686 -0.14665392 0.055120014
-0.29198113 -0.14659385 0.055164892
-0.2921727 -0.14654128 0.055129975
-0.29235622 -0.14648829 0.05511824
-0.29252964 -0.14642976 0.055177066
-0.29272431 -0.14639486 0.054988444
-0.29292533 -0.14634803 0.054882977
-0.29310334 -0.14627136 0.055080436
-0.29328215 -0.14621654 0.055095308
-0.29347876 -0.14617969 0.054918222
-0.29366723 -0.14610915 0.055039339
-0.29385182 -0.14606045 0.054989461
-0.29404026 -0.14602448 0.054825149
-0.29422727 -0.14594793 0.054999426
-0.29442385 -0.14590283 0.054890528
-0.29461002 -0.14584821 0.054885708
-0.29479781 -0.1457997 0.054826558
-0.29498979 -0.14573917 0.054856353
-0.29516992 -0.14567502 0.054945178
-0.29535109 -0.14563042 0.05486989
-0.29553849 -0.14558174 0.054813057
-0.29572839 -0.14552826 0.054789715
-0.29591408 -0.14547211 0.05479876
-0.2960965 -0.14541776 0.054800898
-0.29628319 -0.14536706 0.054762557
-0.29646567 -0.1453134 0.054758914
-0.29665554 -0.14526105 0.054726325
-0.29684561 -0.14521101 0.054674104
-0.29702711 -0.14515036 0.054730549
-0.29721707 -0.14510009 0.054680631
-0.29740563 -0.1450375 0.054735877
-0.29759935 -0.14499086 0.054646641
-0.29778177 -0.1449382 0.054634906
-0.29796749 -0.14488316 0.054634716
-0.29813915 -0.14482626 0.054684304
-0.2983256 -0.14478388 0.054577786
-0.29851124 -0.1447276 0.054587983
-0.29869694 -0.14467242 0.054588944
-0.2988863 -0.14462695 0.054500893
-0.29908571 -0.14456996 0.054483261
-0.29926103 -0.1445131 0.05452358
-0.29943979 -0.1444632 0.054498006
-0.29963219 -0.14441149 0.05445385
-0.29982114 -0.14435829 0.054430515
-0.30000028 -0.14429598 0.054506633
-0.30017892 -0.14424695 0.05447413
-0.30036107 -0.14419407 0.054464713
-0.30054635 -0.14414448 0.054420598
-0.30073515 -0.14409217 0.054390334
-0.30092049 -0.14404003 0.054367024
-0.3011097 -0.14398243 0.054379508
-0.30129814 -0.14393203 0.05433422
-0.30148071 -0.143875 0.054358315
-0.30166939 -0.14382216 0.054332666
-0.30184194 -0.14376654 0.05436955
-0.30203193 -0.1437266 0.054234114
-0.3022159 -0.14368145 0.054156505
-0.30240101 -0.14360952 0.054297291
-0.30258086 -0.1435688 0.054193132
-0.30276564 -0.14351811 0.054159421
-0.30295157 -0.14346118 0.054174244
-0.30314189 -0.14339906 0.054221392
-0.30331928 -0.14335263 0.054170407
-0.30350369 -0.14330301 0.054128613
-0.30369493 -0.14325137 0.054086778
-0.30387422 -0.143196 0.05410511
-0.30406839 -0.14313245 0.054154538
-0.30424941 -0.14308327 0.0541174
-0.30443525 -0.14303952 0.054023597
-0.30461195 -0.14300521 0.053874388
-0.30480573 -0.14294316 0.053912271
-0.30499107 -0.14287831 0.053994115
-0.30516958 -0.14282623 0.053987037
-0.30536404 -0.14277309 0.053949796
-0.30556345 -0.14271414 0.053948339
-0.30574727 -0.14265548 0.053982824
-0.3059192 -0.1426048 0.05398041
-0.30610254 -0.14254794 0.054001026
-0.30628604 -0.14250824 0.053879514
-0.30647981 -0.14243963 0.0539717
-0.30665579 -0.14240299 0.053843301
-0.30684835 -0.14235419 0.053774871
-0.30702686 -0.14229429 0.053832505
-0.30721909 -0.14223844 0.053823009
-0.30741104 -0.14219078 0.053746499
-0.3075915 -0.14213409 0.053772915
-0.30777597 -0.14208235 0.053748459
-0.30796388 -0.14202961 0.053723972
-0.30814445 -0.14197986 0.053692617
-0.30832759 -0.14192434 0.053702831
-0.30851772 -0.14186002 0.053768471
-0.30870578 -0.14180708 0.053745143
-0.30889651 -0.14176105 0.053658232
-0.30906549 -0.14171068 0.053660464
-0.30925032 -0.14165814 0.053641789
-0.30943066 -0.14160876 0.053608112
-0.30961266 -0.14155594 0.053598702
-0.30980846 -0.14149331 0.053636558
-0.3099868 -0.14144212 0.05362254
-0.31016788 -0.14139684 0.053553045
-0.31034496 -0.14135344 0.05347779
-0.31052971 -0.14130639 0.053414047
-0.31071305 -0.14124575 0.053465866
-0.31090149 -0.14119187 0.053449467
-0.31107759 -0.14114457 0.053408898
-0.31126705 -0.14108382 0.053446803
-0.31146383 -0.14101544 0.053529724
-0.31166077 -0.14095709 0.053529438
-0.31183377 -0.14092006 0.053411469
-0.31203321 -0.14086224 0.053400766
-0.31223443 -0.14078261 0.053565692
-0.31241319 -0.14074977 0.053399149
-0.31259379 -0.14069974 0.053370096
-0.31277305 -0.14065178 0.053327192
-0.31294811 -0.14059711 0.05335018
-0.31312639 -0.1405507 0.053296875
-0.31332219 -0.14049436 0.053282734
-0.31351215 -0.14043415 0.053314857
-0.31369069 -0.14038724 0.053265024
-0.31387621 -0.14033394 0.053250961
-0.31405601 -0.14028093 0.053248491
-0.3142347 -0.14023371 0.05320096
-0.3144291 -0.14017554 0.053205322
-0.31461638 -0.14012381 0.053173907
-0.31479543 -0.140072 0.053163357
-0.31497878 -0.14001809 0.05315971
-0.31516215 -0.13997185 0.053092502
-0.31535435 -0.13991323 0.053106125
-0.31552774 -0.13986939 0.053043619
-0.31571746 -0.1398105 0.053065345
-0.31591347 -0.1397506 0.053080093
-0.31608987 -0.13970266 0.053044133
-0.31627464 -0.1396507 0.053020827
-0.31646651 -0.13959649 0.052998632
-0.31665832 -0.13953532 0.053034209
-0.31684056 -0.13948676 0.052988965
-0.31702507 -0.1394318 0.052991088
-0.31720728 -0.13938326 0.052945845
-0.31739548 -0.13932706 0.052949093
-0.31759334 -0.13926551 0.052973069
-0.31778273 -0.13921134 0.052956674
-0.31795007 -0.13917138 0.052876864
-0.31815115 -0.13910607 0.05292394
-0.31833023 -0.13906139 0.052854449
-0.31851408 -0.1390076 0.052848481
-0.318699 -0.13895573 0.052824028
-0.31889936 -0.13889174 0.052861851
-0.31906518 -0.13885644 0.052747391
-0.31925285 -0.13880138 0.052742559
-0.31944582 -0.13874322 0.052750397
-0.3196404 -0.13868025 0.052794043
-0.31983075 -0.13862832 0.052756835
-0.32000142 -0.13859004 0.052655052
-0.32020113 -0.13852149 0.05273217
-0.32040223 -0.13845742 0.052768838
-0.32057863 -0.1384155 0.052683197
-0.32074335 -0.13838358 0.052543327
-0.3209421 -0.13831657 0.052610051
-0.32115248 -0.13824265 0.05270559
-0.32133165 -0.13819751 0.052639566
-0.32151875 -0.13815199 0.052557312
-0.32171255 -0.13809094 0.052587103
-0.32190418 -0.13803233 0.052601881
-0.32208475 -0.13798833 0.052523136
-0.32227498 -0.13792859 0.052550636
-0.32244885 -0.13788629 0.052474257
-0.32263461 -0.13783403 0.052450944
-0.32282957 -0.13777487 0.052462235
-0.3230142 -0.13772127 0.052452795
-0.32322031 -0.13765335 0.052509077
-0.32340473 -0.13760526 0.052454572
-0.32358941 -0.13755178 0.052443981
-0.32376385 -0.13750625 0.052393019
-0.32394779 -0.1374611 0.052315407
-0.3241491 -0.13739347 0.052380964
-0.32434434 -0.13733213 0.052409578
-0.32452726 -0.13728309 0.052366644
-0.32471961 -0.13722722 0.052357148
-0.32489523 -0.13718536 0.05227267
-0.3250981 -0.13711925 0.052322034
-0.32526827 -0.13708028 0.052227188
-0.32546079 -0.13701959 0.052256986
-0.32562807 -0.13698566 0.052127503
-0.32580513 -0.1369399 0.052071892
-0.32602346 -0.13685942 0.052202038
-0.32620203 -0.13681459 0.052134868
-0.32640138 -0.13675246 0.052159987
-0.32658446 -0.13670114 0.052135546
-0.32679576 -0.1366303 0.052203339
-0.32694992 -0.13660821 0.05200807
-0.32715878 -0.13653529 0.052098989
-0.32734007 -0.13648576 0.052064162
-0.32754153 -0.13642214 0.052096199
-0.32773218 -0.13636635 0.05209019
-0.32792118 -0.13631424 0.052057609
-0.32810324 -0.13626631 0.052007742
-0.32830217 -0.13620317 0.052042119
-0.32848758 -0.13615228 0.052008405
-0.32869014 -0.13608821 0.052041594
-0.32885987 -0.13605131 0.051930584
-0.32906836 -0.13598213 0.051991455
-0.32925683 -0.13593076 0.051954258
-0.32944155 -0.13587853 0.05193327
-0.32962459 -0.13582988 0.05188686
-0.32981971 -0.13577276 0.051880818
-0.33001995 -0.13570924 0.051915176
-0.33020929 -0.13565928 0.05186411
-0.33039036 -0.13561037 0.051824648
-0.33058229 -0.13555419 0.051818632
-0.3307842 -0.13549158 0.051841427
-0.33098322 -0.13543148 0.051850371
-0.3311511 -0.13539584 0.051733594
-0.33133161 -0.13534948 0.051674493
-0.33154914 -0.13527399 0.051765345
-0.33172691 -0.13522996 0.051693562
-0.33192733 -0.13516709 0.05172215
-0.33215016 -0.13508765 0.051832609
-0.33231431 -0.1350569 0.051684659
-0.33250102 -0.13500744 0.051635917
-0.33269173 -0.13495469 0.051604472
-0.33288375 -0.13489905 0.051593825
-0.33311233 -0.13481931 0.051692702
-0.33327454 -0.13478801 0.051554002
-0.33348745 -0.13471934 0.051599827
-0.33367416 -0.1346682 0.051564958
-0.33386454 -0.13461417 0.051545076
-0.33406052 -0.13455567 0.051548265
-0.33425328 -0.13450345 0.05150757
-0.33445778 -0.13444552 0.051485281
-0.33463621 -0.1343957 0.051459711
-0.33482575 -0.13433899 0.051464099
-0.33501282 -0.13428956 0.051414203
-0.33520043 -0.1342362 0.051395506
-0.33539855 -0.13417819 0.05138943
-0.33556646 -0.13414198 0.051277272
-0.3357763 -0.13406974 0.051360101
-0.33596981 -0.13401549 0.051334418
-0.33615699 -0.13396266 0.05131226
-0.336386 -0.13388127 0.051423833
-0.33656392 -0.13384253 0.051308133
-0.33676779 -0.13378394 0.051292777
-0.33696476 -0.13372557 0.051292494
-0.33715159 -0.13367495 0.051252995
-0.3373543 -0.13361405 0.051259607
-0.33754367 -0.13356493 0.051201601
-0.33774698 -0.13350372 0.05120936
-0.33794063 -0.13344647 0.051207948
-0.33812869 -0.13339017 0.051212355
-0.33833325 -0.13333154 0.051195838
-0.33851644 -0.13328549 0.051127478
-0.33872148 -0.13321844 0.051179141
-0.3389132 -0.13316779 0.051128045
-0.3390801 -0.13312572 0.051066741
-0.33928496 -0.13306867 0.051036354
-0.33951122 -0.13298808 0.051147953
-0.33969086 -0.13294476 0.051065754
-0.33990145 -0.13288531 0.051041104
-0.3400794 -0.13283691 0.05100514
-0.340285 -0.13277487 0.051014036
-0.34049702 -0.13270675 0.051057562
-0.34067374 -0.13266401 0.050977692
-0.3408795 -0.13260207 0.050985433
-0.34105158 -0.1325596 0.050914843
-0.3412475 -0.13250323 0.050900701
-0.3414503 -0.13244355 0.050896913
-0.3416414 -0.13239069 0.050865471
-0.34185576 -0.132323 0.050899733
-0.34203932 -0.13227406 0.050854482
-0.34223616 -0.13221881 0.05082877
-0.34244502 -0.1321537 0.050854981
-0.34263381 -0.13210419 0.050801605
-0.34283733 -0.13204446 0.050796654
-0.3430244 -0.1319932 0.050761782
-0.34322858 -0.13193314 0.050757974
-0.34341002 -0.13188733 0.050691944
-0.34359732 -0.13183601 0.05065706
-0.34382567 -0.13176097 0.050717793
-0.34401089 -0.13171265 0.050663292
-0.34423801 -0.13164733 0.050646611
-0.3444311 -0.13159515 0.050604753
-0.34463066 -0.13153574 0.050606761
-0.34483999 -0.1314712 0.050627198
-0.34502175 -0.1314211 0.050595824
-0.34519929 -0.13137674 0.050527506
-0.34541261 -0.13131396 0.050523642
-0.34562188 -0.13124554 0.050576426
-0.34582138 -0.13118935 0.050551858
-0.34600562 -0.13114204 0.050491575
-0.242696 -0.16111752 0.055896804
-0.24292046 -0.16105495 0.055863943
-0.24315634 -0.16099279 0.055799775
-0.24340266 -0.16093102 0.055706635
-0.24364592 -0.16086933 0.055620462
-0.24388489 -0.16080764 0.055544719
-0.24412955 -0.16074371 0.055473555
-0.24439281 -0.16068311 0.055329442
-0.24462275 -0.16062284 0.055264167
-0.24483679 -0.16056082 0.05525218
-0.24506028 -0.16049924 0.055213541
-0.24528851 -0.16043793 0.055160988
-0.24551556 -0.1603767 0.05511076
-0.2457373 -0.16031535 0.055074446
-0.24596912 -0.16025452 0.055009156
-0.24620275 -0.16019259 0.054948479
-0.24643628 -0.1601321 0.054876246
-0.24667516 -0.16007197 0.054787781
-0.2468912 -0.16001092 0.054763071
-0.24712363 -0.15995075 0.054690845
-0.24735163 -0.15989049 0.054630198
-0.24757648 -0.15983018 0.054577686
-0.24780902 -0.1597704 0.054501988
-0.24803939 -0.15970929 0.054442491
-0.2482668 -0.15964949 0.054379545
-0.24849822 -0.15959004 0.054303851
-0.24872452 -0.15953042 0.054242078
-0.24895598 -0.15947123 0.054164082
-0.249189 -0.15941228 0.054080289
-0.24941382 -0.15935296 0.054019678
-0.24962667 -0.15929298 0.053993829
-0.24985087 -0.15923385 0.053933218
-0.25007471 -0.15917481 0.053872615
-0.25030243 -0.15911478 0.05381082
-0.25052026 -0.15905556 0.053766444
-0.25074163 -0.15899672 0.053710476
-0.25096494 -0.15893811 0.053647563
-0.25118378 -0.15887931 0.053597398
-0.25139931 -0.15882036 0.053556502
-0.25161979 -0.15876189 0.053499393
-0.25183809 -0.15870339 0.053448066
-0.25206542 -0.1586443 0.053379346
-0.25227311 -0.15858515 0.053359315
-0.2524887 -0.15852673 0.053313799
-0.25270548 -0.15846853 0.053263649
-0.25291905 -0.15841016 0.053222768
-0.25313452 -0.15835206 0.053174943
-0.25335523 -0.15829311 0.053121284
-0.25357085 -0.15823527 0.053071141
-0.25378081 -0.15817697 0.053038385
-0.25399515 -0.15811922 0.052990567
-0.2542071 -0.15806133 0.052949697
-0.25443044 -0.15800467 0.052870598
-0.25468522 -0.15794405 0.052747354
-0.25486052 -0.15787685 0.05287319
-0.25500891 -0.15782152 0.05296687
-0.25523445 -0.15776254 0.052901626
-0.25554305 -0.15771875 0.052507523
-0.25573352 -0.1576623 0.052507266
-0.25589249 -0.15759335 0.052687548
-0.25610447 -0.15754092 0.052601602
-0.25631487 -0.15748389 0.052557278
-0.25651929 -0.15742627 0.052532647
-0.2567265 -0.15736906 0.052497592
-0.25693518 -0.15731214 0.052456748
-0.25715455 -0.15725359 0.052403115
-0.25735044 -0.15719682 0.052392408
-0.25755641 -0.15713985 0.052358527
-0.25777438 -0.15707989 0.052319914
-0.25796705 -0.15702449 0.05230578
-0.25817233 -0.15696771 0.052271895
-0.25838098 -0.15691149 0.052225269
-0.25858632 -0.15685178 0.052215654
-0.25877827 -0.15679659 0.052201524
-0.25898334 -0.15674016 0.052165322
-0.25919151 -0.15668269 0.052130263
-0.25938559 -0.15662645 0.052119583
-0.25957873 -0.15656851 0.052125085
-0.25977111 -0.15651053 0.052132908
-0.25996155 -0.15645228 0.052147668
-0.26013482 -0.15639141 0.052226137
-0.26031265 -0.15632793 0.052314978
-0.26045209 -0.15626155 0.052521981
-0.25955945 -0.15564196 0.059828706
-0.25960517 -0.1555469 0.060502209
-0.25982422 -0.155489 0.060443953
-0.26029351 -0.15527768 0.061040334
-0.26088914 -0.15509269 0.061109893
-0.26231945 -0.15508476 0.05767116
-0.2625384 -0.1550297 0.057589784
-0.26273876 -0.15495984 0.057676133
-0.26298189 -0.15489888 0.057584181
-0.26319841 -0.1548381 0.057555988
-0.26337343 -0.15477979 0.057609022
-0.26358899 -0.15472083 0.057568125
-0.26380488 -0.15466206 0.057524912
-0.26399589 -0.15461692 0.05742988
-0.26417542 -0.15455212 0.057525642
-0.2644161 -0.15449356 0.057419833
-0.26460037 -0.15443951 0.057414997
-0.26482061 -0.15437259 0.05742839
-0.26501012 -0.15431209 0.057463974
-0.26518372 -0.15425365 0.057521634
-0.26540279 -0.15419841 0.057441413
-0.26560345 -0.15416063 0.057261929
-0.26577789 -0.15409859 0.057347324
-0.26602581 -0.15402502 0.057347793
-0.26621807 -0.1539675 0.057352152
-0.26642478 -0.1539138 0.057289366
-0.26663411 -0.15385278 0.057280872
-0.26680577 -0.1538002 0.05729463
-0.26699251 -0.15374556 0.057288624
-0.26722994 -0.15368 0.057248712
-0.2674247 -0.15362565 0.05722069
-0.26763821 -0.15356618 0.057189055
-0.26784754 -0.15351409 0.057106603
-0.26803029 -0.15345448 0.05715147
-0.26821247 -0.15339896 0.057163998
-0.26842475 -0.15334167 0.05711735
-0.26860005 -0.15328634 0.057144944
-0.2687653 -0.15323232 0.057186481
-0.26899943 -0.153182 0.057028711
-0.26917675 -0.15311867 0.057117552
-0.26942328 -0.15305281 0.057057939
-0.26960826 -0.15300079 0.057034604
-0.26976985 -0.15294798 0.057075012
-0.27000353 -0.15288953 0.056985438
-0.27019835 -0.15282972 0.057002489
-0.27039024 -0.15277579 0.05697795
-0.270565 -0.15271839 0.057024039
-0.27079308 -0.1526563 0.056978434
-0.27097294 -0.15260537 0.056958601
-0.27115875 -0.15254961 0.056964159
-0.27140579 -0.15249939 0.056773931
-0.27158821 -0.15243791 0.056834999
-0.27177009 -0.15237619 0.056899529
-0.27196893 -0.15232314 0.056850668
-0.2721605 -0.15226987 0.056821503
-0.27236727 -0.15221281 0.056786451
-0.27256188 -0.15215361 0.05679889
-0.27277386 -0.15209389 0.056773044
-0.27295452 -0.15204412 0.056741647
-0.27316087 -0.15198481 0.056726255
-0.27336547 -0.15192741 0.056699306
-0.27353957 -0.15187776 0.056682996
-0.27371576 -0.15181631 0.056759126
-0.27392441 -0.15176597 0.05666396
-0.27412996 -0.15171193 0.056606952
-0.27432778 -0.15164688 0.05665981
-0.27452156 -0.15159576 0.056607522
-0.27471778 -0.15154587 0.056539021
-0.27490404 -0.15148102 0.056618556
-0.27510428 -0.1514305 0.05654541
-0.27529806 -0.1513826 0.056466535
-0.27549335 -0.15131927 0.05651132
-0.27569437 -0.15125315 0.056565307
-0.27589437 -0.15120032 0.056511816
-0.27607158 -0.15114206 0.056559041
-0.27626705 -0.15109003 0.056510203
-0.27646509 -0.15104225 0.056419745
-0.27665594 -0.15098248 0.056446068
-0.2768631 -0.15092824 0.056386735
-0.27704734 -0.15086511 0.056457035
-0.27723613 -0.15081309 0.056424428
-0.27744466 -0.15075998 0.056352377
-0.27763692 -0.15071307 0.056268886
-0.27782065 -0.15065569 0.056292951
-0.27801096 -0.15059595 0.056320436
-0.2782189 -0.15054008 0.056272663
-0.2784152 -0.15048386 0.05625619
-0.27858761 -0.15042619 0.056310393
-0.27877325 -0.15037315 0.056293983
-0.27898139 -0.15032421 0.056188419
-0.27917311 -0.15026557 0.056203183
-0.27935332 -0.15020628 0.056251548
-0.27957028 -0.15016021 0.056100842
-0.2797659 -0.15010098 0.056110941
-0.27996171 -0.1500452 0.056092158
-0.28016895 -0.14998031 0.056120671
-0.28036907 -0.14993095 0.056038279
-0.28055024 -0.14987586 0.056049652
-0.28071773 -0.14981487 0.056143191
-0.28091547 -0.14976776 0.056048095
-0.28111368 -0.14971071 0.056033917
-0.28131795 -0.14965454 0.055997737
-0.28148162 -0.14960489 0.056006916
-0.28166646 -0.14954551 0.056044847
-0.28185871 -0.14949161 0.056019142
-0.28207871 -0.14943302 0.055964351
-0.28226405 -0.14937781 0.055966444
-0.28247243 -0.14932181 0.055918664
-0.28264427 -0.14928277 0.055820309
-0.28283897 -0.14921613 0.055893987
-0.28303018 -0.14915821 0.055904135
-0.28322151 -0.14911228 0.055814866
-0.28340241 -0.14905378 0.055855144
-0.28356934 -0.14898723 0.055996068
-0.2837812 -0.1489474 0.055806104
-0.28395385 -0.14888981 0.055859141
-0.28414822 -0.14884339 0.055766396
-0.28433546 -0.14878651 0.055777714
-0.28452331 -0.14873448 0.055747434
-0.28472254 -0.14867602 0.055742487
-0.28490829 -0.14862223 0.055731863
-0.28509063 -0.14856958 0.055720113
-0.2852858 -0.14850728 0.0557568
-0.28549302 -0.14845261 0.055700943
-0.28566355 -0.14840193 0.05570199
-0.28584811 -0.14835198 0.055662483
-0.28603616 -0.1482964 0.05566109
-0.2862294 -0.14824656 0.055599555
-0.286432 -0.14819267 0.055548351
-0.28661406 -0.14813061 0.055615194
-0.28680149 -0.14808472 0.055535212
-0.28697178 -0.14802404 0.055619486
-0.28717127 -0.14797738 0.055516288
-0.28736004 -0.14792858 0.055457097
-0.28756219 -0.14786994 0.055446357
-0.28774828 -0.14780724 0.055508547
-0.28792322 -0.14775203 0.055536143
-0.28810146 -0.14770116 0.055519793
-0.28829575 -0.14765494 0.05542589
-0.28847924 -0.14760587 0.055381767
-0.28867322 -0.14756 0.055285551
-0.28886592 -0.14750066 0.055303767
-0.28904927 -0.14743359 0.055408746
-0.28921914 -0.14737079 0.055511512
-0.28941479 -0.14733464 0.055330917
-0.28960672 -0.14728042 0.055308681
-0.28979701 -0.14722377 0.055310741
-0.28998274 -0.14716634 0.055330172
-0.29017675 -0.14712983 0.05515651
-0.2903609 -0.14706296 0.055258017
-0.29053685 -0.14700256 0.055326056
-0.29073659 -0.14694856 0.05528298
-0.2909297 -0.14689749 0.055231843
-0.29110935 -0.14684382 0.055235133
-0.29130173 -0.14679968 0.05512853
-0.29149449 -0.14674887 0.055076249
-0.29167941 -0.14669029 0.055107236
-0.29186016 -0.14663099 0.055154443
-0.29204673 -0.1465757 0.055154219
-0.29223552 -0.14652549 0.05510658
-0.29241186 -0.14646456 0.055178095
-0.29259753 -0.14641653 0.055120073
-0.29279685 -0.14638376 0.054902472
-0.29299012 -0.14631699 0.054980785
-0.29315943 -0.14624694 0.055144809
-0.29335096 -0.14620571 0.055016257
-0.29355019 -0.14615479 0.054948889
-0.29372886 -0.14608827 0.055060834
-0.29391509 -0.14605616 0.054869898
-0.29411328 -0.1459913 0.054920442
-0.29429924 -0.14593534 0.054927163
-0.29449132 -0.14588781 0.05484945
-0.2946704 -0.1458343 0.054852746
-0.29486045 -0.14578009 0.054835163
-0.29505059 -0.14571157 0.054935463
-0.29522353 -0.14566283 0.054914534
-0.2954084 -0.14561826 0.05482994
-0.29560584 -0.14556508 0.054785717
-0.29579201 -0.14551088 0.054777399
-0.29597393 -0.14545348 0.054806095
-0.29615715 -0.14540295 0.05477469
-0.2963399 -0.1453502 0.05476293
-0.29652959 -0.14529581 0.054747656
-0.29672021 -0.14524828 0.054673433
-0.29690164 -0.14518681 0.054736812
-0.29709187 -0.14513771 0.054676455
-0.29728046 -0.14507484 0.054733999
-0.29747763 -0.14502579 0.05465626
-0.29765317 -0.1449739 0.054654956
-0.29784644 -0.14492336 0.054599199
-0.29801771 -0.14486112 0.054693863
-0.29819688 -0.14481039 0.054674037
-0.29838684 -0.14476767 0.054561671
-0.29857239 -0.1447068 0.054609999
-0.2987619 -0.14465946 0.054536931
-0.2989547 -0.14461352 0.054444198
-0.29914033 -0.14455011 0.054513328
-0.29931918 -0.14449795 0.054506216
-0.29950488 -0.14444838 0.05446092
-0.29969731 -0.14439598 0.054422513
-0.29987997 -0.1443315 0.05450784
-0.30005878 -0.14428031 0.054492645
-0.30024099 -0.14422898 0.054470494
-0.30042666 -0.14417535 0.054458715
-0.30061883 -0.14412485 0.054405272
-0.30080426 -0.14407311 0.05437848
-0.30099338 -0.14401749 0.054374766
-0.301182 -0.1439665 0.054334063
-0.30136806 -0.14390843 0.054358114
-0.30154964 -0.14385992 0.054314006
-0.3017326 -0.14380094 0.054353103
-0.30191693 -0.14375584 0.054274298
-0.30210012 -0.14371693 0.05414696
-0.30229196 -0.14364357 0.054283075
-0.30246967 -0.14359735 0.054229744
-0.30265749 -0.14354855 0.054172873
-0.30284309 -0.14349368 0.054171499
-0.30302951 -0.14343509 0.05419901
-0.30321506 -0.14338094 0.054191861
-0.3034032 -0.14332967 0.054154638
-0.30358657 -0.14328483 0.054075837
-0.30377331 -0.1432253 0.054110281
-0.30395979 -0.14316723 0.054133173
-0.30415255 -0.14310984 0.054135215
-0.30434266 -0.14306246 0.054060981
-0.30451232 -0.14303146 0.053901378
-0.30470794 -0.14297435 0.053894151
-0.30489764 -0.14290541 0.053999081
-0.30507609 -0.14285377 0.053988509
-0.30527186 -0.14279674 0.053980127
-0.30547649 -0.14274129 0.053936999
-0.30565748 -0.14268193 0.053984195
-0.30583662 -0.14262842 0.053987499
-0.30601776 -0.14256927 0.054032382
-0.30620348 -0.14253242 0.053881913
