# .PCD v0.7 - Point Cloud Data file format
VERSION 0.7
FIELDS x y z
SIZE 4 4 4
TYPE F F F
COUNT 1 1 1
WIDTH 1220
HEIGHT 1
VIEWPOINT 0 0 0 1 0 0 0
POINTS 1220
DATA ascii
-0.062393308 -0.37889373 0.057866681
-0.062551618 -0.37900645 0.057782888
-0.062736198 -0.37911543 0.057829376
-0.062892757 -0.3792116 0.057844836
-0.063067026 -0.37932503 0.05782098
-0.063225232 -0.37943393 0.057761416
-0.063381456 -0.37953168 0.057765335
-0.063562371 -0.37964338 0.057779528
-0.063733324 -0.37975436 0.057757996
-0.063894987 -0.37985969 0.05773535
-0.064035945 -0.37994692 0.057745099
-0.064189993 -0.38003701 0.057789415
-0.064364195 -0.38014773 0.057782874
-0.064528152 -0.3802579 0.057738289
-0.064690158 -0.38037691 0.057629086
-0.064865641 -0.38048014 0.057675622
-0.065029323 -0.38058978 0.057633348
-0.065213405 -0.38070151 0.057660222
-0.06537237 -0.38080081 0.057665274
-0.065525211 -0.38091028 0.057580359
-0.06569083 -0.38102439 0.057517298
-0.065867186 -0.3811377 0.057502661
-0.066030592 -0.38124573 0.057469621
-0.066210523 -0.38135859 0.057472277
-0.066370249 -0.38145426 0.057503879
-0.066526972 -0.3815597 0.057460479
-0.066684023 -0.38166371 0.05742747
-0.066841878 -0.38176501 0.057415221
-0.067014657 -0.38185504 0.057535615
-0.067176744 -0.3819761 0.057413727
-0.067343779 -0.38208264 0.057404898
-0.067501761 -0.38218313 0.057398427
-0.067670017 -0.38228631 0.057416134
-0.067828432 -0.38239515 0.057357728
-0.067997821 -0.38250479 0.057338513
-0.06816566 -0.3826088 0.057349302
-0.068318255 -0.38269436 0.0574167
-0.068472885 -0.38281089 0.057293691
-0.068640441 -0.38294113 0.057134844
-0.068825766 -0.38304913 0.05719056
-0.068985648 -0.38314453 0.057224475
-0.069150731 -0.38324571 0.057242192
-0.069308534 -0.38334554 0.057239182
-0.069483101 -0.38345179 0.057262633
-0.069630608 -0.38354045 0.057289667
-0.069788486 -0.38364771 0.05723935
-0.069951132 -0.38376084 0.057170533
-0.070108198 -0.38386163 0.057158288
-0.070305414 -0.38399312 0.057111256
-0.070461348 -0.38410255 0.057039008
-0.070629768 -0.38420495 0.057062492
-0.070776336 -0.38430181 0.057032987
-0.07094045 -0.38441104 0.056995332
-0.071099125 -0.3845087 0.057009622
-0.071266741 -0.38461885 0.056980021
-0.071438231 -0.38472319 0.057003483
-0.071599722 -0.38481688 0.057054695
-0.071766637 -0.38492173 0.057056252
-0.071930423 -0.3850309 0.057017438
-0.072081685 -0.38513884 0.056935988
-0.072251126 -0.38524598 0.056932922
-0.072430961 -0.3853572 0.056945972
-0.072589338 -0.3854554 0.056955643
-0.072745427 -0.38555649 0.056937642
-0.072917119 -0.38566652 0.05692533
-0.073080704 -0.38576403 0.056960374
-0.073249161 -0.38587239 0.056945778
-0.07340084 -0.38597304 0.056912784
-0.073567316 -0.38609415 0.056808185
-0.07371404 -0.3861841 0.056823682
-0.073877722 -0.38628691 0.056825265
-0.074044056 -0.3863869 0.056855675
-0.074207827 -0.38649985 0.056792632
-0.074375272 -0.38660881 0.056769956
-0.074534789 -0.38671079 0.056760013
-0.074690714 -0.38681144 0.056744315
-0.074862547 -0.38691595 0.056767777
-0.075018391 -0.38702622 0.056689769
-0.075184591 -0.38713601 0.056656715
-0.075345144 -0.38723218 0.056688301
-0.075501189 -0.38733253 0.056674916
-0.075665638 -0.38744375 0.056625716
-0.075834677 -0.38755083 0.056621499
-0.076016679 -0.38766032 0.056654148
-0.07617268 -0.38776064 0.056640759
-0.076327935 -0.38787469 0.056536201
-0.076479174 -0.38798296 0.056452442
-0.076636113 -0.38807791 0.056477137
-0.076796778 -0.38817436 0.056507573
-0.076961942 -0.38828006 0.056496441
-0.077118032 -0.38838008 0.056485366
-0.077279769 -0.38848004 0.056497328
-0.07743793 -0.38858676 0.056451619
-0.077595279 -0.38869798 0.056373604
-0.077773951 -0.38880214 0.056427043
-0.077951558 -0.38891122 0.056444716
-0.078099489 -0.38901275 0.056390971
-0.078271836 -0.38912532 0.056364812
-0.078422554 -0.38922483 0.056335285
-0.078575447 -0.38933054 0.056274593
-0.078745738 -0.38943663 0.056281917
-0.078907758 -0.38952905 0.056343511
-0.079062156 -0.38962996 0.056319736
-0.079228714 -0.38974214 0.056272835
-0.079403587 -0.38984573 0.056314748
-0.079562694 -0.38995481 0.05625749
-0.07972575 -0.39005435 0.056277532
-0.079879567 -0.39016265 0.056204144
-0.080042668 -0.39026222 0.056224186
-0.080211043 -0.39036959 0.056215361
-0.080364987 -0.39047059 0.056189291
-0.080531478 -0.3905651 0.056255471
-0.08069139 -0.39068028 0.056162439
-0.080845237 -0.39078805 0.056092508
-0.081015572 -0.39088768 0.056141376
-0.081173442 -0.39098001 0.056186832
-0.081341818 -0.3911041 0.056070678
-0.081497356 -0.3912009 0.056078061
-0.081670642 -0.39129627 0.056166138
-0.081828773 -0.39141482 0.056044262
-0.081971914 -0.39151385 0.055987082
-0.082129695 -0.39161295 0.055988692
-0.082316376 -0.39172542 0.056021314
-0.082479894 -0.39183173 0.055999819
-0.08263658 -0.39193138 0.055993341
-0.08279784 -0.39202926 0.056016862
-0.082949296 -0.392131 0.055975795
-0.083112106 -0.39224064 0.055930056
-0.083271481 -0.39234543 0.055901658
-0.083428197 -0.39244509 0.05589518
-0.083588034 -0.39255267 0.055850614
-0.083750442 -0.39265633 0.055841818
-0.083918497 -0.39276099 0.055849139
-0.08407744 -0.39286584 0.055818424
-0.084239215 -0.39297268 0.05578655
-0.084399186 -0.39307135 0.055799674
-0.084564172 -0.39317426 0.055805862
-0.08472348 -0.39327899 0.055777464
-0.084901832 -0.39338925 0.05579051
-0.085059918 -0.39349717 0.055736721
-0.085228145 -0.39359927 0.055761356
-0.085391186 -0.39370292 0.055754859
-0.085548878 -0.39381364 0.055681452
-0.085708603 -0.3939127 0.055691127
-0.085864916 -0.3940073 0.055715811
-0.08602564 -0.39411163 0.055695478
-0.086195886 -0.39421627 0.055712026
-0.086362734 -0.39432448 0.055691663
-0.086516887 -0.39443317 0.055617124
-0.086671762 -0.39454156 0.055547193
-0.086833745 -0.39464295 0.055551082
-0.086998299 -0.3947438 0.055568814
-0.087163538 -0.39485496 0.055523071
-0.087308086 -0.39496028 0.055431262
-0.087471955 -0.39505619 0.055477839
-0.087645113 -0.39515796 0.055524383
-0.087820441 -0.39526704 0.055532832
-0.088002577 -0.39537233 0.055593178
-0.08815065 -0.39547682 0.055520967
-0.088303149 -0.39558786 0.055424504
-0.088476039 -0.39569503 0.055435278
-0.088628083 -0.39579859 0.055384975
-0.088793844 -0.39590219 0.055389997
-0.088961571 -0.39600307 0.05542041
-0.089104772 -0.39610806 0.055325143
-0.089280225 -0.39622223 0.055301283
-0.089424796 -0.39631966 0.055260248
-0.089592062 -0.39642078 0.055287194
-0.089766659 -0.3965233 0.055334881
-0.089923471 -0.39662609 0.055308793
-0.090084568 -0.39673769 0.055243455
-0.090256631 -0.39684775 0.055232294
-0.090413406 -0.3969529 0.0551912
-0.090573087 -0.397053 0.055193953
-0.090734936 -0.3971552 0.055192083
-0.090900488 -0.39726385 0.055163644
-0.091056369 -0.39736679 0.05513294
-0.091226056 -0.397475 0.055124111
-0.09140338 -0.39758247 0.055151008
-0.091562301 -0.39768514 0.055134144
-0.091719508 -0.39778802 0.055109207
-0.091885015 -0.39789236 0.055108469
-0.092054293 -0.39800301 0.055082325
-0.092202976 -0.39810446 0.055032037
-0.092377692 -0.39820811 0.055072803
-0.092547491 -0.39831227 0.055090509
-0.092695966 -0.39841807 0.055011377
-0.092853822 -0.3985253 0.054961048
-0.093048163 -0.39863864 0.055019032
-0.093190908 -0.39873832 0.054956079
-0.09336365 -0.39884251 0.054985307
-0.093505502 -0.39895278 0.054850817
-0.093677714 -0.39905289 0.054904286
-0.093854941 -0.39915705 0.054951958
-0.093992077 -0.39926112 0.054838255
-0.094146259 -0.39936638 0.054785635
-0.094317302 -0.39947096 0.054805648
-0.094514869 -0.39957878 0.054912087
-0.094674706 -0.39968601 0.054869819
-0.094833709 -0.39979324 0.054824106
-0.094982497 -0.39989871 0.054748431
-0.095153682 -0.40000159 0.054779977
-0.095317915 -0.4001087 0.054756168
-0.095489681 -0.40021572 0.054763485
-0.095643111 -0.40032104 0.054707404
-0.095803499 -0.40042627 0.054680143
-0.095997728 -0.4005293 0.0548039
-0.09616226 -0.40063858 0.054767396
-0.096313998 -0.40074787 0.054679021
-0.096487477 -0.40085131 0.054716319
-0.09664619 -0.40095475 0.054693688
-0.096809052 -0.40106407 0.054650266
-0.096963078 -0.40116942 0.054596495
-0.09714096 -0.40127507 0.054637242
-0.097304337 -0.40138632 0.054583423
-0.097463533 -0.40149367 0.054537714
-0.097645745 -0.40160152 0.054581899
-0.097794369 -0.40170112 0.05454316
-0.097946361 -0.40180647 0.054481313
-0.098110862 -0.40191212 0.054467887
-0.098275125 -0.40201783 0.05445331
-0.098448291 -0.40212572 0.054460607
-0.098601781 -0.4022311 0.054404538
-0.09877418 -0.40233904 0.054408379
-0.098928168 -0.40244079 0.054377686
-0.099119172 -0.40254968 0.054450691
-0.099271283 -0.40265867 0.054365769
-0.099433511 -0.40276632 0.054330423
-0.099608511 -0.40287107 0.054365411
-0.099788979 -0.40298337 0.054373849
-0.099944182 -0.40308893 0.054323532
-0.10011457 -0.40319183 0.05435162
-0.10029037 -0.40330049 0.054364681
-0.10043959 -0.40340751 0.054280929
-0.10061683 -0.40351635 0.054298602
-0.10078065 -0.40361905 0.054301325
-0.10094108 -0.40372685 0.054257914
-0.10109472 -0.4038341 0.0541903
-0.10124942 -0.40393448 0.054171145
-0.10143003 -0.40404907 0.054165725
-0.10159323 -0.40415192 0.054164991
-0.10176416 -0.40426236 0.054146919
-0.10192259 -0.40436834 0.054106973
-0.10208468 -0.40447465 0.054079711
-0.10226049 -0.40458223 0.05409969
-0.10242292 -0.40469539 0.054029733
-0.10258143 -0.40479639 0.054022096
-0.1027544 -0.40490219 0.054042101
-0.10291657 -0.40501034 0.054003295
-0.10310614 -0.4051246 0.054035913
-0.10326383 -0.40522903 0.054002892
-0.10341635 -0.40533128 0.053962983
-0.10357869 -0.40543956 0.053924177
-0.10372126 -0.40554237 0.053840447
-0.10392973 -0.4056558 0.053954918
-0.10407135 -0.40576017 0.053857349
-0.10424675 -0.40586838 0.053871568
-0.10440864 -0.4059751 0.053840838
-0.10458076 -0.40608466 0.053833146
-0.10474382 -0.40619159 0.05380588
-0.10492681 -0.40630099 0.053843141
-0.10510321 -0.40641129 0.053848125
-0.1052583 -0.40651733 0.053794347
-0.10543567 -0.40662622 0.05381202
-0.10558499 -0.40673313 0.053729419
-0.10577778 -0.40684423 0.053795487
-0.10594241 -0.40695322 0.053761289
-0.10611266 -0.4070614 0.053754758
-0.10626872 -0.4071677 0.053703286
-0.10646117 -0.40727913 0.053765893
-0.10662058 -0.4073875 0.053714406
-0.10677865 -0.40749416 0.053668689
-0.10696223 -0.4076061 0.053692102
-0.10711758 -0.40771085 0.053647559
-0.1072876 -0.40782088 0.05362834
-0.10746464 -0.40793049 0.053640246
-0.10763355 -0.40803894 0.053626798
-0.10780993 -0.40815014 0.053626008
-0.10797124 -0.408259 0.053579122
-0.10813393 -0.40836659 0.053546086
-0.10831827 -0.40847918 0.053568337
-0.10848267 -0.40858713 0.053539913
-0.10864136 -0.40869415 0.053494204
-0.10883439 -0.4088054 0.053560268
-0.10897601 -0.40891266 0.053444233
-0.10916484 -0.40902483 0.053487241
-0.10932936 -0.40913448 0.053448424
-0.10950483 -0.40924454 0.05345111
-0.10966555 -0.40935358 0.053400766
-0.10984482 -0.40946442 0.053413808
-0.10999453 -0.40957156 0.053331215
-0.11019275 -0.40968588 0.053398408
-0.11035933 -0.40979609 0.053364202
-0.11051869 -0.40990213 0.053327709
-0.11069105 -0.4100149 0.053300399
-0.11088002 -0.41012648 0.053348027
-0.11100762 -0.41022953 0.053202059
-0.11120785 -0.41034478 0.053271551
-0.11137325 -0.41045785 0.053214274
-0.11155964 -0.41056922 0.053252671
-0.11171374 -0.41067731 0.053181592
-0.11189512 -0.41078788 0.053205017
-0.11207283 -0.41090205 0.053190377
-0.11225874 -0.41101366 0.053225316
-0.11241729 -0.41112134 0.05317498
-0.11260626 -0.41123793 0.053190298
-0.11277527 -0.41135058 0.053150311
-0.11294898 -0.41146421 0.053122982
-0.11310735 -0.41156638 0.053107277
-0.11325476 -0.41167185 0.053025842
-0.11343093 -0.41178471 0.053013522
-0.11361493 -0.41189924 0.05302193
-0.11377667 -0.41200641 0.052987739
-0.11396931 -0.41211742 0.053053804
-0.11415414 -0.41223374 0.053054135
-0.11429672 -0.41234106 0.052941568
-0.11447147 -0.41246071 0.052879624
-0.11464073 -0.41256562 0.052890401
-0.11483249 -0.41267821 0.052942626
-0.11500199 -0.41279009 0.052909561
-0.11517949 -0.41290379 0.05289723
-0.11534633 -0.4130165 0.052848019
-0.11553361 -0.41313112 0.052869104
-0.030385438 -0.36219016 0.03571881
-0.030507699 -0.36225247 0.035812892
-0.030693341 -0.36238694 0.035700079
-0.0309055 -0.3625541 0.035484422
-0.030933749 -0.36246872 0.036146816
-0.031048823 -0.36250746 0.036363278
-0.031212468 -0.3626135 0.036344059
-0.031375438 -0.36271676 0.036339842
-0.03154473 -0.36283049 0.036294051
-0.031709082 -0.36293787 0.036269061
-0.031877112 -0.36305025 0.036226738
-0.032045241 -0.36316091 0.036195945
-0.032210216 -0.36326957 0.036165182
-0.032371543 -0.36337557 0.036136743
-0.032533944 -0.36347902 0.036129069
-0.032694113 -0.36358377 0.036104087
-0.032856509 -0.36368954 0.036081415
-0.033021875 -0.3637974 0.036057569
-0.03318096 -0.36390108 0.036034904
-0.033342965 -0.36400464 0.036024932
-0.033503857 -0.36410892 0.03600572
-0.033663344 -0.36421144 0.035992295
-0.03382678 -0.3643195 0.035959225
-0.033988565 -0.36442327 0.035946932
-0.034144878 -0.36452398 0.035932362
-0.034304656 -0.36462522 0.035928171
-0.034468018 -0.36473379 0.035891633
-0.03463006 -0.36483842 0.035874736
-0.034789018 -0.36494115 0.035857841
-0.034946106 -0.36504358 0.035835188
-0.035101954 -0.3651422 0.035832167
-0.035260774 -0.36524734 0.035799116
-0.035422962 -0.36535063 0.035791442
-0.035581388 -0.36545554 0.035758398
-0.03574241 -0.36555973 0.035740346
-0.035897259 -0.36565754 0.035738479
-0.036060181 -0.36576471 0.035708874
-0.036213636 -0.36586308 0.035697781
-0.036370475 -0.36596176 0.035698213
-0.036530867 -0.36606807 0.035664
-0.036690652 -0.3661713 0.035647113
-0.036846295 -0.36627337 0.035621002
-0.037003387 -0.36637294 0.035616815
-0.037162103 -0.36647981 0.035572223
-0.03731833 -0.36657596 0.035586514
-0.0374755 -0.3666833 0.035532698
-0.037629679 -0.36677906 0.035541218
-0.037786238 -0.36687845 0.035535879
-0.037942246 -0.36697716 0.035532858
-0.038096558 -0.36707836 0.035506755
-0.038257763 -0.36718521 0.035472535
-0.038412921 -0.36728552 0.03545567
-0.038566526 -0.3673836 0.035446879
-0.038721412 -0.36748123 0.035446171
-0.038877517 -0.36758342 0.035421208
-0.039032858 -0.36768457 0.03539972
-0.039192088 -0.36778674 0.035387449
-0.039344687 -0.36788654 0.035363667
-0.039500885 -0.36798948 0.035334092
-0.039650232 -0.36808184 0.035344947
-0.03980834 -0.36818546 0.035318825
-0.039961416 -0.36828393 0.035305422
-0.040114537 -0.3683826 0.035290867
-0.040269386 -0.36848146 0.035282079
-0.040427618 -0.36858317 0.035268649
-0.040578067 -0.36868072 0.035250649
-0.04073485 -0.36878315 0.035226844
-0.040887244 -0.36888134 0.035212293
-0.041038852 -0.36898124 0.035183892
-0.041192152 -0.3690784 0.035179723
-0.041346721 -0.36917782 0.035166312
-0.041498911 -0.36927915 0.035130985
-0.041654393 -0.36938038 0.035109498
-0.041804384 -0.36947548 0.035105344
-0.041959062 -0.36957568 0.035087321
-0.042109482 -0.36967176 0.035078552
-0.042264376 -0.36977261 0.035057057
-0.04241471 -0.36986881 0.03504714
-0.042570323 -0.36997429 0.034999102
-0.042720191 -0.37006697 0.035009954
-0.042870615 -0.37016377 0.034996562
-0.04301979 -0.37025851 0.034991261
-0.04317636 -0.37036332 0.034951292
-0.043327484 -0.37046811 0.03488943
-0.043480095 -0.37055999 0.034916423
-0.043629616 -0.37066233 0.034863804
-0.043779299 -0.37074912 0.034911588
-0.043933056 -0.37085629 0.034845095
-0.044084407 -0.37094954 0.034858249
-0.044233344 -0.37104505 0.034847178
-0.044383205 -0.37114239 0.034828018
-0.044531222 -0.37123984 0.034800794
-0.044684373 -0.37133691 0.034796622
-0.044830807 -0.37142831 0.034801718
-0.044982739 -0.37152678 0.03478371
-0.045131769 -0.37162682 0.034743775
-0.045285143 -0.37172496 0.034733843
-0.045431919 -0.37182108 0.034710076
-0.045583561 -0.37191972 0.034689758
-0.045730326 -0.37201619 0.034663692
-0.045878753 -0.37210885 0.034668785
-0.046027757 -0.37220275 0.034668095
-0.046177253 -0.37230149 0.034638554
-0.046325158 -0.37239724 0.034621716
-0.046476938 -0.37249345 0.034617551
-0.046624988 -0.37258983 0.034597252
-0.046772242 -0.37268859 0.034558486
-0.046921216 -0.37278339 0.034552027
-0.047071189 -0.3728765 0.034560576
-0.047217645 -0.37297422 0.034525275
-0.047366429 -0.37306908 0.034517664
-0.047512785 -0.37316296 0.034506604
-0.04766148 -0.37325794 0.034497835
-0.047808215 -0.37335294 0.034481
-0.047957737 -0.37345007 0.034461852
-0.048101544 -0.37354323 0.034445032
-0.048249017 -0.37363619 0.034444351
-0.048395969 -0.37373242 0.034420595
-0.048544206 -0.37383181 0.034381822
-0.04869011 -0.3739261 0.034366146
-0.048837822 -0.37401581 0.034387399
-0.048981845 -0.37410605 0.034390196
-0.049128734 -0.37420315 0.034360666
-0.04927424 -0.3742972 0.034344986
-0.049421385 -0.37439066 0.034339696
-0.049566738 -0.37447995 0.034354031
-0.049714722 -0.37457573 0.034337189
-0.049859062 -0.37466761 0.034330763
-0.050003935 -0.37475607 0.034348559
-0.050145935 -0.37484235 0.034368679
-0.050293952 -0.37493888 0.034347229
-0.050437056 -0.37502819 0.03435234
-0.050581485 -0.37511581 0.0343736
-0.050723232 -0.37520176 0.034394883
-0.050864793 -0.3752872 0.034418467
-0.051004503 -0.37536773 0.0344663
-0.051146567 -0.375449 0.034518745
-0.051286288 -0.37552935 0.034567736
-0.051427871 -0.37560907 0.034628257
-0.051568303 -0.37568536 0.034706097
-0.051708855 -0.37576175 0.034783937
-0.051845826 -0.37583351 0.034876797
-0.05198741 -0.37590623 0.034982342
-0.05212491 -0.37597257 0.035112135
-0.052264065 -0.37604341 0.03521999
-0.052398682 -0.37610632 0.03536018
-0.052537143 -0.37616736 0.035528064
-0.052676506 -0.37623039 0.035686709
-0.052811906 -0.3762868 0.035871912
-0.059769619 -0.37720305 0.05811524
-0.059899516 -0.37729877 0.05802577
-0.060078278 -0.37741235 0.058019176
-0.060259975 -0.3775188 0.058070283
-0.060432512 -0.37762234 0.058102965
-0.060577359 -0.37770465 0.058160007
-0.060734291 -0.37782496 0.058021929
-0.060894284 -0.37792978 0.0579958
-0.06104812 -0.37802711 0.057992786
-0.061226562 -0.37813869 0.057997741
-0.061385728 -0.37825844 0.057872348
-0.061570376 -0.37836817 0.057914205
-0.061748736 -0.37847754 0.05793301
-0.061901964 -0.37858024 0.05789306
-0.06207769 -0.37868077 0.057958044
-0.062228389 -0.37877306 0.057974666
-0.062418941 -0.37889138 0.057985332
-0.062565871 -0.37898904 0.05795233
-0.062724225 -0.37910181 0.057868499
-0.062900029 -0.37923259 0.057739578
-0.063069314 -0.37933227 0.057783816
-0.063246384 -0.37944928 0.05774837
-0.063418344 -0.37955409 0.057770662
-0.063582674 -0.37966558 0.057719119
-0.063758083 -0.3797695 0.057761021
-0.063911043 -0.37986663 0.057755701
-0.064076066 -0.37997228 0.057744555
-0.064246103 -0.38008755 0.057691835
-0.064398661 -0.38018587 0.057677284
-0.064569883 -0.38029379 0.05767649
-0.064719081 -0.38039109 0.057655033
-0.064883709 -0.38049701 0.057640426
-0.065063372 -0.38061333 0.057619974
-0.065219961 -0.38070807 0.057644647
-0.065395862 -0.38082489 0.057605747
-0.065544471 -0.3809092 0.057665091
-0.065699868 -0.38100877 0.057653986
-0.065876961 -0.38113353 0.057568915
-0.066053681 -0.381246 0.05756117
-0.066203855 -0.38135019 0.057499304
-0.066349559 -0.38149256 0.057174303
-0.066538326 -0.38157612 0.057400819
-0.066704184 -0.38167566 0.057432368
-0.066866457 -0.38177505 0.057450093
-0.067016765 -0.38186622 0.05747249
-0.067171969 -0.38195416 0.057535253
-0.067340299 -0.38207844 0.057417899
-0.067510039 -0.38219801 0.057336323
-0.067669734 -0.382294 0.057365604
-0.067833111 -0.38240957 0.057284057
-0.067991503 -0.3825087 0.057287946
-0.06816265 -0.38261405 0.057303317
-0.068326317 -0.38272783 0.057234466
-0.068496332 -0.38284436 0.057173662
-0.068647429 -0.38293329 0.057213366
-0.06881851 -0.38303861 0.05722874
-0.068988942 -0.38314533 0.057232574
-0.069159925 -0.38325906 0.057193696
-0.069320835 -0.38334483 0.057293374
-0.069474272 -0.38345343 0.057216488
-0.069637775 -0.38356549 0.057158027
-0.069806196 -0.38368315 0.057083379
-0.069967262 -0.38377675 0.057133432
-0.070115507 -0.38387865 0.057078496
-0.070300512 -0.38398126 0.057167679
-0.070466645 -0.38408795 0.057154216
-0.070619643 -0.38418853 0.057126965
-0.070772626 -0.38430259 0.057013147
-0.070943274 -0.38440835 0.057023909
-0.071123943 -0.38451847 0.057047307
-0.071272731 -0.38461837 0.057007387
-0.071442842 -0.38471857 0.057051614
-0.071599953 -0.38482517 0.057002418
-0.071762227 -0.38492423 0.057022445
-0.071933381 -0.38503551 0.056999732
-0.072092935 -0.38514435 0.056945901
-0.072265059 -0.38523632 0.057051301
-0.072426081 -0.38534898 0.056979001
-0.072587989 -0.3854602 0.056919388
-0.072747499 -0.38556847 0.056869023
-0.072903864 -0.3856692 0.056854453
-0.073069386 -0.38576993 0.056876775
-0.073231146 -0.38586974 0.05688988
-0.073389515 -0.38597894 0.056829132
-0.073557928 -0.38608184 0.056849141
-0.07373035 -0.38618568 0.056879513
-0.073882252 -0.38628593 0.056849949
-0.074043609 -0.38639143 0.056824971
-0.074203379 -0.38651371 0.056685731
-0.074363761 -0.3866148 0.056684986
-0.074535608 -0.3867242 0.056677278
-0.074722871 -0.38681349 0.056861095
-0.07485719 -0.38692081 0.056715041
-0.075017907 -0.38701689 0.056747779
-0.075181313 -0.38713428 0.056654688
-0.075349972 -0.38724184 0.056645833
-0.075503707 -0.38734433 0.05660934
-0.075663298 -0.38745067 0.056571677
-0.07584019 -0.38755554 0.056613568
-0.076006167 -0.38765639 0.056637038
-0.076162718 -0.38775632 0.056628242
-0.076321721 -0.38786301 0.05658596
-0.076495588 -0.38796633 0.056625556
-0.076676399 -0.38807294 0.056672052
-0.076824546 -0.38817945 0.056587107
-0.076978393 -0.38829404 0.056473285
-0.077135555 -0.38838914 0.056497954
-0.077304631 -0.38848385 0.056573361
-0.077470504 -0.38858932 0.056566827
-0.07763081 -0.38869467 0.056538384
-0.077796116 -0.3888005 0.056527235
-0.077954598 -0.38891497 0.056433015
-0.078117348 -0.38901448 0.056451891
-0.078288086 -0.38912445 0.056436103
-0.078454144 -0.38924512 0.056332614
-0.078610487 -0.38934493 0.056323819
-0.078793019 -0.38945496 0.05635529
-0.078967109 -0.38957027 0.056318708
-0.079122692 -0.38967428 0.056279905
-0.079264037 -0.38977182 0.056225002
-0.079415403 -0.38986346 0.056248553
-0.079587549 -0.38996515 0.056291617
-0.079749078 -0.39006931 0.056275874
-0.079913549 -0.3901861 0.056190863
-0.080050319 -0.39028579 0.056103662
-0.080235004 -0.39038801 0.056193992
-0.080388069 -0.39048952 0.056160975
-0.080565542 -0.39059925 0.056174003
-0.080733858 -0.3907102 0.056142073
-0.080887184 -0.39080468 0.05615522
-0.0810358 -0.39090827 0.056091048
-0.081212536 -0.39101174 0.056141026
-0.081377119 -0.39111441 0.056147195
-0.081545979 -0.39123166 0.056077156
-0.081708267 -0.39133862 0.056046404
-0.08186125 -0.39143667 0.05603531
-0.082022868 -0.39153424 0.056062274
-0.082197562 -0.3916519 0.056012996
-0.082357876 -0.3917596 0.055969544
-0.082511216 -0.39185753 0.055960763
-0.082669139 -0.39194736 0.056022365
-0.082827196 -0.39205903 0.055944305
-0.083008923 -0.39217377 0.055942319
-0.083170526 -0.39227781 0.055927724
-0.083335355 -0.39238366 0.055914268
-0.083488733 -0.39248466 0.055885855
-0.083651386 -0.39258236 0.055916272
-0.083823174 -0.39269477 0.055888936
-0.0839791 -0.39280078 0.055838589
-0.084141769 -0.39291033 0.055792827
-0.084287703 -0.39301077 0.055737913
-0.08445324 -0.39311349 0.055747539
-0.084629461 -0.39321864 0.055784814
-0.084789604 -0.39332318 0.055760995
-0.084947467 -0.39342558 0.055741794
-0.085120127 -0.39353764 0.055720225
-0.085303605 -0.39363819 0.055816337
-0.085455693 -0.39374235 0.055762544
-0.085603289 -0.3938449 0.05570069
-0.085769922 -0.39395317 0.05567915
-0.085933164 -0.39406508 0.055620693
-0.086084366 -0.3941665 0.05558075
-0.086263321 -0.39427426 0.055612251
-0.086430177 -0.39437979 0.055609174
-0.086589307 -0.39448461 0.055579588
-0.08674939 -0.39459181 0.055538453
-0.086909719 -0.3946963 0.055515781
-0.087083794 -0.39480025 0.055551916
-0.08725369 -0.39490268 0.055581149
-0.087426051 -0.39502013 0.055523798
-0.087576807 -0.39511392 0.055531181
-0.087738551 -0.39521819 0.055515438
-0.08787521 -0.39532754 0.055365913
-0.088049904 -0.39542416 0.055451676
-0.088226102 -0.39552823 0.055495881
-0.088399827 -0.39564779 0.055430442
-0.08853393 -0.39574724 0.055334032
-0.088708542 -0.39585173 0.055369001
-0.088880681 -0.39595431 0.055406306
-0.089051858 -0.39606205 0.055406671
-0.089206547 -0.39616764 0.055354018
-0.089371897 -0.39627153 0.05535556
-0.089536242 -0.39637798 0.055336341
-0.089687973 -0.39647919 0.055299867
-0.089858368 -0.39658481 0.055310622
-0.090016238 -0.39669225 0.055259112
-0.090183452 -0.39679834 0.055253722
-0.090336792 -0.39690167 0.055210311
-0.090514511 -0.39700651 0.055255659
-0.090690404 -0.3971163 0.055261776
-0.090856053 -0.3972182 0.055277176
-0.091011822 -0.39732358 0.055230297
-0.091176838 -0.39743245 0.055198371
-0.09133441 -0.39754435 0.055116851
-0.091492362 -0.39765164 0.055066492
-0.091650851 -0.39774993 0.055076152
-0.091807365 -0.39785293 0.055047728
-0.091971599 -0.39795518 0.055055056
-0.092137933 -0.39805734 0.0550716
-0.092319667 -0.39816704 0.055101927
-0.09247686 -0.39827007 0.055075809
-0.092641711 -0.39837471 0.055070437
-0.092802018 -0.3984862 0.05500276
-0.092983112 -0.39859405 0.055042323
-0.093127526 -0.39869371 0.054986253
-0.093279585 -0.39879709 0.054937083
-0.093439594 -0.39890426 0.054895949
-0.093610458 -0.39901501 0.054875538
-0.09375339 -0.39911464 0.054813705
-0.093932807 -0.39921877 0.054870591
-0.094110981 -0.39932513 0.05490787
-0.094283417 -0.399436 0.054893222
-0.094447061 -0.39954311 0.054867074
-0.094603837 -0.3996484 0.054824807
-0.094761685 -0.39975366 0.05478714
-0.094921283 -0.39985478 0.054782938
-0.095109157 -0.39996135 0.05485826
-0.095261797 -0.40007284 0.05475945
-0.095419884 -0.40017214 0.05476103
-0.095597118 -0.40028116 0.054777533
-0.095745347 -0.40038663 0.05469951
-0.095920756 -0.40049577 0.054707937
-0.096074 -0.40059721 0.054676067
-0.096253753 -0.40071234 0.054663699
-0.096420206 -0.40081185 0.054697569
-0.096597672 -0.40092319 0.054700214
-0.096750088 -0.4010286 0.054639488
-0.096906587 -0.40113211 0.0546076
-0.097065911 -0.40123758 0.054574553
-0.097239152 -0.40134516 0.054584142
-0.097420193 -0.40145677 0.054599479
-0.097579829 -0.401568 0.054530643
-0.097712651 -0.4016616 0.054466546
-0.097887926 -0.40177318 0.054458812
-0.098063454 -0.40187356 0.0545238
-0.098216556 -0.40198088 0.054453846
-0.098402731 -0.40208924 0.054510701
-0.098565534 -0.40219688 0.054477636
-0.098743178 -0.40230331 0.054512594
-0.098904558 -0.40241095 0.054473761
-0.099072352 -0.40251708 0.054470681
-0.099232242 -0.4026247 0.054426085
-0.09939678 -0.40273255 0.054398783
-0.099542692 -0.40283945 0.054302312
-0.099710345 -0.40294388 0.054309618
-0.099879019 -0.403052 0.054297302
-0.10005255 -0.40315688 0.054325357
-0.10023119 -0.4032675 0.054337233
-0.10040716 -0.40337628 0.054350279
-0.10056373 -0.40348557 0.054281458
-0.10072495 -0.4035899 0.054263406
-0.10087866 -0.40369722 0.054195751
-0.10104424 -0.40380016 0.054204226
-0.10120875 -0.40390655 0.054186158
-0.10138504 -0.4040139 0.054209579
-0.10156484 -0.40412506 0.054222606
-0.10169343 -0.4042252 0.054099672
-0.10187219 -0.40433806 0.05409769
-0.10203318 -0.40444261 0.054077327
-0.10220753 -0.40455177 0.054081138
-0.10238083 -0.40465921 0.054091886
-0.10255226 -0.40476656 0.054095715
-0.10271 -0.40487266 0.054052286
-0.10289232 -0.4049845 0.054071069
-0.1030481 -0.40509045 0.054020718
-0.10322589 -0.40520197 0.054023363
-0.10337618 -0.40530568 0.053964958
-0.1035492 -0.40541351 0.053972248
-0.10371952 -0.40551943 0.053980701
-0.1038633 -0.40562245 0.053900398
-0.10402967 -0.40573129 0.053874236
-0.10417826 -0.40583646 0.053799681
-0.1043696 -0.40594825 0.053855363
-0.10455272 -0.40605757 0.053893756
-0.10473887 -0.40616897 0.053930994
-0.10489475 -0.40627515 0.053879492
-0.1050378 -0.4063797 0.053786501
-0.10524399 -0.40649384 0.053887114
-0.10540533 -0.40660238 0.053842522
-0.1055707 -0.40670988 0.053820979
-0.1057509 -0.40682095 0.053836316
-0.10587798 -0.40692332 0.053692598
-0.106077 -0.40703547 0.053777102
-0.10623709 -0.40714395 0.053727884
-0.10640649 -0.40725216 0.053717874
-0.1065771 -0.40736061 0.053711321
-0.10675952 -0.40747237 0.053731263
-0.10689978 -0.40757802 0.053619802
-0.10708442 -0.40768868 0.053655885
-0.1072433 -0.4077971 0.053602062
-0.10742901 -0.40790805 0.053640455
-0.10759121 -0.40801549 0.053606238
-0.10775837 -0.40812373 0.053586997
-0.10793088 -0.40823591 0.05356428
-0.10811995 -0.4083477 0.053610735
-0.10828415 -0.40845713 0.053571891
-0.10844018 -0.40856376 0.053518079
-0.10862373 -0.40867642 0.053536855
-0.10878333 -0.40878367 0.053493418
-0.10895463 -0.4088929 0.053484552
-0.1091429 -0.40900654 0.053515997
-0.10927966 -0.40911001 0.053404566
-0.10949804 -0.40922898 0.0535236
-0.10963922 -0.40933469 0.053415608
-0.10980711 -0.40944356 0.053395212
-0.10998631 -0.40955743 0.053388618
-0.11018359 -0.40967458 0.053433876
-0.1103462 -0.40978125 0.053406581
-0.11050411 -0.40988851 0.053356223
-0.11066367 -0.40999609 0.05331048
-0.11085804 -0.41011447 0.053336132
-0.1110157 -0.41022032 0.053293858
-0.1111856 -0.41033283 0.053258449
-0.11134253 -0.41044003 0.053204633
-0.11152447 -0.410552 0.05322111
-0.11170368 -0.41066498 0.05322028
-0.1119012 -0.41078156 0.053270157
-0.11206178 -0.41088963 0.053225558
-0.11221642 -0.41100076 0.053137131
-0.11240433 -0.41111004 0.053195126
-0.11256017 -0.41121581 0.053145938
-0.11273257 -0.41132918 0.053115137
-0.11290664 -0.41144428 0.053079706
-0.11312731 -0.411569 0.053171031
-0.11325431 -0.41166759 0.053051561
-0.11340806 -0.41177583 0.052978136
-0.1135834 -0.4118858 0.052980792
-0.11376475 -0.41199851 0.052990355
-0.11395961 -0.41211414 0.053035624
-0.11414164 -0.41222852 0.053037096
-0.11428334 -0.41233295 0.052939489
-0.11445335 -0.41244209 0.052926015
-0.11467254 -0.41257289 0.052972328
-0.11483764 -0.4126811 0.05294501
-0.11493674 -0.41276801 0.052787587
-0.11517578 -0.41289532 0.052936543
-0.11534208 -0.41301203 0.052859593
-0.11551683 -0.41312522 0.052839164
-0.11570835 -0.41324362 0.052853286
-0.030526523 -0.36233774 0.035341553
-0.030677114 -0.36243305 0.035338517
-0.030825362 -0.36252344 0.035357419
-0.030980445 -0.3626169 0.035384383
-0.03113598 -0.36271295 0.035396326
-0.031296197 -0.3628152 0.035387471
-0.031444572 -0.36290407 0.035416767
-0.031606194 -0.36300039 0.03545177
-0.031743787 -0.36308315 0.035476498
-0.031884331 -0.36316386 0.035526615
-0.032031242 -0.36324891 0.035574384
-0.032154825 -0.36330506 0.035713468
-0.032364462 -0.36347157 0.035491969
-0.032420985 -0.36341548 0.036080424
-0.032524154 -0.36344168 0.036329262
-0.032689504 -0.36355114 0.036294993
-0.032856725 -0.36366534 0.036237616
-0.033025727 -0.36378431 0.036157154
-0.033195913 -0.36389661 0.036124006
-0.033364132 -0.36400643 0.036098957
-0.033532239 -0.36412266 0.036032341
-0.03369417 -0.36422634 0.036021169
-0.033854976 -0.36433077 0.036000766
-0.034020171 -0.36443922 0.035972271
-0.034181781 -0.36454508 0.035946093
-0.034346569 -0.36465326 0.035917588
-0.034504 -0.36475357 0.035909899
-0.034664169 -0.36485565 0.035902202
-0.034824796 -0.36496067 0.035877179
-0.034987092 -0.3650682 0.035842925
-0.035142839 -0.3651689 0.035826012
-0.035303354 -0.36527422 0.035798687
-0.035461083 -0.36537346 0.035799079
-0.035618518 -0.36547467 0.035785615
-0.035781816 -0.36558211 0.035755966
-0.035940029 -0.36568472 0.03573674
-0.036099151 -0.36578649 0.035726726
-0.036256373 -0.36588794 0.035710964
-0.036414966 -0.36598915 0.035702117
-0.036572516 -0.36609134 0.035682891
-0.036735557 -0.36619934 0.035648625
-0.03689146 -0.36629942 0.035636328
-0.037050057 -0.3664012 0.03562402
-0.037207551 -0.36650389 0.035601322
-0.037364557 -0.36660358 0.035595946
-0.03752058 -0.36670679 0.03556402
-0.037679899 -0.36680776 0.035559792
-0.037836939 -0.36691037 0.035535946
-0.037996225 -0.36701402 0.035514403
-0.038149066 -0.36711305 0.035496339
-0.038306803 -0.36721465 0.035481732
-0.03846034 -0.36731502 0.035457894
-0.038617149 -0.36741552 0.035446756
-0.038775407 -0.36751834 0.035426367
-0.038930137 -0.36761588 0.035425618
-0.03908461 -0.36771828 0.035392545
-0.039241016 -0.36781868 0.035380244
-0.039395623 -0.367919 0.035361033
-0.039551541 -0.36801893 0.035349887
-0.039703943 -0.36811608 0.035342231
-0.039859772 -0.3682161 0.035329927
-0.04001303 -0.36831486 0.035315342
-0.040170237 -0.36842009 0.035275329
-0.040325232 -0.36851922 0.035265349
-0.040477898 -0.36861476 0.035269223
-0.040633369 -0.36871493 0.03525462
-0.040787794 -0.36881351 0.035245791
-0.040943764 -0.36891758 0.035208099
-0.041097067 -0.36901748 0.035186581
-0.041248277 -0.36911404 0.035177767
-0.041400217 -0.36920911 0.035181656
-0.041554645 -0.36931133 0.035149742
-0.041705642 -0.36940795 0.035139769
-0.041859239 -0.36950907 0.03511133
-0.042016551 -0.36961669 0.035056312
-0.042166583 -0.36970624 0.03508791
-0.042321473 -0.36980712 0.035066389
-0.042469703 -0.36990273 0.035051815
-0.042623471 -0.370002 0.035036068
-0.042776614 -0.37010032 0.035023786
-0.042929299 -0.37020108 0.034994189
-0.043081168 -0.37030059 0.034969211
-0.04323563 -0.37040174 0.034944225
-0.04338358 -0.37049463 0.034945812
-0.043533467 -0.3705911 0.034932397
-0.043686118 -0.37068948 0.034917805
-0.043835893 -0.37078607 0.034903228
-0.043987967 -0.37088695 0.034870174
-0.044138409 -0.37098181 0.034869447
-0.044287499 -0.3710776 0.034857184
-0.044442363 -0.3711842 0.034798715
-0.044588827 -0.37127545 0.034804933
-0.044742253 -0.37137306 0.034798421
-0.0448897 -0.37146637 0.034795396
-0.045039766 -0.37156135 0.034792364
-0.045188554 -0.37165746 0.034776639
-0.045341183 -0.37175763 0.034750506
-0.045490399 -0.37185493 0.034729008
-0.045641512 -0.37195253 0.034713265
-0.045789093 -0.37205061 0.034680232
-0.04593939 -0.37214696 0.034669112
-0.046086349 -0.37224051 0.03466263
-0.046237733 -0.37233937 0.034639973
-0.046386417 -0.37243667 0.034616169
-0.046539068 -0.37253469 0.034603886
-0.046685446 -0.37262771 0.034598559
-0.046832114 -0.3727214 0.034589767
-0.046978414 -0.37281454 0.034583293
-0.047128066 -0.37291086 0.034569874
-0.047275752 -0.37300718 0.034548376
-0.047423422 -0.37310371 0.034525733
-0.047569066 -0.37319607 0.034521561
-0.047716379 -0.37329215 0.034500074
-0.047862619 -0.37339026 0.034461275
-0.048011042 -0.37348923 0.034425925
-0.048156533 -0.37357771 0.034446001
-0.048306145 -0.37367544 0.03442334
-0.048450399 -0.37376565 0.034427267
-0.048596554 -0.3738603 0.034410395
-0.048746042 -0.37396282 0.034356575
-0.048891507 -0.37405181 0.03437319
-0.049036466 -0.37414429 0.034365557
-0.049181025 -0.37423593 0.0343614
-0.049327664 -0.37432802 0.034363002
-0.049472436 -0.37442523 0.03432421
-0.049618512 -0.37452108 0.034299258
-0.049764857 -0.37461782 0.034269691
-0.049909152 -0.37470484 0.034294393
-0.050055355 -0.37479663 0.034295999
-0.050199669 -0.37488887 0.034287218
-0.050343998 -0.37498128 0.03427729
-0.050488863 -0.3750701 0.034292746
-0.050633479 -0.37516358 0.034277044
-0.050778512 -0.37525305 0.034289036
-0.050920136 -0.37533891 0.034310281
-0.051063046 -0.37542829 0.034314215
-0.051206328 -0.37551877 0.03431236
-0.051348574 -0.3756009 0.034360163
-0.051489115 -0.37568393 0.034395266
-0.051630244 -0.37576857 0.034422286
-0.051769689 -0.37584838 0.034473561
-0.051914014 -0.37593019 0.034531735
-0.052053578 -0.37601009 0.03458301
-0.052194547 -0.37608781 0.034653895
-0.052329645 -0.3761602 0.034735203
-0.052470013 -0.37623557 0.034818795
-0.052609794 -0.37630874 0.034913935
-0.052749448 -0.37638116 0.035013687
-0.052885644 -0.37644884 0.035129622
-0.053023398 -0.37651411 0.035267476
-0.05316294 -0.37657744 0.035424948
-0.053297788 -0.37663871 0.035576671
-0.053434819 -0.37669921 0.035742238
-0.053571537 -0.37675771 0.035919353
-0.054287113 -0.37448588 0.053397533
-0.05444932 -0.37458509 0.053416379
-0.060310889 -0.37755898 0.058018193
-0.060467996 -0.37765765 0.058019742
-0.060609668 -0.37774876 0.058007516
-0.060803667 -0.37786889 0.058020428
-0.060975965 -0.37798199 0.057990737
-0.061132886 -0.37808126 0.057987675
-0.061280314 -0.37818104 0.057943095
-0.061436981 -0.37828341 0.057919253
-0.061624303 -0.37840474 0.05789756
-0.061788466 -0.37848485 0.058046833
-0.061950751 -0.37859792 0.057976797
-0.062128421 -0.37871766 0.057926297
-0.062280014 -0.37879902 0.058016758
-0.062430304 -0.3788968 0.057996407
-0.062595479 -0.37900832 0.057948284
-0.062770233 -0.37915173 0.057733886
-0.062946513 -0.37924793 0.057828844
-0.063154794 -0.37938103 0.057816289
-0.063319959 -0.37948802 0.057797026
-0.063488722 -0.37959263 0.057807758
-0.063635245 -0.37968895 0.057781652
-0.063821942 -0.37980753 0.057774968
-0.063979588 -0.37991732 0.057707258
-0.064128742 -0.38001639 0.057674214
-0.064312249 -0.38013226 0.05767218
-0.06447836 -0.38023138 0.057707164
-0.064645156 -0.38034445 0.057655565
-0.064817935 -0.38044491 0.057708982
-0.064981267 -0.38055706 0.057649322
-0.065143891 -0.38065633 0.057669319
-0.065297268 -0.38076487 0.057592377
-0.065467708 -0.38087502 0.057574242
-0.065640531 -0.38097569 0.057626508
-0.065812692 -0.38109249 0.057572573
-0.065968312 -0.38119078 0.057570674
-0.066135898 -0.3812975 0.057562932
-0.06629061 -0.38139862 0.057539098
-0.066448539 -0.38150087 0.057521019
-0.066606835 -0.38160175 0.057513326
-0.066768155 -0.38170451 0.057505626
-0.066946261 -0.38182309 0.057464365
-0.067100435 -0.38191399 0.057504028
-0.067264996 -0.38203859 0.057369322
-0.067423023 -0.38214934 0.057296988
-0.067593388 -0.38225693 0.057295006
-0.067760594 -0.38235316 0.057353072
-0.067940064 -0.382476 0.057289865
-0.068108924 -0.38257778 0.057319064
-0.068270713 -0.38266915 0.057386391
-0.068431146 -0.38276398 0.057426021
-0.068582244 -0.38287973 0.057293691
-0.068739899 -0.38299745 0.057175182
-0.068907231 -0.38311067 0.057124738
-0.069081515 -0.38322559 0.057091579
-0.069258735 -0.38331842 0.057211928
-0.069427028 -0.3834058 0.057331175
-0.069593072 -0.38351354 0.057310745
-0.069750376 -0.38361469 0.057297282
-0.069915384 -0.38370916 0.057357669
-0.070093006 -0.38382545 0.057329103
-0.070245072 -0.38394991 0.057144824
-0.070413165 -0.38406035 0.057115152
-0.070578665 -0.38416108 0.057137445
-0.070732459 -0.38426039 0.05712169
-0.070895709 -0.38437822 0.05702509
-0.071058579 -0.38448951 0.056968894
-0.071226537 -0.38459936 0.056942686
-0.071389183 -0.38471052 0.05688649
-0.071563043 -0.38481778 0.056900661
-0.071737021 -0.38491252 0.056995627
-0.071895696 -0.38501668 0.056968313
-0.072074309 -0.38512984 0.05696398
-0.072234899 -0.3852253 0.057000153
-0.072393827 -0.38533485 0.056939356
-0.072555616 -0.38543469 0.056952428
-0.07272663 -0.38554013 0.05696661
-0.072885871 -0.38564321 0.05694852
-0.073047675 -0.38576534 0.056818452
-0.073215067 -0.38586944 0.056826878
-0.073381968 -0.38596871 0.056864168
-0.073546067 -0.38607666 0.056834519
-0.073711105 -0.3861782 0.056849878
-0.073878586 -0.38628232 0.056858305
-0.074038401 -0.38638955 0.056815971
-0.074198559 -0.38649625 0.056778256
-0.074361987 -0.38660449 0.056743994
-0.074508213 -0.38672003 0.056593217
-0.074682854 -0.38682169 0.056646638
-0.074843235 -0.38692763 0.056614693
-0.075017028 -0.38701597 0.056750063
-0.075170018 -0.38712898 0.056643117
-0.075345814 -0.38723943 0.056644581
-0.075509764 -0.38735589 0.056559525
-0.075684369 -0.38746274 0.056579459
-0.075848363 -0.38756073 0.056613293
-0.07600674 -0.38765913 0.05662176
-0.076179765 -0.38777196 0.056596689
-0.076342709 -0.38788423 0.056534715
-0.076508 -0.38798571 0.056551233
-0.076671198 -0.38808897 0.056548137
-0.076842688 -0.38819006 0.056592327
-0.076997146 -0.3883 0.056510773
-0.077184014 -0.38841474 0.056529503
-0.077347092 -0.38852224 0.056498695
-0.077494107 -0.38862893 0.056407943
-0.077655479 -0.38873336 0.05638985
-0.077801369 -0.38883647 0.056317583
-0.077982955 -0.38893887 0.056394044
-0.078145556 -0.38904247 0.056386329
-0.078311279 -0.3891401 0.056429394
-0.078489989 -0.38925654 0.056404289
-0.078631006 -0.38937762 0.056196973
-0.07878723 -0.38946602 0.056260861
-0.078956105 -0.38956943 0.056279678
-0.079124898 -0.38967296 0.056297328
-0.079296492 -0.38978598 0.056265332
-0.079466403 -0.38988894 0.056291062
-0.079622984 -0.38999233 0.056260288
-0.079774663 -0.39010197 0.056169517
-0.079937488 -0.39020535 0.056164108
-0.080110386 -0.39029977 0.056256779
-0.080282658 -0.39041233 0.056230552
-0.080453865 -0.39051846 0.056241274
-0.080625616 -0.3906278 0.05623351
-0.080776349 -0.39073396 0.056161217
-0.080934942 -0.39083952 0.056124661
-0.081093982 -0.39094481 0.056091573
-0.081262536 -0.39104891 0.056104608
-0.08143916 -0.39116257 0.056088753
-0.08160536 -0.39127114 0.056063704
-0.081758603 -0.39137563 0.056012176
-0.081912935 -0.39147958 0.055968717
-0.082080431 -0.39158103 0.055994458
-0.082256764 -0.39168841 0.05601785
-0.082427926 -0.39179489 0.056026258
-0.082584672 -0.39189154 0.056039348
-0.082741931 -0.39200363 0.055955481
-0.08290004 -0.39210904 0.055917777
-0.083057359 -0.39220858 0.055914707
-0.083222196 -0.39231446 0.055901207
-0.083409958 -0.39242706 0.055937238
-0.083567917 -0.39253852 0.055860288
-0.083716318 -0.39263529 0.055838794
-0.083882183 -0.39273787 0.055850692
-0.084055312 -0.39285278 0.055812914
-0.084202163 -0.39294714 0.055800661
-0.084383145 -0.39305943 0.055811323
-0.084534608 -0.39316103 0.055771351
-0.08468926 -0.39326158 0.055750977
-0.084869742 -0.39337698 0.055739716
-0.085022911 -0.39347515 0.055728592
-0.085193433 -0.39358228 0.055730075
-0.085355073 -0.39368922 0.055696972
-0.085521556 -0.393792 0.055710018
-0.085675135 -0.39389563 0.055665411
-0.085844576 -0.39400318 0.055659972
-0.086011052 -0.39411423 0.055619918
-0.086198777 -0.39422789 0.055649024
-0.086368948 -0.39433536 0.055647053
-0.086518243 -0.39443198 0.05563017
-0.086687252 -0.39453977 0.05562127
-0.086845756 -0.39464742 0.055570871
-0.087021589 -0.39475629 0.055582717
-0.087192118 -0.39487422 0.055514943
-0.087338418 -0.39496374 0.055531543
-0.087481938 -0.39505908 0.055499688
-0.087635264 -0.39516255 0.055455085
-0.087823011 -0.39527425 0.055496886
-0.087970257 -0.39537895 0.055419989
-0.088136598 -0.39548239 0.055428412
-0.088317849 -0.39559305 0.055450626
-0.088479847 -0.39570236 0.055403672
-0.088635467 -0.39580783 0.055355594
-0.088816054 -0.39592364 0.055342019
-0.088974074 -0.39602381 0.055337787
-0.089133263 -0.3961238 0.055339329
-0.089316532 -0.39623445 0.055369608
-0.08946687 -0.39634073 0.055295009
-0.089628547 -0.39644283 0.055293068
-0.089798681 -0.39654613 0.055317648
-0.089959919 -0.39665785 0.055252217
-0.090125486 -0.39676186 0.055253733
-0.090294659 -0.39686778 0.055257529
-0.090458952 -0.39697206 0.055252127
-0.090620831 -0.39708132 0.055205159
-0.090810262 -0.39719641 0.055231951
-0.090976655 -0.39730743 0.055191904
-0.09113016 -0.39740166 0.05520732
-0.091273725 -0.39750835 0.055102739
-0.091439545 -0.39761037 0.055118095
-0.091598675 -0.39771536 0.055087309
-0.091779329 -0.39782941 0.055085286
-0.091934755 -0.39793476 0.0550372
-0.092095941 -0.39803296 0.055058364
-0.092274621 -0.39814073 0.055088665
-0.092444144 -0.39825371 0.055048592
-0.092597544 -0.39835706 0.055005141
-0.092773668 -0.39846736 0.055008914
-0.092929624 -0.39857054 0.054976989
-0.093087852 -0.39867783 0.05492774
-0.093229026 -0.39877978 0.05484394
-0.09339644 -0.39888009 0.054876614
-0.093589947 -0.39898753 0.054969177
-0.093766794 -0.3990981 0.054974098
-0.093930148 -0.39920521 0.05494675
-0.094090208 -0.39931458 0.054891732
-0.094243519 -0.39942002 0.054834422
-0.094413452 -0.39952481 0.054848611
-0.094585508 -0.39963165 0.054858163
-0.094732217 -0.39974141 0.054746635
-0.094899893 -0.39984637 0.05475045
-0.095089123 -0.39995292 0.05483149
-0.09524741 -0.40005827 0.054794945
-0.095423833 -0.40016928 0.054795247
-0.095564023 -0.40027297 0.054696444
-0.09573178 -0.4003762 0.054711804
-0.095903583 -0.4004834 0.054717898
-0.0960797 -0.40059462 0.05471589
-0.096247077 -0.40070784 0.054665446
-0.096404403 -0.40080938 0.054649673
-0.096578866 -0.40091485 0.054677691
-0.096741818 -0.40102422 0.054634191
-0.09690956 -0.40112978 0.054634534
-0.097085729 -0.40124318 0.054618683
-0.097225882 -0.40134844 0.054509487
-0.097407788 -0.40145051 0.054589421
-0.097561821 -0.40155411 0.054547112
-0.09775196 -0.40166983 0.054572746
-0.097896241 -0.40177318 0.054492403
-0.098072708 -0.4018774 0.05453657
-0.098245278 -0.40198907 0.054517262
-0.098403156 -0.40209472 0.054477245
-0.098571718 -0.40220258 0.05446605
-0.098738216 -0.40231043 0.054446772
-0.098888889 -0.40241763 0.05436755
-0.099066772 -0.40252599 0.05439093
-0.099252298 -0.40263844 0.054418899
-0.099397965 -0.40274358 0.054332763
-0.099555038 -0.40284926 0.054289293
-0.099739909 -0.40296003 0.054325346
-0.09990304 -0.40306431 0.054315317
-0.10007691 -0.40317285 0.054321405
-0.10023884 -0.40328246 0.054272145
-0.10041294 -0.40338933 0.054289773
-0.10057563 -0.40349728 0.054254357
-0.10075276 -0.40360627 0.054270811
-0.10091337 -0.40371236 0.054238867
-0.10107844 -0.40382054 0.05421152
-0.10124388 -0.40392882 0.054185323
-0.10140774 -0.40403694 0.054153364
-0.10159142 -0.404145 0.054202117
-0.10176925 -0.40425441 0.054218568
-0.10193551 -0.40436462 0.054183137
