# .PCD v0.7 - Point Cloud Data file format
VERSION 0.7
FIELDS x y z
SIZE 4 4 4
TYPE F F F
COUNT 1 1 1
WIDTH 1285
HEIGHT 1
VIEWPOINT 0 0 0 1 0 0 0
POINTS 1285
DATA ascii
-0.29513562 -0.18201593 0.049755186
-0.29531005 -0.18199481 0.0497109
-0.29550445 -0.18196574 0.049702294
-0.29569298 -0.18193883 0.049684487
-0.29590142 -0.18190035 0.049728908
-0.29608479 -0.18187708 0.049690355
-0.29626566 -0.18185732 0.049628746
-0.29644698 -0.18183357 0.049595963
-0.29666257 -0.18179618 0.04962422
-0.29684693 -0.18177415 0.049575277
-0.29703742 -0.18174082 0.049602449
-0.29723877 -0.1817113 0.04958922
-0.29743832 -0.1816866 0.049542546
-0.29761901 -0.1816617 0.049518991
-0.2978074 -0.18163182 0.0495231
-0.29802716 -0.18159944 0.049509831
-0.29820669 -0.18157895 0.049455132
-0.2983796 -0.18154866 0.04948004
-0.29859799 -0.18151209 0.049499065
-0.29880095 -0.18148373 0.049475454
-0.29899216 -0.18145593 0.0494611
-0.29915091 -0.18144007 0.049396079
-0.2993519 -0.18140103 0.049453214
-0.29955021 -0.18138093 0.049374245
-0.29964748 -0.18139674 0.049146775
-0.29992515 -0.18132868 0.049329411
-0.30014405 -0.18127385 0.049482223
-0.30033621 -0.18125091 0.049430951
-0.30051914 -0.18124041 0.049298983
-0.3007082 -0.18121436 0.049274258
-0.30088744 -0.18118608 0.049277231
-0.30111045 -0.18114769 0.049304318
-0.30130231 -0.18112011 0.049287654
-0.30149829 -0.18109173 0.049272127
-0.3016606 -0.1810739 0.049217485
-0.30186909 -0.1810381 0.049242299
-0.30207413 -0.18101254 0.04919561
-0.3022663 -0.18098664 0.049166262
-0.30245924 -0.1809603 0.049139217
-0.30262515 -0.18093722 0.049119163
-0.3028475 -0.18089518 0.049173929
-0.30302697 -0.18087219 0.049137685
-0.30323696 -0.18084556 0.049093295
-0.30344397 -0.18081123 0.049108889
-0.30361593 -0.18078798 0.049083047
-0.30381775 -0.18076466 0.049023695
-0.30401969 -0.18073347 0.049021997
-0.30421627 -0.18070391 0.049014546
-0.30441898 -0.18067087 0.049025536
-0.30460876 -0.18064533 0.048996188
-0.30479804 -0.18061706 0.048987608
-0.30498409 -0.180583 0.049025171
-0.30519366 -0.18055706 0.048976161
-0.30538327 -0.18053031 0.048956044
-0.30557102 -0.18050461 0.048930172
-0.30578384 -0.18047394 0.048912294
-0.30597237 -0.18044639 0.048899107
-0.3061741 -0.18041304 0.048913553
-0.30635592 -0.18038937 0.048879612
-0.30655268 -0.18036637 0.048823729
-0.30673236 -0.18033801 0.048826709
-0.30692905 -0.18030623 0.0488354
-0.30714014 -0.18026954 0.048863672
-0.21288896 -0.19716476 0.032458447
-0.21302652 -0.19712834 0.032568786
-0.21316536 -0.19709095 0.0326849
-0.21331641 -0.19705479 0.032777913
-0.21345297 -0.19701681 0.032900941
-0.21357647 -0.19697724 0.033050541
-0.21370605 -0.19693643 0.033202425
-0.21382454 -0.1968956 0.033367038
-0.21394418 -0.1968549 0.033529334
-0.21406196 -0.19681247 0.03370662
-0.20757498 -0.19468814 0.05674278
-0.20780155 -0.19465877 0.056699485
-0.20800509 -0.1946242 0.056720845
-0.20823717 -0.19459634 0.056660242
-0.20843741 -0.19455962 0.056701213
-0.20868416 -0.19453543 0.056596741
-0.20889603 -0.19450161 0.056603085
-0.20909311 -0.19446585 0.056640606
-0.20932546 -0.19444171 0.056552313
-0.20954773 -0.19440909 0.056537867
-0.20975882 -0.19437538 0.056544214
-0.20994359 -0.19433682 0.056616373
-0.21016611 -0.19430605 0.056588084
-0.21039537 -0.19427863 0.056527488
-0.21062464 -0.19425136 0.056465734
-0.21083359 -0.19421908 0.056464009
-0.21103515 -0.19418341 0.056495752
-0.21125855 -0.19415815 0.056425944
-0.21147236 -0.19412418 0.056431122
-0.21167494 -0.19409853 0.056387901
-0.21190262 -0.19406195 0.056396503
-0.21211269 -0.19403043 0.056387857
-0.21230321 -0.19399381 0.056439243
-0.21248132 -0.19397008 0.056409918
-0.21275409 -0.19393779 0.056335364
-0.21296741 -0.1939075 0.056314014
-0.2131792 -0.19387527 0.056308825
-0.21337916 -0.19384313 0.05631635
-0.2135428 -0.19382243 0.056281306
-0.21380864 -0.19379058 0.056211375
-0.21402644 -0.19375208 0.056245387
-0.21422479 -0.19372144 0.056243688
-0.2144497 -0.19369344 0.056192331
-0.21465549 -0.19366512 0.056165244
-0.21486969 -0.19362919 0.056184266
-0.21507852 -0.19360024 0.056158323
-0.21526568 -0.19357182 0.056153193
-0.21549651 -0.19354101 0.056115657
-0.21567503 -0.19351189 0.056125559
-0.21592811 -0.19347936 0.056075264
-0.21613893 -0.19344977 0.056051623
-0.21635467 -0.19342178 0.056010667
-0.21655659 -0.19338793 0.056028575
-0.21676749 -0.19335864 0.056002621
-0.21696903 -0.19332831 0.055995159
-0.21715248 -0.19329591 0.05602349
-0.21737134 -0.19327292 0.055942155
-0.21761665 -0.19324253 0.055884968
-0.21781157 -0.19320868 0.055910971
-0.217994 -0.19318333 0.055888552
-0.21822281 -0.19314799 0.055886775
-0.21843515 -0.19311817 0.055863131
-0.21864292 -0.19308874 0.055841804
-0.21882018 -0.1930584 0.055862084
-0.21903913 -0.19302741 0.055839572
-0.21926616 -0.19299923 0.055787049
-0.21945593 -0.19296962 0.055787683
-0.21966276 -0.19294034 0.055766359
-0.21987367 -0.19290885 0.055756554
-0.22008473 -0.19287752 0.055745598
-0.22030157 -0.19285201 0.055685036
-0.22051534 -0.19282559 0.055634856
-0.22069675 -0.1927935 0.055663202
-0.22089228 -0.19276267 0.05566613
-0.2210688 -0.19273843 0.055642579
-0.22130272 -0.19270824 0.055596955
-0.2215196 -0.19266814 0.055643652
-0.22172721 -0.19264203 0.055598106
-0.22194533 -0.19261414 0.055553682
-0.22212675 -0.19257657 0.055622395
-0.22234541 -0.19255298 0.055545673
-0.22254908 -0.19252388 0.055526666
-0.22275126 -0.19249235 0.05552727
-0.2229543 -0.19246319 0.055509407
-0.22315168 -0.19243193 0.05551349
-0.22334865 -0.19240057 0.055518713
-0.22356635 -0.19237541 0.055454686
-0.22376291 -0.1923562 0.055371106
-0.22396976 -0.19231687 0.055423595
-0.22415207 -0.19229014 0.055411566
-0.22434017 -0.19226174 0.055405289
-0.22457863 -0.19223335 0.055341199
-0.22474088 -0.19220692 0.055349991
-0.22493555 -0.19217105 0.055390976
-0.22519374 -0.19214714 0.055271477
-0.22538641 -0.19211268 0.055304404
-0.22557434 -0.19208682 0.055279665
-0.22578023 -0.19205172 0.055302165
-0.22598565 -0.19202502 0.055263545
-0.22618417 -0.19200189 0.055206496
-0.22638038 -0.19196925 0.055222109
-0.22658639 -0.19193664 0.055226162
-0.22679338 -0.19190891 0.055193301
-0.22699161 -0.19187956 0.055182379
-0.22719769 -0.19185384 0.055135678
-0.22736919 -0.1918302 0.055113301
-0.22754553 -0.19179326 0.055183172
-0.22779186 -0.19176413 0.055115603
-0.22797556 -0.1917284 0.055168156
-0.22816944 -0.19170427 0.055123806
-0.22834855 -0.19168007 0.05509679
-0.22856048 -0.19164421 0.055118117
-0.22875212 -0.19161932 0.055081841
-0.22896385 -0.19159509 0.055017833
-0.22915523 -0.19156335 0.055032305
-0.22934659 -0.19154102 0.054977577
-0.22957514 -0.19150916 0.054950424
-0.22978152 -0.1914757 0.05496024
-0.22997792 -0.1914468 0.05494817
-0.230156 -0.19142057 0.054937311
-0.23036438 -0.19138353 0.054971334
-0.23052263 -0.19135676 0.054987054
-0.23075002 -0.19132978 0.054925304
-0.230967 -0.19130239 0.054878574
-0.23116237 -0.19127096 0.054886125
-0.23135389 -0.19124751 0.054839458
-0.23153117 -0.19122392 0.054810148
-0.23172393 -0.19119635 0.054792322
-0.23195527 -0.19115731 0.05481476
-0.23214954 -0.19113076 0.054787703
-0.23235102 -0.19110326 0.054759465
-0.23251951 -0.19107255 0.054792456
-0.23271298 -0.19105366 0.054710038
-0.23294051 -0.19101804 0.054711726
-0.23313928 -0.19098939 0.054695033
-0.23333558 -0.19096205 0.054671429
-0.23353595 -0.19093457 0.054644357
-0.23372701 -0.19090427 0.054648455
-0.23392217 -0.19087383 0.054649077
-0.2341204 -0.19084808 0.054611623
-0.23431395 -0.19081679 0.054620326
-0.23450728 -0.19078819 0.054609414
-0.23470622 -0.19076046 0.054585803
-0.23488536 -0.19073422 0.054573782
-0.23509565 -0.19070268 0.054565135
-0.23527487 -0.19067094 0.054593489
-0.23548324 -0.19064692 0.054531783
-0.23568183 -0.19062237 0.054485112
-0.23587976 -0.19059463 0.054462656
-0.23606575 -0.19056185 0.05449098
-0.23625512 -0.19053434 0.054476619
-0.23645012 -0.19050783 0.054448411
-0.23665042 -0.19047612 0.054452479
-0.23685043 -0.19045338 0.05439081
-0.23703589 -0.19041738 0.054443356
-0.23723027 -0.19039395 0.054393224
-0.23742901 -0.19036452 0.054382313
-0.23761392 -0.19033128 0.054415248
-0.23782152 -0.19031176 0.054321259
-0.23795806 -0.19028053 0.054394707
-0.23817684 -0.19026665 0.054246482
-0.23838389 -0.19024095 0.05419863
-0.23860034 -0.19020312 0.054229181
-0.23878375 -0.19016901 0.054270197
-0.23897329 -0.19013974 0.054268524
-0.23916839 -0.19011165 0.05425185
-0.23936312 -0.19008677 0.054212108
-0.23955479 -0.19005953 0.054193124
-0.23975082 -0.19003256 0.054167211
-0.23993927 -0.19000284 0.054170158
-0.24013412 -0.1899751 0.054151177
-0.24030297 -0.18994638 0.054169171
-0.24050847 -0.18992093 0.054121323
-0.24068584 -0.18989623 0.054100078
-0.2409026 -0.18986289 0.054097179
-0.2410899 -0.18983257 0.0541059
-0.24128108 -0.18980211 0.054111138
-0.24147786 -0.18978067 0.05404371
-0.241668 -0.18974942 0.054055877
-0.24186188 -0.18972561 0.05400921
-0.24205624 -0.18969858 0.053985622
-0.24224687 -0.18967198 0.053963184
-0.24243715 -0.18964119 0.053971894
-0.24261753 -0.18960457 0.054034829
-0.24281925 -0.18958533 0.053945474
-0.24300937 -0.18955864 0.053924195
-0.24320325 -0.18953185 0.053899448
-0.24339172 -0.1895037 0.053890862
-0.24358027 -0.18947145 0.05391226
-0.24376261 -0.18944111 0.053926747
-0.24395253 -0.1894234 0.053839736
-0.24412374 -0.18940279 0.053795446
-0.24434571 -0.18936849 0.053793676
-0.24452986 -0.18934053 0.053788569
-0.24468064 -0.18932404 0.053737402
-0.24491869 -0.18931815 0.053508397
-0.24510869 -0.18926059 0.053714324
-0.24529232 -0.18922769 0.053746123
-0.24547412 -0.18919727 0.053761773
-0.24567021 -0.18917014 0.053737011
-0.24586417 -0.18914537 0.053697269
-0.24605626 -0.18912339 0.05363908
-0.24620473 -0.18909015 0.053713642
-0.24640696 -0.18906143 0.053693485
-0.2465986 -0.18903419 0.053674512
-0.24677482 -0.189007 0.053672872
-0.24700783 -0.18898951 0.053534985
-0.24719134 -0.1889568 0.053565621
-0.24737547 -0.18893589 0.053508613
-0.24754834 -0.18889323 0.05362463
-0.24773981 -0.18887778 0.053519152
-0.24793747 -0.18884349 0.053545132
-0.24812797 -0.18881565 0.05353193
-0.24828367 -0.18877485 0.053653758
-0.24848075 -0.18874536 0.053645149
-0.24869338 -0.18872288 0.05356729
-0.2488869 -0.18870036 0.053511407
-0.24907586 -0.18867685 0.05346822
-0.24923815 -0.18864632 0.053506993
-0.24938507 -0.18860845 0.053617306
-0.24963695 -0.18859071 0.053459771
-0.24982551 -0.18856724 0.053416573
-0.25000885 -0.18854129 0.053397622
-0.25016344 -0.18852437 0.0533453
-0.25038707 -0.18849058 0.053337768
-0.25058073 -0.18845615 0.053369537
-0.25076798 -0.18843116 0.053339042
-0.25093755 -0.18841566 0.053259
-0.25111774 -0.18839194 0.053227361
-0.25127959 -0.18837653 0.053155415
-0.25148404 -0.18835846 0.053054519
-0.25168446 -0.18830664 0.053206209
-0.25189456 -0.18827669 0.053186029
-0.25208068 -0.18824185 0.053229347
-0.25223735 -0.18821502 0.05324737
-0.25246066 -0.18820061 0.053097982
-0.25264525 -0.18816175 0.053172443
-0.25283065 -0.18813439 0.053161561
-0.25301379 -0.18811098 0.05312416
-0.25318471 -0.18808383 0.053128302
-0.25338128 -0.18805803 0.053093161
-0.25357401 -0.18803188 0.053064957
-0.25374436 -0.18800324 0.053080641
-0.25390384 -0.1879741 0.053112499
-0.25409755 -0.1879638 0.052966647
-0.25429872 -0.187931 0.052977629
-0.25448459 -0.18789431 0.053034794
-0.2546387 -0.18785815 0.053124338
-0.25482643 -0.18785538 0.052930061
-0.25504863 -0.18782184 0.052922532
-0.25522962 -0.18777868 0.05303276
-0.25540733 -0.1877511 0.053032275
-0.25559515 -0.18773794 0.05291412
-0.25579026 -0.18771033 0.052893989
-0.25599504 -0.1876784 0.052894574
-0.256152 -0.18765387 0.052895304
-0.25634739 -0.1876284 0.052859016
-0.25652975 -0.18760984 0.052787006
-0.25672701 -0.18757561 0.052813001
-0.25690863 -0.18755338 0.052768677
-0.25708613 -0.18752755 0.052755509
-0.25727078 -0.18750344 0.052721556
-0.25745168 -0.18747756 0.052704912
-0.25763619 -0.18745363 0.052669816
-0.25782672 -0.18742108 0.052691206
-0.25801435 -0.18739462 0.052671086
-0.25819492 -0.18736675 0.052669436
-0.25838226 -0.18733658 0.052677002
-0.25855789 -0.18728015 0.052891046
-0.25875038 -0.18728259 0.052652933
-0.258948 -0.18725348 0.052640859
-0.25915924 -0.18722194 0.05263105
-0.25932273 -0.18719532 0.052639835
-0.25949994 -0.18718114 0.052541316
-0.25968033 -0.18715943 0.052494694
-0.25986066 -0.18713395 0.05247575
-0.26004782 -0.18710427 0.052479848
-0.26022854 -0.18706524 0.052560087
-0.26042619 -0.18703158 0.052581463
-0.26059902 -0.18702123 0.052459888
-0.26079392 -0.18697608 0.052568927
-0.26099485 -0.18694505 0.052567225
-0.26116434 -0.18692861 0.052494101
-0.26134455 -0.18690333 0.052474007
-0.26157579 -0.18686979 0.05245607
-0.26173341 -0.18686651 0.052299935
-0.26191139 -0.18682915 0.052370965
-0.26210558 -0.18679696 0.052385423
-0.26228333 -0.18676357 0.052427612
-0.26249382 -0.18673468 0.052399352
-0.26266408 -0.18670793 0.0524012
-0.26285207 -0.18667404 0.052435286
-0.26302516 -0.18665047 0.052410595
-0.2632212 -0.18662773 0.052353553
-0.26341233 -0.1865954 0.052372634
-0.26358289 -0.18656737 0.052383699
-0.26374757 -0.18655184 0.052309435
-0.26396185 -0.18651921 0.052304238
-0.26413399 -0.18649878 0.052257635
-0.26434582 -0.18646243 0.052282434
-0.26449621 -0.18643674 0.052299324
-0.26467991 -0.18640886 0.052294206
-0.26489007 -0.18637969 0.052268259
-0.26508898 -0.18635589 0.052215818
-0.26526806 -0.18633264 0.052181885
-0.26543117 -0.18633071 0.052009583
-0.26561505 -0.18626858 0.052255899
-0.26579145 -0.18625407 0.052160844
-0.26597461 -0.18622768 0.052145354
-0.266155 -0.18620987 0.052069888
-0.2663714 -0.18617064 0.052110821
-0.26654905 -0.18615092 0.052052669
-0.26671726 -0.18613014 0.052012995
-0.26688465 -0.18612048 0.05189259
-0.26711255 -0.18606769 0.052019991
-0.26729318 -0.18603918 0.052022956
-0.26746854 -0.1860162 0.05199134
-0.2676717 -0.1859875 0.051970027
-0.26785251 -0.18595865 0.051975295
-0.26802751 -0.18593635 0.05193907
-0.26822603 -0.18590334 0.051954679
-0.26840752 -0.18587314 0.051969167
-0.26856604 -0.18584476 0.051996425
-0.26876736 -0.18582748 0.051893227
-0.26893187 -0.18580696 0.051855862
-0.26912278 -0.18575647 0.052008733
-0.26930141 -0.18572623 0.052026704
-0.26950118 -0.18568502 0.052101135
-0.26968673 -0.1856931 0.051829591
-0.26985946 -0.18566206 0.051860258
-0.27006468 -0.18563537 0.051821638
-0.27023381 -0.18561164 0.051802721
-0.27040777 -0.18558463 0.051802248
-0.27056953 -0.18555702 0.05182026
-0.27074239 -0.18553223 0.051804796
-0.27091876 -0.18551254 0.051747795
-0.271099 -0.18549696 0.05165619
-0.27129024 -0.18547811 0.051576089
-0.2715109 -0.18543445 0.05164469
-0.27168876 -0.18540621 0.051648811
-0.27188361 -0.1853755 0.051651742
-0.2720708 -0.18534739 0.051644318
-0.27225944 -0.18532203 0.051614966
-0.27244848 -0.18529598 0.05159023
-0.27263218 -0.18527359 0.051544748
-0.2727913 -0.18525094 0.051529318
-0.27297103 -0.18522492 0.051514983
-0.27314958 -0.18519595 0.051523726
-0.27333394 -0.18516278 0.051556673
-0.27352965 -0.18513131 0.051564209
-0.27369735 -0.18511909 0.051462259
-0.27387235 -0.18510024 0.051400654
-0.27406731 -0.18506983 0.051401276
-0.27426064 -0.18502398 0.051517237
-0.2744551 -0.18498579 0.051575527
-0.27465209 -0.18497483 0.051430818
-0.27485153 -0.18493415 0.051501781
-0.27500603 -0.18492679 0.051379103
-0.27519915 -0.18489933 0.051360127
-0.2753934 -0.1848662 0.05138151
-0.27557239 -0.18484564 0.051327966
-0.27575132 -0.18481693 0.051334396
-0.27593285 -0.18479691 0.051273935
-0.27611619 -0.18476249 0.05131726
-0.2762959 -0.18474087 0.051270638
-0.27646321 -0.18471962 0.051235572
-0.27663293 -0.18469907 0.051192436
-0.27684012 -0.18464245 0.051371798
-0.27704445 -0.18459378 0.051495798
-0.27722782 -0.18459027 0.051311918
-0.2774044 -0.1845762 0.051213406
-0.27757952 -0.18455639 0.051158719
-0.27778408 -0.18451899 0.051199678
-0.27796981 -0.18449001 0.051200323
-0.2781477 -0.18446335 0.051192921
-0.27833191 -0.18443978 0.051155504
-0.27851871 -0.18440624 0.051188447
-0.2787011 -0.18439172 0.051086456
-0.27887017 -0.18437521 0.051014483
-0.27905089 -0.18434198 0.051052056
-0.2792426 -0.18430987 0.051068831
-0.27945897 -0.18426029 0.05118588
-0.27962297 -0.18425931 0.051005512
-0.27981439 -0.18423101 0.050994605
-0.27999151 -0.18420871 0.050956067
-0.28016829 -0.18418032 0.050962504
-0.2803686 -0.18414578 0.050987329
-0.28055489 -0.18411687 0.050986826
-0.28074542 -0.18408981 0.050967842
-0.28092575 -0.18406416 0.05095005
-0.28109998 -0.18404497 0.050891917
-0.28129461 -0.18401366 0.050899457
-0.28147247 -0.18398763 0.050887436
-0.28166297 -0.18396074 0.050867308
-0.28183711 -0.18392962 0.050896823
-0.28203407 -0.18390219 0.050873216
-0.28222141 -0.18388441 0.050789669
-0.28239074 -0.18385828 0.050788045
-0.28257856 -0.18381689 0.050877493
-0.28275934 -0.18380547 0.050754748
-0.28295329 -0.18377537 0.050754219
-0.28313273 -0.18374814 0.050749116
-0.28333697 -0.18371111 0.050787777
-0.2835103 -0.18368985 0.050745782
-0.28369766 -0.18366626 0.050704908
-0.28386739 -0.18364289 0.050682522
-0.28404027 -0.18362203 0.050638229
-0.28423014 -0.18358801 0.05067116
-0.28440756 -0.18357098 0.050593395
-0.28461155 -0.18353477 0.050626289
-0.2848143 -0.18349986 0.050651111
-0.28496277 -0.1834881 0.050567664
-0.28515485 -0.18346033 0.050552152
-0.28534827 -0.18342623 0.050581604
-0.28555652 -0.18339187 0.050596025
-0.28575519 -0.18336354 0.050577033
-0.2859149 -0.18333922 0.05057314
-0.28611827 -0.18330939 0.050559893
-0.28630421 -0.18328728 0.050509796
-0.28648621 -0.18326357 0.050475851
-0.28666827 -0.1832325 0.050496109
-0.28684914 -0.18321227 0.05043795
-0.28702775 -0.18318424 0.050439775
-0.28720769 -0.18315756 0.050430056
-0.28740945 -0.18313172 0.050389133
-0.28758088 -0.18310748 0.050371364
-0.28776118 -0.18307589 0.050397404
-0.28798273 -0.18303852 0.050418716
-0.28814954 -0.18301357 0.050411336
-0.2883372 -0.18298554 0.050402749
-0.28852803 -0.18295498 0.050409146
-0.28870529 -0.18293548 0.050349846
-0.28887236 -0.18291958 0.050275579
-0.28903875 -0.18289736 0.050248593
-0.2892361 -0.18285951 0.050301112
-0.2894451 -0.18281484 0.050390501
-0.28962624 -0.18280572 0.050250448
-0.28981921 -0.18277608 0.050247617
-0.29001606 -0.18274787 0.05022978
-0.29019809 -0.18272904 0.05016008
-0.29039609 -0.18269563 0.050179146
-0.29056585 -0.18267541 0.050133713
-0.29074281 -0.18264967 0.050120533
-0.29095328 -0.18260916 0.050177634
-0.29114002 -0.18258676 0.050128683
-0.29130086 -0.1825712 0.050059039
-0.29151753 -0.18253475 0.050079208
-0.29169726 -0.18250717 0.05007641
-0.29189885 -0.18247588 0.050075863
-0.29207191 -0.18245749 0.050013114
-0.29224151 -0.18242928 0.050026488
-0.29246137 -0.18239501 0.050027043
-0.29264185 -0.18236715 0.050025392
-0.29285106 -0.18233876 0.049994837
-0.29303119 -0.18231128 0.049990889
-0.29323202 -0.18228497 0.049954589
-0.2933929 -0.18226737 0.049899939
-0.29356614 -0.18224095 0.049896009
-0.2937606 -0.18220544 0.049934685
-0.29393551 -0.18218975 0.049850021
-0.29412752 -0.18215805 0.049863335
-0.29432404 -0.18212913 0.049851269
-0.29452133 -0.18210164 0.049827661
-0.29470095 -0.18207109 0.049846776
-0.29487127 -0.18205282 0.049786333
-0.29507756 -0.18201736 0.049811143
-0.29526329 -0.1819904 0.049796805
-0.29545715 -0.18195984 0.049799729
-0.29565054 -0.18193533 0.049758837
-0.29582787 -0.18191046 0.049738742
-0.29601699 -0.18188143 0.049735919
-0.2962195 -0.18184528 0.049769968
-0.29640731 -0.18181911 0.049747549
-0.29659346 -0.18179776 0.049691673
-0.29677796 -0.18177383 0.049656574
-0.29697442 -0.1817493 0.049612209
-0.29716241 -0.18171588 0.049642835
-0.29736546 -0.18167809 0.049688417
-0.29755017 -0.18165602 0.049639475
-0.29775468 -0.18163353 0.049570866
-0.29793453 -0.1816075 0.049556531
-0.29814151 -0.18157458 0.049561739
-0.29832906 -0.18154548 0.049561229
-0.29851004 -0.18152413 0.049511135
-0.29870367 -0.1814947 0.049505994
-0.29890144 -0.18146621 0.049489312
-0.29910949 -0.18143642 0.049470287
-0.2992996 -0.18140598 0.049476687
-0.29947561 -0.18138273 0.049446221
-0.29967493 -0.18134835 0.049471051
-0.29988071 -0.18132363 0.049417432
-0.30005324 -0.18129592 0.049423892
-0.30023921 -0.18127002 0.049401462
-0.3004652 -0.18122789 0.049452744
-0.30064473 -0.18120944 0.049383063
-0.3008267 -0.18118449 0.049358346
-0.30102706 -0.18115167 0.049370479
-0.30122936 -0.18112764 0.049315721
-0.30140138 -0.18110062 0.049317561
-0.30159107 -0.18107119 0.049317047
-0.30179808 -0.18103953 0.049313016
-0.30198571 -0.18101308 0.049292896
-0.30219209 -0.18098354 0.049273882
-0.30239496 -0.18095458 0.049254872
-0.30258736 -0.18092863 0.04922552
-0.30277455 -0.18089943 0.049226161
-0.30298507 -0.18086769 0.049218662
-0.30316967 -0.18084013 0.049210086
-0.30335486 -0.18081704 0.049168058
-0.30357015 -0.18078111 0.049185928
-0.30376545 -0.18075849 0.049128883
-0.30396378 -0.18072787 0.049127184
-0.30415195 -0.18070006 0.049116295
-0.30432463 -0.18067971 0.049068533
-0.30454022 -0.18063934 0.04911869
-0.30473018 -0.18061377 0.049089339
-0.30493757 -0.18058598 0.049056478
-0.30512476 -0.18056053 0.04902944
-0.30533326 -0.18053068 0.049010422
-0.30552092 -0.18050657 0.048973005
-0.30571407 -0.18047488 0.048985157
-0.3059226 -0.18044518 0.048964981
-0.30611366 -0.18041928 0.048936784
-0.30632183 -0.18038541 0.048947744
-0.30650866 -0.1803605 0.048917249
-0.30668068 -0.18034086 0.048864879
-0.3069064 -0.18030189 0.048893102
-0.30709517 -0.18027605 0.048867207
-0.30728716 -0.18024404 0.048882838
-0.21276923 -0.19713588 0.032807644
-0.21290852 -0.19709967 0.032914501
-0.21304274 -0.19706237 0.033035215
-0.21318018 -0.19702567 0.033147834
-0.21331723 -0.19698761 0.033270843
-0.21344638 -0.19694906 0.033406556
-0.21357447 -0.1969102 0.033545718
-0.21369895 -0.19687049 0.033695277
-0.21382746 -0.1968303 0.033843677
-0.21394734 -0.19678818 0.034016311
-0.21405494 -0.19674575 0.034205109
-0.20770636 -0.19464551 0.056905851
-0.20792879 -0.19461523 0.056874119
-0.20814732 -0.19458413 0.05685278
-0.20837082 -0.1945543 0.056816429
-0.20858914 -0.19452183 0.056805462
-0.20882128 -0.19449426 0.056742571
-0.2090189 -0.19445857 0.05677893
-0.20923385 -0.19442709 0.056764513
-0.20944722 -0.1944015 0.056708597
-0.20964426 -0.19435963 0.056791082
-0.20988403 -0.19433449 0.056701653
-0.21008952 -0.19430102 0.056712631
-0.21031386 -0.19427232 0.056667052
-0.2105128 -0.19423737 0.056696489
-0.21073398 -0.19420649 0.056670532
-0.2109606 -0.19417869 0.056615733
-0.21115719 -0.19414331 0.056650937
-0.21139085 -0.19411755 0.056573056
-0.21160716 -0.19408743 0.056547109
-0.21182321 -0.19405735 0.056521155
-0.21203005 -0.19402492 0.056522906
-0.21222554 -0.19398956 0.056559272
-0.21244559 -0.19395918 0.056531008
-0.21263632 -0.19393238 0.056509737
-0.21289858 -0.19390549 0.05640756
-0.21305761 -0.19387846 0.056424428
-0.21326244 -0.19384101 0.056465387
-0.21352114 -0.19381027 0.056395501
-0.21367501 -0.19377698 0.05646427
-0.21390736 -0.19376068 0.056318358
-0.21415074 -0.19371772 0.056355752
-0.21436545 -0.19368675 0.056337878
-0.21457934 -0.19365731 0.056309629
-0.2147885 -0.19363505 0.056234121
-0.21499813 -0.19359954 0.056255456
-0.21518594 -0.19355768 0.05634835
-0.21537606 -0.19353522 0.056295943
-0.21555063 -0.19350484 0.056319691
-0.21583945 -0.19347255 0.056226671
-0.21602814 -0.19343621 0.05627805
-0.21623527 -0.19340546 0.056267112
-0.21645822 -0.19337966 0.056201935
-0.21667406 -0.19335179 0.056159846
-0.21688391 -0.1933222 0.056137368
-0.21708961 -0.19328965 0.056141429
-0.21729907 -0.19326012 0.05611895
-0.21748951 -0.1932282 0.056135736
-0.21770811 -0.19320352 0.05606712
-0.21790025 -0.19317229 0.056076974
-0.21810991 -0.1931396 0.056077559
-0.21833405 -0.1931117 0.05602622
-0.21916178 -0.19299312 0.055951349
-0.21936205 -0.19296329 0.055941578
-0.21957162 -0.19292746 0.055965234
-0.21979451 -0.1929037 0.055885069
-0.21999136 -0.19286922 0.055913366
-0.22018696 -0.19284184 0.055890925
-0.22040841 -0.19281045 0.055868424
-0.22056255 -0.19277993 0.055916436
-0.22081175 -0.1927491 0.055858105
-0.22102237 -0.19272174 0.055818342
-0.22122733 -0.19269055 0.055813167
-0.22144566 -0.19266623 0.055742241
-0.22165236 -0.19263588 0.055729009
-0.2218519 -0.1926049 0.055728469
-0.22204924 -0.19257317 0.055736013
-0.22225887 -0.19254613 0.055695087
-0.22246844 -0.19251721 0.055668004
-0.22266096 -0.19248387 0.055692852
-0.22286767 -0.19245602 0.05566116
-0.22304681 -0.19242759 0.055665284
-0.22326401 -0.19239201 0.055678532
-0.22347163 -0.1923648 0.055641081
-0.22366934 -0.19233175 0.055657841
-0.22387773 -0.19230506 0.055615772
-0.22408757 -0.19227703 0.055581767
-0.22428486 -0.19224609 0.05558354
-0.22447723 -0.19221734 0.055574942
-0.22468127 -0.19218723 0.055562861
-0.22485906 -0.19216716 0.055507042
-0.22507828 -0.19213314 0.055506445
-0.22529373 -0.19209971 0.055505864
-0.225495 -0.19207725 0.055440754
-0.2257106 -0.19204409 0.055437863
-0.22591294 -0.19201598 0.055413105
-0.22610928 -0.19198535 0.05541373
-0.22630191 -0.19195749 0.055398215
-0.22650895 -0.1919274 0.055382669
-0.2267033 -0.19189174 0.055422496
-0.22690776 -0.19186284 0.055401191
-0.22711408 -0.19183707 0.055354521
-0.22730251 -0.19180329 0.055387445
-0.22750874 -0.19177771 0.055339616
-0.22767338 -0.19175763 0.055298809
-0.22790521 -0.19172402 0.05528089
-0.2281024 -0.19168776 0.055321872
-0.22830646 -0.19166848 0.055230234
-0.22848865 -0.19164349 0.055205524
-0.22870429 -0.1916025 0.055260282
-0.22888154 -0.19158219 0.055206772
-0.22909521 -0.19154495 0.055236172
-0.22930934 -0.19151972 0.055176783
-0.22950263 -0.19148658 0.055199321
-0.22967824 -0.19146591 0.055150419
-0.22988559 -0.19143765 0.055121042
-0.23006909 -0.19141167 0.055102099
-0.23029937 -0.19137859 0.055081874
-0.23051187 -0.19134608 0.055077843
-0.23071092 -0.1913188 0.055050783
-0.23091908 -0.19129401 0.05499487
-0.23109296 -0.19126092 0.055039369
-0.23129889 -0.19122769 0.055048037
-0.23148799 -0.19120038 0.05503254
-0.23170593 -0.19117643 0.054959308
-0.23189655 -0.19114512 0.054971486
-0.23208427 -0.19111991 0.054942146
-0.23226868 -0.19109035 0.054948572
-0.23247549 -0.19106327 0.054911118
-0.23264301 -0.19103977 0.054892216
-0.23286352 -0.1910104 0.054855876
-0.23307768 -0.19097482 0.054872591
-0.23327334 -0.19094695 0.054853614
-0.23345888 -0.19091314 0.054890007
-0.23366806 -0.1908882 0.054834105
-0.23385602 -0.19086137 0.054816298
-0.23405594 -0.19082831 0.054830752
-0.23418267 -0.19079672 0.054918036
-0.23443259 -0.19077832 0.05476746
-0.23465204 -0.19074944 0.054728821
-0.23485079 -0.19072156 0.054706383
-0.23504409 -0.19069313 0.054694332
-0.23524374 -0.19066606 0.054664962
-0.23540914 -0.1906396 0.054670278
-0.23560165 -0.19061381 0.054639786
-0.23578396 -0.19059005 0.054605853
-0.23602092 -0.19055343 0.054604065
-0.23621018 -0.1905228 0.054612767
-0.23640679 -0.19049433 0.054597251
-0.23660105 -0.19046731 0.054573674
-0.2368038 -0.19044337 0.054517776
-0.23698781 -0.19040932 0.054557636
-0.2371801 -0.1903812 0.054544434
-0.23734304 -0.19035669 0.054538228
-0.23753849 -0.1903342 0.05448005
-0.23776402 -0.19029951 0.054477133
-0.23796196 -0.19027287 0.054446615
-0.23815316 -0.19024444 0.054436881
-0.23834455 -0.19021301 0.054449048
-0.23854046 -0.19018841 0.054405853
-0.23873152 -0.19016016 0.054394957
-0.23891622 -0.19012694 0.054427903
-0.23911376 -0.19010067 0.05439508
-0.23930685 -0.19007431 0.054368045
-0.23949884 -0.19004717 0.054347921
-0.23969357 -0.190019 0.054332409
-0.23988456 -0.18999124 0.054318056
-0.24005939 -0.18996394 0.054318737
-0.24027216 -0.18993734 0.05427089
-0.24045885 -0.18990617 0.054286528
-0.24061541 -0.18987387 0.054344907
-0.24083774 -0.18984516 0.054301642
-0.24102812 -0.18982111 0.054260772
-0.24120909 -0.18978862 0.054292567
-0.24141175 -0.18976109 0.054263197
-0.24160942 -0.18974045 0.05418887
-0.24180591 -0.18971513 0.054150291
-0.24199186 -0.18968375 0.054168239
-0.24218574 -0.18966009 0.05412044
-0.24234797 -0.18962535 0.05419033
-0.24254932 -0.1896093 0.054077946
-0.24275929 -0.18957813 0.054067004
-0.24295327 -0.18955116 0.054043416
-0.24311593 -0.18953328 0.053988792
-0.24330951 -0.18950622 0.053966355
-0.24351247 -0.1894639 0.054045364
-0.24371287 -0.18944 0.053991791
-0.24389859 -0.18940899 0.054007433
-0.24409112 -0.18938114 0.053991925
-0.24426296 -0.18936121 0.053941876
-0.24446568 -0.18933178 0.053926341
-0.24466364 -0.18930152 0.053922348
-0.24485825 -0.18928121 0.053849176
-0.24503908 -0.18924482 0.053909801
-0.24522969 -0.1892201 0.053873546
-0.24541353 -0.18919204 0.05386959
-0.24561104 -0.18916169 0.053866751
-0.24580045 -0.18913591 0.053839721
-0.24599215 -0.1891132 0.053787317
-0.24617289 -0.18907653 0.053850241
-0.24633478 -0.18905045 0.053856727
-0.24654587 -0.18903354 0.0537397
-0.24673566 -0.18899858 0.053779539
-0.24693812 -0.1889758 0.053715575
-0.24712875 -0.18894745 0.053705841
-0.2473148 -0.18891811 0.053708792
-0.24750149 -0.18888976 0.053703677
-0.24768287 -0.1888649 0.053678975
-0.24787977 -0.18883497 0.053673834
-0.24806888 -0.18881063 0.053636421
-0.24825677 -0.18877864 0.053656675
-0.24844086 -0.18874662 0.053681545
-0.24862604 -0.18872243 0.053647604
-0.24882133 -0.1886965 0.053614795
-0.24901226 -0.18867612 0.053546254
-0.24919964 -0.18865003 0.053523831
-0.24938422 -0.1886126 0.053587906
-0.24957193 -0.18858722 0.053559728
-0.24975291 -0.18856336 0.053528104
-0.24991068 -0.18853809 0.053533442
-0.25010237 -0.18849249 0.053649388
-0.25032094 -0.18846971 0.053566929
-0.25050393 -0.18845041 0.053499557
-0.2507031 -0.18842687 0.053444825
-0.2508927 -0.18839915 0.053431638
-0.25107637 -0.18836673 0.053459965
-0.25125131 -0.18833926 0.053461798
-0.25141326 -0.18830739 0.053510938
-0.25163993 -0.18829761 0.053323537
-0.25181377 -0.18826811 0.053341515
-0.25200433 -0.18823478 0.05336868
-0.25217876 -0.1882066 0.05337628
-0.25234497 -0.1881852 0.053343538
-0.25253952 -0.18814324 0.053429499
-0.2527369 -0.18812782 0.053317115
-0.2529383 -0.18809436 0.053332713
-0.25311232 -0.1880755 0.053272292
-0.25329572 -0.18804233 0.053306378
-0.2535015 -0.18801133 0.053298905
-0.25365061 -0.18797173 0.053419579
-0.25387686 -0.18796028 0.053244855
-0.25404057 -0.18793283 0.053259403
-0.25423229 -0.18791562 0.053166647
-0.25443661 -0.18788062 0.053190306
-0.25461677 -0.18784811 0.05322326
-0.25477219 -0.18781614 0.053280495
-0.25500676 -0.18780217 0.053114973
-0.25517467 -0.18777798 0.053100679
-0.255382 -0.18775631 0.053022869
-0.25556609 -0.18772602 0.053035054
-0.25574979 -0.18769374 0.05306223
-0.25591052 -0.18766958 0.053056035
-0.25608873 -0.18764521 0.05303134
-0.25630087 -0.18761463 0.053013474
-0.25649491 -0.18758075 0.053040616
-0.25668108 -0.18756363 0.052953642
-0.25682983 -0.18755464 0.052849464
-0.25705358 -0.18750957 0.052924961
-0.25721687 -0.1874803 0.052953344
-0.2574116 -0.18745196 0.05293899
-0.25761333 -0.18742457 0.052909613
-0.25779688 -0.18738855 0.052964464
-0.25797123 -0.1873651 0.05293747
-0.25812861 -0.18734647 0.052894384
-0.25832051 -0.18732986 0.052797012
-0.25851104 -0.18729354 0.052846085
-0.25867489 -0.18727203 0.052816808
-0.25885227 -0.1872467 0.052800193
-0.25903615 -0.1872111 0.05285158
-0.25922719 -0.1871849 0.052825704
-0.25940791 -0.18715794 0.052817143
-0.25959885 -0.18713756 0.052748591
-0.2597965 -0.18710971 0.052727304
-0.25999069 -0.1870805 0.052719869
-0.2601749 -0.18704565 0.052765489
-0.26034871 -0.1870196 0.052758098
-0.26054966 -0.18699203 0.052731037
-0.26075014 -0.18697064 0.052659009
-0.26093045 -0.18694641 0.052630849
-0.26110426 -0.18691833 0.052638453
-0.26129824 -0.18689011 0.052624092
-0.26148543 -0.18686262 0.052612059
-0.26166797 -0.18684746 0.052514706
-0.26185909 -0.18681356 0.052545324
-0.26206368 -0.18677962 0.052560914
-0.26223081 -0.18675178 0.052574303
-0.26241764 -0.18672641 0.052547276
-0.26260692 -0.18670627 0.052478738
-0.26279688 -0.18668103 0.052447096
-0.26296756 -0.18665171 0.052467383
-0.26316896 -0.18661779 0.052486449
-0.26334515 -0.18659499 0.052452531
-0.26351801 -0.18657207 0.052423239
-0.26370886 -0.18654168 0.052428491
-0.26391655 -0.18650943 0.052427929
-0.26409298 -0.18648487 0.052406695
-0.26426211 -0.18646333 0.052371647
-0.26444259 -0.18643531 0.052371155
-0.26464602 -0.18640703 0.052346393
-0.26484302 -0.18637834 0.052332025
-0.26502159 -0.18635736 0.052281968
-0.26518914 -0.18632886 0.052299961
-0.26536882 -0.18630363 0.052279882
-0.26554307 -0.18627471 0.052293241
-0.26572794 -0.1862537 0.05223624
-0.26590654 -0.18623161 0.052194249
-0.26609936 -0.18619525 0.052241009
-0.2663022 -0.18616816 0.05220817
-0.26648131 -0.18614429 0.052178863
-0.26667964 -0.1861113 0.052194469
-0.26685205 -0.18607906 0.052234367
-0.26703736 -0.18605578 0.052193508
-0.2672241 -0.18603715 0.052116901
-0.26741567 -0.18600538 0.052131373
-0.26759258 -0.18597855 0.052126285
-0.26776898 -0.18595305 0.052111968
-0.26793543 -0.18592063 0.052159946
-0.26813596 -0.1858986 0.052092537
-0.26832664 -0.18586947 0.052088559
-0.26850927 -0.18585163 0.052010812
-0.26869428 -0.18582088 0.052025303
-0.26888639 -0.18578856 0.052043237
-0.26909834 -0.18574765 0.052101463
-0.26926532 -0.18572222 0.052097555
-0.26943174 -0.18569794 0.052085578
-0.2696231 -0.18567437 0.052040093
-0.26978758 -0.18566044 0.051954329
-0.26997197 -0.18563151 0.051956136
-0.27016717 -0.18561235 0.051873736
-0.27034348 -0.18558687 0.051859431
-0.27051774 -0.18556531 0.051818602
-0.2707243 -0.18552995 0.051842254
-0.27091181 -0.18550697 0.051796779
-0.27109602 -0.18547273 0.051837794
-0.27128437 -0.18544255 0.051844202
-0.27146733 -0.1854165 0.05182641
-0.27164754 -0.18538979 0.051816702
-0.27182576 -0.18536118 0.051823147
-0.27201867 -0.18533939 0.051762663
-0.27219862 -0.18531319 0.05174949
-0.27239132 -0.18528125 0.051763959
-0.2725729 -0.18525243 0.051768087
-0.27275783 -0.18523329 0.051697247
-0.27295411 -0.18520565 0.051675964
-0.2731331 -0.18517615 0.051688161
-0.27331123 -0.18514332 0.05172573
-0.273491 -0.18512233 0.051674515
-0.27366063 -0.18510729 0.051591042
-0.27386087 -0.18507369 0.05160895
-0.27403694 -0.18504433 0.051623456
-0.27422583 -0.18502317 0.051562995
-0.27438477 -0.18501873 0.051413827
-0.27455366 -0.18500397 0.051329195
-0.27480066 -0.18493442 0.051557988
-0.27497134 -0.18491295 0.051520623
-0.27516103 -0.18488617 0.051500507
-0.27533892 -0.18485056 0.05155883
-0.27551168 -0.18482625 0.051539917
-0.27571192 -0.18480176 0.051490955
-0.27590156 -0.18477514 0.051469684
-0.27607325 -0.18476027 0.05138275
-0.27625015 -0.18472654 0.051428393
-0.27643803 -0.18469831 0.051420964
-0.27662343 -0.18466562 0.051449288
-0.27682072 -0.18463327 0.05146144
-0.27700782 -0.18460627 0.051445946
-0.277188 -0.18458787 0.051375121
-0.27737859 -0.18455656 0.051387288
-0.27756873 -0.18452956 0.05136833
-0.27774605 -0.18451081 0.051303282
-0.27792767 -0.18448326 0.051298179
-0.27811134 -0.1844604 0.051256176
-0.27829307 -0.18443626 0.051225703
-0.27847281 -0.18440397 0.051257502
-0.27865943 -0.18437423 0.051262762
-0.27886051 -0.18434505 0.051247232
-0.27902427 -0.18432795 0.051185679
-0.27921006 -0.18429928 0.051184025
-0.27940366 -0.18427189 0.051163904
-0.27958366 -0.18423657 0.051217608
-0.27975929 -0.18421936 0.051143333
-0.27994967 -0.18419561 0.051100165
-0.28013411 -0.18415898 0.051158473
-0.2803199 -0.18413705 0.051107235
-0.2805208 -0.18411151 0.051065184
-0.28071237 -0.18408334 0.05105314
-0.28089747 -0.18405274 0.051066473
-0.28107917 -0.18402579 0.051056761
-0.28127232 -0.18400224 0.051008966
-0.28146639 -0.18397164 0.051011898
-0.28163311 -0.18394811 0.05099415
-0.28180405 -0.18392032 0.05100292
-0.28199401 -0.18389116 0.051000096
-0.28217545 -0.1838735 0.050922349
-0.2823765 -0.18383917 0.050944865
-0.28256738 -0.18380922 0.050946657
-0.28275704 -0.1837834 0.050919633
-0.28290924 -0.1837742 0.050813146
-0.28312495 -0.18372034 0.050962456
-0.28331473 -0.18370013 0.050893907
-0.28348505 -0.18367903 0.050854247
-0.28366375 -0.18365818 0.050803028
-0.28388256 -0.18362141 0.0508232
-0.28406549 -0.18359396 0.050815783
-0.28423938 -0.18356414 0.050836071
-0.28442201 -0.18353172 0.050865553
-0.28461492 -0.18351385 0.050776243
-0.28480223 -0.18348259 0.050791889
-0.28499451 -0.18345211 0.050795976
-0.28518113 -0.18342942 0.050749358
-0.28537464 -0.18339796 0.050759207
-0.28553325 -0.18338229 0.050693057
-0.28570813 -0.18336487 0.0506211
-0.28589132 -0.18333502 0.050630976
-0.28609687 -0.18329324 0.050703064
-0.28629339 -0.18326949 0.050652958
-0.28649056 -0.18324515 0.050606303
-0.28668812 -0.18321308 0.050616141
-0.28685293 -0.18318468 0.050636455
-0.287038 -0.18316096 0.050599054
-0.28722224 -0.18313316 0.050592795
-0.28739345 -0.18311396 0.050538138
-0.28757247 -0.18309055 0.050505374
-0.28778854 -0.18305059 0.050552063
-0.28795931 -0.18303412 0.050477814
-0.28815255 -0.18299912 0.050514188
-0.28835353 -0.18297184 0.050484814
-0.28853905 -0.182941 0.050499305
-0.28871462 -0.1829183 0.050465398
-0.28891325 -0.18289986 0.050373774
-0.28910729 -0.18286237 0.050427437
-0.28929627 -0.18283805 0.050390027
-0.28947836 -0.18281026 0.050386086
-0.28965765 -0.18278918 0.050336014
-0.28986147 -0.18275771 0.050334312
-0.29004958 -0.18272977 0.050324574
-0.29024437 -0.1826967 0.05034481
-0.29041475 -0.18267387 0.050317824
-0.29060155 -0.18264927 0.050285038
-0.29078147 -0.18262777 0.050237276
-0.29099494 -0.18258931 0.050275907
-0.29116634 -0.18257007 0.050221246
-0.29135174 -0.1825424 0.050212678
-0.29154128 -0.18251376 0.050206404
-0.29172871 -0.18248467 0.050205894
-0.29192692 -0.18245594 0.050190374
-0.29211622 -0.18242766 0.050181791
-0.2923097 -0.18239637 0.050190493
-0.29250062 -0.18237521 0.050127707
-0.29267982 -0.18234834 0.050120316
-0.29288128 -0.18231142 0.050161272
-0.29306871 -0.18229283 0.050083511
-0.29325283 -0.18226457 0.050080713
-0.29344839 -0.18223815 0.050051361
-0.29363868 -0.18220955 0.050043929
-0.29382309 -0.18218124 0.050041117
-0.29401389 -0.18215241 0.050034843
-0.29420447 -0.18212768 0.049998589
-0.29441968 -0.18208769 0.050046429
-0.29458734 -0.18206748 0.05000332
-0.2947734 -0.18204409 0.049962457
-0.29494724 -0.1820215 0.049929705
-0.29515427 -0.1819856 0.049956813
-0.29535121 -0.18195675 0.049943604
-0.29555359 -0.18192989 0.049909621
-0.2957513 -0.18189685 0.049926378
-0.29592976 -0.18186946 0.049923591
-0.29611051 -0.18184988 0.049860843
-0.29629439 -0.18182448 0.049837284
-0.29650152 -0.18178543 0.049887452
-0.29669467 -0.18176313 0.04983044
-0.2968691 -0.18173684 0.049824197
-0.29704553 -0.18171291 0.049798355
-0.29722518 -0.18169051 0.04975751
-0.29741108 -0.18166763 0.049713206
-0.29762232 -0.18163358 0.049721859
-0.29780099 -0.18160474 0.04972944
-0.29799455 -0.18157345 0.049738139
-0.29818574 -0.18155083 0.049685743
-0.29838827 -0.1815227 0.049660981
-0.2985808 -0.18148874 0.049690437
-0.29877454 -0.18146807 0.04962074
-0.2989608 -0.18143477 0.049652521
-0.29919499 -0.18139544 0.049673792
-0.29937309 -0.18137611 0.049612198
-0.29955691 -0.18134633 0.049620926
-0.29974338 -0.18132177 0.04958814
-0.29993522 -0.1812956 0.049561102
-0.30013716 -0.18126489 0.049555946
-0.30030686 -0.18124576 0.049502451
-0.30048472 -0.1812216 0.049476597
-0.30069223 -0.18118595 0.049501408
-0.30091432 -0.18114646 0.049537703
-0.30110335 -0.18112229 0.049499143
-0.30128723 -0.18109798 0.049467515
-0.30147761 -0.18106812 0.049469307
-0.30167454 -0.18103929 0.049456097
-0.30185145 -0.18101276 0.049448699
-0.3020348 -0.18100031 0.049330596
-0.30224606 -0.18095654 0.049410734
-0.3024444 -0.1809303 0.04937676
-0.30261487 -0.18090619 0.049359009
-0.30279469 -0.18088299 0.049323935
-0.30298775 -0.18085679 0.049295738
-0.30320916 -0.18082666 0.049264003
-0.30341548 -0.18079118 0.049288817
-0.30363348 -0.1807553 0.049303222
-0.30380902 -0.18073481 0.049253162
-0.30401739 -0.18070309 0.049247988
-0.30421114 -0.18067835 0.049208257
-0.3044098 -0.18064924 0.049195044
-0.30461732 -0.18061358 0.049219854
-0.30480435 -0.18058974 0.04918129
-0.30496943 -0.18057384 0.049109355
-0.30517152 -0.18053839 0.049138799
-0.3053984 -0.18049815 0.04917508
-0.30557474 -0.18047595 0.049136557
-0.30578247 -0.1804467 0.049114082
-0.30596596 -0.18041602 0.049129725
-0.30618477 -0.1803852 0.049106084
-0.30636793 -0.18036382 0.049053695
-0.30655542 -0.18033707 0.049035892
-0.30676678 -0.18030459 0.049033023
-0.3069523 -0.18028347 0.048976019
-0.3071681 -0.18024276 0.049028475
-0.21272887 -0.19706762 0.033355605
-0.21287489 -0.1970313 0.033455536
-0.21300727 -0.19699335 0.033583175
-0.21315011 -0.19695628 0.033692338
-0.2132832 -0.19691712 0.033828042
-0.21341521 -0.19687764 0.033967204
-0.21353814 -0.1968374 0.034122538
-0.21366847 -0.19679615 0.03427669
-0.21379535 -0.19675653 0.034422785
-0.21390979 -0.1967129 0.034612715
-0.21401957 -0.19666934 0.034807276
-0.20789121 -0.19460048 0.057025492
-0.20811594 -0.19457076 0.05698688
-0.2083247 -0.19453742 0.056993283
-0.20854571 -0.19450703 0.056963906
-0.20876299 -0.19448507 0.056876898
-0.20898129 -0.19444349 0.056932837
-0.20919871 -0.19441099 0.056923073
-0.20938884 -0.19437505 0.056969859
-0.20960313 -0.19434036 0.056979697
-0.2098552 -0.19431818 0.056854565
-0.210076 -0.19428687 0.056832105
-0.21029153 -0.19425593 0.056813121
-0.21049833 -0.19422288 0.056819517
-0.21070805 -0.19419064 0.056816682
-0.21093331 -0.19416085 0.056778073
-0.21114606 -0.19412954 0.056764863
-0.21136282 -0.19409777 0.056750484
-0.21157666 -0.19406693 0.056732651
-0.21178886 -0.19403414 0.056730971
-0.21200228 -0.19400337 0.056713149
-0.21221484 -0.19397084 0.056709155
-0.21241932 -0.19393784 0.056717865
-0.21265258 -0.19391105 0.056648102
-0.21286254 -0.19387969 0.05663836
-0.21308236 -0.1938495 0.056608982
-0.21329956 -0.19382033 0.056575008
-0.21351269 -0.1937885 0.056565255
-0.21371858 -0.19375637 0.056565888
-0.21389633 -0.19372141 0.056619626
-0.21409702 -0.19370297 0.056525744
-0.21433969 -0.19366309 0.056541275
-0.21452606 -0.19363071 0.056566168
-0.21477437 -0.19359937 0.05651252
-0.21499258 -0.1935713 0.056469314
-0.21519829 -0.19353968 0.056466497
-0.2153997 -0.19350858 0.056464836
-0.21561649 -0.19347869 0.056436628
-0.2157931 -0.19345063 0.056440797
-0.21600434 -0.19342443 0.05639185
-0.21620886 -0.19339111 0.056402862
-0.21643302 -0.19336212 0.056359641
-0.21667928 -0.19333832 0.056252971
-0.21688958 -0.1932983 0.056306619
-0.21709232 -0.19326651 0.056308419
-0.21730278 -0.19323368 0.056309052
-0.21751387 -0.19320467 0.056280851
-0.21771464 -0.19317068 0.056301098
-0.21793821 -0.19314946 0.056201391
-0.21814418 -0.19311734 0.056202032
-0.21835278 -0.19308433 0.056206115
-0.2185722 -0.19305858 0.056144465
-0.21875851 -0.19302745 0.056160145
-0.21897112 -0.19299053 0.056188427
-0.2191774 -0.19296069 0.056171775
-0.21935 -0.19293061 0.056195542
-0.2196001 -0.19290292 0.056113072
-0.21980768 -0.19287384 0.056089487
-0.21997058 -0.19284432 0.056120209
-0.22019838 -0.19281867 0.056048162
-0.22041005 -0.19278377 0.056062624
-0.22060727 -0.19276084 0.056005642
-0.22082609 -0.19272295 0.056033909
-0.22103822 -0.19269033 0.056031074
-0.22120503 -0.19265863 0.056073315
-0.22142577 -0.19264083 0.055951711
-0.22164068 -0.19260371 0.055978842
-0.22181997 -0.1925787 0.055957638
-0.22205484 -0.19254522 0.055935144
-0.22226687 -0.19251701 0.055900022
-0.2224834 -0.19248669 0.055875279
-0.22267573 -0.19245118 0.055916298
-0.22289193 -0.19242688 0.055847742
-0.22309822 -0.19239688 0.055832237
-0.22330096 -0.19236761 0.055815585
-0.22350153 -0.19233757 0.055807013
-0.22370791 -0.19230992 0.055774216
-0.22390872 -0.19228016 0.055763334
-0.2240781 -0.19225214 0.055775598
-0.22427975 -0.19222492 0.055745114
-0.22446559 -0.19219339 0.05576425
-0.2246737 -0.19215654 0.055797152
-0.22488314 -0.19212027 0.055824306
-0.22507581 -0.1920938 0.055798456
-0.2252759 -0.19207059 0.055740312
-0.22546212 -0.19203947 0.055755988
-0.22566831 -0.19201484 0.055701282
-0.22586492 -0.1919862 0.055686962
-0.22607832 -0.19194774 0.055725619
-0.22627561 -0.19192605 0.055659413
-0.22650518 -0.1919014 0.055578142
-0.226733 -0.19186744 0.05556719
-0.22692955 -0.19183928 0.055549402
-0.22712258 -0.19180962 0.055546619
-0.22730409 -0.19178145 0.055546165
-0.22753195 -0.19175234 0.055499479
-0.2276929 -0.19171701 0.055575158
-0.22793789 -0.19169387 0.055465031
-0.22812714 -0.19166058 0.055493377
-0.22833794 -0.19163758 0.055421371
-0.22851536 -0.19161019 0.05541978
-0.22868979 -0.19157448 0.055482749
-0.22893327 -0.19154923 0.055389907
-0.22913323 -0.19152148 0.055365194
-0.22929361 -0.19149064 0.055408597
-0.22949907 -0.19146815 0.055338919
-0.22970591 -0.19143227 0.055366069
-0.22989824 -0.19141057 0.055305637
-0.23012491 -0.19137537 0.055305067
-0.23032084 -0.19134857 0.055278063
-0.23052184 -0.19131722 0.055278707
-0.23072705 -0.19129305 0.055221703
-0.23091398 -0.19125931 0.055255823
-0.23110905 -0.19122747 0.055266857
-0.23131169 -0.19120228 0.055220239
-0.23150004 -0.19117445 0.055209391
-0.23168987 -0.19114499 0.055208921
-0.23189749 -0.19112295 0.055133458
-0.23210321 -0.19109493 0.055104122
-0.23229794 -0.19106078 0.055132464
-0.23249246 -0.19103435 0.055104308
-0.23268436 -0.19100127 0.055128034
-0.2328916 -0.19098242 0.055029519
-0.23309211 -0.19095191 0.055024408
-0.23328352 -0.19092143 0.055029687
-0.23347692 -0.19089217 0.055023443
-0.23367044 -0.19086307 0.055016041
-0.23386577 -0.19083245 0.055017859
-0.23405199 -0.19079898 0.05505082
-0.23425916 -0.19077858 0.054963842
-0.23445204 -0.19074944 0.054957591
-0.23464382 -0.19071966 0.05495711
-0.23483768 -0.19069129 0.054943949
-0.23503184 -0.19066036 0.054949217
-0.23521823 -0.190633 0.054937229
-0.23541802 -0.19060589 0.054907907
-0.23561709 -0.19057845 0.054882046
-0.23579736 -0.19055313 0.054861993
-0.23600112 -0.19052024 0.054870706
-0.2361957 -0.19049302 0.054848317
-0.23639679 -0.19047341 0.054762505
-0.23659052 -0.19044286 0.054765478
-0.23677556 -0.19040927 0.054800749
-0.2369577 -0.19038586 0.054764558
-0.23716101 -0.19035931 0.054727148
-0.2373309 -0.19032101 0.054814342
-0.23754971 -0.19029975 0.054720417
-0.23773824 -0.19026892 0.05473147
-0.23793259 -0.19024251 0.054703314
-0.23811084 -0.19022331 0.054640621
-0.23828134 -0.19020484 0.054581396
-0.23849492 -0.19016761 0.054610826
-0.23870248 -0.19012895 0.054657578
-0.23889375 -0.19010067 0.054646723
-0.23906519 -0.19008347 0.05457712
-0.23927557 -0.1900472 0.054603111
-0.23946226 -0.1900223 0.054572675
-0.23966488 -0.1899935 0.054552563
