# .PCD v0.7 - Point Cloud Data file format
VERSION 0.7
FIELDS x y z
SIZE 4 4 4
TYPE F F F
COUNT 1 1 1
WIDTH 1288
HEIGHT 1
VIEWPOINT 0 0 0 1 0 0 0
POINTS 1288
DATA ascii
-0.22472401 -0.23725559 0.053184878
-0.22491017 -0.23726293 0.053205151
-0.22511379 -0.23727603 0.053189632
-0.22528678 -0.23729135 0.053145349
-0.22547542 -0.23730038 0.053154089
-0.22566317 -0.23731062 0.053153593
-0.22583817 -0.23732324 0.053130068
-0.22602947 -0.23733817 0.053096123
-0.22621894 -0.23735081 0.053078331
-0.22640577 -0.23736222 0.053068612
-0.22659771 -0.23737191 0.053073887
-0.22677551 -0.23738547 0.053044587
-0.22695145 -0.23739691 0.053030282
-0.22714841 -0.23741353 0.05298594
-0.22733016 -0.23741831 0.053023532
-0.22751962 -0.23742692 0.053035729
-0.22771242 -0.23744409 0.052985623
-0.22788826 -0.23745568 0.052970175
-0.22808452 -0.23746498 0.052980047
-0.22829254 -0.2374853 0.0529126
-0.22848412 -0.2375035 0.052854434
-0.22865844 -0.23750895 0.052883964
-0.22883394 -0.23751712 0.052893888
-0.22903059 -0.23752999 0.052877225
-0.22921841 -0.23754814 0.052817918
-0.22940718 -0.23756152 0.052794348
-0.22958378 -0.23757237 0.052784666
-0.2297609 -0.23758636 0.052751906
-0.2299563 -0.23758972 0.05280561
-0.23015641 -0.23759937 0.05281432
-0.23032793 -0.23761523 0.052765429
-0.23050188 -0.23762874 0.052734978
-0.23069386 -0.23763919 0.052734487
-0.23090273 -0.23763753 0.05283083
-0.23109771 -0.23765901 0.052749582
-0.23129387 -0.23767591 0.052702926
-0.23148157 -0.23768705 0.052695528
-0.23167512 -0.23769635 0.052704245
-0.2318476 -0.23771444 0.052639209
-0.23202041 -0.23772246 0.05264914
-0.23221388 -0.23773517 0.052632485
-0.2323909 -0.23774604 0.052622788
-0.23259129 -0.23776239 0.052581906
-0.23276192 -0.23778796 0.05246035
-0.23293501 -0.23779894 0.052448355
-0.23314361 -0.23779309 0.052575849
-0.23336083 -0.23779576 0.052643333
-0.23354593 -0.23781545 0.052571345
-0.23371825 -0.23783928 0.052463621
-0.23392144 -0.23784739 0.052485012
-0.23409688 -0.23785974 0.052463785
-0.23427574 -0.23787817 0.052398734
-0.23447832 -0.23788983 0.052393593
-0.23465957 -0.23789488 0.052428871
-0.2348541 -0.23790424 0.052437589
-0.23503765 -0.23791625 0.052422121
-0.2352314 -0.23793471 0.052362788
-0.23541614 -0.23794307 0.052374996
-0.2355971 -0.23795153 0.052384906
-0.23578483 -0.23796609 0.052352123
-0.23599856 -0.23798099 0.052327339
-0.23617986 -0.23799475 0.052298039
-0.23636968 -0.23799981 0.05233676
-0.23656805 -0.23801759 0.052284334
-0.23673803 -0.23803398 0.052230839
-0.23692894 -0.23804112 0.052254558
-0.23714402 -0.23803964 0.052352037
-0.23732595 -0.23804024 0.05242078
-0.23747584 -0.23807028 0.052257746
-0.237673 -0.2380787 0.052274533
-0.23788369 -0.23807822 0.052362807
-0.23809606 -0.2380794 0.052439537
-0.23829913 -0.23809184 0.052428626
-0.23844808 -0.23812447 0.052245993
-0.2386471 -0.23814927 0.052141659
-0.2388262 -0.23816709 0.052081216
-0.23901705 -0.238175 0.052099179
-0.23920144 -0.23818707 0.052083697
-0.23939613 -0.23820232 0.052048586
-0.23957495 -0.23821548 0.052022751
-0.23976418 -0.23822935 0.051995721
-0.23996709 -0.23824196 0.051983662
-0.24014433 -0.23825145 0.051984355
-0.2403325 -0.23826604 0.051951569
-0.24051525 -0.23827925 0.051926874
-0.2407212 -0.23828334 0.051979385
-0.24091507 -0.23830149 0.051922366
-0.24111532 -0.23831365 0.051912621
-0.24129593 -0.23831695 0.051960591
-0.24149138 -0.23832977 0.051943932
-0.2416795 -0.23834902 0.051876545
-0.24187505 -0.23836401 0.05184374
-0.24205309 -0.2383779 0.051812131
-0.24223161 -0.23838933 0.051798984
-0.24243562 -0.23839532 0.051836517
-0.24263799 -0.23840664 0.051833674
-0.24282587 -0.23842169 0.051797435
-0.24299639 -0.23843765 0.051747385
-0.24318992 -0.23844539 0.051767651
-0.24338338 -0.23845749 0.051755607
-0.24354933 -0.23848219 0.051638681
-0.2437361 -0.23848739 0.051675107
-0.24394539 -0.23849538 0.051699933
-0.24411654 -0.23851928 0.051591061
-0.24432425 -0.23852408 0.051638972
-0.24452542 -0.23853239 0.05165806
-0.24472295 -0.2385447 0.051646002
-0.24492991 -0.23855831 0.051628165
-0.24511796 -0.23856948 0.051620752
-0.24528909 -0.23859121 0.051528037
-0.24545678 -0.23860267 0.051510297
-0.24569508 -0.23860277 0.051605407
-0.24586228 -0.23862444 0.051511545
-0.24607173 -0.23863508 0.051516764
-0.24625537 -0.23864864 0.051489756
-0.24645588 -0.23865987 0.051486932
-0.24662966 -0.23867631 0.051434577
-0.24683173 -0.23868112 0.051480182
-0.24701512 -0.23869684 0.051437031
-0.2472041 -0.23870993 0.051415771
-0.24739273 -0.23871942 0.051421054
-0.24760963 -0.23872519 0.051465474
-0.24778786 -0.23874529 0.051387724
-0.24797744 -0.23876198 0.051339939
-0.2481728 -0.23877044 0.051355582
-0.24837729 -0.2387822 0.051350437
-0.24855366 -0.23880127 0.051279612
-0.24873646 -0.23880827 0.051301051
-0.24894397 -0.23881337 0.051346656
-0.24914697 -0.23882784 0.05132075
-0.2492952 -0.2388522 0.05119925
-0.24950206 -0.23885959 0.051227547
-0.2496866 -0.2388715 0.051213227
-0.24988417 -0.23888133 0.051219627
-0.25008139 -0.23889315 0.05121104
-0.25028414 -0.23890264 0.051222045
-0.25047934 -0.23891544 0.051205397
-0.25068119 -0.23892722 0.051199097
-0.25087398 -0.23894113 0.051173218
-0.25105622 -0.23895261 0.051161211
-0.25125182 -0.23896714 0.051131867
-0.25144085 -0.23897929 0.051117532
-0.25163129 -0.23899432 0.051082432
-0.25180945 -0.2390127 0.051017381
-0.25202 -0.23901951 0.05105143
-0.25222498 -0.23903207 0.051040515
-0.25240639 -0.23904584 0.051011205
-0.2526058 -0.23905405 0.051030293
-0.25279358 -0.23907034 0.050984822
-0.25298995 -0.2390832 0.050968163
-0.25317028 -0.23909752 0.050934244
-0.25338003 -0.23910026 0.050998285
-0.25357124 -0.23911858 0.050938971
-0.2537773 -0.2391295 0.050940741
-0.25395772 -0.23914878 0.050869904
-0.25416547 -0.2391559 0.050900511
-0.25437477 -0.23916575 0.050911497
-0.25456622 -0.23917928 0.050887931
-0.2547648 -0.23918855 0.050898947
-0.25495142 -0.23920399 0.050859246
-0.25514418 -0.23922348 0.050791841
-0.25535563 -0.23923282 0.050807439
-0.25554347 -0.23924631 0.050782733
-0.25574136 -0.23926082 0.050754532
-0.25593528 -0.23927526 0.050725192
-0.25613776 -0.23928659 0.050722361
-0.25633261 -0.23930232 0.050683789
-0.25652832 -0.23931314 0.050682124
-0.25672713 -0.23932444 0.050678141
-0.25693575 -0.23933533 0.050681066
-0.25712752 -0.23934469 0.050688639
-0.25732398 -0.23936003 0.050653525
-0.25752375 -0.23937123 0.050650697
-0.25772005 -0.23938067 0.050659411
-0.25788516 -0.2393996 0.050585166
-0.25804844 -0.23941314 0.050550133
-0.25828058 -0.23941927 0.050597973
-0.25849411 -0.23942748 0.050622795
-0.25871533 -0.23945241 0.050526474
-0.25891918 -0.23946258 0.050532866
-0.25908819 -0.23947582 0.050502438
-0.2592057 -0.23950207 0.050354496
-0.25946674 -0.23948728 0.050569501
-0.25966719 -0.23950906 0.050488241
-0.259839 -0.23953021 0.05040013
-0.26004747 -0.23953629 0.050438803
-0.26029137 -0.23954087 0.05050277
-0.26046109 -0.23957138 0.050344303
-0.2606746 -0.23958176 0.050352976
-0.26088706 -0.23959117 0.05036857
-0.26110026 -0.23960324 0.050364554
-0.26128775 -0.23961516 0.050351374
-0.26147911 -0.23962729 0.050338186
-0.26167244 -0.23964588 0.050277703
-0.26189163 -0.23965347 0.050309431
-0.26207417 -0.23966993 0.050260514
-0.26227823 -0.23968244 0.050249603
-0.26246059 -0.23969345 0.050241053
-0.26265645 -0.23970862 0.050207086
-0.26287016 -0.23972243 0.050190382
-0.2630614 -0.23973222 0.050194498
-0.26325682 -0.23974627 0.050168622
-0.26347807 -0.23975523 0.050191108
-0.26368749 -0.2397733 0.050140962
-0.16901016 -0.23757982 0.028363844
-0.16918229 -0.23758796 0.028372617
-0.16934854 -0.23759235 0.028406788
-0.16952324 -0.23759924 0.02842593
-0.16968083 -0.23760115 0.028475108
-0.16983961 -0.23760359 0.028520834
-0.17000042 -0.23760444 0.028579231
-0.1701604 -0.23760617 0.028630711
-0.17031229 -0.23760684 0.028686833
-0.17046553 -0.23760556 0.028757945
-0.17061809 -0.2376027 0.028840585
-0.170773 -0.23760214 0.028907076
-0.17092001 -0.23759928 0.02898743
-0.17107241 -0.23759626 0.02907123
-0.17121339 -0.2375906 0.029170044
-0.17135851 -0.23758547 0.029266551
-0.1715003 -0.23757876 0.029373452
-0.17164719 -0.23757435 0.029465333
-0.17178072 -0.23756501 0.029588401
-0.17191577 -0.237555 0.029717233
-0.17204933 -0.23754551 0.029841449
-0.17218503 -0.23753428 0.029979507
-0.17231753 -0.23752412 0.030108344
-0.17244643 -0.23751082 0.030259106
-0.17257744 -0.2374984 0.030404091
-0.16602911 -0.23347554 0.057676177
-0.16624013 -0.23348656 0.057679072
-0.16645387 -0.23349728 0.057685431
-0.16668485 -0.23351668 0.057634071
-0.16689843 -0.23352924 0.057626583
-0.16712502 -0.2335467 0.057587922
-0.16733748 -0.23355889 0.057582747
-0.16755334 -0.23357111 0.057578713
-0.16776472 -0.23358294 0.057575852
-0.16798224 -0.23359619 0.057564896
-0.16820371 -0.23361337 0.057526246
-0.16842581 -0.23362918 0.057497974
-0.16863254 -0.23364076 0.057495121
-0.16883712 -0.23365128 0.057499193
-0.16906489 -0.23367222 0.057435147
-0.16928026 -0.23367944 0.057468034
-0.16950324 -0.23369811 0.057418995
-0.16969913 -0.23371358 0.057382721
-0.16991799 -0.23373032 0.057346389
-0.17014205 -0.23373507 0.057401165
-0.17037012 -0.23375696 0.057330199
-0.17058191 -0.23376834 0.057330795
-0.17079414 -0.23378192 0.057315234
-0.17100906 -0.23379518 0.057303134
-0.17121527 -0.23380563 0.057308353
-0.17144012 -0.23382455 0.057258159
-0.17165434 -0.23383963 0.057232223
-0.17186384 -0.23385026 0.057237431
-0.17206936 -0.23386069 0.057242654
-0.17228499 -0.2338749 0.057223633
-0.1725066 -0.23389459 0.057166532
-0.17271271 -0.23390363 0.057182133
-0.1729266 -0.23391916 0.057152733
-0.17310706 -0.23393147 0.057133794
-0.17335229 -0.23395135 0.057084706
-0.17352532 -0.23396356 0.057063486
-0.17372853 -0.23396128 0.057162143
-0.17398334 -0.2339851 0.057087652
-0.1741986 -0.2340021 0.057047859
-0.17441684 -0.23401895 0.057010379
-0.17462155 -0.23402993 0.057010993
-0.17483047 -0.23404147 0.057009283
-0.17503546 -0.23405279 0.057007588
-0.17524722 -0.23406619 0.056993186
-0.17546007 -0.23408243 0.05695802
-0.17568149 -0.23410194 0.056902066
-0.17588566 -0.23411104 0.056916527
-0.17609389 -0.23412269 0.05691367
-0.17631027 -0.23414162 0.056860041
-0.17651978 -0.23415427 0.056850255
-0.1767251 -0.23416871 0.056825493
-0.17691223 -0.23418045 0.056813464
-0.17713225 -0.23420005 0.056756362
-0.1773569 -0.23420964 0.056775369
-0.1775634 -0.23422305 0.056758683
-0.17775635 -0.23422566 0.056816999
-0.17796442 -0.23424025 0.056792222
-0.17817423 -0.23425384 0.056775525
-0.17838207 -0.23427075 0.056733444
-0.17859599 -0.23428504 0.056713268
-0.17878875 -0.23429678 0.056703534
-0.17902319 -0.23431808 0.056639478
-0.17922452 -0.2343289 0.0566401
-0.17942922 -0.23433973 0.056641862
-0.17963779 -0.23435558 0.056607865
-0.17984466 -0.2343681 0.056598086
-0.18005873 -0.23438798 0.056536391
-0.18023644 -0.23438059 0.056662798
-0.18046279 -0.23440921 0.056541093
-0.18067339 -0.23442471 0.056510538
-0.18087672 -0.23443764 0.056496158
-0.18109144 -0.23445633 0.056443691
-0.18128827 -0.23446487 0.056459319
-0.18149295 -0.23447664 0.056454163
-0.18168199 -0.2344871 0.056452505
-0.18190794 -0.23450452 0.056413848
-0.18210712 -0.23451506 0.056415625
-0.18231148 -0.23452696 0.056409322
-0.18251814 -0.23454319 0.056371868
-0.18272154 -0.23455457 0.056369025
-0.18292648 -0.23456977 0.056338485
-0.18313713 -0.23458683 0.056296408
-0.18332472 -0.23458913 0.056354735
-0.18353118 -0.2346058 0.056313824
-0.1837309 -0.23461746 0.056307524
-0.1839415 -0.23463762 0.05624238
-0.1841532 -0.23465085 0.056229129
-0.18435635 -0.23466285 0.056221668
-0.18455592 -0.23467481 0.056213066
-0.18475693 -0.23468529 0.056215998
-0.18495254 -0.23469424 0.056228168
-0.18516904 -0.23471735 0.056143396
-0.18535772 -0.23473197 0.056110598
-0.1855702 -0.23474944 0.056066208
-0.18575437 -0.23475218 0.056119934
-0.18598114 -0.23477043 0.056075506
-0.18617646 -0.23477967 0.05608537
-0.18637161 -0.2347917 0.05607447
-0.18658862 -0.2348108 0.056019686
-0.1867888 -0.23482156 0.056020312
-0.18697855 -0.23482925 0.056039415
-0.18718736 -0.23484465 0.056008875
-0.18738951 -0.23485738 0.055995651
-0.1875893 -0.23486809 0.055996276
-0.18779463 -0.23488688 0.055939212
-0.18796678 -0.23489751 0.05592953
-0.18817924 -0.23490457 0.055962425
-0.18839711 -0.2349228 0.055914558
-0.1885675 -0.23493208 0.055914097
-0.18877003 -0.23495537 0.055822443
-0.18896836 -0.2349623 0.055850752
-0.18918657 -0.23497511 0.055843256
-0.18940452 -0.23499428 0.055788469
-0.1896117 -0.23501316 0.055731401
-0.18980202 -0.23501593 0.055787414
-0.18999474 -0.235021 0.055827279
-0.1901989 -0.23504063 0.055763301
-0.19038592 -0.23504013 0.055842392
-0.19059336 -0.23506679 0.055727653
-0.19079733 -0.23507649 0.055737495
-0.19100118 -0.23509659 0.05567006
-0.19119936 -0.23511112 0.055641849
-0.19137543 -0.23511341 0.055695597
-0.19155654 -0.23513165 0.055632837
-0.19177344 -0.2351447 0.055623032
-0.19195439 -0.23515223 0.055639863
-0.19218794 -0.23517241 0.055583879
-0.19239488 -0.23518616 0.055564869
-0.19256887 -0.23519377 0.055578254
-0.19278675 -0.23520471 0.055584595
-0.19293225 -0.23519571 0.055709939
-0.19314104 -0.23523502 0.055501763
-0.19337982 -0.2352429 0.055539198
-0.19353643 -0.23524646 0.055575691
-0.19369593 -0.23524942 0.055617947
-0.19395541 -0.23528573 0.055452321
-0.19416852 -0.23529175 0.05549328
-0.1943569 -0.23530497 0.055470869
-0.19454452 -0.23532574 0.055391937
-0.19476476 -0.2353323 0.055431731
-0.19496614 -0.23535366 0.055353917
-0.1951367 -0.2353493 0.055454966
-0.1953515 -0.23537511 0.055349432
-0.19555844 -0.2353912 0.055313133
-0.19574764 -0.23539762 0.055341464
-0.19594504 -0.23541039 0.055325951
-0.1961439 -0.23542525 0.055295438
-0.19633918 -0.23543543 0.055298381
-0.19652662 -0.2354537 0.055237904
-0.19673315 -0.23546076 0.055268496
-0.19692603 -0.23547266 0.055257611
-0.19712709 -0.23549153 0.055198252
-0.19732054 -0.23549958 0.055216197
-0.19751897 -0.23551504 0.055181067
-0.19770434 -0.23552142 0.055208258
-0.1978911 -0.235535 0.055182397
-0.19810787 -0.23555814 0.055097613
-0.19828987 -0.23556478 0.055121355
-0.19846724 -0.23557492 0.055117428
-0.1986713 -0.23557858 0.055172257
-0.19888197 -0.23559843 0.055109411
-0.19907849 -0.23561224 0.055085823
-0.19927585 -0.23563339 0.055008017
-0.19947124 -0.23564573 0.054994818
-0.19966516 -0.23565567 0.054998919
-0.19985722 -0.2356624 0.055026092
-0.20003892 -0.2356751 0.05500485
-0.20023465 -0.23569475 0.054937437
-0.20043184 -0.23570487 0.054941528
-0.2006364 -0.23571602 0.05494098
-0.20082763 -0.23572798 0.05492894
-0.20102198 -0.2357395 0.054921512
-0.20121901 -0.23575644 0.054874849
-0.20141341 -0.23576842 0.05486396
-0.20159619 -0.23577775 0.054868087
-0.20180298 -0.23579445 0.054827165
-0.20199321 -0.23580527 0.054823205
-0.20218414 -0.23581025 0.054863073
-0.20238101 -0.23582841 0.054807182
-0.20257625 -0.23584324 0.054775529
-0.20276697 -0.23585579 0.054758869
-0.20296098 -0.23586822 0.054744523
-0.20315403 -0.23587842 0.054746315
-0.20334435 -0.23589049 0.054733127
-0.20353976 -0.23590703 0.054688778
-0.20372131 -0.2359146 0.054705594
-0.20392692 -0.23593138 0.054663539
-0.20412031 -0.23594332 0.054652642
-0.20431408 -0.2359565 0.054632518
-0.20450923 -0.23597395 0.054581247
-0.20468254 -0.23597796 0.05462116
-0.2048898 -0.23599096 0.054607932
-0.20505868 -0.23600249 0.054590181
-0.20525046 -0.2360103 0.05460928
-0.20544405 -0.23602425 0.054583397
-0.20560735 -0.23602895 0.054614104
-0.2058342 -0.23605125 0.054539684
-0.206046 -0.23606992 0.054486066
-0.20623502 -0.23608099 0.0544798
-0.20639952 -0.23609072 0.054473594
-0.20659924 -0.23610361 0.054458074
-0.20679463 -0.23611301 0.054466788
-0.20700528 -0.23612899 0.054432776
-0.20718414 -0.23614214 0.054406933
-0.20736998 -0.23615615 0.054377601
-0.20755196 -0.23616838 0.054359816
-0.20772557 -0.23617303 0.054395117
-0.20791088 -0.23618498 0.054380782
-0.2081535 -0.23620953 0.054295946
-0.20834443 -0.23621418 0.05433812
-0.20850697 -0.23621327 0.05441035
-0.20869404 -0.23623943 0.054291051
-0.20892209 -0.23626395 0.054200482
-0.20910907 -0.2362639 0.054276116
-0.2092979 -0.23628038 0.054229476
-0.20947154 -0.23628394 0.054272853
-0.2096426 -0.23629698 0.054244719
-0.20984147 -0.236312 0.054213047
-0.21004701 -0.23632413 0.054205578
-0.21025605 -0.23633784 0.054187726
-0.2104407 -0.23635101 0.054164164
-0.21063232 -0.23636687 0.054123294
-0.21082719 -0.23637842 0.054115854
-0.21100809 -0.23638688 0.054125763
-0.21119249 -0.23640002 0.054102205
-0.21138726 -0.23641373 0.05407862
-0.21158208 -0.23642124 0.054101169
-0.21176623 -0.23643841 0.054047629
-0.21195036 -0.23645185 0.054021765
-0.21214825 -0.23646806 0.053980876
-0.21233927 -0.23648033 0.053966526
-0.21252376 -0.23648494 0.054006409
-0.2127146 -0.23649937 0.053975917
-0.21291214 -0.23651603 0.05393156
-0.21310653 -0.23652785 0.053921822
-0.21330483 -0.2365354 0.053945512
-0.21348876 -0.23654696 0.053933501
-0.21365792 -0.2365644 0.053871922
-0.21386343 -0.23657048 0.053909443
-0.21405444 -0.23658088 0.053908929
-0.21423291 -0.23660424 0.053806961
-0.21442446 -0.23661049 0.053837597
-0.21461141 -0.23662347 0.053816341
-0.2148084 -0.2366387 0.053782374
-0.21501362 -0.23664723 0.05380144
-0.2151635 -0.23665214 0.053825263
-0.21534249 -0.23666902 0.053771727
-0.21553661 -0.23668037 0.053765446
-0.21573177 -0.23670232 0.053680729
-0.21594006 -0.23671274 0.053687103
-0.21611392 -0.23672035 0.053700477
-0.21629784 -0.23673005 0.053702302
-0.21650726 -0.23673666 0.053737503
-0.2167117 -0.23676097 0.053638928
-0.21686611 -0.23677497 0.053596988
-0.21707138 -0.23678367 0.053614903
-0.21726219 -0.23679376 0.053616703
-0.21744335 -0.23680098 0.053635836
-0.21764059 -0.23682351 0.053547654
-0.21781853 -0.23682979 0.053572558
-0.2179952 -0.23684981 0.053494804
-0.21818033 -0.23686548 0.053452797
-0.21839443 -0.23686969 0.053507593
-0.21857509 -0.23687844 0.053515196
-0.21877281 -0.2368889 0.053516973
-0.21894927 -0.23689945 0.053509589
-0.2191626 -0.2369151 0.053479031
-0.21934086 -0.23692961 0.05344281
-0.21950476 -0.23693621 0.05345967
-0.21969974 -0.23695289 0.053414173
-0.21990134 -0.23696263 0.053422868
-0.22009212 -0.23698792 0.053311631
-0.22027877 -0.23699901 0.053304221
-0.22046331 -0.2370072 0.053317569
-0.2206292 -0.23701003 0.053363279
-0.22084007 -0.23702973 0.053301584
-0.22103226 -0.23704393 0.053273395
-0.22121063 -0.23705053 0.053295989
-0.22139885 -0.23706545 0.053260885
-0.22158784 -0.23707885 0.053237323
-0.22178939 -0.23708889 0.053243712
-0.2219709 -0.23710281 0.053213242
-0.22216386 -0.23710929 0.053242717
-0.22233681 -0.23711343 0.053281479
-0.2225512 -0.23713814 0.053184025
-0.22274609 -0.23715341 0.053148903
-0.22291796 -0.23715951 0.05317267
-0.22310105 -0.2371763 0.053121433
-0.22329485 -0.23718747 0.053116307
-0.2234977 -0.23720132 0.053095009
-0.22368293 -0.23720925 0.053110667
-0.22385916 -0.2372252 0.053062916
-0.2240558 -0.23723234 0.053088918
-0.22425286 -0.2372544 0.053004198
-0.22442257 -0.23726907 0.05296338
-0.22460249 -0.23727949 0.052958287
-0.22479297 -0.23728536 0.052991237
-0.22497268 -0.23730105 0.052946925
-0.22516085 -0.23731022 0.05295451
-0.22535886 -0.23731603 0.052990898
-0.22554696 -0.2373348 0.052926961
-0.22574523 -0.23734049 0.052964501
-0.22593985 -0.23735094 0.052965138
-0.22613212 -0.23735535 0.053009607
-0.22630484 -0.23737501 0.052933022
-0.2264971 -0.23738842 0.052910604
-0.2266954 -0.23740326 0.052880093
-0.22688356 -0.23742142 0.052820764
-0.22705263 -0.23742783 0.052841082
-0.22724482 -0.23744124 0.052818663
-0.22743994 -0.23745544 0.052791618
-0.22762556 -0.23747207 0.052742682
-0.22781193 -0.23748377 0.052730657
-0.22799352 -0.23749273 0.052737094
-0.22816826 -0.2375052 0.052714709
-0.22835383 -0.2375139 0.052724607
-0.22855741 -0.23752685 0.052710228
-0.22877166 -0.23753636 0.052725803
-0.22895166 -0.23754725 0.052717261
-0.22913852 -0.23756239 0.052679852
-0.22933866 -0.23757887 0.052637797
-0.22952372 -0.23758475 0.052668449
-0.22972116 -0.23760389 0.052605648
-0.22989409 -0.23761456 0.052595966
-0.23006991 -0.23762956 0.052555121
-0.2302532 -0.23763737 0.052570783
-0.23045966 -0.23765126 0.05255064
-0.23062907 -0.2376653 0.052514434
-0.23083583 -0.2376823 0.052471202
-0.23100251 -0.23769198 0.052466154
-0.23120911 -0.23770572 0.052447144
-0.23136833 -0.23771222 0.05246288
-0.231567 -0.23771994 0.052485421
-0.23176861 -0.23773821 0.052430674
-0.23195674 -0.23774877 0.052427873
-0.23215233 -0.23775616 0.052451581
-0.23232634 -0.23777573 0.052376144
-0.23252855 -0.23778705 0.052373305
-0.23269853 -0.23780049 0.052341715
-0.23284271 -0.23782915 0.052186765
-0.23305246 -0.2378342 0.052233502
-0.23324962 -0.23784059 0.052265283
-0.23344685 -0.23784405 0.052318968
-0.2336297 -0.23785618 0.052302342
-0.23383082 -0.23787163 0.052268356
-0.23401794 -0.23788632 0.052234411
-0.23420991 -0.2378943 0.05225236
-0.23440894 -0.23790561 0.05224837
-0.23458794 -0.23792653 0.052164853
-0.23475954 -0.23793587 0.052164398
-0.23495334 -0.2379427 0.05219157
-0.23514128 -0.23795402 0.052182999
-0.23532555 -0.23796809 0.052152522
-0.23550861 -0.23798303 0.052115131
-0.23570469 -0.23799123 0.052133061
-0.2358927 -0.23800534 0.052103732
-0.23608765 -0.2380172 0.052093983
-0.23629248 -0.23802479 0.052119978
-0.23646569 -0.23803608 0.052105673
-0.23664327 -0.23805492 0.052037157
-0.23682906 -0.23806798 0.052014742
-0.23699553 -0.23808651 0.051943943
-0.2371899 -0.23809631 0.051949199
-0.2373835 -0.23810671 0.05194984
-0.23757257 -0.23812275 0.051906668
-0.23773141 -0.23814365 0.051815122
-0.23793893 -0.23813991 0.051926456
-0.23815669 -0.23813222 0.052071214
-0.23834382 -0.23815466 0.051979598
-0.23851423 -0.23817791 0.051875338
-0.23870715 -0.23819153 0.051851757
-0.23891935 -0.2381978 0.051890418
-0.23908922 -0.23821637 0.051820759
-0.23926713 -0.23822746 0.051809903
-0.23946719 -0.23823912 0.051803611
-0.23966657 -0.2382489 0.051811155
-0.23984331 -0.23826317 0.051776089
-0.24003391 -0.23827371 0.051774427
-0.24023215 -0.23828202 0.051792361
-0.24041 -0.2382911 0.0517965
-0.24059871 -0.23831441 0.051699121
-0.24076653 -0.23834309 0.051553339
-0.24091803 -0.23836981 0.051415674
-0.24110334 -0.23837447 0.051455557
-0.24135484 -0.23836118 0.051655594
-0.24154115 -0.23837008 0.05166433
-0.24173254 -0.23838501 0.051630378
-0.24193402 -0.23839644 0.051626377
-0.24211533 -0.2384105 0.05159476
-0.24231519 -0.23842077 0.051598843
-0.24251182 -0.23843287 0.051587939
-0.24268231 -0.23844868 0.051539041
-0.24288376 -0.23845609 0.051565047
-0.2430753 -0.23846047 0.05160952
-0.24326238 -0.23847795 0.051554814
-0.24343964 -0.23849644 0.051488593
-0.24362123 -0.23851052 0.051456977
-0.24381742 -0.23852105 0.05145761
-0.24400611 -0.2385335 0.051440969
-0.24417765 -0.23854673 0.051411673
-0.24438146 -0.23855549 0.051428434
-0.24460681 -0.23856342 0.051460132
-0.24479175 -0.23857598 0.051441193
-0.24497807 -0.23859186 0.051398024
-0.2451776 -0.23860909 0.051350206
-0.24533904 -0.23861758 0.051352087
-0.2455191 -0.23863266 0.051312394
-0.24572673 -0.23864195 0.051326834
-0.24591176 -0.23865855 0.051277902
-0.24609858 -0.23866841 0.051279716
-0.24629223 -0.23868082 0.051265363
-0.24646482 -0.23869766 0.051209543
-0.24665588 -0.23870946 0.051198654
-0.2468437 -0.23872094 0.051188931
-0.24705052 -0.23872724 0.051225297
-0.24723518 -0.23874412 0.05117406
-0.24742813 -0.23875898 0.051141247
-0.24764439 -0.23876487 0.051184513
-0.24784084 -0.2387782 0.051164381
-0.24802627 -0.23878737 0.051170811
-0.2481955 -0.23880216 0.051128834
-0.24838629 -0.23882 0.05107297
-0.248588 -0.23882742 0.051098961
-0.24877997 -0.23884115 0.051074233
-0.24896528 -0.23885605 0.051037986
-0.24914576 -0.23887131 0.050997142
-0.24934171 -0.23887794 0.051026609
-0.24953771 -0.23888645 0.051042236
-0.24971394 -0.23890722 0.050958727
-0.24992144 -0.23891789 0.050962791
-0.25012216 -0.23892277 0.051007252
-0.25031573 -0.23893611 0.05098597
-0.25051045 -0.23895246 0.050942779
-0.25068617 -0.23896994 0.050883494
-0.25084186 -0.23899068 0.050791956
-0.25107765 -0.23898289 0.050944746
-0.25125885 -0.23900501 0.050853144
-0.25145251 -0.2390185 0.050830714
-0.2516439 -0.23902954 0.050825588
-0.2518324 -0.23904353 0.05079741
-0.25203589 -0.23905648 0.050783031
-0.2522296 -0.23906843 0.050772138
-0.25243017 -0.23907764 0.050784297
-0.25262082 -0.23908927 0.050774567
-0.25280175 -0.23910315 0.050744101
-0.2529906 -0.23911887 0.050703224
-0.25319678 -0.23913103 0.050695766
-0.25340453 -0.23914266 0.050692908
-0.25357822 -0.23915786 0.050649773
-0.25377625 -0.23916849 0.050650403
-0.25398174 -0.23917952 0.050651014
-0.2541689 -0.23920089 0.050567467
-0.25436538 -0.23921067 0.050573871
-0.25456545 -0.23921752 0.050603334
-0.25477123 -0.23922393 0.050638542
-0.25492677 -0.23924775 0.050523944
-0.25513685 -0.23925424 0.050560292
-0.25534397 -0.23926349 0.050574746
-0.25553274 -0.23928277 0.050507337
-0.2557306 -0.23929557 0.050491825
-0.25593632 -0.23930709 0.050488975
-0.25611305 -0.23931997 0.050464284
-0.2563464 -0.23932926 0.050489046
-0.25652689 -0.23934856 0.050418202
-0.25671947 -0.2393589 0.050418846
-0.25692433 -0.23936339 0.050467905
-0.25711995 -0.23938645 0.050375119
-0.25729805 -0.23939754 0.05036426
-0.2575047 -0.23940615 0.050383322
-0.2577025 -0.23942097 0.050352812
-0.2579236 -0.23942618 0.050402977
-0.25809813 -0.23944919 0.050302166
-0.25825873 -0.23946802 0.050226774
-0.25846261 -0.23947789 0.050235454
-0.25868982 -0.23948576 0.050268311
-0.25890985 -0.23949324 0.050301176
-0.25910312 -0.23950842 0.050266057
-0.25929877 -0.23952575 0.050215948
-0.2595064 -0.23953907 0.050200399
-0.25969738 -0.23955366 0.050168753
-0.25989017 -0.23956479 0.05016363
-0.26008129 -0.23957364 0.050174665
-0.26027015 -0.23958905 0.050136097
-0.26045701 -0.23959799 0.050144833
-0.26066545 -0.23961136 0.050129279
-0.26086503 -0.23962766 0.050088387
-0.26109403 -0.23963733 0.050108545
-0.26124397 -0.23965977 0.050002027
-0.2614494 -0.23966585 0.050039545
-0.26169574 -0.23967585 0.050064277
-0.26187032 -0.23969467 0.049994607
-0.2620424 -0.23971149 0.049938787
-0.26225823 -0.23972154 0.049950909
-0.26250297 -0.23972958 0.049989469
-0.26269022 -0.2397418 0.04997398
-0.26291493 -0.23975761 0.049946859
-0.26310179 -0.23977415 0.049899071
-0.26331005 -0.23978007 0.049938895
-0.26352328 -0.23978594 0.049981005
-0.26368943 -0.23981158 0.049857151
-0.1689977 -0.23754741 0.028599793
-0.16915777 -0.23755024 0.028643185
-0.16931455 -0.23755164 0.028695825
-0.16947658 -0.23755535 0.028733455
-0.16963005 -0.23755658 0.028786093
-0.16978641 -0.23755655 0.02884911
-0.16993797 -0.23755442 0.028925974
-0.17009112 -0.23755422 0.028988998
-0.17024352 -0.23755369 0.029054325
-0.17038921 -0.23755014 0.029139273
-0.17053264 -0.23754553 0.029231153
-0.1706802 -0.23754148 0.029320713
-0.17082512 -0.23753619 0.029418351
-0.17096423 -0.23752949 0.029524069
-0.1711058 -0.23752385 0.029622873
-0.1712371 -0.23751348 0.029752834
-0.17137301 -0.23750383 0.029879324
-0.17150609 -0.23749541 0.029995434
-0.17163482 -0.23748225 0.030145006
-0.17176117 -0.23746789 0.030302662
-0.17188436 -0.23745458 0.030451089
-0.17200717 -0.23743831 0.030621428
-0.17214617 -0.2374268 0.030762907
-0.16522452 -0.23346482 0.057432193
-0.16546692 -0.23347911 0.057423484
-0.16569443 -0.23349135 0.057424039
-0.165905 -0.23350219 0.057428107
-0.16611463 -0.23351438 0.057421789
-0.16633615 -0.23352908 0.057401605
-0.16654687 -0.23354025 0.057403363
-0.16677344 -0.23355941 0.057352033
-0.1669796 -0.23356847 0.057367638
-0.16719805 -0.23358378 0.057341695
-0.1674135 -0.23359768 0.057324994
-0.16763046 -0.23361245 0.057302512
-0.16785581 -0.23362984 0.057263874
-0.16806044 -0.2336385 0.057281781
-0.16826966 -0.23364958 0.057283543
-0.1684975 -0.23367037 0.057220686
-0.16869864 -0.23367745 0.05724898
-0.16889295 -0.23368461 0.057273842
-0.1691478 -0.23371448 0.057154402
-0.16936426 -0.23372982 0.057127312
-0.16957237 -0.23374271 0.057115238
-0.16978443 -0.2337541 0.057115845
-0.17000023 -0.23376943 0.057088755
-0.17020905 -0.23378111 0.057085898
-0.17042635 -0.23379745 0.05705189
-0.17063957 -0.23381169 0.057031728
-0.17089729 -0.23385024 0.056848858
-0.17107895 -0.23384756 0.056941792
-0.17128277 -0.2338551 0.05696778
-0.17148516 -0.23386379 0.056984544
-0.17169335 -0.23387575 0.056979388
-0.17191373 -0.23389457 0.056928076
-0.17212245 -0.23390703 0.056919463
-0.17232229 -0.2339204 0.056900483
-0.17252079 -0.23392531 0.056943789
-0.17270452 -0.23394339 0.056883343
-0.17296392 -0.23395953 0.05686767
-0.17316908 -0.23397039 0.056869444
-0.17338985 -0.23399033 0.056810051
-0.17359345 -0.23400047 0.056816444
-0.17380399 -0.23401473 0.056795139
-0.17401841 -0.23403138 0.056757677
-0.17422709 -0.23404275 0.05675713
-0.17440975 -0.23404695 0.056799319
-0.17464103 -0.23406777 0.056737602
-0.17485061 -0.23408197 0.056716289
-0.17506321 -0.23409604 0.056697287
-0.17527352 -0.23411091 0.056671374
-0.17546591 -0.23411502 0.056718141
-0.17568152 -0.23413327 0.056669153
-0.17589617 -0.23414899 0.05663861
-0.17610766 -0.23416501 0.056604616
-0.17630957 -0.23417524 0.056609854
-0.17652614 -0.23419464 0.056552783
-0.17673069 -0.23420453 0.056561474
-0.17694244 -0.23422118 0.056522857
-0.17714052 -0.23422933 0.056541942
-0.17735402 -0.23424731 0.056494109
-0.17755005 -0.2342521 0.05653742
-0.17777079 -0.23427498 0.056456126
-0.17797887 -0.23428988 0.056429058
-0.1781745 -0.23429681 0.056456216
-0.1783835 -0.23431921 0.056373801
-0.17858313 -0.23432216 0.056432091
-0.17880003 -0.23433879 0.056395773
-0.17902146 -0.23436309 0.056304097
-0.17921641 -0.23436767 0.056348562
-0.17941821 -0.23437913 0.056344576
-0.17962283 -0.23439027 0.05634404
-0.17982435 -0.2344017 0.05634005
-0.18002772 -0.23441449 0.056326829
-0.18022776 -0.23442507 0.056328613
-0.18043505 -0.23443837 0.056313083
-0.18064497 -0.23445602 0.056266408
-0.18085572 -0.23447199 0.056232415
-0.18106018 -0.23448607 0.056209974
-0.18125373 -0.2344901 0.056257904
-0.18147463 -0.23451608 0.056153543
-0.18168247 -0.23453051 0.056129936
-0.18187971 -0.23453985 0.056139797
-0.18209116 -0.23455711 0.056096572
-0.18229343 -0.23457029 0.056079905
-0.182494 -0.23457983 0.056089759
-0.18269509 -0.23459233 0.056077704
-0.18290062 -0.2346057 0.056061018
-0.18310165 -0.23461835 0.056047812
-0.18330842 -0.23463286 0.056023046
-0.18349883 -0.23463765 0.056064066
-0.18370022 -0.23465607 0.05600819
-0.18389593 -0.23466238 0.056039967
-0.18410489 -0.23468167 0.055980608
-0.18431309 -0.23469254 0.055983521
-0.18451408 -0.23470318 0.055985302
-0.18471886 -0.2347196 0.055945568
-0.18492624 -0.23473555 0.055910431
-0.18512689 -0.23474896 0.05589145
-0.18533206 -0.2347634 0.0558667
-0.18552651 -0.23477197 0.055881187
-0.18573666 -0.2347907 0.05582644
-0.18593389 -0.23480175 0.055823613
-0.18613346 -0.23481201 0.055827707
-0.18632707 -0.23482876 0.05578107
-0.18653792 -0.23484008 0.055781677
-0.18673281 -0.2348524 0.055768479
-0.18693963 -0.23486631 0.055748343
-0.18712604 -0.23487738 0.055740934
-0.1873156 -0.23488833 0.055735826
-0.18753342 -0.23490624 0.055690277
-0.18772838 -0.23491314 0.055717446
-0.18793988 -0.23493178 0.05566385
-0.18814184 -0.23494512 0.055646025
-0.1883375 -0.23495592 0.055644363
-0.18851265 -0.2349605 0.055680797
-0.18874489 -0.23498634 0.055582181
-0.18894434 -0.23499781 0.055577047
-0.18913798 -0.23500712 0.055585764
-0.18934038 -0.23502156 0.055559862
-0.18954194 -0.23503858 0.055514365
-0.18970963 -0.23506245 0.055404384
-0.18991446 -0.2350567 0.055529539
-0.19013685 -0.23507455 0.055486292
-0.19032568 -0.23508297 0.055499628
-0.19050446 -0.23510852 0.05538154
-0.19073451 -0.23512788 0.055330206
-0.19092178 -0.23512474 0.055428885
-0.19112699 -0.23513979 0.055399522
-0.19131869 -0.23514806 0.055415165
-0.19150488 -0.23515774 0.055418134
-0.19172062 -0.23517708 0.055361062
-0.19191517 -0.23518862 0.055353645
-0.19211701 -0.23520441 0.055317365
-0.19231299 -0.23521772 0.055297248
-0.19250226 -0.2352313 0.055272534
-0.19268626 -0.23523913 0.055288207
-0.19289483 -0.23524787 0.055307262
-0.19307928 -0.23526396 0.055261809
-0.19323066 -0.23526584 0.055308685
-0.19347727 -0.23529106 0.055220407
-0.19365944 -0.23530501 0.055189945
-0.19384621 -0.2353445 0.054971516
-0.1940572 -0.23534079 0.055083971
-0.19428442 -0.23535223 0.055090293
-0.1944702 -0.23535056 0.05517745
-0.19466509 -0.23536831 0.055123892
-0.19486447 -0.23537917 0.05512337
-0.19505717 -0.23539029 0.055118255
-0.19524662 -0.23540169 0.055109687
-0.19542949 -0.23541786 0.055063091
-0.19565599 -0.23544228 0.054972552
-0.19585042 -0.23545179 0.05498011
-0.19602627 -0.23546834 0.054927759
-0.19621907 -0.23547125 0.054983757
-0.1964324 -0.23548348 0.05497859
-0.19662176 -0.23549566 0.054964256
-0.19681706 -0.23550195 0.054996032
-0.19700044 -0.23551551 0.054969039
-0.19720751 -0.23552896 0.05495235
-0.19739953 -0.23554049 0.054943778
-0.19759353 -0.2355551 0.054913282
-0.19779137 -0.23557052 0.054878175
-0.1979638 -0.23557867 0.054886945
-0.19817108 -0.23559321 0.05486219
-0.19834581 -0.23560506 0.054844435
-0.19854538 -0.23561856 0.054824315
-0.19876353 -0.2356292 0.054832961
-0.19895518 -0.2356412 0.054820932
-0.19915557 -0.23566219 0.054745458
-0.19933943 -0.23567298 0.054739214
-0.19953983 -0.23568296 0.054745607
-0.19973435 -0.23569465 0.054737028
-0.19991848 -0.23570623 0.054725014
-0.20010504 -0.23572227 0.054680705
-0.2002691 -0.23573494 0.054652601
-0.20046671 -0.23575298 0.054597884
-0.20068151 -0.23574576 0.054738004
-0.20084138 -0.23575726 0.054716833
-0.2010836 -0.23578952 0.054574363
-0.20127854 -0.23578976 0.054651108
-0.20147398 -0.23581156 0.054567579
-0.20166165 -0.23581776 0.054597069
-0.20184928 -0.23582378 0.054627717
-0.20204765 -0.23583816 0.054600671
-0.20223759 -0.23584928 0.054594412
-0.20243788 -0.23586841 0.054532774
-0.20263404 -0.23588638 0.054478057
-0.20282812 -0.2358999 0.054455638
-0.2030165 -0.23590814 0.05447014
-0.20320833 -0.23591641 0.054485783
-0.20340265 -0.23593102 0.054455288
-0.20357864 -0.23594278 0.054438688
-0.20377669 -0.23595868 0.05440012
-0.20397961 -0.23596959 0.054400738
-0.20417348 -0.23598401 0.054371405
-0.2043623 -0.23599415 0.054372068
-0.20455331 -0.23600067 0.054400399
-0.204743 -0.23601349 0.054381445
-0.20493783 -0.23603185 0.054323278
-0.20512764 -0.23604576 0.054296266
-0.20532426 -0.23605973 0.054271538
-0.2055124 -0.23606858 0.054281417
-0.20569795 -0.23608038 0.054268256
-0.20587091 -0.23609662 0.054217063
-0.20608109 -0.23611118 0.054193448
-0.20627771 -0.23611335 0.05425635
-0.20644586 -0.23612514 0.054236315
-0.20662895 -0.23614225 0.054182786
-0.20682998 -0.23616329 0.054107308
-0.20702374 -0.23616764 0.054152928
-0.20723709 -0.23618297 0.054124698
-0.20742536 -0.236194 0.054118443
-0.2076167 -0.23620318 0.054127164
-0.20780887 -0.23621707 0.054101288
-0.20799989 -0.23622452 0.054122701
-0.208178 -0.23623747 0.054098018
-0.20834161 -0.23624638 0.054097593
-0.20850889 -0.2362569 0.054086775
-0.20870931 -0.23628332 0.05397094
-0.20891097 -0.23629415 0.053971559
-0.20913337 -0.23630518 0.053979058
-0.20933178 -0.23631845 0.053960092
-0.20951262 -0.23632924 0.053952698
-0.20971397 -0.23633741 0.053972922
-0.20989154 -0.23635143 0.053940173
-0.21008998 -0.23636875 0.053891227
-0.21027754 -0.23637897 0.053890731
-0.2104616 -0.23638867 0.053892557
-0.21063893 -0.23640485 0.053843662
-0.21082632 -0.23641194 0.05386623
-0.21102071 -0.23642021 0.053883024
-0.21120822 -0.23643771 0.053828336
-0.21140954 -0.23644558 0.053850874
-0.21160378 -0.23646344 0.053796168
-0.21180494 -0.23647672 0.053778343
-0.2119889 -0.2364838 0.053799771
-0.21216905 -0.23649904 0.053758942
-0.21236284 -0.23651719 0.053701926
-0.21254647 -0.2365289 0.053688768
-0.21271972 -0.23653895 0.053683702
-0.21290886 -0.23656678 0.0535529
-0.21311849 -0.23655896 0.05369534
-0.21329556 -0.23656581 0.053715635
-0.2134621 -0.23657365 0.053724423
-0.21367256 -0.23659332 0.053662758
-0.21384881 -0.23660649 0.053635772
-0.21404144 -0.23662676 0.053562626
-0.21424313 -0.23663232 0.053602457
-0.21443643 -0.23664702 0.053570814
-0.21461514 -0.23666467 0.053511541
-0.21479857 -0.23667496 0.053508759
-0.21501358 -0.23668467 0.053523183
-0.21519467 -0.2366894 0.053560764
-0.21536987 -0.23670562 0.053510725
-0.21558096 -0.23671758 0.053506713
-0.2157744 -0.23672998 0.053492367
-0.21595791 -0.23673981 0.053493034
-0.21613327 -0.23675418 0.053456832
-0.21631888 -0.23676924 0.053419445
-0.21650161 -0.23678167 0.053400517
-0.21668194 -0.23680235 0.053319324
-0.21689664 -0.23681311 0.053325679
-0.21708174 -0.2368173 0.053369019
-0.21728724 -0.23682415 0.05340077
-0.21746953 -0.23683766 0.053373769
-0.21764696 -0.23685491 0.053316806
-0.21781999 -0.23686418 0.05331751
-0.21802227 -0.23689024 0.053205121
-0.21819976 -0.23689665 0.053228877
-0.21838419 -0.23690359 0.053251453
-0.21858779 -0.23691592 0.0532417
-0.21877822 -0.23692583 0.053244658
-0.21897785 -0.23693918 0.053225689
-0.21914986 -0.23695087 0.053207941
-0.21933901 -0.23696381 0.05318784
-0.21954967 -0.23697606 0.053181529
-0.21973896 -0.23698854 0.053164884
-0.21993047 -0.23699617 0.053185146
-0.22010155 -0.23700969 0.053153563
-0.22028235 -0.23702496 0.053112727
-0.22044349 -0.23704398 0.053036202
-0.22066256 -0.23704629 0.05310712
-0.22086598 -0.23705876 0.053096209
-0.22104079 -0.23706472 0.053122278
-0.22122583 -0.23708503 0.053045683
-0.22141881 -0.23709694 0.053034797
-0.22160122 -0.23711509 0.052973203
-0.22178726 -0.23712026 0.053009626
-0.22196943 -0.23713855 0.05294688
-0.22217794 -0.23714821 0.05295901
-0.22235987 -0.23716059 0.052940086
-0.22254826 -0.23716822 0.052959196
-0.2227447 -0.23718031 0.052948311
-0.22292757 -0.2371912 0.052940913
-0.22310683 -0.23720779 0.052889705
-0.22328196 -0.2372195 0.052873109
-0.22348429 -0.23722804 0.05289102
-0.22368315 -0.23724724 0.052828237
-0.22385874 -0.23725292 0.052856605
-0.22405156 -0.23725986 0.052882619
-0.22423305 -0.23727797 0.052821029
-0.22443125 -0.23729263 0.052791685
-0.22461066 -0.23730335 0.052784294
-0.22479483 -0.2373174 0.05275384
-0.22498454 -0.23732883 0.05274526
-0.22517987 -0.23733759 0.052758597
-0.22538075 -0.23735334 0.052722316
-0.22555259 -0.23736456 0.052708037
-0.22573966 -0.2373794 0.052672956
-0.22591792 -0.23739159 0.052654032
-0.22610371 -0.23740792 0.052607425
-0.22628783 -0.23741733 0.05261156
-0.22649923 -0.23742449 0.052643295
-0.22667071 -0.23743616 0.052625548
-0.22684932 -0.23745225 0.052577801
-0.2270432 -0.23745474 0.052637253
-0.22725001 -0.23747593 0.052562911
-0.22741802 -0.23748741 0.052545182
-0.22761323 -0.23750098 0.052522756
-0.22782193 -0.23751172 0.052526824
-0.22799286 -0.23752399 0.052504472
-0.22817256 -0.23753858 0.052468248
-0.22837192 -0.23755161 0.052451588
-0.22855616 -0.23756133 0.052453414
-0.2287382 -0.23757342 0.052436788
-0.22894192 -0.23758203 0.052454706
-0.22912604 -0.23759206 0.052454222
-0.22930636 -0.23760964 0.052396104
-0.22947817 -0.23762101 0.052380651
-0.22968304 -0.23763232 0.052378967
-0.22988874 -0.2376429 0.052383047
-0.23005173 -0.23764868 0.052405678
-0.23026641 -0.23765789 0.05242357
-0.23042437 -0.23768246 0.052304383
-0.23060714 -0.23769055 0.052317739
-0.23079881 -0.23770751 0.052268811
-0.23099715 -0.2377284 0.05219334
-0.23119739 -0.23773745 0.05220665
-0.23136842 -0.23774628 0.052209668
-0.23154366 -0.23775801 0.052193061
-0.23173583 -0.23776785 0.052197173
-0.23193367 -0.23778251 0.052167829
-0.23211515 -0.23779207 0.052169662
-0.23228902 -0.23780821 0.052119616
-0.23249824 -0.23781635 0.052143291
-0.23269105 -0.23782903 0.052126639
-0.23287758 -0.23784384 0.052091558
-0.23306522 -0.23785467 0.052086454
-0.23324054 -0.23786345 0.052091762
-0.23341855 -0.23788214 0.052024409
-0.23361994 -0.23788504 0.052083854
-0.23381644 -0.23790087 0.052045278
-0.23399657 -0.23791486 0.052013684
-0.23420301 -0.23791711 0.05208002
-0.23438874 -0.23793839 0.051996507
-0.23456231 -0.23794597 0.052009895
-0.23477523 -0.23795788 0.052007027
-0.2349636 -0.2379714 0.051982321
-0.23514321 -0.23798583 0.051947255
-0.23534152 -0.23799756 0.051939815
-0.23551875 -0.23801373 0.051890921
-0.23570292 -0.23802485 0.051882371
-0.23591509 -0.238024 0.051974066
-0.23609023 -0.23805246 0.051832926
-0.23628584 -0.23806357 0.051828951
-0.23645964 -0.23807412 0.051820427
-0.23662232 -0.23809509 0.051730059
-0.23684208 -0.23809744 0.051800974
-0.23704152 -0.23810613 0.051816605
-0.23721369 -0.2381231 0.051759649
-0.23738612 -0.2381373 0.05172345
-0.23758131 -0.23814391 0.051752921
-0.2377834 -0.23815863 0.051724717
-0.23800547 -0.23817025 0.051727597
-0.23816612 -0.23818475 0.051684514
-0.23833004 -0.23819709 0.051658716
-0.23852554 -0.23820385 0.051687036
-0.2387311 -0.23821893 0.051657662
-0.23890527 -0.23823695 0.051593781
-0.23908798 -0.23824473 0.051609457
-0.23928584 -0.2382527 0.051629689
-0.23949917 -0.23826309 0.051638357
-0.239678 -0.23828058 0.051580235
-0.23986775 -0.23829371 0.051558979
-0.24005331 -0.23830707 0.051534276
-0.24022269 -0.2383163 0.051533841
-0.24041511 -0.23833251 0.051490668
-0.24062626 -0.23834448 0.051486656
-0.2407988 -0.23835652 0.051466603
-0.2410045 -0.23836274 0.051502965
-0.24119507 -0.2383801 0.05145058
-0.24138245 -0.23838814 0.05146623
-0.24156031 -0.2384017 0.051436938
-0.24175152 -0.23841429 0.05142029
-0.24195716 -0.23842315 0.051437058
-0.24214073 -0.23844014 0.051384676
-0.242323 -0.2384513 0.051374979
-0.24250357 -0.23846346 0.05135721
-0.24268535 -0.23847926 0.051312912
-0.24287331 -0.23849167 0.051296283
-0.24307765 -0.23849736 0.051336102
-0.24329036 -0.2385029 0.051380523
-0.24346194 -0.23852217 0.05130627
-0.24365675 -0.23853946 0.051256172
-0.24384105 -0.23855399 0.051222257
-0.24403638 -0.23856276 0.051235579
-0.24422379 -0.23857778 0.051199347
-0.24442263 -0.2385869 0.051211514
-0.24460821 -0.23860291 0.051167205
-0.24478394 -0.23861185 0.051171359
-0.24499184 -0.23862457 0.05116044
-0.24518447 -0.23863707 0.051144946
-0.24538276 -0.23864679 0.05115249
-0.24555224 -0.238663 0.051100161
-0.24576634 -0.23866892 0.051142268
-0.24593993 -0.23868707 0.051077235
-0.24612157 -0.23869541 0.051088296
-0.24631289 -0.23871265 0.051037058
-0.24652703 -0.23871888 0.051076852
-0.246714 -0.23873061 0.051064834
-0.24689744 -0.23874976 0.050996318
-0.24707656 -0.23876525 0.050953191
-0.24727403 -0.23877399 0.050967656
-0.24747264 -0.23879163 0.0509164
-0.24766317 -0.23879626 0.050958578
-0.24785295 -0.23881064 0.050928093
-0.24805835 -0.23882523 0.050902184
-0.248236 -0.23883599 0.050893649
-0.24844649 -0.23884653 0.050900023
-0.24859804 -0.23886734 0.050806217
-0.2487804 -0.23887789 0.050801128
-0.24900091 -0.2388823 0.050857056
-0.24917997 -0.23889625 0.050825454
-0.24936974 -0.23890549 0.050833032
-0.24955206 -0.23892163 0.050786424
-0.24977136 -0.2389252 0.050848123
-0.24995628 -0.2389438 0.050784223
-0.25014129 -0.23895884 0.050746836
-0.25032616 -0.23897046 0.050734822
-0.25051889 -0.23898746 0.05068589
-0.25071186 -0.23900263 0.050650783
-0.2509191 -0.23900321 0.050729804
-0.25110546 -0.23902299 0.050657824
-0.25127527 -0.23904108 0.050591655
-0.25146192 -0.23905388 0.050571561
-0.25166619 -0.23906283 0.05058717
-0.25188559 -0.23907074 0.050616585
-0.25205192 -0.23908694 0.050563101
-0.25226277 -0.23909345 0.050599448
-0.25244579 -0.23910962 0.050552849
-0.25265208 -0.23911481 0.050597284
-0.25283831 -0.23913473 0.050524145
-0.25305247 -0.2391419 0.050557025
-0.2532264 -0.23916176 0.050479308
-0.25342387 -0.23917562 0.050455738
-0.25359514 -0.23919161 0.050405696
-0.25380984 -0.23919399 0.050474323
-0.25400075 -0.23921216 0.050416172
-0.25419754 -0.23922643 0.050389133
-0.25436071 -0.239244 0.050324138
-0.25457251 -0.23925105 0.050357021
-0.25479007 -0.23925917 0.050384123
-0.25498968 -0.23926942 0.050388221
-0.25519255 -0.23928481 0.050355397
-0.25537148 -0.23929347 0.050363004
-0.2555635 -0.23930982 0.050318681
-0.25578058 -0.23931699 0.050352711
-0.25594476 -0.23933741 0.050266951
-0.25616956 -0.23934345 0.050312482
-0.25633484 -0.23936501 0.050218649
-0.25654384 -0.23936771 0.050282672
-0.25670931 -0.23939379 0.050155401
-0.25690037 -0.2394076 0.050129537
-0.25712001 -0.23940979 0.050201602
-0.25732762 -0.23942544 0.050168775
-0.25753006 -0.23943692 0.050164785
-0.25771409 -0.23945192 0.050127402
-0.25789216 -0.2394675 0.050083123
-0.25808525 -0.23948237 0.050050326
-0.25829631 -0.23949401 0.050048623
-0.25850037 -0.23950373 0.050058465
-0.25866675 -0.23952195 0.049989995
-0.25888574 -0.23953108 0.050010186
-0.25908089 -0.23953815 0.050036192
-0.259289 -0.23955257 0.050012585
-0.2594842 -0.23956849 0.049972873
-0.25968009 -0.23958272 0.049945835
-0.25984216 -0.239601 0.049875066
-0.2600573 -0.23960465 0.049934465
-0.2602793 -0.23961334 0.049959257
-0.26047075 -0.23962779 0.049928773
-0.26067439 -0.23965253 0.049826767
-0.26087639 -0.23965655 0.049878132
-0.26109093 -0.23966654 0.049890257
-0.26126614 -0.23967934 0.049865581
-0.26146811 -0.23969203 0.049852364
-0.26167527 -0.23970595 0.049832217
-0.26188135 -0.2397147 0.049850132
-0.26206496 -0.2397278 0.049826596
-0.2622456 -0.23974602 0.049763847
-0.26247236 -0.23975402 0.049795546
-0.26269215 -0.23976429 0.049807657
-0.2628752 -0.23977363 0.049811792
-0.26303387 -0.23980553 0.049638402
-0.26328039 -0.23979554 0.049811877
-0.26345092 -0.23982516 0.04966037
-0.26364291 -0.23983468 0.049666792
-0.16894057 -0.23750381 0.028900921
-0.16909733 -0.23750506 0.028954729
-0.16925165 -0.23750401 0.029024679
-0.16941085 -0.23750632 0.029071562
-0.16955632 -0.23750259 0.029157691
-0.16970553 -0.23749924 0.029242638
-0.16985157 -0.23749572 0.029327605
-0.16999736 -0.23749077 0.02942295
-0.17014755 -0.23748903 0.029496368
-0.17028439 -0.23748128 0.02960903
-0.17042176 -0.23747371 0.02972053
-0.17055853 -0.2374658 0.029834343
-0.17069665 -0.23745844 0.029944692
-0.17083663 -0.23745054 0.030059647
-0.17096557 -0.23743756 0.030208066
-0.17109232 -0.23742476 0.030354187
-0.17121166 -0.23740846 0.030523375
-0.17133939 -0.23739323 0.030687947
-0.16448298 -0.23343927 0.057323866
-0.16470979 -0.23346092 0.057254128
-0.1649693 -0.23347831 0.057229292
-0.16519026 -0.23349406 0.057201091
-0.16540128 -0.23350507 0.057204038
-0.16563033 -0.23352328 0.057160821
-0.16586834 -0.23355965 0.056986149
-0.16605562 -0.23354736 0.057152878
-0.16623077 -0.23355131 0.057193954
-0.16646242 -0.2335695 0.057151891
-0.16669741 -0.23358601 0.057123642
-0.16693465 -0.23360902 0.057048135
-0.16715205 -0.23362395 0.057024542
