# .PCD v0.7 - Point Cloud Data file format
VERSION 0.7
FIELDS x y z
SIZE 4 4 4
TYPE F F F
COUNT 1 1 1
WIDTH 1259
HEIGHT 1
VIEWPOINT 0 0 0 1 0 0 0
POINTS 1259
DATA ascii
-0.27629387 -0.12364954 0.059896052
-0.2764549 -0.12357745 0.059908293
-0.27667823 -0.12349018 0.059838489
-0.27685723 -0.12341955 0.059787266
-0.2770392 -0.123339 0.059794851
-0.27721968 -0.12325792 0.059810497
-0.27742383 -0.12317497 0.059768431
-0.27761918 -0.12309434 0.059736758
-0.27781022 -0.12300915 0.059748933
-0.27797946 -0.12293516 0.059749626
-0.27816921 -0.12285241 0.059749112
-0.27831876 -0.12276705 0.059885953
-0.27846333 -0.12269114 0.05997321
-0.27874315 -0.12260665 0.059716418
-0.27891806 -0.12254152 0.059639834
-0.27910635 -0.12245855 0.059645083
-0.27930832 -0.12236978 0.059649155
-0.27949759 -0.12229349 0.059605964
-0.27967143 -0.12221615 0.059615873
-0.27985549 -0.12213756 0.059603844
-0.28003162 -0.12206142 0.059598751
-0.28024459 -0.12196904 0.059594717
-0.28042224 -0.12189697 0.059557337
-0.28061852 -0.12181863 0.05950721
-0.28079203 -0.12173822 0.059539028
-0.28097871 -0.12166154 0.05950623
-0.28114188 -0.12159528 0.059472352
-0.28132305 -0.12151253 0.05949723
-0.28151157 -0.12143385 0.059472501
-0.28171578 -0.12134734 0.05945465
-0.28189969 -0.12127642 0.059390716
-0.28207761 -0.12119881 0.059390236
-0.28226414 -0.12112287 0.059352823
-0.28244245 -0.12103868 0.05939617
-0.28263044 -0.12095685 0.059394505
-0.28281304 -0.12088584 0.059335187
-0.28300023 -0.12080724 0.059313927
-0.28316599 -0.12073308 0.059326164
-0.28337172 -0.12064487 0.059315227
-0.28355435 -0.12056354 0.059326269
-0.28374073 -0.12048106 0.059333831
-0.28390855 -0.12040837 0.059329927
-0.28411028 -0.12033273 0.059245184
-0.28429157 -0.12025451 0.059238926
-0.28447756 -0.12017203 0.059247646
-0.28467172 -0.12009546 0.059191767
-0.28485397 -0.12001818 0.059176274
-0.28503525 -0.11994029 0.059167713
-0.28521302 -0.11986377 0.059160318
-0.28539795 -0.1197848 0.059148282
-0.28558186 -0.11970511 0.059144322
-0.2857551 -0.1196375 0.059089653
-0.28594264 -0.11956093 0.059053391
-0.28615129 -0.1194767 0.059006691
-0.28632018 -0.11940186 0.059014305
-0.28649107 -0.11932021 0.059062283
-0.28668153 -0.119238 0.059055999
-0.28687868 -0.11916165 0.05898973
-0.28705066 -0.11910287 0.058878548
-0.28723931 -0.11900621 0.058976065
-0.28741851 -0.11892755 0.058979042
-0.28760421 -0.11885044 0.058952015
-0.28777769 -0.11876649 0.059008054
-0.28796381 -0.11869919 0.058912985
-0.28816858 -0.11861292 0.058891669
-0.28831932 -0.11853483 0.058975451
-0.28847685 -0.11846815 0.058961187
-0.28868377 -0.11839396 0.058851056
-0.28886354 -0.11831641 0.058844805
-0.28905004 -0.11824115 0.058802783
-0.28923294 -0.11815208 0.058865719
-0.28940481 -0.11808641 0.058801822
-0.28958648 -0.11800616 0.058808248
-0.28978345 -0.11792246 0.058792725
-0.28996021 -0.11785246 0.058743812
-0.29013661 -0.11777689 0.058734104
-0.29029268 -0.11770408 0.05876597
-0.29048812 -0.11762442 0.058727384
-0.29067403 -0.11754976 0.05868306
-0.29085574 -0.11748132 0.058608755
-0.29103655 -0.11739485 0.058660164
-0.29122156 -0.11731957 0.058622755
-0.29140857 -0.11724715 0.058559969
-0.29159072 -0.11716837 0.058554865
-0.29175436 -0.11708803 0.058615547
-0.29194346 -0.11700065 0.058648482
-0.29213387 -0.11692759 0.058579918
-0.29230848 -0.11685684 0.058542538
-0.29248816 -0.11677458 0.058568582
-0.29267299 -0.11670022 0.058525413
-0.29285419 -0.11662035 0.058530685
-0.2930305 -0.11654616 0.058511756
-0.29319781 -0.11647791 0.058479007
-0.29339197 -0.11639205 0.058486558
-0.29356766 -0.11632422 0.058426104
-0.29375485 -0.11624072 0.058438294
-0.29393268 -0.11616249 0.058442421
-0.29410329 -0.11610109 0.05835316
-0.29429415 -0.11602478 0.058305357
-0.29447669 -0.11594043 0.058337152
-0.29464108 -0.11585977 0.05839783
-0.29482171 -0.11578741 0.058353517
-0.2950142 -0.11570684 0.058329929
-0.29518956 -0.11563221 0.058316775
-0.29537264 -0.11555727 0.058282826
-0.29554752 -0.11548184 0.058276586
-0.29573679 -0.11540352 0.058247246
-0.2959213 -0.11532338 0.058244437
-0.2961157 -0.11523893 0.058241602
-0.29630104 -0.11515116 0.058288392
-0.29645529 -0.11509217 0.058231458
-0.29661712 -0.11503343 0.058150291
-0.29681683 -0.11494311 0.05817166
-0.29699069 -0.11486542 0.058183879
-0.29716462 -0.11479903 0.058118824
-0.29732597 -0.11472917 0.058114924
-0.29750305 -0.11464991 0.058128282
-0.29768261 -0.11456651 0.058162391
-0.29786593 -0.11449535 0.05810193
-0.29804498 -0.11440998 0.058151037
-0.29822472 -0.11433987 0.058094036
-0.29841307 -0.11426128 0.058069311
-0.29861385 -0.11417438 0.058064152
-0.29880211 -0.11409583 0.058039423
-0.29899108 -0.11402068 0.057989314
-0.2991688 -0.11394402 0.057983071
-0.29934654 -0.11386767 0.057974517
-0.29952756 -0.11378974 0.057967104
-0.29970536 -0.11371388 0.057955094
-0.29988018 -0.11364102 0.057931554
-0.30005822 -0.11356675 0.057908006
-0.30022004 -0.11350124 0.057872973
-0.30039978 -0.11341608 0.057918616
-0.30058947 -0.11332624 0.057966541
-0.30073261 -0.11325214 0.058045726
-0.30090961 -0.11319592 0.057902239
-0.30108574 -0.1131355 0.057789899
-0.30129591 -0.11304316 0.057793934
-0.30149612 -0.11295363 0.057808384
-0.30165267 -0.11287183 0.057900228
-0.30185065 -0.11279377 0.057843179
-0.30200934 -0.11273723 0.057756253
-0.30219647 -0.11265258 0.057776511
-0.30235749 -0.11258184 0.057779528
-0.30254191 -0.11250885 0.057728287
-0.30270976 -0.11244156 0.057687465
-0.30291024 -0.11235581 0.057675388
-0.30307779 -0.11228239 0.05767725
-0.30324882 -0.1122181 0.057606433
-0.30345249 -0.11212657 0.057624333
-0.30359706 -0.11205573 0.057676993
-0.30380398 -0.11198427 0.057548415
-0.3039549 -0.1119291 0.057475351
-0.30415517 -0.11184242 0.057470199
-0.30435902 -0.1117476 0.057510007
-0.30454242 -0.11168011 0.057424165
-0.3047201 -0.11159637 0.057466358
-0.30489808 -0.11150943 0.057529308
-0.30506554 -0.11143893 0.057511561
-0.30522653 -0.11137007 0.057501893
-0.30543578 -0.11129216 0.057410218
-0.30561286 -0.11121882 0.057383217
-0.30578732 -0.11113986 0.057402346
-0.30597469 -0.11105814 0.057401832
-0.30615473 -0.11098621 0.057356369
-0.30633217 -0.11090915 0.057353586
-0.30650675 -0.11083064 0.057369258
-0.30669287 -0.1107586 0.057306476
-0.30685702 -0.11068852 0.05729565
-0.30701777 -0.11062078 0.057279073
-0.30719954 -0.11053609 0.057315484
-0.30739075 -0.11045033 0.057331111
-0.30758807 -0.11036494 0.057325959
-0.30776027 -0.11030133 0.057247076
-0.30794746 -0.11022156 0.057233877
-0.30811605 -0.1101443 0.057258792
-0.30830839 -0.11005398 0.057302102
-0.30848646 -0.10998985 0.057209358
-0.30864194 -0.10993286 0.057135127
-0.30882618 -0.10983932 0.057224579
-0.30902025 -0.1097687 0.057128333
-0.30917963 -0.10970663 0.057077158
-0.30936545 -0.10962017 0.057113562
-0.30952436 -0.10954799 0.05713274
-0.30970839 -0.10946941 0.057120699
-0.30990022 -0.10939454 0.057060208
-0.31007561 -0.10931551 0.057077039
-0.31027579 -0.10923108 0.057056889
-0.31044379 -0.10915814 0.057054128
-0.31061447 -0.10908606 0.057037521
-0.3107909 -0.10901402 0.057003591
-0.31099862 -0.10892359 0.057001878
-0.31117922 -0.10884719 0.05698524
-0.31135863 -0.10877451 0.056946695
-0.3115249 -0.10870741 0.056909349
-0.311703 -0.1086299 0.05690771
-0.31187752 -0.1085548 0.056900315
-0.31204879 -0.1084894 0.056836426
-0.31222868 -0.10841501 0.056808256
-0.31243244 -0.10831226 0.056902271
-0.31261724 -0.10823217 0.056898315
-0.31279302 -0.10816176 0.056855161
-0.31295583 -0.10808872 0.056868561
-0.31313458 -0.1080177 0.056820791
-0.3133164 -0.10793839 0.056820303
-0.31349862 -0.10786534 0.056775983
-0.31369141 -0.10778616 0.05674202
-0.31386313 -0.1077187 0.056690812
-0.31400338 -0.1076616 0.056662753
-0.31420627 -0.10755078 0.056814432
-0.31438944 -0.10747545 0.056782797
-0.31455261 -0.10742848 0.056617435
-0.31475264 -0.1073321 0.056679174
-0.31492525 -0.10724988 0.05672599
-0.31511211 -0.10717835 0.056657441
-0.3153052 -0.10708653 0.056708813
-0.31548253 -0.10701832 0.056646056
-0.31564876 -0.1069568 0.056570649
-0.31581971 -0.10687903 0.056592088
-0.31596807 -0.10682735 0.056502886
-0.31613567 -0.10676254 0.056445926
-0.3163459 -0.10666306 0.056498408
-0.31654313 -0.10657467 0.056514017
-0.31672525 -0.10649609 0.056507759
-0.31690636 -0.10641964 0.056489963
-0.31709561 -0.10632678 0.056559809
-0.31727603 -0.10624673 0.056568541
-0.31746554 -0.10617963 0.05646193
-0.31764054 -0.10611531 0.056379568
-0.31779426 -0.10605217 0.05635263
-0.31797716 -0.10596749 0.056385584
-0.31816053 -0.105887 0.056388538
-0.31834298 -0.10580353 0.056414574
-0.31851128 -0.1057467 0.056301095
-0.31869191 -0.10566673 0.056308679
-0.31887406 -0.10557952 0.056361232
-0.31905672 -0.10550543 0.056322686
-0.31924421 -0.10542264 0.056329101
-0.31942612 -0.10534989 0.056283623
-0.31961775 -0.10526885 0.056265801
-0.31978884 -0.10518424 0.056333393
-0.31997046 -0.10511654 0.056254469
-0.32013154 -0.10505389 0.056202136
-0.32031444 -0.10498799 0.056107074
-0.32050627 -0.10490245 0.056119241
-0.32069761 -0.10481375 0.056154467
-0.32086664 -0.10474189 0.056141332
-0.32101852 -0.10469037 0.056040585
-0.32116789 -0.10464282 0.055920236
-0.32138163 -0.10452981 0.056054592
-0.32160848 -0.10442781 0.056074735
-0.32177371 -0.10436234 0.056029312
-0.32194239 -0.10427964 0.056091134
-0.32212806 -0.1042088 0.056021437
-0.32233399 -0.10412508 0.055979356
-0.32251856 -0.10404069 0.056005377
-0.32267743 -0.10397766 0.055962272
-0.32285824 -0.10389557 0.055983707
-0.3230443 -0.10380563 0.056043167
-0.32323396 -0.10373239 0.055978067
-0.32339773 -0.10366924 0.055921115
-0.32358781 -0.10358803 0.055909067
-0.32379287 -0.1034952 0.055931583
-0.32396409 -0.10342103 0.055927653
-0.32414952 -0.10334 0.055928305
-0.32433173 -0.10327068 0.055858616
-0.32451692 -0.10319006 0.055856958
-0.32467577 -0.10312384 0.055835776
-0.32483327 -0.10305615 0.05582843
-0.32498306 -0.10301297 0.055676941
-0.3251982 -0.10290324 0.055784766
-0.3254025 -0.10280924 0.055817656
-0.32557794 -0.10274607 0.05572607
-0.32577053 -0.10265565 0.055769376
-0.32594591 -0.1025861 0.055721618
-0.32614267 -0.10249977 0.055724546
-0.32632601 -0.10241929 0.055727512
-0.32649523 -0.10235191 0.055683218
-0.32667601 -0.1022751 0.055668898
-0.32686374 -0.10219204 0.05567646
-0.32704204 -0.10211867 0.055645995
-0.32721886 -0.10204425 0.055627055
-0.32738781 -0.10197428 0.055601228
-0.32756972 -0.1018902 0.055633031
-0.3277809 -0.10178576 0.055716649
-0.32795712 -0.10172734 0.055590466
-0.32814389 -0.10164908 0.055568043
-0.32832658 -0.1015645 0.055600993
-0.32851863 -0.10149122 0.055528969
-0.32867518 -0.10143174 0.05546857
-0.32883847 -0.10136932 0.055408165
-0.329052 -0.10127144 0.055439878
-0.32923621 -0.10117131 0.055574309
-0.32942089 -0.10111021 0.055441186
-0.32961294 -0.10103135 0.055407222
-0.32976189 -0.10097028 0.055380289
-0.3299458 -0.10089057 0.055376336
-0.33015317 -0.10080384 0.055350397
-0.33032382 -0.10072976 0.055347629
-0.3305102 -0.10064729 0.055355191
-0.33070746 -0.10055703 0.055383496
-0.33087599 -0.10048841 0.055349588
-0.33104283 -0.10042986 0.055252269
-0.33125138 -0.10033415 0.05528399
-0.33143955 -0.1002526 0.055280022
-0.33162612 -0.10017562 0.055249535
-0.33179203 -0.10011291 0.055183344
-0.33197653 -0.10003328 0.055177078
-0.3321625 -0.099951997 0.055177726
-0.33234403 -0.099870965 0.055189922
-0.33255899 -0.099776193 0.055196263
-0.33271927 -0.099715076 0.055135854
-0.33293527 -0.099616818 0.055162944
-0.33310562 -0.099546567 0.055134811
-0.3332909 -0.099461704 0.05516199
-0.3334724 -0.099378824 0.055186871
-0.33364168 -0.099317335 0.055102214
-0.33383274 -0.099243142 0.055039428
-0.33402786 -0.099161923 0.055012375
-0.33420092 -0.09908171 0.055044197
-0.33439451 -0.098999977 0.05502522
-0.33456767 -0.098929368 0.054991305
-0.33475477 -0.098845556 0.055005793
-0.33495614 -0.098760098 0.054989092
-0.3351602 -0.09866941 0.055000074
-0.33532321 -0.098603211 0.054966185
-0.33550036 -0.098533049 0.054917272
-0.33571926 -0.098435551 0.054930523
-0.33587858 -0.098373502 0.054879341
-0.33606368 -0.098290227 0.054896142
-0.33623546 -0.098223761 0.054838009
-0.33642137 -0.098139808 0.054857112
-0.33662522 -0.09805005 0.054862324
-0.33680552 -0.097981215 0.054794952
-0.33698973 -0.097899355 0.054804832
-0.3371768 -0.097821146 0.054781258
-0.33739093 -0.097725213 0.054797977
-0.33756816 -0.097657554 0.054731764
-0.33772936 -0.097589448 0.05471633
-0.33792269 -0.097500555 0.054746944
-0.33813715 -0.097400427 0.054791339
-0.33830556 -0.097340003 0.054702081
-0.33848253 -0.097270586 0.054648548
-0.33868259 -0.097177237 0.05468953
-0.3388733 -0.097097956 0.054662488
-0.33905959 -0.097019076 0.054645844
-0.33923179 -0.096950561 0.054600392
-0.33943996 -0.09685351 0.054642498
-0.33960742 -0.096789941 0.054577462
-0.33980882 -0.096702106 0.054576915
-0.34000742 -0.096617162 0.054564856
-0.34020472 -0.096531622 0.054560851
-0.34040335 -0.096444823 0.054561466
-0.34058353 -0.096368611 0.054544836
-0.34074509 -0.096307114 0.054483272
-0.34093523 -0.096222982 0.054490827
-0.34114805 -0.096130341 0.054489098
-0.34133184 -0.096054748 0.05445746
-0.34152994 -0.095972911 0.054425791
-0.34170443 -0.095900699 0.054398794
-0.34189862 -0.095814988 0.054405186
-0.34208155 -0.095740438 0.054368939
-0.34230742 -0.095639393 0.054385625
-0.34246051 -0.095584452 0.054304481
-0.34266368 -0.095488407 0.054354675
-0.34285808 -0.095408693 0.054319553
-0.34305573 -0.095325865 0.054295953
-0.34323817 -0.095248327 0.054281618
-0.34343216 -0.095167264 0.054256875
-0.34363109 -0.09507966 0.054262102
-0.34381032 -0.095003515 0.054247778
-0.3440021 -0.094922908 0.054226499
-0.34417704 -0.094852872 0.054183353
-0.34435725 -0.09477596 0.054171331
-0.34457532 -0.09467984 0.054177657
-0.25634384 -0.13530098 0.039830618
-0.2565515 -0.13522394 0.03973775
-0.25676334 -0.13514696 0.039632164
-0.2569598 -0.13507058 0.039568152
-0.2571575 -0.13499299 0.039508756
-0.25734836 -0.13491702 0.039458595
-0.25754091 -0.1348398 0.039411899
-0.25772631 -0.13476418 0.039375607
-0.25790855 -0.13468741 0.039356615
-0.25808096 -0.13461357 0.039346885
-0.25825837 -0.13453706 0.039340604
-0.25844002 -0.13446054 0.039321613
-0.25860745 -0.1343843 0.039343044
-0.2587736 -0.13430947 0.039358705
-0.25893685 -0.13423473 0.039382447
-0.25910637 -0.1341586 0.039396945
-0.25926712 -0.13408257 0.039436847
-0.25942346 -0.13400796 0.039480209
-0.25957942 -0.13393199 0.039533969
-0.25972989 -0.13385606 0.039603889
-0.25988048 -0.13377871 0.039683029
-0.26002443 -0.1337041 0.039763343
-0.2601712 -0.13362807 0.039844804
-0.26030836 -0.13355337 0.039945904
-0.26045823 -0.13347448 0.040037744
-0.2605955 -0.13340108 0.040129609
-0.26074052 -0.13332346 0.040227219
-0.2608799 -0.13324998 0.040313322
-0.26102644 -0.13317087 0.040416695
-0.26115531 -0.13309571 0.040545505
-0.26129431 -0.13301919 0.040653519
-0.26142135 -0.13294384 0.040789239
-0.26155201 -0.13286555 0.04093419
-0.26167679 -0.13278846 0.04108838
-0.26180345 -0.13271277 0.041227572
-0.26191777 -0.13263516 0.041416388
-0.2620388 -0.13255465 0.041605193
-0.26214415 -0.13247791 0.041814804
-0.25782511 -0.13148841 0.061421275
-0.25801897 -0.13140301 0.061426468
-0.25822845 -0.13131674 0.061391257
-0.25842392 -0.13122979 0.061402224
-0.258605 -0.13114743 0.061424755
-0.2588149 -0.13106503 0.061361857
-0.25902146 -0.13097359 0.061370481
-0.25922543 -0.13088565 0.061362963
-0.25942332 -0.13081187 0.061277039
-0.25963572 -0.13071382 0.061313324
-0.25982845 -0.13063264 0.061293155
-0.25999078 -0.13056032 0.061303057
-0.26018065 -0.13048275 0.06126675
-0.26040426 -0.13038947 0.061237268
-0.26063114 -0.13029103 0.061233141
-0.26083115 -0.13020533 0.061222173
-0.26105013 -0.1301176 0.061168477
-0.26126075 -0.13003302 0.061118267
-0.26145178 -0.12994683 0.061137311
-0.26166099 -0.12986234 0.061090566
-0.26184359 -0.12978305 0.061087728
-0.26203865 -0.12969173 0.061129831
-0.26224458 -0.12961105 0.061066944
-0.26241159 -0.12953229 0.061106831
-0.26259705 -0.12946121 0.061039388
-0.26283193 -0.1293647 0.060998328
-0.26300955 -0.12928724 0.060997814
-0.26323116 -0.12919921 0.060938347
-0.26338512 -0.12911922 0.061025545
-0.26361477 -0.12903428 0.060921069
-0.26380551 -0.1289528 0.060908981
-0.26401815 -0.12886022 0.060907204
-0.26418912 -0.12878634 0.060902089
-0.26437175 -0.12869805 0.060960382
-0.264575 -0.12861246 0.060939029
-0.26477632 -0.12852669 0.060924605
-0.26497778 -0.12844306 0.060895171
-0.26518434 -0.12835214 0.060900338
-0.26542142 -0.12826768 0.060770463
-0.26558369 -0.12818693 0.060838036
-0.26576111 -0.12810837 0.060845599
-0.26602477 -0.12801403 0.060704112
-0.26620474 -0.12793401 0.060713962
-0.26636168 -0.12786081 0.060745798
-0.26659629 -0.12776662 0.060689755
-0.26676849 -0.12768342 0.06074461
-0.26697379 -0.12759303 0.06074978
-0.2671434 -0.12752633 0.06069969
-0.2673184 -0.12744579 0.060728006
-0.2675339 -0.1273638 0.060645491
-0.267708 -0.12727891 0.060706105
-0.26796505 -0.12718321 0.060593475
-0.268139 -0.12710921 0.060580283
-0.26834258 -0.12702346 0.060558923
-0.2685321 -0.12694606 0.06052262
-0.26870218 -0.12686935 0.060539424
-0.26894301 -0.12677141 0.060490273
-0.26912352 -0.12669472 0.060475901
-0.26927733 -0.12662375 0.060501993
-0.26949403 -0.1265301 0.060495585
-0.26967767 -0.12645879 0.060435072
-0.26985976 -0.12638277 0.060411472
-0.27005723 -0.12629427 0.06042704
-0.27021888 -0.1262138 0.060494617
-0.2704187 -0.12613511 0.060436364
-0.27063698 -0.12605159 0.06035614
-0.27083278 -0.12596297 0.060377486
-0.27103883 -0.1258792 0.06033536
-0.27124542 -0.12579569 0.06028977
-0.27141875 -0.12571588 0.060318105
-0.27161813 -0.12563078 0.060304832
-0.2718277 -0.12554362 0.060275391
-0.27201813 -0.12546599 0.060237922
-0.27218333 -0.12538902 0.060270883
-0.27239981 -0.12530646 0.060189515
-0.27258897 -0.12521906 0.06022241
-0.2727814 -0.12513749 0.060205698
-0.27296749 -0.12505668 0.060202848
-0.27315 -0.12497742 0.060200006
-0.27334172 -0.12489837 0.060168304
-0.27353022 -0.124816 0.060168907
-0.27372825 -0.1247315 0.060155645
-0.2739186 -0.12465998 0.060076661
-0.27408308 -0.1245781 0.060145378
-0.27427611 -0.12450254 0.060085997
-0.27448273 -0.12441598 0.060061172
-0.27466685 -0.12433264 0.060081385
-0.27483165 -0.12426651 0.060041688
-0.27505365 -0.12416698 0.060059499
-0.27521464 -0.12409711 0.06005672
-0.27541828 -0.12402065 0.059971929
-0.27560422 -0.12394091 0.059962153
-0.27580836 -0.12385424 0.059945408
-0.275976 -0.12378435 0.059923008
-0.27619076 -0.12369356 0.059902776
-0.27636185 -0.12361692 0.059916109
-0.27655542 -0.12354045 0.059861336
-0.27676401 -0.1234532 0.059835352
-0.27693486 -0.12338782 0.059772573
-0.27711913 -0.12330256 0.059805483
-0.2773101 -0.12321994 0.059800308
-0.27751598 -0.12313489 0.059767406
-0.27769536 -0.12305919 0.059749585
-0.27787748 -0.12297604 0.059774432
-0.27806345 -0.12290035 0.059736978
-0.27823102 -0.12281983 0.059787236
-0.27836066 -0.12274046 0.059942566
-0.27858391 -0.12266052 0.059823111
-0.27881074 -0.12257952 0.059700191
-0.27900195 -0.12250677 0.05962697
-0.27919495 -0.1224199 0.059644863
-0.27937123 -0.12234354 0.059640881
-0.27956671 -0.12226099 0.059621863
-0.27974841 -0.12218428 0.059604023
-0.27991343 -0.12211824 0.059563167
-0.28010648 -0.12203167 0.059578761
-0.28029305 -0.12195133 0.059571292
-0.28049514 -0.12186944 0.059528023
-0.28067297 -0.121788 0.059554033
-0.28084823 -0.12171815 0.059508536
-0.28103569 -0.12163538 0.05951491
-0.28120416 -0.12156868 0.059468277
-0.28139403 -0.12148739 0.059457339
-0.28156522 -0.12141579 0.059436083
-0.28176972 -0.12132609 0.059438948
-0.2819632 -0.1212505 0.0593784
-0.28214434 -0.12117133 0.059379026
-0.28232083 -0.12108947 0.059411958
-0.28249717 -0.12100747 0.059446048
-0.28267848 -0.12093551 0.059397072
-0.28287432 -0.12085855 0.05933883
-0.28306359 -0.1207848 0.059278302
-0.28324804 -0.12070099 0.059300832
-0.2834239 -0.12061886 0.059337221
-0.28360844 -0.12053873 0.059334375
-0.28378028 -0.12046497 0.059325799
-0.28395602 -0.12039018 0.059312604
-0.2841666 -0.12030562 0.059262387
-0.28434929 -0.12022831 0.059245713
-0.28452563 -0.12015428 0.059225589
-0.28473708 -0.12006697 0.059191525
-0.2849077 -0.11999678 0.059162192
-0.28509194 -0.11991712 0.059157036
-0.28526354 -0.11983991 0.059172679
-0.2854442 -0.11976568 0.05914101
-0.28563675 -0.11968458 0.059120841
-0.28581303 -0.11961531 0.059068419
-0.28601298 -0.11953218 0.059040152
-0.28621081 -0.11945165 0.059000365
-0.2863729 -0.11937959 0.05900912
-0.286551 -0.11929972 0.059023596
-0.28673944 -0.11922009 0.059005734
-0.28693458 -0.11914209 0.05895672
-0.28712252 -0.11906671 0.058911193
-0.28728369 -0.1189807 0.059017986
-0.28748229 -0.11890625 0.058934368
-0.28765219 -0.1188281 0.058961548
-0.28783086 -0.11874899 0.058969095
-0.28803605 -0.1186722 0.058881991
-0.28821406 -0.11858796 0.058926452
-0.28835577 -0.118515 0.059002168
-0.28854603 -0.11845249 0.058862053
-0.28874761 -0.11836813 0.058837239
-0.28893042 -0.11829381 0.058799796
-0.28910854 -0.11821461 0.058809653
-0.28927767 -0.11813069 0.05887837
-0.28946877 -0.11806578 0.058752082
-0.28964847 -0.11798336 0.058779247
-0.28984362 -0.11789758 0.058783285
-0.29002705 -0.11783008 0.058697395
-0.29019618 -0.11775667 0.058694594
-0.29035884 -0.1176864 0.058689509
-0.29054958 -0.11760102 0.058703948
-0.29073778 -0.11752368 0.058671094
-0.29092249 -0.11745343 0.058600202
-0.29110426 -0.11736808 0.058641195
-0.29129654 -0.11729082 0.058595646
-0.29148549 -0.11720926 0.058589332
-0.29165044 -0.11713664 0.058593459
-0.29182658 -0.11706151 0.058581412
-0.29201329 -0.11697687 0.058602776
-0.29219526 -0.11690411 0.058557272
-0.29237786 -0.11682616 0.058545195
-0.29256213 -0.11674429 0.058555044
-0.29273966 -0.11667176 0.05852107
-0.29292378 -0.11658977 0.05853207
-0.29309779 -0.11651861 0.058499258
-0.29327905 -0.11644582 0.058456063
-0.29346964 -0.11636084 0.058468193
-0.29364443 -0.11629155 0.05842039
-0.29384008 -0.11620842 0.058404826
-0.29401088 -0.11613224 0.058415852
-0.29419017 -0.11606437 0.058344975
-0.29437485 -0.11598398 0.058343288
-0.2945427 -0.11590216 0.058401614
-0.29472217 -0.11582727 0.058378018
-0.29490799 -0.11574911 0.058357868
-0.29509029 -0.11567214 0.058340035
-0.29527721 -0.11559671 0.058297969
-0.29546577 -0.1155165 0.058283582
-0.2956481 -0.11544003 0.058262281
-0.29583475 -0.11536472 0.058220215
-0.2960282 -0.11527798 0.058235798
-0.29620865 -0.11519725 0.058249105
-0.29636484 -0.11512338 0.058287874
-0.29654163 -0.11506319 0.05817201
-0.29672301 -0.11498511 0.058164559
-0.29691079 -0.11490372 0.058160551
-0.29708725 -0.11482253 0.058188878
-0.29725385 -0.11475664 0.058142252
-0.29742214 -0.11469644 0.058051795
-0.29760429 -0.11460955 0.058102012
-0.2977775 -0.11452962 0.058131494
-0.29796305 -0.1144536 0.058097497
-0.29813966 -0.11437234 0.058125824
-0.29832515 -0.11429635 0.058091827
-0.298513 -0.11421563 0.058083206
-0.29871148 -0.11413396 0.058049176
-0.29890987 -0.11405217 0.058016304
-0.29909509 -0.11397646 0.057981163
-0.2992748 -0.11389218 0.058021002
-0.29945344 -0.11381968 0.05798357
-0.29963318 -0.11373504 0.058025725
-0.29981607 -0.1136666 0.057947908
-0.29998499 -0.11360037 0.05789667
-0.30017614 -0.11352006 0.057875346
-0.3003301 -0.11344952 0.057897966
-0.3005096 -0.11336194 0.057960875
-0.30068639 -0.11327858 0.058003038
-0.30084214 -0.11321945 0.057942603
-0.3010259 -0.11316349 0.057777137
-0.30121726 -0.11308731 0.057726972
-0.30143595 -0.11297756 0.057824373
-0.30159244 -0.11289511 0.057920799
-0.30176008 -0.11282064 0.057929538
-0.30196193 -0.11274767 0.057826299
-0.30213663 -0.11267823 0.057779655
-0.30229402 -0.11260216 0.057829939
-0.30247247 -0.11254141 0.057712927
-0.30266991 -0.11246088 0.057674289
-0.30284083 -0.11238702 0.057669178
-0.30304468 -0.11230234 0.057639748
-0.30321243 -0.11223865 0.05757466
-0.30339631 -0.11215033 0.057629488
-0.30356395 -0.11207808 0.05762323
-0.30372176 -0.11200554 0.057648141
-0.30392855 -0.11193615 0.057505667
-0.30410913 -0.1118618 0.057475157
-0.3043164 -0.11176176 0.057540294
-0.30449367 -0.11169004 0.057501715
-0.30467761 -0.11161132 0.057490796
-0.30485559 -0.11152577 0.057544481
-0.30499819 -0.11144531 0.057668637
-0.30518723 -0.11138789 0.057497378
-0.30539092 -0.11130109 0.057482943
-0.30557731 -0.1112313 0.057403967
-0.30575168 -0.11115373 0.057413835
-0.30593601 -0.11107147 0.057425983
-0.3061164 -0.11099704 0.057396621
-0.30629635 -0.11092599 0.057345353
-0.30646509 -0.11084463 0.057397917
-0.30665147 -0.11077128 0.057343159
-0.30683833 -0.11069402 0.057313781
-0.30699876 -0.11062879 0.05728101
-0.30717605 -0.11055351 0.05726666
-0.30735472 -0.11046967 0.057306498
-0.30755594 -0.11037938 0.057323217
-0.30773208 -0.11031102 0.057265032
-0.30791235 -0.11023611 0.05723913
-0.30809313 -0.11015845 0.057230525
-0.30827385 -0.1100661 0.057322267
-0.30846551 -0.10998015 0.057337854
-0.30862752 -0.10993538 0.057160914
-0.30880207 -0.10985908 0.057161555
-0.30899093 -0.10977215 0.057192143
-0.30917522 -0.10970531 0.057099327
-0.30935401 -0.10962377 0.057123028
-0.30951211 -0.10955499 0.057121418
-0.30968955 -0.10947947 0.057108209
-0.30987671 -0.10940021 0.057091519
-0.31006715 -0.1093197 0.057073656
-0.31025374 -0.10924254 0.057044275
-0.31042692 -0.10916161 0.057080686
-0.31060043 -0.10909 0.057052493
-0.3107866 -0.10901439 0.057013892
-0.31098741 -0.10892799 0.057005219
-0.31117022 -0.10884455 0.057030067
-0.31134877 -0.10877496 0.056973025
-0.31152457 -0.10870489 0.056927532
-0.31170261 -0.10862775 0.056923546
-0.3118695 -0.10855886 0.056896534
-0.31205541 -0.10848352 0.056856774
-0.31220922 -0.10841982 0.056833252
-0.31242076 -0.10831912 0.056890313
-0.3126106 -0.10823277 0.056913979
-0.31279239 -0.10816126 0.056860387
-0.31295946 -0.10808435 0.056887574
-0.31313789 -0.10801431 0.056834001
-0.31331038 -0.10792335 0.056940768
-0.3134993 -0.10785483 0.056845635
-0.31369159 -0.10778434 0.056753948
-0.3138791 -0.10770475 0.05673841
-0.31402671 -0.10764985 0.056673389
-0.31421351 -0.10755197 0.056784723
-0.31439206 -0.10746819 0.056824565
-0.3145873 -0.10740942 0.056644075
-0.31477514 -0.10732293 0.056674663
-0.3149341 -0.10724752 0.056715719
-0.31513491 -0.10716874 0.056655154
-0.31531191 -0.10708308 0.056712314
-0.31549364 -0.10700519 0.056702547
-0.31568065 -0.10693919 0.056595895
-0.31584999 -0.10685924 0.056636922
-0.31599832 -0.10681349 0.056507308
-0.31616026 -0.10675521 0.056422636
-0.31636021 -0.10666091 0.056470491
-0.31656754 -0.10656796 0.056487184
-0.31675726 -0.10647913 0.056528151
-0.31693217 -0.10641012 0.056478046
-0.31710786 -0.10632369 0.056544434
-0.31730402 -0.10623307 0.056578457
-0.31748581 -0.10616596 0.056494877
-0.31768176 -0.10609115 0.056421645
-0.31784135 -0.10603169 0.056351982
-0.31802353 -0.10594852 0.056376819
-0.31820709 -0.1058678 0.056380894
-0.31838569 -0.10578686 0.056401134
-0.31855091 -0.1057263 0.056322217
-0.31873032 -0.10565347 0.056284785
-0.3189123 -0.10557123 0.056303866
-0.31911072 -0.10548232 0.05631943
-0.31929457 -0.10540164 0.056322355
-0.31948143 -0.10532472 0.056290668
-0.31966338 -0.10525195 0.056245148
-0.31984472 -0.10516272 0.056313828
-0.32002351 -0.10509557 0.056239482
-0.32018793 -0.10503589 0.056157112
-0.32039213 -0.10495054 0.056131143
-0.32057363 -0.10487425 0.056111004
-0.32075933 -0.10478684 0.056154292
-0.32093528 -0.1047118 0.056142237
-0.32109135 -0.10465743 0.056048356
-0.32122788 -0.10462292 0.055877257
-0.32145339 -0.10449887 0.05605191
-0.32167715 -0.10439806 0.05607317
-0.32184973 -0.10432872 0.056032296
-0.32201064 -0.10425466 0.056058355
-0.32220918 -0.104175 0.056010492
-0.32240838 -0.10409049 0.055993762
-0.32259873 -0.10400105 0.056037039
-0.32276395 -0.10393948 0.05596504
-0.32294551 -0.10385641 0.055991039
-0.32312202 -0.10377385 0.056028586
-0.32331038 -0.10369898 0.055978432
-0.32348493 -0.10363045 0.055926017
-0.32367241 -0.10354971 0.055918556
-0.32387489 -0.10345735 0.055945646
-0.32404441 -0.10338578 0.055929001
-0.32421818 -0.10331152 0.055918112
-0.32442281 -0.10323022 0.055863302
-0.32460997 -0.10314691 0.055874292
-0.32476485 -0.10308985 0.055802334
-0.32491735 -0.10302605 0.055783428
-0.32507065 -0.10298118 0.055633038
-0.32530069 -0.10286038 0.055771928
-0.32549548 -0.10277002 0.055808265
-0.32567686 -0.10270512 0.055710852
-0.3258644 -0.10261539 0.055764511
-0.32604927 -0.10254237 0.05571207
-0.32625085 -0.10244955 0.055744927
-0.3264257 -0.1023777 0.055714436
-0.326599 -0.10231107 0.055652797
-0.32678148 -0.102232 0.055648796
-0.32696253 -0.10215186 0.055656347
-0.3271603 -0.10206781 0.055640772
-0.32731232 -0.10200827 0.055594191
-0.32749432 -0.10193311 0.055564824
-0.3276777 -0.10184722 0.055604659
-0.32787257 -0.10174938 0.055691741
-0.32805553 -0.10167924 0.055625461
-0.32824835 -0.10160208 0.055577613
-0.32843128 -0.10152315 0.055571318
-0.3286292 -0.10144529 0.055513069
-0.32878876 -0.10138483 0.055450313
-0.32896173 -0.1013187 0.055386379
-0.32916963 -0.10121112 0.0555011
-0.32935113 -0.10113432 0.055484429
-0.32954639 -0.10105712 0.055429649
-0.32971743 -0.10098794 0.055392239
-0.3298738 -0.1009287 0.055330649
-0.33007306 -0.10083554 0.055372741
-0.33026859 -0.10075533 0.055337571
-0.33044985 -0.10067376 0.055354342
-0.33063805 -0.10059455 0.055334188
-0.33083051 -0.10050757 0.055354379
-0.3309949 -0.1004467 0.055280082
-0.33117115 -0.10037677 0.055232283
-0.33136946 -0.10028826 0.055245541
-0.33156359 -0.10020223 0.055254202
-0.33174622 -0.10013003 0.055202916
-0.33192801 -0.10005109 0.055200078
-0.33209848 -0.099980459 0.055174202
-0.33229631 -0.099895537 0.055164404
-0.33248648 -0.099809557 0.05518461
-0.33267698 -0.099728331 0.055171363
-0.33284819 -0.099659584 0.055130493
-0.33306068 -0.099563032 0.055156402
-0.33323473 -0.099493541 0.055112056
-0.33340907 -0.099413961 0.055135772
-0.33359101 -0.099337995 0.055112172
-0.33376926 -0.099268712 0.055053979
-0.33398604 -0.099172644 0.055063725
-0.33415601 -0.099110357 0.054982498
-0.3343462 -0.099015743 0.055061519
-0.33452812 -0.098947234 0.054987174
-0.33469614 -0.098877676 0.054961309
-0.33489129 -0.098792054 0.0549642
-0.33509156 -0.09870556 0.054957852
-0.33527291 -0.098623767 0.054975774
-0.33544663 -0.098555103 0.05492682
-0.33565733 -0.09846659 0.054903131
-0.33584738 -0.098384723 0.054895662
-0.33601311 -0.098318033 0.054857116
-0.33619225 -0.098239049 0.05486235
-0.33637458 -0.098167993 0.05480415
-0.33656958 -0.098074324 0.054862406
-0.33676085 -0.097995982 0.054827243
-0.33694229 -0.097925991 0.054764438
-0.33712551 -0.09783864 0.054814652
-0.33731058 -0.097764865 0.054766815
-0.33753192 -0.097663589 0.054798469
-0.33768302 -0.097610541 0.054710366
-0.33785102 -0.097541846 0.054678731
-0.33806443 -0.097438462 0.054748461
-0.33824894 -0.097361207 0.054726016
-0.33841527 -0.097305074 0.054613642
-0.33862105 -0.097212106 0.054634955
-0.33882272 -0.097121455 0.054652821
-0.33900282 -0.097044766 0.054639604
-0.33917964 -0.0969778 0.054569893
-0.33937231 -0.09689039 0.05459239
-0.33956146 -0.096806705 0.054599918
-0.33973646 -0.096733436 0.05457864
-0.33994102 -0.096646599 0.054561891
-0.34013686 -0.096564569 0.054538254
-0.3403278 -0.096481465 0.05453654
-0.34051886 -0.096402362 0.054507148
-0.34070715 -0.096318051 0.054521594
-0.34086522 -0.096258074 0.05446
-0.34106946 -0.096167989 0.054466326
-0.34126306 -0.096086606 0.054445002
-0.34144935 -0.096008569 0.054422542
-0.34165773 -0.095920563 0.054402325
-0.34182382 -0.09585084 0.054383382
-0.34201401 -0.095771104 0.054360908
-0.34222105 -0.095678777 0.054374151
-0.34242114 -0.09559726 0.05433435
-0.34260619 -0.095515035 0.054344185
-0.34278673 -0.095437318 0.054336742
-0.3429766 -0.095363982 0.054271594
-0.34316218 -0.095283389 0.054268744
-0.34336546 -0.095193379 0.054277379
-0.34355307 -0.095114768 0.054254912
-0.34374249 -0.095036387 0.054225527
-0.34392178 -0.094958358 0.054223847
-0.34409675 -0.094892032 0.05415529
-0.34428513 -0.09481106 0.054146662
-0.34449235 -0.094717816 0.054165665
-0.25644416 -0.1352623 0.039795838
-0.256652 -0.13518399 0.039711013
-0.25685346 -0.13510866 0.039625071
-0.25704935 -0.135031 0.039571427
-0.25725538 -0.13495451 0.039479699
-0.25744116 -0.13487738 0.039452612
-0.25762483 -0.13480303 0.039412849
-0.25781098 -0.13472608 0.039383449
-0.25798759 -0.13465075 0.039371382
-0.25817046 -0.13457404 0.03935007
-0.25834468 -0.13449891 0.039343774
-0.25851715 -0.13442387 0.039342105
-0.25867945 -0.13434903 0.039369289
-0.25884804 -0.13427414 0.039378002
-0.25901574 -0.13419932 0.039389029
-0.25918412 -0.13412318 0.03940697
-0.25933701 -0.13404855 0.039460707
-0.25949466 -0.13397254 0.039509825
-0.25965184 -0.1338979 0.039550867
-0.25979897 -0.13382055 0.039640374
-0.25994456 -0.13374454 0.03972527
-0.26009336 -0.1336685 0.039800931
-0.26023757 -0.13359241 0.039890446
-0.26038304 -0.13351628 0.0399765
-0.26052201 -0.13344148 0.040072959
-0.26066348 -0.13336524 0.040171709
-0.26080582 -0.13328895 0.040268146
-0.26094943 -0.13321263 0.040361125
-0.26108962 -0.13313763 0.040455271
-0.2612237 -0.13306105 0.040578257
-0.26135445 -0.13298577 0.040702406
-0.26148224 -0.1329089 0.040846184
-0.26161435 -0.13283202 0.040977247
-0.26173747 -0.13275482 0.041137181
-0.26186234 -0.13267753 0.041292492
-0.26197863 -0.13259842 0.04148588
-0.26208937 -0.13252339 0.041667756
-0.26220241 -0.13244383 0.041873846
-0.25790492 -0.13145302 0.061425038
-0.25810212 -0.131366 0.061431363
-0.2583046 -0.13128109 0.061407685
-0.25850666 -0.13119449 0.061396696
-0.25867134 -0.13111472 0.061450399
-0.25889325 -0.13102944 0.061371304
-0.25909609 -0.13094133 0.061368383
-0.25929096 -0.13085277 0.06139202
-0.25951856 -0.13077009 0.061278313
-0.25970536 -0.13067934 0.06134117
-0.25990689 -0.13060059 0.061278284
-0.26005405 -0.13052896 0.061328579
-0.26026735 -0.13044761 0.06124837
-0.26048148 -0.13035728 0.061226957
-0.26070839 -0.13025697 0.061235499
-0.26091722 -0.13017012 0.061206035
-0.26112324 -0.13008501 0.061173122
-0.26132551 -0.12999967 0.061152905
-0.26152596 -0.12991427 0.061138459
-0.26173037 -0.12983122 0.061096326
-0.26192111 -0.12974888 0.061089985
-0.26210755 -0.12966049 0.061137848
-0.2623091 -0.12957934 0.061091118
-0.26246783 -0.12950352 0.061135612
-0.26269007 -0.12942858 0.060985006
-0.26290303 -0.12933165 0.061012052
-0.26307514 -0.12925744 0.061005764
-0.26329592 -0.12916929 0.060949735
-0.26345488 -0.1290898 0.061018452
-0.26368362 -0.12900476 0.060917426
-0.26387453 -0.12891932 0.060931839
-0.26408038 -0.12882784 0.06094275
-0.26425964 -0.12875694 0.060892623
-0.26443106 -0.12866917 0.060980901
-0.26464358 -0.12858273 0.060937583
-0.26482695 -0.12850057 0.060952026
-0.26505119 -0.12841597 0.060861386
-0.26523927 -0.12832448 0.060925402
-0.26546264 -0.12824413 0.060808249
-0.26563856 -0.12815914 0.060864232
-0.26584196 -0.12807618 0.060824402
-0.26607955 -0.12798408 0.060745269
-0.26626083 -0.12791042 0.060707808
-0.26642704 -0.12783659 0.060716532
-0.26665074 -0.12773852 0.060719319
-0.26682517 -0.12765348 0.060779914
-0.26702121 -0.12756783 0.060780473
-0.2672092 -0.12749785 0.060698025
-0.26739609 -0.12741719 0.060691696
-0.26759493 -0.12733656 0.060649566
-0.26777023 -0.12725182 0.06070555
-0.26802349 -0.12715541 0.060609065
-0.26820213 -0.12708224 0.06057623
-0.26841706 -0.12699206 0.060551368
-0.26858622 -0.12691946 0.060542777
-0.268758 -0.12684304 0.060552642
-0.26900136 -0.12674333 0.06050808
-0.26917899 -0.12666823 0.060491402
-0.26934025 -0.12659876 0.060485143
-0.26954916 -0.12650342 0.060513347
-0.26973975 -0.1264313 0.060437806
-0.26991647 -0.12635405 0.060438424
-0.27011302 -0.1262653 0.060458593
-0.27028859 -0.12618789 0.060463816
-0.2704919 -0.12610768 0.060405545
-0.27070087 -0.12602431 0.060351864
-0.27089396 -0.12593266 0.060402021
-0.27110261 -0.12584946 0.060348339
-0.27130976 -0.12576605 0.060300428
-0.27148244 -0.12568837 0.06031606
-0.27168411 -0.12560144 0.060308527
-0.27189398 -0.12551668 0.060261764
-0.27207983 -0.12543783 0.060246207
-0.27225283 -0.12536289 0.060242228
-0.27246791 -0.12527263 0.060217351
-0.27265412 -0.12518924 0.060231775
-0.27284971 -0.1251085 0.06020005
-0.27302429 -0.12502933 0.060220283
-0.27321383 -0.12494954 0.060200103
-0.27340856 -0.12486884 0.06017068
-0.27359989 -0.12478473 0.060174722
-0.27379274 -0.12470113 0.060170673
-0.27397928 -0.12463095 0.060093999
-0.27414659 -0.12454986 0.060148846
-0.274344 -0.12447307 0.06008482
-0.27455455 -0.12438513 0.060057662
-0.27473155 -0.12430203 0.06009749
-0.27493426 -0.12423003 0.059985004
-0.27512121 -0.12413718 0.060061716
-0.27529091 -0.12406757 0.060031213
-0.27549085 -0.12398984 0.059966024
-0.27568474 -0.12390748 0.059950449
-0.27588341 -0.12382151 0.059945233
-0.27606449 -0.12374829 0.059905477
-0.27627212 -0.12365758 0.059906002
-0.27643558 -0.12358629 0.059905507
-0.27663258 -0.12350832 0.059850708
-0.27683702 -0.12342221 0.059829328
-0.27701765 -0.12335223 0.059768811
-0.27719638 -0.12326752 0.059814397
-0.27738923 -0.12318274 0.059818435
-0.27759519 -0.12310053 0.059765913
-0.27777743 -0.12302308 0.059751518
-0.27795285 -0.12294574 0.059756756
-0.27814528 -0.12286402 0.059741184
-0.27828822 -0.12278748 0.059837621
-0.27844119 -0.12270927 0.05991558
-0.27866068 -0.12263063 0.059798434
-0.27889216 -0.12254573 0.059688177
-0.27909371 -0.12246562 0.059634518
-0.27927536 -0.12238555 0.059639737
-0.27946162 -0.12230772 0.059616104
-0.27964944 -0.12222765 0.059602857
-0.27983272 -0.12214857 0.059596539
-0.28000927 -0.12208191 0.059525654
-0.2801972 -0.12199588 0.059552766
-0.28037986 -0.12191673 0.059548747
-0.28058767 -0.12182813 0.059534281
-0.2807599 -0.12175014 0.05955337
-0.28094563 -0.12167929 0.05948361
-0.28111741 -0.12160116 0.059505001
-0.28129885 -0.1215283 0.059461787
-0.28148779 -0.12144641 0.059457749
-0.28167152 -0.12137845 0.059374161
-0.28187066 -0.12128569 0.059413925
-0.28205913 -0.1212106 0.059364907
-0.2822412 -0.12112849 0.059382811
-0.28240642 -0.12105019 0.059424989
-0.28258455 -0.12097267 0.05942329
-0.28277725 -0.12090063 0.059340835
-0.28297389 -0.12081708 0.059325248
-0.28316888 -0.12074337 0.059247389
-0.28334799 -0.12065968 0.059284899
-0.28352004 -0.12058228 0.05930052
-0.28371024 -0.12049849 0.059305716
-0.28388515 -0.12042306 0.059299417
-0.28406483 -0.12035467 0.059230842
-0.28425866 -0.12026608 0.059257932
-0.2844474 -0.12018918 0.059220456
-0.28463835 -0.12011014 0.059191041
-0.28483731 -0.1200254 0.059176601
-0.28501266 -0.11995079 0.059163388
-0.28519723 -0.11987131 0.059155911
-0.28537184 -0.1197923 0.059174985
-0.28555316 -0.11972252 0.059111007
-0.28574753 -0.11963876 0.059103496
-0.28592622 -0.11956727 0.059059139
-0.28613102 -0.11948387 0.05901815
-0.28632486 -0.11940001 0.059012953
-0.28648439 -0.11933415 0.0589871
-0.28666902 -0.1192555 0.058973856
-0.2868551 -0.11917383 0.058976755
-0.28704861 -0.11909436 0.05894272
-0.28723213 -0.1190194 0.058907568
-0.28739086 -0.11893546 0.059007421
-0.28759244 -0.11885922 0.058927238
-0.28776318 -0.11878172 0.058947474
-0.28794348 -0.11870409 0.058940016
-0.28815871 -0.11861835 0.05888401
-0.28831762 -0.11854346 0.05892159
-0.28847465 -0.11847617 0.058913045
-0.28866541 -0.11840954 0.058799442
-0.28886735 -0.11831573 0.058838047
-0.28905082 -0.11824199 0.058794815
-0.28922436 -0.11816782 0.058783911
-0.28938186 -0.11809134 0.05883649
-0.28958935 -0.11801389 0.058747061
-0.28977162 -0.11793423 0.05874766
-0.28995955 -0.11785058 0.058758628
-0.29015657 -0.11777768 0.058669224
-0.2903167 -0.1177097 0.058656055
-0.29048038 -0.11764611 0.058602512
-0.2906681 -0.11755139 0.058689587
-0.29085112 -0.11747868 0.058640599
-0.29104194 -0.11739917 0.058614656
-0.29121915 -0.11731919 0.05863256
-0.29141384 -0.11723918 0.058598533
-0.29160038 -0.11715411 0.058623336
-0.29176334 -0.11709066 0.058570947
-0.29194018 -0.11701641 0.058550812
-0.29212373 -0.11693332 0.058571018
-0.29230571 -0.11685413 0.058569312
-0.29248875 -0.11677667 0.058552615
-0.29266861 -0.11670094 0.058533609
-0.29285654 -0.11662474 0.058493834
-0.29303694 -0.11654335 0.058511741
-0.29321116 -0.11647245 0.058476619
-0.29339448 -0.11639605 0.058451846
-0.29357517 -0.11631522 0.058465134
-0.29376048 -0.11624253 0.058409225
-0.29395062 -0.11616416 0.058377504
-0.29412112 -0.11608727 0.058394291
-0.29429814 -0.11601499 0.058360316
-0.29448518 -0.11593104 0.058375891
-0.29465228 -0.1158553 0.058394995
-0.29482731 -0.11578758 0.058335647
-0.29500878 -0.11570861 0.058333948
-0.29519373 -0.11562863 0.05832877
-0.29537958 -0.11555064 0.05830745
-0.29556563 -0.11547337 0.058280364
-0.29574761 -0.11539587 0.058267131
-0.29594547 -0.11531922 0.058200799
-0.29613221 -0.11523475 0.058220983
-0.29631186 -0.11515167 0.058252737
-0.29646257 -0.11508324 0.05827073
-0.29664513 -0.11501799 0.058172151
-0.29682803 -0.11494381 0.058133539
-0.29700744 -0.11485998 0.058171056
-0.2971848 -0.11478095 0.05818205
-0.29734769 -0.11471514 0.05814581
-0.29752305 -0.11465339 0.058044948
-0.29769954 -0.11457186 0.058075551
-0.29787225 -0.11448994 0.058120005
-0.298058 -0.11441434 0.058082532
-0.29823512 -0.1143344 0.058100447
-0.2984173 -0.11425968 0.058067616
-0.29859537 -0.11418337 0.058057852
-0.29879385 -0.11410122 0.05802726
-0.29899463 -0.11401383 0.058025494
-0.29918277 -0.11393449 0.058006477
-0.2993592 -0.11385111 0.058049764
-0.29953855 -0.11378136 0.057991561
-0.29971799 -0.11369447 0.058049828
-0.29989606 -0.1136185 0.058037765
-0.30006823 -0.11356964 0.057858489
-0.30025107 -0.11348145 0.057915602
-0.300421 -0.11339956 0.057968132
-0.3005887 -0.1133254 0.057974551
-0.30075958 -0.11324869 0.057989024
-0.30091575 -0.11319242 0.05790782
-0.30110288 -0.11313567 0.057737734
-0.30128846 -0.11306927 0.05763799
-0.30149943 -0.11295056 0.057819564
-0.30165964 -0.11286987 0.057892881
-0.30181387 -0.11279702 0.057930477
-0.30199552 -0.11272575 0.057875723
-0.30219448 -0.11266199 0.057718277
-0.30235821 -0.11257857 0.057799663
-0.30254 -0.11251654 0.05768149
-0.30273089 -0.11243819 0.057647459
-0.30290538 -0.11236972 0.057595037
-0.30311233 -0.11227472 0.057626702
-0.30327022 -0.11221144 0.057588167
-0.30344778 -0.1121374 0.057564564
-0.30361873 -0.11206082 0.057577889
-0.30376995 -0.11199503 0.057576276
-0.30398688 -0.11190566 0.057539877
-0.30415097 -0.11184561 0.057460956
-0.30434874 -0.11174329 0.05756991
-0.30453932 -0.11166526 0.057534739
-0.30471674 -0.11159178 0.057507679
-0.30489478 -0.1115072 0.057554416
-0.30505344 -0.11142752 0.057625443
-0.30522361 -0.11136683 0.057532668
-0.30539066 -0.11130345 0.057467584
-0.30560708 -0.11121702 0.057412721
-0.30578756 -0.11114237 0.057384498
-0.30596566 -0.11106046 0.057412788
-0.30614394 -0.11097781 0.057445694
-0.30632052 -0.11091011 0.057381731
-0.3064912 -0.11083905 0.057358153
-0.30666557 -0.11076353 0.057354167
-0.30685556 -0.11068659 0.057313226
-0.30701959 -0.11061843 0.057289667
-0.30718264 -0.11055628 0.057228051
-0.30737102 -0.11046956 0.057258621
-0.30755621 -0.11038424 0.057289198
-0.30771813 -0.11031075 0.057308316
-0.30792579 -0.11023591 0.057200432
-0.30810079 -0.11015723 0.057216048
-0.30826411 -0.11007722 0.057275523
-0.30845836 -0.1099788 0.057368346
-0.30864203 -0.10991713 0.057242088
-0.30879575 -0.10986871 0.057114761
-0.30896276 -0.10978656 0.057177685
-0.30916214 -0.10970621 0.057132106
-0.30935284 -0.10962473 0.057119999
-0.30951777 -0.10955246 0.057121806
-0.3096751 -0.10948724 0.057098269
-0.30985236 -0.10941263 0.057079282
-0.31004661 -0.10932911 0.05707062
-0.31022823 -0.10924923 0.057074681
-0.31040528 -0.10917557 0.05704993
-0.31058374 -0.10909689 0.057055157
-0.31076419 -0.1090214 0.057032693
-0.31094721 -0.108947 0.056995239
-0.31114349 -0.10885718 0.057023473
-0.31131762 -0.10878378 0.057005644
-0.31149656 -0.10871319 0.056954369
-0.31165922 -0.10864884 0.056908898
-0.31183407 -0.10857309 0.056904908
-0.31201822 -0.10849499 0.056889363
-0.31218055 -0.10843129 0.056840431
-0.31237736 -0.10834902 0.056815621
-0.31255385 -0.10826088 0.056891199
-0.31275293 -0.10817254 0.056900978
-0.31292623 -0.1081017 0.056868158
-0.31307888 -0.10803412 0.056874622
-0.31326932 -0.10795445 0.056850977
-0.31343332 -0.10787176 0.056926593
-0.31362355 -0.10780707 0.056801468
-0.31381485 -0.10772516 0.056790508
-0.31400129 -0.10765552 0.056710374
-0.31415451 -0.10759361 0.056676462
-0.31432712 -0.10749771 0.056816638
-0.31450412 -0.10741797 0.056833401
-0.31470403 -0.10736106 0.056626368
-0.31487873 -0.10727405 0.056699645
-0.31504723 -0.10720174 0.056691058
-0.31524667 -0.10712019 0.056653555
-0.31541273 -0.10703542 0.056737233
-0.31560352 -0.10696134 0.056674387
-0.31577599 -0.10689814 0.056591984
-0.31594932 -0.10682137 0.056599528
-0.31609255 -0.10678089 0.056449179
-0.31626272 -0.10671631 0.056382924
-0.3164736 -0.1066103 0.056478009
-0.31667066 -0.10652268 0.056488942
-0.31685066 -0.10644334 0.056494165
-0.31702873 -0.10636805 0.056477483
-0.31720072 -0.10628408 0.056538083
-0.31738684 -0.10619818 0.056569807
-0.31758457 -0.1061253 0.056478105
-0.31777063 -0.10605481 0.056404889
-0.31792948 -0.10599196 0.056360587
-0.31811538 -0.10590683 0.056387704
-0.31829265 -0.10582851 0.056394085
-0.31846002 -0.1057545 0.056400497
-0.31864354 -0.1056885 0.056304228
-0.31881696 -0.10561743 0.056272555
-0.3189933 -0.10553648 0.056299701
-0.31919941 -0.10544304 0.056323301
-0.31937435 -0.10536945 0.056304321
-0.3195695 -0.10528688 0.056286432
-0.31974542 -0.10521609 0.056245528
-0.31992033 -0.10513388 0.05628537
-0.32010806 -0.10506436 0.056200616
-0.32025245 -0.1050134 0.056118291
-0.32048109 -0.10490777 0.056157969
-0.32065031 -0.10483988 0.056117088
