# .PCD v0.7 - Point Cloud Data file format
VERSION 0.7
FIELDS x y z
SIZE 4 4 4
TYPE F F F
COUNT 1 1 1
WIDTH 1261
HEIGHT 1
VIEWPOINT 0 0 0 1 0 0 0
POINTS 1261
DATA ascii
-0.097053796 -0.4680562 0.051864088
-0.097185336 -0.46816209 0.051821802
-0.097324573 -0.46829692 0.051643364
-0.097483143 -0.46841583 0.051643599
-0.097625084 -0.46852991 0.051598944
-0.097780846 -0.46864671 0.051599197
-0.097929411 -0.46874183 0.051695228
-0.098070912 -0.46886989 0.05156637
-0.09823174 -0.46899131 0.051561985
-0.098380752 -0.46909282 0.051622253
-0.098543338 -0.4692179 0.05160401
-0.098686777 -0.46932858 0.051585883
-0.098834679 -0.46944481 0.051555034
-0.098976105 -0.4695583 0.051511534
-0.099137574 -0.46966624 0.051589038
-0.099266231 -0.46977407 0.051522538
-0.099430263 -0.4698965 0.051526204
-0.099564739 -0.47000164 0.051501203
-0.099701546 -0.47011501 0.05143813
-0.099859551 -0.47023958 0.051402614
-0.10000221 -0.47034478 0.05141332
-0.10014816 -0.47044578 0.051463228
-0.10030083 -0.47054946 0.051526934
-0.10044805 -0.47065476 0.051557232
-0.10059809 -0.47078887 0.051430628
-0.10074082 -0.4708941 0.051441345
-0.10089116 -0.47101665 0.051383954
-0.10103845 -0.47112179 0.051415391
-0.10117208 -0.47122708 0.051385786
-0.10131492 -0.47134733 0.051308826
-0.10146634 -0.47146305 0.051296417
-0.10160577 -0.4715766 0.051243708
-0.10175582 -0.47167891 0.051303968
-0.10190535 -0.47179165 0.051300798
-0.10203805 -0.47191644 0.051152386
-0.10219161 -0.47202021 0.051219545
-0.10233983 -0.4721294 0.051231381
-0.10249148 -0.47223997 0.051250108
-0.10264389 -0.4723362 0.051356502
-0.10278392 -0.47244865 0.051313009
-0.10291847 -0.47257033 0.051191121
-0.10307432 -0.47269505 0.051145229
-0.10322999 -0.47279787 0.051227376
-0.10337401 -0.47290644 0.051224239
-0.10351806 -0.4730064 0.051271856
-0.10367001 -0.47314271 0.051140629
-0.10383786 -0.47328275 0.051057756
-0.10396098 -0.47338662 0.050990142
-0.10411423 -0.47349605 0.051022708
-0.10425724 -0.47358873 0.05110839
-0.10439137 -0.47371265 0.050971504
-0.10454405 -0.47384676 0.050856434
-0.10468196 -0.47395527 0.050826792
-0.1048249 -0.47404441 0.050933242
-0.10497452 -0.47416446 0.050887391
-0.10512411 -0.47428054 0.050864603
-0.10525729 -0.47438824 0.050818849
-0.105405 -0.47449017 0.050871056
-0.10553735 -0.47460586 0.050774552
-0.10568902 -0.47470921 0.050835963
-0.10583492 -0.47482371 0.050806277
-0.10598034 -0.47493842 0.050773136
-0.10612381 -0.47505426 0.050725017
-0.10626587 -0.47516352 0.050709199
-0.10642364 -0.47528535 0.050688684
-0.10658538 -0.47539783 0.050740797
-0.10672703 -0.47550383 0.050742291
-0.10687546 -0.47561672 0.050733358
-0.10701802 -0.47572577 0.050720997
-0.10716106 -0.47584146 0.050671719
-0.10731956 -0.47596288 0.050656967
-0.1074633 -0.47607124 0.050653819
-0.1076034 -0.47617805 0.050643783
-0.10774937 -0.47627199 0.050735217
-0.10788251 -0.47638223 0.050674465
-0.10803114 -0.47649503 0.050666686
-0.10817983 -0.47660458 0.05067851
-0.10833011 -0.47673297 0.050586522
-0.1084611 -0.47684371 0.050513092
-0.10861047 -0.4769465 0.05056759
-0.10877644 -0.47707433 0.050548173
-0.10890737 -0.47717541 0.050531272
-0.10904645 -0.47728577 0.050495863
-0.1091926 -0.47740263 0.050453495
-0.1093397 -0.4775098 0.050472245
-0.10948598 -0.47761732 0.050485242
-0.10963656 -0.47773555 0.050454378
-0.10976893 -0.47783908 0.050429389
-0.10991251 -0.47795069 0.050406642
-0.1100723 -0.47806561 0.050435711
-0.11021226 -0.47817251 0.050424516
-0.1103506 -0.47828877 0.050351053
-0.11050233 -0.47840059 0.050362859
-0.11063894 -0.47851145 0.050313625
-0.11079565 -0.47862467 0.050339241
-0.11093491 -0.47873753 0.050289992
-0.11108115 -0.47885108 0.050267231
-0.11122239 -0.47895759 0.050264109
-0.11136803 -0.47906286 0.050287489
-0.111513 -0.47917962 0.050240505
-0.11166505 -0.47929716 0.050220013
-0.11181337 -0.4794074 0.050226077
-0.11195064 -0.47951776 0.050182611
-0.11209156 -0.4796299 0.050144881
-0.11225258 -0.47975066 0.050145105
-0.11239702 -0.47986192 0.050128113
-0.11253742 -0.47996876 0.050119225
-0.11268059 -0.48008299 0.050079186
-0.11283717 -0.48018625 0.050162479
-0.11298364 -0.48029983 0.050140865
-0.1131385 -0.48041949 0.050120365
-0.11327095 -0.48052546 0.050081536
-0.11341984 -0.48063591 0.050088748
-0.1135588 -0.48075092 0.050025649
-0.11370501 -0.48086703 0.04998789
-0.11385649 -0.48097706 0.050008938
-0.11400422 -0.48108786 0.050009236
-0.11415183 -0.48119617 0.050023377
-0.11428204 -0.48131242 0.049914192
-0.11444505 -0.48142332 0.0499813
-0.11458076 -0.48154351 0.049873248
-0.11472695 -0.48165214 0.049879324
-0.11487538 -0.4817605 0.049896918
-0.11502553 -0.48187113 0.049908735
-0.11518329 -0.48198807 0.049917053
-0.11532512 -0.48209989 0.04988509
-0.11545901 -0.48221028 0.049826633
-0.11560102 -0.48232442 0.049781989
-0.11575137 -0.48243755 0.049779963
-0.1158817 -0.48254821 0.049704228
-0.11602841 -0.4826594 0.049697611
-0.11618948 -0.48276687 0.049776271
-0.11634421 -0.48287973 0.049794987
-0.11650702 -0.48299891 0.049812499
-0.11664402 -0.48310888 0.049770184
-0.11678663 -0.48322523 0.049715146
-0.11692156 -0.48333758 0.049649764
-0.11706676 -0.48345134 0.049621239
-0.11721316 -0.48356053 0.049625006
-0.11736584 -0.48367387 0.049632195
-0.11750029 -0.48378387 0.049578354
-0.11764058 -0.48389575 0.04953948
-0.1178038 -0.48400638 0.049608894
-0.11797185 -0.48411477 0.049712893
-0.11811997 -0.48423955 0.049632445
-0.11824595 -0.48434773 0.049552124
-0.11839579 -0.48446146 0.049544342
-0.11853614 -0.48457122 0.049518153
-0.11870063 -0.48468673 0.049564496
-0.11886111 -0.48479176 0.049654685
-0.11902173 -0.4849034 0.049706817
-0.11914579 -0.48502424 0.049543452
-0.11926981 -0.48513645 0.049430855
-0.11941293 -0.48525044 0.049391963
-0.1195682 -0.48536432 0.04940721
-0.11971837 -0.48547831 0.049399424
-0.11986467 -0.48559231 0.049374353
-0.11999927 -0.4857001 0.049334351
-0.12015349 -0.48581418 0.049343843
-0.12029214 -0.48592815 0.049285367
-0.1204496 -0.48604643 0.049284451
-0.12056999 -0.48615393 0.049183406
-0.12075669 -0.48626885 0.049331121
-0.12089176 -0.48638073 0.049269207
-0.12101944 -0.48649234 0.049176186
-0.1211836 -0.48660702 0.04922599
-0.12131724 -0.48672074 0.049146786
-0.12148657 -0.48683381 0.049228854
-0.12163375 -0.48695007 0.049194548
-0.12175341 -0.48705918 0.049080819
-0.12191846 -0.48716843 0.049166374
-0.12206286 -0.48728457 0.049120553
-0.12222143 -0.48739761 0.049155388
-0.12236644 -0.48751378 0.049111877
-0.12251094 -0.48762801 0.049077585
-0.12265559 -0.48773846 0.049066365
-0.12279829 -0.48784879 0.049047083
-0.12296089 -0.48796621 0.049073827
-0.12310885 -0.48808265 0.049041826
-0.12325576 -0.48819339 0.049038671
-0.12339471 -0.48830542 0.048992883
-0.12354787 -0.48842049 0.048991989
-0.12370214 -0.48853382 0.049006093
-0.1238482 -0.4886502 0.048966035
-0.12399456 -0.48876661 0.048927125
-0.12414198 -0.48887578 0.048935495
-0.12428121 -0.48898607 0.048901234
-0.12444416 -0.48910415 0.048925675
-0.12459623 -0.48921761 0.048929401
-0.12474791 -0.48933467 0.048910066
-0.12488922 -0.48944888 0.048861958
-0.12502059 -0.48955658 0.048808143
-0.12516797 -0.48966965 0.048793446
-0.1253546 -0.48978904 0.048914634
-0.12547904 -0.48990488 0.048782416
-0.12561974 -0.49001548 0.048752766
-0.12578204 -0.49012876 0.048802581
-0.12592313 -0.49024475 0.048742931
-0.12606743 -0.49035591 0.048725951
-0.12622656 -0.4904725 0.048742332
-0.12638614 -0.4905892 0.048759863
-0.12652671 -0.49070346 0.048708297
-0.12666126 -0.4908151 0.048645228
-0.12681471 -0.49092939 0.048650112
-0.12695891 -0.49104244 0.048621595
-0.12712239 -0.4911617 0.048641413
-0.12725499 -0.49127308 0.048571434
-0.12741214 -0.49138641 0.048598208
-0.12756178 -0.49150038 0.048588116
-0.12772451 -0.49161813 0.048613697
-0.127857 -0.4917312 0.048533339
-0.12799023 -0.49184266 0.048465665
-0.1281414 -0.49195698 0.048460186
-0.12831351 -0.49207646 0.048516862
-0.12847547 -0.49219438 0.048537835
-0.12859511 -0.49230528 0.048413727
-0.12877825 -0.49242359 0.048525706
-0.12890731 -0.49253607 0.048433829
-0.12907092 -0.49265286 0.048468642
-0.12920871 -0.49276522 0.048415944
-0.12935302 -0.49287871 0.048385113
-0.12950708 -0.49299562 0.048377298
-0.12964283 -0.49310759 0.048317689
-0.12981367 -0.49322769 0.048365142
-0.12993932 -0.4933362 0.048281364
-0.13010344 -0.49345517 0.048305787
-0.13025084 -0.4935694 0.04828418
-0.13041274 -0.49368653 0.048309766
-0.13056703 -0.49380222 0.04831003
-0.13070263 -0.49391586 0.048240032
-0.13086668 -0.49403358 0.048271388
-0.13100228 -0.49414721 0.04820139
-0.13115868 -0.49426353 0.04820741
-0.13130617 -0.49437961 0.048175413
-0.13144432 -0.49449223 0.0481227
-0.1316213 -0.49461299 0.048193198
-0.13176209 -0.49472779 0.048139319
-0.13190986 -0.49484253 0.04811655
-0.13205042 -0.4949542 0.048079971
-0.13221443 -0.49507406 0.048098639
-0.13236642 -0.49519137 0.048079304
-0.13251141 -0.49530715 0.048038092
-0.13266966 -0.49542287 0.04805563
-0.13281041 -0.49553627 0.048009831
-0.13295716 -0.49565101 0.047982447
-0.13310459 -0.49576744 0.047948152
-0.1332839 -0.49588978 0.048019774
-0.13342145 -0.49600253 0.047963616
-0.1335609 -0.49611571 0.047913205
-0.13372856 -0.49623558 0.047947999
-0.13388059 -0.4963533 0.047926355
-0.13403803 -0.49647236 0.047920831
-0.13419195 -0.49658915 0.047913015
-0.13432972 -0.49670205 0.047856852
-0.13449696 -0.49682218 0.047888178
-0.13464066 -0.49693662 0.047849283
-0.13478597 -0.49705145 0.047814988
-0.13496888 -0.49717864 0.047873911
-0.13510728 -0.49729183 0.047818899
-0.13526247 -0.4974151 0.047778789
-0.13538559 -0.49752149 0.047696173
-0.13556837 -0.49764898 0.047752786
-0.1357004 -0.49775916 0.047687434
-0.13585773 -0.49787733 0.047686517
-0.13602373 -0.49799928 0.047701709
-0.13619411 -0.49811962 0.047745705
-0.13633816 -0.49823451 0.047705658
-0.13648874 -0.49835113 0.047684021
-0.13663076 -0.49847117 0.047604762
-0.13679606 -0.49859044 0.047632646
-0.13696796 -0.49871719 0.047645487
-0.13710481 -0.49882746 0.047600862
-0.13724335 -0.4989382 0.047560845
-0.13738528 -0.49905127 0.04752196
-0.13754846 -0.49917307 0.047525629
-0.13770345 -0.49929127 0.047514349
-0.13784225 -0.49940497 0.047458183
-0.13801207 -0.49952605 0.047495265
-0.13817033 -0.49964669 0.047483962
-0.13832873 -0.49976745 0.047472663
-0.13847539 -0.49988624 0.047421061
-0.13862422 -0.50000298 0.047391366
-0.13878761 -0.50012392 0.047400802
-0.13894144 -0.50023806 0.047407988
-0.13909867 -0.50035876 0.047392085
-0.13922556 -0.50046921 0.047302529
-0.13940519 -0.50060058 0.047322251
-0.13953838 -0.50070751 0.047281109
-0.13970627 -0.50083423 0.047276672
-0.13988556 -0.50095773 0.047341388
-0.14003426 -0.50107747 0.047293235
-0.059971984 -0.441084 0.046890132
-0.060148496 -0.44122878 0.046817567
-0.06033897 -0.4413909 0.046704538
-0.060503367 -0.44151458 0.046702422
-0.060673479 -0.44164747 0.046671435
-0.060846318 -0.44179243 0.046581589
-0.061011355 -0.44192266 0.046543699
-0.061180312 -0.4420594 0.046485029
-0.061339121 -0.44217753 0.046491016
-0.061514884 -0.44232056 0.046425376
-0.061691731 -0.44246045 0.046382811
-0.061859645 -0.44259641 0.046324141
-0.062030014 -0.442734 0.046266612
-0.062202889 -0.44288114 0.046164073
-0.062366165 -0.4430024 0.046171192
-0.062525898 -0.4431285 0.046134498
-0.062703364 -0.44327083 0.046080388
-0.062871642 -0.44340882 0.046011332
-0.063042119 -0.44354808 0.045944568
-0.063203752 -0.44367281 0.045924008
-0.063366488 -0.44381037 0.045833066
-0.063519195 -0.44392058 0.045858704
-0.06366758 -0.4440181 0.045939755
-0.063822061 -0.44412866 0.045971155
-0.063984826 -0.44424227 0.046020962
-0.064147286 -0.44436097 0.046039626
-0.064293876 -0.44446659 0.046065301
-0.064441472 -0.44457117 0.046101362
-0.06459862 -0.44468099 0.046148892
-0.064742729 -0.4447796 0.046204578
-0.064887822 -0.44487998 0.046254501
-0.065045781 -0.44499409 0.046280108
-0.065194115 -0.4450973 0.046327692
-0.06534107 -0.44519806 0.046383373
-0.065484926 -0.44529632 0.04644021
-0.065641135 -0.44541347 0.046440452
-0.065799415 -0.44552255 0.046497207
-0.065945879 -0.44562548 0.046537891
-0.066086769 -0.44572151 0.046594746
-0.066246331 -0.44583294 0.046643425
-0.066389009 -0.44593522 0.046671428
-0.066536039 -0.44603625 0.046725951
-0.066692464 -0.44614512 0.046775796
-0.066837847 -0.44624314 0.046840705
-0.066978604 -0.44634199 0.04688026
-0.067134619 -0.44645643 0.046895504
-0.067292377 -0.44656786 0.04693611
-0.067433015 -0.44666666 0.046975669
-0.067580387 -0.44676518 0.047046337
-0.06772799 -0.4468641 0.047115851
-0.067898408 -0.44698641 0.04714831
-0.068041444 -0.44707993 0.047229391
-0.068194166 -0.4471752 0.047342714
-0.071549177 -0.44851813 0.054243065
-0.071734458 -0.44866848 0.054176211
-0.071894571 -0.44878936 0.054171819
-0.072056472 -0.44891 0.054176636
-0.072216101 -0.4490301 0.05417455
-0.072377183 -0.44914913 0.054185141
-0.072541565 -0.44928047 0.054138038
-0.072702363 -0.44940382 0.05412209
-0.072862133 -0.449525 0.054114234
-0.073027089 -0.44965383 0.054084424
-0.073189169 -0.44978088 0.054052323
-0.073357046 -0.4499172 0.053991351
-0.073509924 -0.45002282 0.054044679
-0.07366436 -0.45013213 0.054083008
-0.073830239 -0.45026931 0.054008197
-0.073992655 -0.45039347 0.053994551
-0.074142069 -0.4504908 0.054081358
-0.074316442 -0.45064494 0.0539442
-0.074475311 -0.45076606 0.053932887
-0.074637972 -0.45089179 0.053911164
-0.074795447 -0.45102027 0.053850248
-0.074937917 -0.45112652 0.05385403
-0.075123601 -0.45128053 0.053767566
-0.075282231 -0.45139694 0.053782791
-0.075445086 -0.45153007 0.053718388
-0.075601257 -0.45164031 0.053759009
-0.075764164 -0.45177427 0.053689983
-0.07592202 -0.451895 0.053676367
-0.076073125 -0.45199752 0.053740092
-0.076233134 -0.45211869 0.05373339
-0.076389968 -0.4522371 0.053729009
-0.076546595 -0.45235515 0.053725787
-0.076708116 -0.45248729 0.05366138
-0.076867945 -0.45260891 0.053651221
-0.077023506 -0.45272458 0.053657226
-0.077180967 -0.45284602 0.053637847
-0.077340707 -0.45297444 0.053587303
-0.077497005 -0.45308656 0.053617541
-0.077656277 -0.45321426 0.053569298
-0.077809565 -0.45332411 0.053599551
-0.077966347 -0.45345148 0.053542104
-0.078125358 -0.45356584 0.053571168
-0.078285404 -0.4537043 0.053462941
-0.078440942 -0.45381507 0.053497795
-0.078594007 -0.45392495 0.053526893
-0.078756213 -0.45405757 0.05346249
-0.078912884 -0.45417979 0.053435043
-0.079065219 -0.45428774 0.053472221
-0.079225533 -0.45442289 0.053384755
-0.079381764 -0.45453691 0.053403445
-0.079540305 -0.454667 0.053337917
-0.079686835 -0.45477903 0.053325512
-0.079810366 -0.45486555 0.05336171
-0.080004245 -0.45501 0.053367503
-0.080159523 -0.4551298 0.053348131
-0.080316238 -0.45525536 0.053301062
-0.080471575 -0.45537618 0.053275928
-0.080605254 -0.45548463 0.053227842
-0.080772355 -0.45560721 0.053244166
-0.080902517 -0.45570245 0.053258408
-0.081051156 -0.45580685 0.053300221
-0.081221931 -0.45594493 0.05324154
-0.08139053 -0.45609435 0.053106718
-0.081549361 -0.45620307 0.053168088
-0.081708744 -0.45631397 0.05321908
-0.081867866 -0.45644468 0.053152379
-0.082023576 -0.45657146 0.053093784
-0.08216995 -0.45668867 0.053050235
-0.082329094 -0.45679921 0.053102374
-0.082487628 -0.45692986 0.053033378
-0.082607888 -0.45702627 0.052996907
-0.082766302 -0.4571335 0.053065211
-0.082915485 -0.45725518 0.053007804
-0.083072476 -0.45736763 0.053039189
-0.083237246 -0.4574959 0.053011682
-0.083400108 -0.45761412 0.053034965
-0.083564773 -0.45775706 0.052920934
-0.083715983 -0.45786554 0.05295004
-0.083868988 -0.45798498 0.05292261
-0.084023744 -0.45810047 0.052926321
-0.084177092 -0.45822331 0.052880429
-0.084330015 -0.45834428 0.052843772
-0.084481232 -0.45845413 0.052864801
-0.084636614 -0.45857596 0.0528339
-0.084788159 -0.45868883 0.052838787
-0.084942773 -0.45880613 0.052830957
-0.085095145 -0.45892647 0.052795451
-0.085246988 -0.45904329 0.052778408
-0.085390888 -0.45915866 0.052734882
-0.085526384 -0.45926887 0.052684475
-0.085704811 -0.45939583 0.052724965
-0.085859209 -0.45951575 0.052700989
-0.086010151 -0.45962736 0.052710488
-0.08616215 -0.45975175 0.052649606
-0.086312644 -0.45985931 0.052681029
-0.086465776 -0.45996669 0.052725125
-0.086601563 -0.46009088 0.052593961
-0.086766928 -0.4602249 0.052535303
-0.086922988 -0.46033958 0.052549392
-0.087073937 -0.46045944 0.052510437
-0.087223917 -0.46056113 0.052574158
-0.087376989 -0.46067002 0.052609034
-0.087527707 -0.46078894 0.05257469
-0.087681063 -0.46090883 0.05254611
-0.087831423 -0.46102199 0.052544072
-0.087984711 -0.4611485 0.052476257
-0.088134915 -0.46126273 0.052467301
-0.088285066 -0.46137768 0.052453738
-0.088435121 -0.46150118 0.052389398
-0.088587984 -0.46160287 0.052465804
-0.088738009 -0.46171418 0.052472997
-0.08889053 -0.46183956 0.052408654
-0.089040428 -0.46195099 0.0524147
-0.089189954 -0.46207231 0.052360754
-0.089339301 -0.46219394 0.052304499
-0.089491658 -0.46230936 0.052297838
-0.089641348 -0.46241984 0.0523085
-0.089793801 -0.46253222 0.052320302
-0.089942835 -0.46265161 0.052275583
-0.090094216 -0.46277711 0.052205477
-0.090243772 -0.46288651 0.052221905
-0.090396091 -0.462998 0.052238315
-0.090544693 -0.46311727 0.052192457
-0.090696998 -0.46322817 0.052212328
-0.090845607 -0.46334547 0.052178003
-0.09099853 -0.46345073 0.05223364
-0.09114673 -0.4635703 0.052184321
-0.091298021 -0.46368828 0.05215805
-0.091446862 -0.46380126 0.052150253
-0.091594853 -0.4639197 0.052106693
-0.091737427 -0.46403247 0.052072406
-0.091877438 -0.46416023 0.05193891
-0.092006691 -0.4642581 0.051933534
-0.092160523 -0.4643929 0.051819578
-0.092300512 -0.46448255 0.051909894
-0.09247525 -0.46460518 0.051959634
-0.092640668 -0.46472728 0.051971361
-0.092794046 -0.46484601 0.051949691
-0.092933893 -0.46495304 0.051937334
-0.09308514 -0.46506625 0.051938765
-0.093239233 -0.46518102 0.05194363
-0.093391761 -0.46530208 0.051904663
-0.093537658 -0.46541011 0.051913042
-0.093678445 -0.46551251 0.051931832
-0.09380848 -0.46563023 0.05181339
-0.093971841 -0.46573469 0.051919721
-0.094109818 -0.46584678 0.05186931
-0.094275199 -0.46597907 0.051821042
-0.094418995 -0.46609315 0.051784426
-0.094552048 -0.46619803 0.051754814
-0.094722345 -0.46632436 0.051763043
-0.094881423 -0.46643308 0.051825561
-0.095004238 -0.46653712 0.051755618
-0.095151775 -0.46663949 0.051804367
-0.095283531 -0.46676615 0.051640928
-0.095462918 -0.46689561 0.051671024
-0.095611073 -0.46700552 0.051678229
-0.095771261 -0.46712095 0.051706135
-0.095895454 -0.46721953 0.051674262
-0.096053571 -0.46734852 0.051613338
-0.0962018 -0.46746632 0.051574394
-0.096344277 -0.46757218 0.051580485
-0.096501611 -0.46768567 0.051607259
-0.096671179 -0.4678205 0.051562425
-0.096805744 -0.46792728 0.051528182
-0.096951649 -0.46803355 0.051546939
-0.097111955 -0.46815613 0.051533308
-0.097248353 -0.46826625 0.051487517
-0.097402796 -0.46837792 0.051511995
-0.097541444 -0.46848345 0.0515031
-0.097666956 -0.46858481 0.05146084
-0.097830534 -0.46870789 0.051458728
-0.097993776 -0.46883148 0.051451996
-0.098134562 -0.46894646 0.051396951
-0.098288007 -0.46905977 0.051407587
-0.09842281 -0.46916458 0.051386032
-0.098552875 -0.46926403 0.051374882
-0.098698929 -0.46938258 0.051322117
-0.098844193 -0.46950212 0.051260114
-0.099014491 -0.46961433 0.051351417
-0.099173248 -0.46973792 0.051325105
-0.099332489 -0.46986067 0.051305719
-0.09947706 -0.46997458 0.051273718
-0.099613987 -0.47007567 0.0512833
-0.099757843 -0.47017312 0.05134476
-0.099899136 -0.47029123 0.051273558
-0.10004824 -0.47041562 0.051199995
-0.10020496 -0.47054648 0.051121779
-0.10034631 -0.47063637 0.051216707
-0.10048977 -0.47075632 0.051144347
-0.10065039 -0.47087657 0.051145714
-0.1007945 -0.47098482 0.051144861
-0.10093654 -0.47109544 0.051120955
-0.10108092 -0.4711982 0.051153574
-0.10122627 -0.47131014 0.051136568
-0.10137883 -0.47143418 0.051080294
-0.10152961 -0.47154999 0.051064417
-0.10167361 -0.47166798 0.051005892
-0.10182051 -0.47177792 0.051007334
-0.10197139 -0.47189343 0.050993755
-0.1021185 -0.47199842 0.051025208
-0.10226256 -0.47211587 0.05097013
-0.10241003 -0.47223449 0.050923124
-0.10255601 -0.47234064 0.050943032
-0.10271161 -0.47245613 0.050950199
-0.1028678 -0.47257563 0.050936591
-0.10301825 -0.47269571 0.050894175
-0.1031584 -0.47279823 0.050909508
-0.10330304 -0.47290573 0.050915584
-0.10344942 -0.47301605 0.050912421
-0.10359822 -0.47313294 0.050881557
-0.10375171 -0.47323334 0.050968338
-0.10389023 -0.47333327 0.050991759
-0.10401396 -0.47346547 0.050760292
-0.10415876 -0.47358504 0.050695986
-0.10431176 -0.47370231 0.050681245
-0.1044645 -0.47381979 0.050664194
-0.10461494 -0.47392693 0.050697926
-0.10474535 -0.47404039 0.05060602
-0.10490179 -0.47415516 0.05062126
-0.10505539 -0.47427192 0.050612286
-0.10521273 -0.47438619 0.05063444
-0.10535286 -0.47449654 0.050603624
-0.10551055 -0.47461069 0.050628074
-0.10567458 -0.47472095 0.050703265
-0.10581771 -0.47483692 0.050652813
-0.10594699 -0.47494638 0.050579377
-0.10609435 -0.4750559 0.050585438
-0.10624379 -0.47517151 0.050564948
-0.10638899 -0.47528586 0.050532945
-0.10652961 -0.47539207 0.050528664
-0.10667611 -0.4755092 0.050486274
-0.10682781 -0.47563043 0.050442692
-0.10696565 -0.47573456 0.05043843
-0.10711964 -0.47585103 0.050432913
-0.10727133 -0.4759618 0.050450478
-0.10742406 -0.47607556 0.050455362
-0.10757395 -0.47618738 0.050459094
-0.10770648 -0.47630087 0.050376408
-0.10785905 -0.47641468 0.050380129
-0.10800761 -0.4765304 0.050355025
-0.10815322 -0.47663763 0.050366867
-0.10829911 -0.47674155 0.050399464
-0.10845236 -0.4768649 0.050350115
-0.1086015 -0.47697714 0.050348088
-0.10874359 -0.47708917 0.05031611
-0.10888459 -0.47719842 0.05029567
-0.10902932 -0.47731245 0.050263669
-0.10918497 -0.47742522 0.050286993
-0.10931951 -0.47754005 0.050205443
-0.10947286 -0.47765681 0.05019531
-0.10962088 -0.47776642 0.050203677
-0.10976005 -0.47787628 0.050171711
-0.10991119 -0.47798783 0.050182357
-0.11006436 -0.47809878 0.050205693
-0.11022375 -0.47820771 0.050268214
-0.11037295 -0.47831428 0.050299641
-0.11051467 -0.47843507 0.050214592
-0.11066023 -0.47854578 0.050205663
-0.1108126 -0.47866595 0.050171319
-0.11095805 -0.47877383 0.050178543
-0.11110346 -0.47888464 0.050168466
-0.11125095 -0.47899485 0.050171055
-0.11140294 -0.4791263 0.050068639
-0.11154244 -0.47923028 0.050072443
-0.11168011 -0.47934037 0.050032403
-0.11182896 -0.47944474 0.050075375
-0.11198141 -0.47955924 0.050074488
-0.11211726 -0.47967249 0.050007928
-0.11225928 -0.47978684 0.049962103
-0.11239932 -0.4798989 0.049920902
-0.11256377 -0.48001066 0.04998916
-0.11270221 -0.4801231 0.049938735
-0.11284474 -0.48023722 0.049896367
-0.11298998 -0.48034808 0.049885143
-0.11312827 -0.48046041 0.049834721
-0.11328202 -0.48057216 0.049855743
-0.1134311 -0.4806875 0.049835257
-0.11358125 -0.48080266 0.049820531
-0.11372573 -0.48091373 0.04980468
-0.11386093 -0.48102394 0.049753126
-0.11400732 -0.48113468 0.049747653
-0.11416259 -0.48124897 0.049760599
-0.11430892 -0.48136479 0.04972513
-0.11446591 -0.48147643 0.049761124
-0.11460768 -0.48159292 0.04970146
-0.11475061 -0.48170185 0.049691387
-0.11489592 -0.48181534 0.049665153
-0.11503925 -0.48192909 0.049628552
-0.11518611 -0.48204234 0.049610388
-0.11533561 -0.48215288 0.049619894
-0.11548364 -0.48226604 0.049607493
-0.11563282 -0.48237908 0.049600847
-0.11577795 -0.48249027 0.049587309
-0.1159327 -0.48260278 0.049608327
-0.11608084 -0.48271838 0.049582075
-0.11620783 -0.48282909 0.049491342
-0.11637119 -0.48294553 0.049527299
-0.11651122 -0.48305956 0.049474567
-0.11665817 -0.48316836 0.049482938
-0.11680438 -0.48327956 0.049474008
-0.11695644 -0.48339263 0.049480032
-0.11709271 -0.48350459 0.049422704
-0.11724078 -0.48361799 0.049409151
-0.11739143 -0.483729 0.04942096
-0.11753529 -0.48384491 0.049373966
-0.11768483 -0.48395607 0.049380016
-0.11783724 -0.48407152 0.049373347
-0.11799236 -0.48418471 0.049392052
-0.11812229 -0.48429468 0.049318612
-0.11827452 -0.48440591 0.049336184
-0.11842609 -0.48452368 0.049312223
-0.11856693 -0.48463321 0.049289472
-0.11870568 -0.48474923 0.049219437
-0.11883106 -0.48485693 0.049139101
-0.11901276 -0.48496988 0.049276479
-0.11914933 -0.48508799 0.049184538
-0.11929779 -0.48520166 0.049170971
-0.11945464 -0.48531321 0.049206976
-0.11959854 -0.48542699 0.049172681
-0.11975221 -0.48553869 0.049193695
-0.11988893 -0.48565453 0.049115602
-0.1200455 -0.48576429 0.049160831
-0.12018453 -0.48588014 0.049093101
-0.1203328 -0.48598993 0.049101468
-0.12048558 -0.48610392 0.04910519
-0.1206273 -0.48622176 0.049037438
-0.12077823 -0.48633376 0.049044628
-0.12090367 -0.4864431 0.048955061
-0.12107567 -0.48655778 0.049039423
-0.12123151 -0.4866721 0.049054667
-0.12143692 -0.48678243 0.049311899
-0.12154681 -0.4869011 0.049098969
-0.12167162 -0.48701233 0.048995558
-0.12181828 -0.48712641 0.048971623
-0.1219631 -0.48723462 0.048974242
-0.12211429 -0.48735094 0.048957203
-0.1222593 -0.48746693 0.04891482
-0.12242987 -0.48758447 0.048976123
-0.12255695 -0.48769367 0.048894618
-0.12269185 -0.48780522 0.048833836
-0.12283887 -0.48792136 0.048799522
-0.12298837 -0.48803011 0.048819408
-0.12312049 -0.4881433 0.048736721
-0.12327465 -0.48825812 0.048741587
-0.1234424 -0.48837784 0.048777528
-0.12357958 -0.48848954 0.048725963
-0.12372798 -0.48860219 0.048718166
-0.12388236 -0.48871541 0.048733417
-0.12402256 -0.48882741 0.048693363
-0.12416662 -0.48894522 0.048635986
-0.12433017 -0.48906493 0.048653495
-0.12446127 -0.48917422 0.048589274
-0.12462814 -0.48928899 0.0486506
-0.12476327 -0.48940051 0.048590966
-0.12492009 -0.48951614 0.048602741
-0.12505093 -0.48962894 0.048516594
-0.12521434 -0.48974365 0.04856294
-0.1253711 -0.48985767 0.048583947
-0.12551247 -0.48996994 0.048547354
-0.12565789 -0.49008274 0.048525739
-0.12581742 -0.49020079 0.048535179
-0.12595947 -0.49031496 0.048490513
-0.12608549 -0.49042356 0.048407853
-0.12625101 -0.49053907 0.048458807
-0.12640265 -0.49065456 0.048448686
-0.12653461 -0.49076566 0.04837754
-0.12668857 -0.4908815 0.048375484
-0.12684414 -0.49099934 0.048368808
-0.12700476 -0.49111626 0.048389781
-0.12714592 -0.491227 0.048361272
-0.12727837 -0.49133986 0.048282046
-0.12744823 -0.49145666 0.048344504
-0.12759745 -0.49157208 0.048324015
-0.12775317 -0.49169025 0.048316181
-0.12788743 -0.49180168 0.048253089
-0.12803996 -0.49191606 0.04825335
-0.1281929 -0.49203056 0.048254773
-0.12834394 -0.49214482 0.048249271
-0.12848711 -0.49225944 0.048206899
-0.12861159 -0.49236923 0.048110411
-0.12875901 -0.4924829 0.048092242
-0.12892249 -0.49259943 0.048128199
-0.12909001 -0.4927184 0.048167601
-0.12925215 -0.4928349 0.048197806
-0.12938802 -0.49294835 0.048130088
-0.12952274 -0.49305996 0.048068158
-0.12965742 -0.49317151 0.048006214
-0.12983599 -0.4932929 0.048080161
-0.12998158 -0.49340659 0.048053935
-0.1301367 -0.49352214 0.048058793
-0.13029443 -0.49363983 0.048062485
-0.13042995 -0.4937501 0.048012078
-0.13059601 -0.49386951 0.04804226
-0.13072984 -0.49398103 0.047976863
-0.13088614 -0.49409866 0.047974795
-0.13104039 -0.49421433 0.047975045
-0.13119043 -0.49433076 0.047952253
-0.13133514 -0.49444458 0.047921404
-0.13147736 -0.49455789 0.047882505
-0.13163742 -0.49467498 0.047900025
-0.13177858 -0.49478966 0.047848433
-0.13194144 -0.49490747 0.047874015
-0.13208902 -0.49502206 0.047851227
-0.13223112 -0.49513549 0.047811169
-0.13237722 -0.4952513 0.047774553
-0.13254057 -0.49536949 0.047800131
-0.13268781 -0.49548718 0.047757734
-0.13284443 -0.49560249 0.047770664
-0.13298604 -0.49571592 0.0477283
-0.13313848 -0.49583337 0.047710102
-0.13328469 -0.4959479 0.047681555
-0.13345146 -0.49606729 0.047715191
-0.13359846 -0.4961836 0.047679719
-0.13373765 -0.49629661 0.047629301
-0.13389716 -0.49641448 0.047639899
-0.13406165 -0.49653509 0.047656242
-0.13420774 -0.49665129 0.047617313
-0.13437696 -0.49677175 0.047655545
-0.13451409 -0.49688438 0.047598209
-0.13465865 -0.49699885 0.047562759
-0.1348218 -0.49711946 0.047573343
-0.13496414 -0.49723342 0.047530975
-0.13512492 -0.49735498 0.047525421
-0.13525087 -0.4974663 0.047426611
-0.1354315 -0.49759158 0.047486696
-0.13558014 -0.49770874 0.047453523
-0.13574511 -0.49782872 0.047475632
-0.13588631 -0.49794403 0.047420584
-0.13603738 -0.49805906 0.047410473
-0.13620093 -0.49818173 0.047410659
-0.13634121 -0.49829262 0.047377534
-0.1365111 -0.49841708 0.047395006
-0.13663237 -0.49852291 0.047307763
-0.1367811 -0.49863893 0.047281511
-0.13697386 -0.49876845 0.047370374
-0.13711953 -0.49888238 0.047342986
-0.13726209 -0.49900106 0.047274083
-0.13742906 -0.49912372 0.04728926
-0.13758162 -0.49924105 0.047272213
-0.13773431 -0.49936128 0.047239013
-0.13788915 -0.49948072 0.047219645
-0.13804492 -0.4995991 0.04721066
-0.13821432 -0.49972007 0.04724659
-0.13836737 -0.49984193 0.047205314
-0.13851498 -0.49996221 0.047149066
-0.13867877 -0.5000872 0.047136575
-0.13882531 -0.50020319 0.047101103
-0.13897422 -0.50031447 0.047103696
-0.13913631 -0.50043643 0.047101591
-0.13927455 -0.50054872 0.047051169
-0.13942677 -0.50066245 0.047053743
-0.13961367 -0.50079733 0.047084954
-0.13975991 -0.50092018 0.047007948
-0.13990651 -0.5010311 0.047002472
-0.060218517 -0.44145754 0.04578162
-0.060368545 -0.44156906 0.045787655
-0.060515024 -0.44166282 0.045882545
-0.060670402 -0.44177306 0.045919698
-0.060818471 -0.44187918 0.045948826
-0.060971711 -0.44198114 0.046025217
-0.061140787 -0.4421109 0.046008065
-0.061283056 -0.4422054 0.046079911
-0.06143837 -0.44231579 0.046115916
-0.061597008 -0.44242653 0.046164587
-0.061736088 -0.44252098 0.046222605
-0.06188225 -0.44261664 0.046304807
-0.062042281 -0.44273746 0.046300407
-0.062185645 -0.44283378 0.046366476
-0.062336028 -0.44293633 0.046426728
-0.062485889 -0.44304067 0.0464743
-0.062629603 -0.44314018 0.046523061
-0.062786892 -0.4432542 0.046546362
-0.062930323 -0.44335333 0.046596285
-0.063070029 -0.44344354 0.046681985
-0.063234068 -0.4435609 0.046715628
-0.063389435 -0.44367191 0.046748172
-0.06354329 -0.44378591 0.046756484
-0.063686177 -0.44387871 0.046841018
-0.063836388 -0.44398391 0.046885129
-0.063989997 -0.44408652 0.04695921
-0.064145342 -0.44418085 0.047089815
-0.067144684 -0.44519556 0.054350913
-0.067303404 -0.4453097 0.05437997
-0.067466587 -0.44542894 0.054398619
-0.067616716 -0.4455266 0.054486565
-0.067776635 -0.44564319 0.054506395
-0.067929775 -0.44574666 0.054573558
-0.068110064 -0.44590327 0.054447889
-0.068285435 -0.44605073 0.054354556
-0.06844978 -0.44617674 0.054338589
-0.06860669 -0.44628811 0.054375734
-0.068766855 -0.4464061 0.054388631
-0.06894175 -0.44655377 0.054291844
-0.069103226 -0.44667095 0.05431512
-0.069262415 -0.44678739 0.054332644
-0.069434136 -0.44692951 0.054254331
-0.069597751 -0.44705537 0.054236058
-0.069760896 -0.44718048 0.054220092
-0.069920048 -0.44729748 0.054234155
-0.070078388 -0.44741291 0.054253981
-0.070248298 -0.44755271 0.054181449
-0.070408866 -0.44767311 0.054181654
-0.070573889 -0.44780317 0.054144915
-0.070734754 -0.44792461 0.054140508
-0.070897773 -0.44804665 0.054141849
-0.071066052 -0.44818446 0.054073937
-0.07123284 -0.44831938 0.054016419
-0.071384117 -0.44842064 0.054088213
-0.071542464 -0.44853744 0.054099973
-0.071716674 -0.44868949 0.053974338
-0.071870342 -0.4487963 0.054024201
-0.072033867 -0.44892523 0.053987473
-0.072202116 -0.44906065 0.053933404
-0.072351225 -0.44915733 0.054022513
-0.072510995 -0.44927832 0.0540158
-0.07268177 -0.44942489 0.053907495
-0.072842211 -0.44954795 0.053891554
-0.072994605 -0.4496524 0.05394949
-0.073177494 -0.44982395 0.053747661
-0.073322996 -0.44991246 0.053869098
-0.073480293 -0.45002884 0.053878549
-0.073642597 -0.45015743 0.053838369
-0.073795497 -0.450288 0.053745165
-0.073967867 -0.45041218 0.053775303
-0.074114166 -0.45051226 0.053832125
-0.074288867 -0.45066255 0.053719185
-0.074455015 -0.45079717 0.053660516
-0.07460694 -0.45090148 0.053717304
-0.074764825 -0.45102087 0.053711757
-0.074922591 -0.45114017 0.05370621
-0.075089805 -0.45127875 0.053629082
-0.075243801 -0.45138872 0.053661622
-0.075400919 -0.45150694 0.053659547
-0.075562276 -0.45163658 0.053608984
-0.07571242 -0.45173663 0.053683084
-0.075868778 -0.45185331 0.053686783
-0.076037496 -0.45199808 0.05357964
-0.076190144 -0.4521051 0.053623736
-0.076349668 -0.45222533 0.053620487
-0.076508299 -0.45234922 0.053591859
-0.076672263 -0.45248848 0.05349629
-0.076824009 -0.45259345 0.053548463
-0.076984279 -0.45271677 0.053530212
-0.077146523 -0.4528524 0.053448491
-0.077302694 -0.45297068 0.053441804
-0.077460095 -0.45309284 0.053417802
-0.077619888 -0.45321602 0.053398393
-0.077774711 -0.45333096 0.053405561
-0.077930659 -0.45344281 0.053435788
-0.078088447 -0.45356721 0.053400245
-0.078243874 -0.45368457 0.053395871
-0.078401864 -0.4538103 0.053353403
-0.078563362 -0.45394066 0.053299375
-0.078719124 -0.45406002 0.053284612
-0.078875087 -0.45418033 0.053265236
-0.07900919 -0.45424259 0.053490568
-0.079181656 -0.4543961 0.053348795
-0.079340175 -0.45452577 0.053285554
-0.079500414 -0.45465419 0.053237304
-0.079656899 -0.45477784 0.053200617
-0.079810373 -0.45489919 0.053163946
-0.079962015 -0.45501429 0.053156134
-0.080127276 -0.45513803 0.053157464
-0.080266505 -0.45525834 0.053064346
-0.080416061 -0.45536655 0.053087685
-0.080565602 -0.45548359 0.053059116
-0.080749698 -0.45561031 0.0531261
-0.080904983 -0.45573246 0.053092878
-0.08106333 -0.45585808 0.05305272
-0.081216477 -0.45597234 0.053056426
-0.081373714 -0.45609418 0.053033575
-0.08151675 -0.45620576 0.053008504
-0.081684105 -0.45633167 0.053006358
-0.081832603 -0.45644733 0.052981257
-0.081996039 -0.45657757 0.05293645
-0.082151808 -0.45669499 0.052933224
-0.082306966 -0.45680976 0.05294269
-0.082457013 -0.45693463 0.052870281
-0.082598016 -0.45703939 0.052876368
-0.082771033 -0.45717251 0.052856881
-0.082903847 -0.45727286 0.052852638
-0.083054751 -0.45737955 0.052890975
-0.083233617 -0.4575192 0.05285877
-0.083388053 -0.45764583 0.052795555
-0.083543509 -0.45776513 0.052779641
-0.08369635 -0.45788407 0.052754514
-0.08383441 -0.45798877 0.052747928
-0.084003642 -0.45811844 0.052731924
-0.084138662 -0.45822027 0.052728828
-0.084310748 -0.45835346 0.05270474
-0.084467545 -0.45848557 0.052619591
-0.084621072 -0.45859581 0.052648675
-0.084774405 -0.4587045 0.052685842
-0.084926412 -0.45882243 0.052663028
-0.085081719 -0.45894733 0.052613657
-0.085213788 -0.45904949 0.052595567
-0.085387379 -0.4591797 0.052595697
-0.085538305 -0.4592911 0.052606348
-0.085692614 -0.45941055 0.052584663
-0.085844763 -0.45953545 0.052521467
-0.085998647 -0.45965281 0.052510172
-0.08615189 -0.45976362 0.052534651
-0.086305425 -0.45987797 0.052539516
-0.086456493 -0.45999497 0.052517857
-0.086610317 -0.46011505 0.052490413
-0.086761169 -0.46023169 0.052469909
-0.086915098 -0.46035695 0.052412465
-0.087065272 -0.46046486 0.05244042
-0.087218598 -0.46058238 0.052425675
-0.08737199 -0.46070331 0.052391306
-0.087516859 -0.46081644 0.052365072
-0.08767537 -0.46093434 0.052371062
-0.087828383 -0.46105203 0.052354001
-0.087978534 -0.46116817 0.052333508
-0.088131391 -0.46128672 0.052310679
-0.088281333 -0.46139446 0.052338634
-0.088434055 -0.46151349 0.052312355
-0.088583924 -0.46162707 0.052305706
-0.088714518 -0.46171179 0.052383386
-0.088839531 -0.46179983 0.052417256
-0.08900217 -0.46196479 0.052164786
-0.08918801 -0.46209615 0.052212141
-0.089340217 -0.46221364 0.052192789
-0.089484118 -0.4623231 0.052183859
-0.089644507 -0.46244612 0.052167919
-0.089793444 -0.46256587 0.052120883
-0.089914799 -0.46266174 0.052092485
-0.090057679 -0.46278125 0.05202011
-0.090238683 -0.46289778 0.052133258
-0.090362839 -0.4629932 0.052119836
-0.090544209 -0.46313986 0.052057616
-0.090694897 -0.46326482 0.051987503
-0.090846688 -0.46337786 0.051992379
-0.09099704 -0.46347767 0.052068789
-0.091148347 -0.46359485 0.05204713
-0.091299407 -0.46371323 0.052017391
-0.091451205 -0.4638257 0.052025728
-0.091598384 -0.46394843 0.051953323
-0.091749698 -0.46406308 0.051946662
-0.09189859 -0.46417335 0.051955014
-0.092050195 -0.46428585 0.051962193
-0.092197537 -0.46440458 0.051914029
-0.092347264 -0.46452647 0.051857758
-0.092500068 -0.46463186 0.051912233
-0.092650421 -0.46474969 0.051882502
-0.092797682 -0.46486661 0.051844716
-0.092949331 -0.46497759 0.051861122
-0.09309601 -0.46509621 0.051810652
-0.093244098 -0.4651947 0.051884774
-0.093385644 -0.46532026 0.051770866
-0.093527421 -0.46541813 0.051820796
-0.093672045 -0.46553048 0.051798027
-0.093813844 -0.46564075 0.051775262
-0.093960717 -0.46576816 0.051674023
-0.094115108 -0.4658916 0.051629268
-0.094277546 -0.46602127 0.051583316
-0.094421297 -0.46611276 0.05167938
-0.094576083 -0.46623415 0.051648472
-0.094722375 -0.46633953 0.051674139
-0.094863757 -0.46645945 0.051592551
-0.095000938 -0.46658096 0.051483288
-0.095131144 -0.46668231 0.051461749
-0.095310614 -0.46680123 0.05155414
-0.095474005 -0.46692613 0.05154049
-0.095627539 -0.46703988 0.051548805
-0.095768392 -0.46714982 0.051523756
-0.09589693 -0.467246 0.051525295
-0.096053466 -0.46736103 0.051539373
-0.096223615 -0.46748647 0.051552214
-0.096372209 -0.46761125 0.051474035
-0.096521765 -0.46772537 0.051462773
-0.096654437 -0.46783602 0.051397383
-0.09678898 -0.46794239 0.051365431
-0.096938409 -0.4680562 0.051355321
-0.097070746 -0.46816662 0.051289935
-0.097218983 -0.46827504 0.051306359
-0.097371295 -0.46837568 0.051386226
-0.097521737 -0.46848026 0.051434949
-0.097676419 -0.46859843 0.051422499
-0.097824842 -0.46871385 0.051398546
-0.097971655 -0.46882513 0.051391911
-0.098142244 -0.46894935 0.051413976
-0.098280586 -0.46906149 0.051364705
-0.098431356 -0.46917909 0.051338427
-0.098576002 -0.46929991 0.051266052
-0.098717324 -0.46941292 0.051224828
-0.098867871 -0.46952406 0.051235482
-0.099005647 -0.46963599 0.05118506
-0.099149011 -0.46975154 0.051138058
-0.09931197 -0.46986848 0.05116941
-0.099454217 -0.46997944 0.051144339
-0.099609628 -0.47008952 0.051182643
-0.099759117 -0.47019631 0.051214073
-0.099895589 -0.47030354 0.051185567
-0.1000445 -0.47042796 0.051110856
-0.10018508 -0.47054064 0.051068489
-0.10034517 -0.4706668 0.051032931
-0.1004886 -0.470781 0.050994016
-0.10065296 -0.47089642 0.051040348
-0.10079837 -0.47100291 0.05105564
-0.10094544 -0.47111788 0.051028233
-0.10107311 -0.47121891 0.050997492
-0.10121966 -0.47132918 0.050995469
-0.10136871 -0.47144175 0.050991129
-0.10151812 -0.4715687 0.050903715
-0.10166661 -0.47168654 0.050865922
-0.10181501 -0.47179466 0.050884657
-0.10196754 -0.47190827 0.050889529
-0.10209951 -0.4720186 0.050822984
-0.10223398 -0.47212628 0.050782964
-0.10240749 -0.4722521 0.050808471
-0.10257009 -0.47236994 0.050832894
-0.10271765 -0.47248352 0.050815877
-0.1028446 -0.47259322 0.050730899
-0.10299516 -0.47270396 0.050743852
-0.10313831 -0.4728168 0.050711863
-0.10329086 -0.4729259 0.050743271
-0.10344299 -0.47303113 0.050795443
-0.10360101 -0.47313178 0.050900646
-0.10373789 -0.4732244 0.050959833
-0.10386998 -0.47333777 0.050875988
-0.10400362 -0.4734621 0.050734438
-0.10413283 -0.47358528 0.050580233
-0.10428239 -0.47370902 0.050512437
-0.10443816 -0.47382799 0.050499983
-0.1045913 -0.47394085 0.05051177
-0.10475165 -0.47405267 0.050561585
-0.10488918 -0.47415698 0.050555002
-0.10504039 -0.47427136 0.050549492
-0.10518835 -0.47438407 0.050539389
-0.1053377 -0.47449586 0.05054082
-0.10548193 -0.47460341 0.050544582
-0.10562579 -0.47472247 0.050479125
-0.10577367 -0.47483885 0.050447099
-0.10593019 -0.47494996 0.050484255
-0.10606866 -0.47505733 0.050463818
-0.10621548 -0.47516701 0.050466411
-0.10636377 -0.47528666 0.050417081
-0.10650372 -0.47540376 0.050345883
-0.10666282 -0.47551718 0.050380703
-0.10680556 -0.4756256 0.050372943
-0.10694487 -0.47573927 0.050319042
-0.10709135 -0.47584912 0.050319329
-0.10724218 -0.47596359 0.050311521
-0.10738537 -0.47607175 0.050307218
-0.10753091 -0.47617537 0.050339818
-0.10767733 -0.47628871 0.050319336
-0.10782264 -0.47639924 0.050310399
-0.10797019 -0.47651204 0.05029799
-0.10811918 -0.47662416 0.050295964
-0.10827084 -0.47674161 0.050274294
-0.10840656 -0.47685632 0.050198507
-0.10855892 -0.4769702 0.05020107
-0.10869715 -0.47708678 0.050125256
-0.10883797 -0.47719905 0.050086349
-0.10896225 -0.47730851 0.049991019
-0.10911624 -0.47741848 0.050023563
-0.10926272 -0.47753146 0.050005391
-0.10941146 -0.47764361 0.050002202
-0.10956356 -0.47774842 0.050056685
-0.1097164 -0.47785619 0.050097324
-0.10986567 -0.47796831 0.050096441
-0.11001663 -0.47808585 0.050071314
-0.11016177 -0.47819349 0.050078541
-0.1103093 -0.47830331 0.05008344
-0.1104594 -0.47841531 0.050087165
-0.11061021 -0.47853291 0.050060891
-0.11075241 -0.47864738 0.050015055
-0.11090043 -0.47876289 0.049988803
-0.11104571 -0.47887635 0.049962558
-0.11119003 -0.47899005 0.049930558
-0.11133564 -0.47910336 0.049906623
-0.11148488 -0.47921565 0.049904592
-0.11162682 -0.47932994 0.04985876
-0.11177414 -0.47944278 0.049845204
-0.11191289 -0.47955504 0.049797077
-0.11206529 -0.47966659 0.049813479
-0.11222893 -0.47978088 0.049863283
-0.11236567 -0.47989359 0.04980363
-0.11252365 -0.48000404 0.049851157
-0.11266004 -0.48011944 0.049774207
-0.11280146 -0.48023099 0.049742214
-0.11294565 -0.48033929 0.049741365
-0.11308953 -0.48045033 0.049723219
-0.11324763 -0.48057145 0.049708437
-0.11338151 -0.48067927 0.049664959
-0.11352077 -0.48078859 0.04963645
-0.11366945 -0.48090127 0.049629796
-0.11382659 -0.48101243 0.049669247
-0.11397365 -0.48112801 0.049638383
-0.11411634 -0.48123676 0.049628314
-0.11425657 -0.48135093 0.049575567
-0.11441077 -0.48146284 0.049597729
-0.11455039 -0.48157459 0.049556531
-0.11470088 -0.4816896 0.049544103
-0.11485166 -0.48179975 0.049561672
-0.11499206 -0.48191619 0.049496241
-0.11512597 -0.48202622 0.049440064
-0.11529297 -0.48213676 0.049526766
-0.11543351 -0.4822531 0.049462482
-0.11556965 -0.4823699 0.049376301
-0.11571042 -0.48247662 0.049369704
-0.11585578 -0.48258761 0.049358457
-0.11599593 -0.48269445 0.049348399
-0.11615916 -0.48280135 0.049439736
-0.11631866 -0.48292038 0.049443405
-0.11645252 -0.48303488 0.0493607
-0.11659563 -0.48314846 0.049324088
-0.11674256 -0.48325491 0.049346302
-0.11689864 -0.48337433 0.049332686
-0.11704689 -0.48348981 0.049307585
-0.11719257 -0.483601 0.049296346
-0.1173397 -0.48371214 0.049292009
-0.11747776 -0.48382604 0.049231209
-0.11761782 -0.48393536 0.049206153
-0.11776246 -0.48404226 0.049215678
-0.11791841 -0.48415744 0.049226291
-0.11806329 -0.48427099 0.049197748
-0.11821537 -0.48438424 0.049202625
-0.1183463 -0.48449832 0.049109545
-0.11849643 -0.48460951 0.049117889
-0.11864994 -0.48471856 0.049153905
-0.11879329 -0.48483643 0.049093064
-0.1189366 -0.48494369 0.049094528
-0.11908814 -0.48505929 0.049083248
-0.11922632 -0.48516878 0.049048975
-0.11937501 -0.48528031 0.049049247
-0.11952935 -0.48539388 0.049062189
-0.11967142 -0.48550963 0.049008273
-0.11981973 -0.48562124 0.04900625
-0.11996415 -0.48573285 0.04898693
-0.12010419 -0.48584652 0.048936497
-0.12025315 -0.48595822 0.048936769
-0.12040457 -0.48606998 0.048947416
-0.12053106 -0.48617932 0.048862442
-0.12068169 -0.48628914 0.048881166
-0.12084846 -0.48640147 0.048956331
-0.12099353 -0.48651928 0.048903558
-0.12114155 -0.48663518 0.048875
-0.12127662 -0.4867447 0.048826896
-0.12142573 -0.48685867 0.048814476
-0.12156353 -0.48697221 0.048754826
-0.12171607 -0.48708248 0.048779309
-0.12185161 -0.48719585 0.048710432
-0.1219923 -0.48730174 0.048708454
-0.12216219 -0.48741701 0.048780128
-0.12228673 -0.48752782 0.048677869
-0.12243782 -0.48764211 0.048672359
-0.12257962 -0.48775393 0.048640378
-0.12272649 -0.48786798 0.04861759
-0.12288141 -0.48797888 0.048648976
-0.12302132 -0.48809436 0.048587006
-0.1231693 -0.48820671 0.048579205
-0.12331501 -0.48831892 0.048562199
-0.12347397 -0.48843226 0.048597019
-0.12364577 -0.48854676 0.048681386
-0.12380254 -0.48866197 0.048695453
-0.1239185 -0.4887754 0.048540175
-0.12406787 -0.48888445 0.048557755
-0.12421896 -0.48900288 0.048528016
-0.12436271 -0.48911694 0.0484914
-0.12450768 -0.48923114 0.048459396
-0.12465032 -0.48933789 0.048460856
-0.12479962 -0.4894526 0.048444979
-0.12492961 -0.48956162 0.048377294
-0.12507218 -0.48967561 0.048336077
-0.12525459 -0.48979416 0.048443448
-0.12540321 -0.48991072 0.048413724
-0.12554005 -0.49002057 0.04837139
-0.12568593 -0.49013332 0.048352063
-0.12582746 -0.49024552 0.04831662
-0.12597752 -0.49035883 0.048312277
-0.12614469 -0.49047616 0.048359741
-0.12629904 -0.49059191 0.048359983
-0.12642641 -0.49070233 0.048272703
-0.12659213 -0.49081796 0.048323639
-0.12674277 -0.49093506 0.048299681
-0.12687674 -0.49104807 0.048226204
-0.12702276 -0.49116108 0.048205726
-0.12718368 -0.49127805 0.048227847
-0.12731861 -0.49139118 0.048157837
-0.12746471 -0.49150094 0.048156966
-0.12760483 -0.49161148 0.048124991
-0.12774895 -0.49172604 0.048087224
-0.12790437 -0.49183905 0.048108228
-0.1280341 -0.49194965 0.048030153
-0.12820871 -0.49206924 0.048097197
-0.12836933 -0.492185 0.048125088
-0.12851395 -0.49229813 0.048097707
-0.12863265 -0.49240851 0.047972403
-0.12877145 -0.49252063 0.047925435
-0.1289307 -0.49263632 0.047947567
-0.12909764 -0.49275348 0.047995035
-0.1292257 -0.49286538 0.047901984
-0.12939772 -0.49298361 0.047965579
-0.12953848 -0.49309623 0.047924362
-0.12969524 -0.49321181 0.047936127
-0.12985073 -0.49332726 0.047943294
-0.12998673 -0.49343905 0.047885954
-0.13015124 -0.49355948 0.047903445
-0.13028236 -0.49367034 0.047829986
-0.13042969 -0.49378434 0.047809497
-0.13058525 -0.49389845 0.047824733
-0.13073915 -0.49401546 0.047815748
-0.13088779 -0.49412984 0.047798723
-0.13104366 -0.49424732 0.047795493
-0.13119319 -0.494362 0.047780763
-0.13135105 -0.49448001 0.047783297
-0.1314877 -0.49459207 0.047727112
-0.13165849 -0.49471292 0.047769938
-0.1317908 -0.49482408 0.047699939
-0.13194503 -0.4949415 0.047689792
-0.13209435 -0.49505484 0.047681995
-0.13226242 -0.49517542 0.047714464
-0.13239285 -0.49528772 0.047629468
-0.13254666 -0.49540523 0.047617026
