# .PCD v0.7 - Point Cloud Data file format
VERSION 0.7
FIELDS x y z
SIZE 4 4 4
TYPE F F F
COUNT 1 1 1
WIDTH 1291
HEIGHT 1
VIEWPOINT 0 0 0 1 0 0 0
POINTS 1291
DATA ascii
-0.25918779 -0.22159964 0.053556424
-0.25939906 -0.22159407 0.05352325
-0.25958121 -0.22158375 0.053551707
-0.25981009 -0.2215748 0.053546168
-0.26000562 -0.22157186 0.053492285
-0.26019305 -0.22156236 0.053510278
-0.26044795 -0.22156818 0.053340055
-0.26065004 -0.22155583 0.053381078
-0.26083001 -0.22154227 0.053444296
-0.26103532 -0.2215386 0.053393807
-0.26124144 -0.22153324 0.053360675
-0.26145643 -0.22152618 0.053341363
-0.26165551 -0.2215192 0.053327985
-0.26187858 -0.22151002 0.053327121
-0.26206973 -0.2215056 0.05329065
-0.26227692 -0.22149897 0.053270243
-0.262501 -0.2214931 0.053234633
-0.26267198 -0.22148871 0.053206459
-0.26286027 -0.22147302 0.053288139
-0.26307598 -0.22147207 0.053205121
-0.26328975 -0.22147007 0.0531337
-0.26348805 -0.22145577 0.053196765
-0.26369536 -0.22145236 0.053142782
-0.26389772 -0.22145106 0.053069144
-0.26409167 -0.22143647 0.053136878
-0.26430023 -0.22143693 0.053042348
-0.26450306 -0.22143638 0.052960604
-0.26470813 -0.22142147 0.053027082
-0.26490852 -0.22140595 0.053101704
-0.26512116 -0.22140166 0.053054612
-0.26530576 -0.22138868 0.053109698
-0.26550484 -0.22138606 0.053051151
-0.26571557 -0.22138922 0.052927643
-0.26591209 -0.22137655 0.0529745
-0.26612586 -0.22137088 0.052941304
-0.2663157 -0.22135903 0.052982435
-0.26652232 -0.22135398 0.05294583
-0.26673251 -0.22135179 0.052877922
-0.26693782 -0.22135204 0.052786887
-0.26713002 -0.22134222 0.052806001
-0.26732886 -0.22133157 0.052830838
-0.26753744 -0.22132567 0.052802317
-0.26774278 -0.2213172 0.052801613
-0.26792127 -0.2213057 0.05284401
-0.26811987 -0.22130132 0.052804001
-0.2683343 -0.22130075 0.052717522
-0.26853505 -0.22128868 0.052756239
-0.2687189 -0.22128187 0.052747626
-0.26894298 -0.2212836 0.052633271
-0.26914695 -0.22127452 0.052639529
-0.26935273 -0.22126716 0.052627243
-0.2695578 -0.2212557 0.05265782
-0.2697925 -0.2212541 0.05257348
-0.26996571 -0.22124504 0.052592754
-0.27014142 -0.22123109 0.052661814
-0.27035186 -0.22123225 0.05255916
-0.27054852 -0.22122392 0.052560851
-0.27076605 -0.22121753 0.05253341
-0.27093723 -0.22121425 0.052493647
-0.2711347 -0.2211992 0.052564822
-0.27133459 -0.22119442 0.052528266
-0.27155524 -0.2211878 0.052501954
-0.27175206 -0.22118002 0.052497864
-0.27196681 -0.22117542 0.052453071
-0.27215216 -0.22118028 0.052322846
-0.27235597 -0.22116384 0.052405551
-0.27255517 -0.22115485 0.052413005
-0.27276012 -0.22115266 0.052347466
-0.27293926 -0.2211379 0.052423432
-0.27311584 -0.22111978 0.05253534
-0.2733416 -0.2211297 0.052335255
-0.27352014 -0.22111864 0.052373014
-0.2737233 -0.22111988 0.052272744
-0.27391666 -0.22110866 0.052305743
-0.27412668 -0.22110471 0.052256361
-0.27432555 -0.22109595 0.052261509
-0.27451956 -0.22109085 0.052230805
-0.27470899 -0.22108471 0.052212879
-0.27491963 -0.22107169 0.052257299
-0.27513078 -0.22106478 0.052238017
-0.27530947 -0.22105953 0.052215554
-0.27550313 -0.22105455 0.052183703
-0.27570271 -0.22104745 0.052171476
-0.27590501 -0.22104481 0.052111745
-0.27611843 -0.22103636 0.052107491
-0.27630433 -0.22102535 0.052141711
-0.27649671 -0.22102533 0.052058905
-0.27667493 -0.22101384 0.052101307
-0.27688527 -0.22101356 0.052013703
-0.27708587 -0.22100942 0.051970199
-0.277302 -0.22099997 0.051975191
-0.27748293 -0.22098647 0.052037261
-0.277677 -0.22097702 0.052051716
-0.27786312 -0.22097392 0.052003704
-0.27806848 -0.22097306 0.051924258
-0.27826321 -0.22097351 0.051835649
-0.2784619 -0.22096689 0.051818788
-0.27865717 -0.22096096 0.051796176
-0.27884901 -0.22093786 0.051953107
-0.279037 -0.22092263 0.052030161
-0.27923658 -0.2209373 0.0517921
-0.27943456 -0.22092947 0.051787995
-0.27963454 -0.22091711 0.051830195
-0.27982599 -0.22091155 0.05180531
-0.2800256 -0.22092019 0.051629785
-0.28022113 -0.22089382 0.051819101
-0.28041163 -0.22088562 0.051822014
-0.28061762 -0.22088082 0.051783092
-0.28081962 -0.22087519 0.051754631
-0.2810072 -0.22087024 0.051725142
-0.28120703 -0.22087127 0.05162837
-0.28140897 -0.22086696 0.05158601
-0.28159851 -0.22085603 0.051617887
-0.28178781 -0.22084352 0.051665977
-0.28198567 -0.2208375 0.051643342
-0.28218007 -0.22083282 0.051607996
-0.28236917 -0.22081822 0.051678091
-0.282565 -0.22082399 0.051533878
-0.28276414 -0.22083019 0.051383831
-0.28296676 -0.22080845 0.051522132
-0.28315231 -0.22079219 0.051610794
-0.2833474 -0.22079912 0.051454999
-0.2835547 -0.22078355 0.051527239
-0.28373748 -0.22077489 0.051538341
-0.28393212 -0.22078751 0.051323481
-0.28413573 -0.22076651 0.051453665
-0.28434002 -0.22076133 0.051419389
-0.28453353 -0.22075938 0.051356263
-0.28472328 -0.22075289 0.051341813
-0.28492376 -0.22074541 0.051333055
-0.28512099 -0.22072701 0.051438969
-0.28530344 -0.22072496 0.051381733
-0.28549632 -0.22072527 0.051295448
-0.28569674 -0.22071712 0.051293634
-0.2858972 -0.22070853 0.051296458
-0.28608716 -0.22069791 0.051324852
-0.28627986 -0.22069544 0.051267523
-0.28646919 -0.22069007 0.051241495
-0.28666908 -0.2206852 0.051206097
-0.28686512 -0.22068146 0.051160317
-0.28705966 -0.22066496 0.051247735
-0.28725502 -0.22066483 0.051164903
-0.28744885 -0.22065304 0.051203679
-0.28765181 -0.22064926 0.051155522
-0.28784055 -0.22064506 0.051117912
-0.28803685 -0.22063841 0.051102251
-0.28822392 -0.22062612 0.051149189
-0.28840443 -0.22062582 0.051074602
-0.28860769 -0.22061934 0.051054239
-0.28879753 -0.22061017 0.051067572
-0.28900319 -0.22060718 0.051010132
-0.28920877 -0.22060406 0.050953843
-0.2893928 -0.22059099 0.05101008
-0.28957728 -0.2205874 0.050967883
-0.28977281 -0.22058225 0.050937157
-0.28997612 -0.22057477 0.050927214
-0.29015991 -0.22056317 0.050968401
-0.29035181 -0.22055805 0.050938874
-0.29054081 -0.22055125 0.050927907
-0.29073638 -0.22054555 0.050902974
-0.29093498 -0.22054082 0.050866436
-0.29112762 -0.22053355 0.0508589
-0.29131937 -0.2205282 0.05083169
-0.29151905 -0.22052087 0.050821781
-0.29171616 -0.22051151 0.050833896
-0.29190809 -0.22050573 0.050811324
-0.2920979 -0.22049712 0.050818872
-0.29228708 -0.22049646 0.050744198
-0.29247361 -0.22050038 0.050623231
-0.29267523 -0.22047643 0.0507847
-0.29285985 -0.22047719 0.050697334
-0.29305318 -0.22047459 0.050641146
-0.29324675 -0.22046548 0.050652146
-0.29344079 -0.22045571 0.050670076
-0.29363427 -0.22044694 0.050677594
-0.2938261 -0.22044641 0.050600585
-0.29402348 -0.2204424 0.050557099
-0.29421282 -0.22043459 0.050556552
-0.29440874 -0.22042216 0.050601102
-0.29460946 -0.2204131 0.050608553
-0.29480135 -0.2204119 0.050538495
-0.29497805 -0.22042213 0.050356228
-0.29518518 -0.22040869 0.050406471
-0.29537982 -0.22039363 0.050478838
-0.29556304 -0.22038953 0.050442427
-0.29576772 -0.22037987 0.050454482
-0.29597393 -0.22037283 0.050438724
-0.29616553 -0.22036237 0.050464779
-0.29634967 -0.220357 0.050441116
-0.29654214 -0.2203456 0.050476439
-0.29673502 -0.22035071 0.050340354
-0.29693514 -0.22033432 0.050424248
-0.2971153 -0.2203377 0.050311439
-0.29731727 -0.22033553 0.050247073
-0.29750612 -0.2203245 0.050280113
-0.29770297 -0.22031628 0.050280649
-0.2979053 -0.22031352 0.050222073
-0.29809394 -0.22030295 0.050250474
-0.29828897 -0.22029682 0.050230186
-0.29849067 -0.22029084 0.050205197
-0.29867351 -0.22028665 0.050169967
-0.29886621 -0.22027926 0.050163593
-0.29905826 -0.22026554 0.050223231
-0.29925102 -0.22026172 0.050179798
-0.29945436 -0.2202576 0.050135106
-0.29963133 -0.22025229 0.050113823
-0.29983121 -0.22024474 0.050106224
-0.30001438 -0.22024007 0.050075617
-0.30020258 -0.22023387 0.050058864
-0.300403 -0.22022261 0.050089478
-0.30059445 -0.2202166 0.05006922
-0.30078539 -0.22021107 0.050044328
-0.3009685 -0.22021268 0.049948864
-0.30116728 -0.22020616 0.049930863
-0.30134219 -0.22020262 0.049892217
-0.30155 -0.22018513 0.049984146
-0.30172443 -0.22019099 0.049848236
-0.30192149 -0.22018008 0.049876563
-0.30212387 -0.2201647 0.049948849
-0.30234045 -0.2201491 0.050017536
-0.30252647 -0.22015348 0.049891941
-0.30272189 -0.22014989 0.049845003
-0.30294168 -0.22012074 0.050052635
-0.30312437 -0.22012761 0.049902748
-0.30330682 -0.22012623 0.049838565
-0.30349049 -0.22012378 0.049784791
-0.30368158 -0.22011277 0.049816646
-0.30385944 -0.22011481 0.049718916
-0.30407 -0.22010201 0.04976102
-0.30426544 -0.22009306 0.049769673
-0.30445603 -0.22009045 0.049714684
-0.30464795 -0.22008422 0.049696732
-0.3048338 -0.22007744 0.049686946
-0.30501762 -0.22007219 0.049662128
-0.30522218 -0.22006422 0.049656805
-0.30542043 -0.22005594 0.04965733
-0.30560049 -0.22005342 0.049605899
-0.30579177 -0.22004531 0.049607642
-0.30598125 -0.2200433 0.049546868
-0.30618319 -0.22003253 0.049571678
-0.30635816 -0.22003345 0.049486719
-0.30655628 -0.22002305 0.049509242
-0.30676106 -0.22001283 0.049527079
-0.30694914 -0.22000708 0.049505699
-0.30714539 -0.22000268 0.049466863
-0.30733761 -0.21999642 0.049448907
-0.30753911 -0.21998411 0.049489938
-0.30772635 -0.21998118 0.049439605
-0.3079173 -0.21997364 0.049435567
-0.30810693 -0.21996917 0.049400266
-0.30829915 -0.21996304 0.049381156
-0.30850843 -0.21995039 0.049422115
-0.30871046 -0.21994241 0.04941798
-0.30887881 -0.21994494 0.04931917
-0.3090913 -0.2199305 0.049377471
-0.30927968 -0.21992686 0.049334079
-0.30946401 -0.21992362 0.049288403
-0.30965507 -0.2199183 0.049261201
-0.30985811 -0.21990581 0.049303371
-0.31004187 -0.21990693 0.049212538
-0.31023237 -0.21990198 0.049181867
-0.31042472 -0.21989594 0.049161591
-0.31062901 -0.21988295 0.049208388
-0.31084117 -0.21986942 0.049257427
-0.31100345 -0.2198789 0.049089193
-0.31120685 -0.21986662 0.04912905
-0.31141463 -0.21985191 0.049192023
-0.31160608 -0.21984848 0.049145129
-0.31178457 -0.21985418 0.04900917
-0.31197786 -0.21984588 0.049012061
-0.31219327 -0.2198254 0.04913171
-0.31238529 -0.21982351 0.049068596
-0.31258079 -0.21981969 0.049023986
-0.31278059 -0.2198099 0.049039546
-0.31297535 -0.21980287 0.049028527
-0.31317365 -0.21979938 0.048979253
-0.31336552 -0.21979037 0.048990257
-0.3135376 -0.21979186 0.048900682
-0.31373361 -0.219786 0.048876911
-0.31393552 -0.21977535 0.048900567
-0.31412733 -0.21977 0.04887335
-0.3143436 -0.21975206 0.048966363
-0.31454134 -0.21974893 0.04891362
-0.31473279 -0.21974215 0.048901465
-0.31489733 -0.21974562 0.04879459
-0.31509393 -0.21974131 0.048754595
-0.31529346 -0.21973053 0.048780583
-0.31550801 -0.21971734 0.04882497
-0.31570441 -0.21970992 0.048817407
-0.31589642 -0.21970467 0.048789032
-0.31608066 -0.2197049 0.048707463
-0.31629205 -0.21969351 0.048734497
-0.31647885 -0.2196876 0.048715435
-0.31665933 -0.21968472 0.048667487
-0.31684673 -0.21968335 0.048600938
-0.31702003 -0.21968547 0.048504405
-0.31724653 -0.21966398 0.048629753
-0.31742898 -0.21966493 0.04854124
-0.31764272 -0.21964966 0.04860764
-0.31782359 -0.21964823 0.04854463
-0.31805336 -0.21962728 0.048662994
-0.31820253 -0.21964197 0.048446238
-0.31841651 -0.21962535 0.048526533
-0.31860501 -0.21962349 0.048464604
-0.31881961 -0.21960829 0.048529834
-0.31901485 -0.21960193 0.048511859
-0.31921124 -0.21959506 0.048498504
-0.319399 -0.21959357 0.04843311
-0.31960636 -0.2195819 0.04846482
-0.31979463 -0.21957871 0.04841679
-0.32000479 -0.21956593 0.048458904
-0.3201943 -0.21956369 0.048400439
-0.32039034 -0.21955718 0.048383616
-0.32059586 -0.21954659 0.048404921
-0.32078347 -0.21954376 0.048353422
-0.32097653 -0.2195386 0.048323885
-0.32116327 -0.21953614 0.048268929
-0.32138467 -0.21952043 0.048336416
-0.32157707 -0.21951564 0.048303407
-0.32176572 -0.21951243 0.048255377
-0.32195967 -0.21950701 0.048228145
-0.32217354 -0.21949473 0.048263274
-0.32237551 -0.21948609 0.048266072
-0.32255074 -0.21948844 0.048166048
-0.32274041 -0.21948487 0.04812149
-0.32296371 -0.21946898 0.048190117
-0.32314157 -0.21947023 0.04810049
-0.32333782 -0.21946271 0.048094086
-0.32357076 -0.21944319 0.048196211
-0.32375738 -0.21944097 0.048138939
-0.32393554 -0.21944344 0.048036568
-0.32413751 -0.21943511 0.048035905
-0.32434449 -0.21942882 0.048012026
-0.32457569 -0.21940781 0.048130378
-0.32474148 -0.21941771 0.047956325
-0.32495824 -0.2194012 0.048034273
-0.32515773 -0.21939665 0.047995411
-0.32535288 -0.21939252 0.047954276
-0.32555717 -0.21938232 0.047972117
-0.32574379 -0.2193802 0.047913682
-0.32596582 -0.21936972 0.047926735
-0.32615501 -0.21936539 0.047890283
-0.32634905 -0.21935672 0.047896627
-0.32654184 -0.21935233 0.047858987
-0.32673708 -0.21934831 0.047816686
-0.32693392 -0.2193412 0.047805652
-0.327115 -0.21934244 0.047714833
-0.32729456 -0.21933804 0.047683105
-0.32754436 -0.21931528 0.047811717
-0.32770869 -0.21932021 0.047689781
-0.3279492 -0.21929859 0.047810372
-0.32813874 -0.21929803 0.047734536
-0.32834426 -0.21929169 0.047711834
-0.32854548 -0.21928452 0.047699593
-0.32875061 -0.21927717 0.047687314
-0.32894605 -0.21927214 0.047655433
-0.32915446 -0.21926489 0.047640808
-0.32935435 -0.21925834 0.047622796
-0.32955927 -0.21925123 0.0476082
-0.32974562 -0.21924478 0.047594938
-0.3299453 -0.21923721 0.047587346
-0.33015358 -0.21923254 0.047546085
-0.33035263 -0.21922413 0.047547758
-0.33056399 -0.21921496 0.047551639
-0.33071935 -0.21922049 0.047427475
-0.33094358 -0.21920814 0.047459036
-0.33115813 -0.21919572 0.04749532
-0.33135131 -0.21919179 0.047453038
-0.33158052 -0.21918023 0.047474131
-0.33176899 -0.21917681 0.047428418
-0.33195782 -0.21917327 0.047383856
-0.33219129 -0.21915708 0.047451235
-0.33238459 -0.21915212 0.047419373
-0.3325876 -0.21914622 0.047393221
-0.33275947 -0.21914726 0.047308289
-0.3329626 -0.21914025 0.047293708
-0.3331635 -0.21913397 0.047272202
-0.33337542 -0.21912524 0.047271449
-0.33359188 -0.21911399 0.047294974
-0.33378437 -0.2191084 0.047270071
-0.33397201 -0.21910658 0.047208149
-0.33419776 -0.21909249 0.047257066
-0.33441028 -0.21908598 0.047233142
-0.33459735 -0.2190844 0.047168918
-0.33479846 -0.21907835 0.047145091
-0.33500957 -0.21906808 0.047160562
-0.33520916 -0.21906365 0.047120534
-0.33539316 -0.21906099 0.047069073
-0.33562231 -0.21904731 0.047112167
-0.33581877 -0.2190429 0.047073331
-0.33605635 -0.21903202 0.047083925
-0.33626139 -0.21902815 0.047035743
-0.33644956 -0.21902429 0.046994671
-0.3366482 -0.21901722 0.046982452
-0.33686024 -0.21900816 0.046985172
-0.33706036 -0.21899968 0.046986837
-0.33725798 -0.21899924 0.046906304
-0.33747703 -0.2189851 0.046958752
-0.33768308 -0.21897906 0.046932571
-0.33787957 -0.21897185 0.046922691
-0.23083019 -0.2228864 0.052421927
-0.23107354 -0.22288264 0.052356094
-0.23132263 -0.22287922 0.052284405
-0.23157671 -0.22287814 0.052186057
-0.23182778 -0.22287542 0.052106246
-0.23208657 -0.22287348 0.052014805
-0.23234446 -0.22287484 0.051889785
-0.2325719 -0.22286804 0.051862296
-0.23280592 -0.22286175 0.051826648
-0.23303962 -0.22285661 0.051779427
-0.23327821 -0.22285159 0.051728673
-0.23350686 -0.22284542 0.051694237
-0.23374121 -0.22283956 0.051653944
-0.23398739 -0.22283782 0.05156609
-0.23422849 -0.22283381 0.05150374
-0.23446992 -0.22283114 0.051427502
-0.23470715 -0.22282641 0.051374458
-0.23494557 -0.22282207 0.05131676
-0.23519057 -0.22281948 0.051238172
-0.23542196 -0.22281475 0.051187493
-0.23566043 -0.22281075 0.051126331
-0.23589304 -0.22280653 0.051069852
-0.23613496 -0.22280361 0.05099592
-0.23636799 -0.22279972 0.050935961
-0.23661137 -0.22279741 0.050855067
-0.23684517 -0.22279394 0.050790474
-0.23708066 -0.22278982 0.050731648
-0.23733211 -0.22278997 0.050621748
-0.23756132 -0.22278446 0.050580345
-0.23778185 -0.22277793 0.05055292
-0.23801778 -0.22277437 0.050488308
-0.23825014 -0.22277117 0.050421409
-0.23847954 -0.22276609 0.05037538
-0.23871014 -0.22276263 0.050311971
-0.23894319 -0.22275873 0.050252013
-0.23917127 -0.22275358 0.050207149
-0.23940259 -0.22274943 0.050150681
-0.23962969 -0.22274543 0.050094251
-0.23985894 -0.2227409 0.050042428
-0.24008153 -0.22273588 0.049998779
-0.24031156 -0.22273177 0.049942322
-0.24053603 -0.22272621 0.049903285
-0.24076301 -0.22272144 0.049854957
-0.24098545 -0.22271675 0.049807835
-0.24121284 -0.22271231 0.049756028
-0.24143378 -0.22270611 0.049725126
-0.24166262 -0.22270228 0.04966636
-0.24188355 -0.22269753 0.049620409
-0.24210469 -0.22269167 0.049586028
-0.24232592 -0.2226859 0.049550496
-0.24255118 -0.22268143 0.049499873
-0.2428185 -0.22268696 0.049327288
-0.2429951 -0.22266561 0.049472786
-0.24340442 -0.22265142 0.049443692
-0.24369828 -0.22266169 0.049210668
-0.24415614 -0.2226617 0.049013242
-0.24430011 -0.22263564 0.049221557
-0.24452478 -0.22263321 0.049150087
-0.24474785 -0.22262904 0.049097165
-0.24496149 -0.22262338 0.049064018
-0.24517773 -0.22261725 0.049034312
-0.24540451 -0.22261049 0.049006827
-0.2456142 -0.22260654 0.048957504
-0.24582717 -0.222601 0.048923198
-0.24604461 -0.22259562 0.048885375
-0.24626072 -0.22258851 0.048866104
-0.24646968 -0.22258191 0.048844565
-0.24668175 -0.22257641 0.048810266
-0.24691164 -0.2225713 0.048764233
-0.24710687 -0.22256459 0.048749775
-0.24731611 -0.22255698 0.048738655
-0.24753016 -0.22255106 0.048707813
-0.2477434 -0.22254495 0.048679296
-0.24794573 -0.22253807 0.048663612
-0.24814814 -0.22252838 0.048676878
-0.24835277 -0.22251806 0.048695911
-0.24854496 -0.22250633 0.048734736
-0.24872831 -0.2224915 0.04880954
-0.24889658 -0.22246836 0.048977103
-0.2478276 -0.22173506 0.057044566
-0.24811292 -0.22175616 0.05670277
-0.24826887 -0.22172204 0.056989722
-0.24847053 -0.22170781 0.057050459
-0.24869461 -0.22170192 0.057014897
-0.24901263 -0.2216429 0.057490315
-0.24955387 -0.22157322 0.057979964
-0.24981451 -0.22158483 0.05774723
-0.25123683 -0.2218738 0.054136969
-0.25143632 -0.22186066 0.054187313
-0.25168163 -0.22185236 0.054167777
-0.25191766 -0.22184722 0.054119371
-0.25210962 -0.22183797 0.054132722
-0.25232682 -0.22183047 0.054116912
-0.25254446 -0.22182152 0.054116137
-0.25275767 -0.22182301 0.054008886
-0.25292635 -0.22181123 0.054058343
-0.25319523 -0.22180822 0.053973757
-0.25339174 -0.22180124 0.053961597
-0.2536107 -0.22179143 0.053968925
-0.25381041 -0.22177695 0.054033153
-0.25400245 -0.22176635 0.0540604
-0.25420347 -0.22176152 0.054023892
-0.25444657 -0.22177173 0.053813312
-0.25462502 -0.22176269 0.053830266
-0.25486767 -0.22174534 0.053905696
-0.25507063 -0.22173619 0.053913169
-0.25526023 -0.22173227 0.053872123
-0.25550532 -0.22172555 0.053836375
-0.25570235 -0.22171766 0.053833466
-0.25588986 -0.22171304 0.053800553
-0.25612199 -0.22170438 0.05379039
-0.25632763 -0.22169881 0.053759627
-0.2565468 -0.22169 0.053756535
-0.2567699 -0.22168908 0.053670026
-0.25696245 -0.22167745 0.053707689
-0.2571452 -0.22166902 0.053716496
-0.25737974 -0.22166406 0.053666949
-0.25755852 -0.22165579 0.053675786
-0.25774208 -0.22164586 0.053699639
-0.25798973 -0.22164986 0.053551547
-0.25816676 -0.22163674 0.05361136
-0.25839674 -0.22162582 0.053625535
-0.25861526 -0.2216195 0.053596966
-0.25878385 -0.22161041 0.053618636
-0.25902361 -0.22160904 0.053529672
-0.25921273 -0.2215981 0.053561576
-0.25942528 -0.22159326 0.053520322
-0.25961506 -0.22158276 0.053547591
-0.25983936 -0.22157352 0.053546771
-0.26003578 -0.22157112 0.053487141
-0.26021996 -0.22155982 0.053524882
-0.26047719 -0.221567 0.053339653
-0.2606796 -0.22155486 0.053378385
-0.26086253 -0.22154072 0.053446248
-0.26106134 -0.22153565 0.05341322
-0.26126549 -0.22153148 0.053368572
-0.26148149 -0.22152504 0.053342342
-0.26167873 -0.22151703 0.053340599
-0.26190561 -0.22151014 0.05331428
-0.26209408 -0.22150415 0.053295244
-0.26230612 -0.22149809 0.053266738
-0.26252189 -0.22149199 0.053237036
-0.26270443 -0.22148748 0.053205319
-0.26288965 -0.22147235 0.053282417
-0.2631028 -0.22146982 0.053216845
-0.2633183 -0.22146899 0.053132728
-0.26351255 -0.22145461 0.05319817
-0.26371816 -0.22145015 0.053155825
-0.26392484 -0.22144912 0.053077571
-0.26411599 -0.22143532 0.053138409
-0.26433495 -0.22143489 0.053048469
-0.26452374 -0.22143549 0.052961111
-0.26473567 -0.22141995 0.053031035
-0.264938 -0.22140579 0.05309061
-0.26514477 -0.22140017 0.053059835
-0.26533288 -0.22138974 0.053087115
-0.2655288 -0.2213849 0.053052962
-0.26574257 -0.22138748 0.052934125
-0.26594046 -0.22137585 0.05296943
-0.26615444 -0.2213704 0.05293395
-0.26634327 -0.22135781 0.052983236
-0.26653892 -0.22135331 0.05294561
-0.26675543 -0.22135009 0.052885801
-0.26695809 -0.22135133 0.052785583
-0.26714656 -0.22134165 0.052804757
-0.26734731 -0.22132947 0.05284467
-0.2675615 -0.221325 0.052798778
-0.26776311 -0.2213167 0.052798145
-0.26794508 -0.22130494 0.052841701
-0.26813918 -0.22130007 0.052808717
-0.26835421 -0.22130002 0.052716497
-0.26855087 -0.22128779 0.052758757
-0.26874125 -0.22128004 0.052757069
-0.26895908 -0.22128302 0.052632406
-0.26916674 -0.2212739 0.052637517
-0.26936883 -0.22126669 0.05262531
-0.26957807 -0.2212556 0.052650094
-0.26980335 -0.22125237 0.052586731
-0.26998165 -0.22124456 0.052590936
-0.27015641 -0.22122975 0.052669294
-0.27036315 -0.22123104 0.052566722
-0.27056429 -0.22122343 0.05255916
-0.27077791 -0.22121698 0.052534103
-0.27094498 -0.22121342 0.052499052
-0.27114648 -0.22119863 0.052565582
-0.27134567 -0.22119321 0.052536033
-0.27157077 -0.22118729 0.05250046
-0.27176377 -0.22117956 0.052497596
-0.27197117 -0.22117525 0.052452922
-0.27216041 -0.22118029 0.052319247
-0.27236372 -0.2211633 0.052407771
-0.27256984 -0.22115369 0.052418679
-0.27276114 -0.22115317 0.052341722
-0.27294368 -0.22113805 0.052419998
-0.27311647 -0.22111997 0.052533112
-0.27334183 -0.22112945 0.052337743
-0.27352744 -0.22111788 0.052377786
-0.27372634 -0.22111849 0.052285701
-0.27392435 -0.22110856 0.052303642
-0.27412289 -0.22110426 0.052262515
-0.27432936 -0.22109576 0.052261852
-0.27451953 -0.2210906 0.052233532
-0.27470872 -0.22108413 0.05221913
-0.27491575 -0.22107136 0.052262448
-0.27512714 -0.22106488 0.052238576
-0.27530611 -0.22106005 0.052211523
-0.27549985 -0.2210553 0.052177392
-0.27569562 -0.22104812 0.052167557
-0.2759009 -0.22104435 0.052118257
-0.27611104 -0.2210367 0.05210714
-0.27630058 -0.22102565 0.052140202
-0.27648553 -0.22102571 0.052059833
-0.27666724 -0.22101386 0.052104544
-0.27687776 -0.22101401 0.052012354
-0.27707821 -0.22100964 0.051971212
-0.27728719 -0.2210007 0.051974002
-0.27747521 -0.2209868 0.052037179
-0.27766585 -0.22097793 0.05204707
-0.27785188 -0.22097473 0.052000262
-0.27804986 -0.22097382 0.051924407
-0.27824798 -0.22097379 0.051839288
-0.27844319 -0.22096764 0.051819034
-0.27864209 -0.22096178 0.051794112
-0.27882981 -0.22093774 0.051962666
-0.27901772 -0.2209224 0.052040905
-0.27921766 -0.22093804 0.051792495
-0.27941543 -0.22092977 0.051793061
-0.27961558 -0.22091796 0.051829509
-0.2798034 -0.22091255 0.051804684
-0.28000662 -0.22092114 0.051628046
-0.280202 -0.22089456 0.05181969
-0.28038901 -0.22088706 0.051816873
-0.28059113 -0.22088152 0.051787302
-0.28079319 -0.2208762 0.051755406
-0.28098428 -0.220871 0.051727086
-0.28118065 -0.22087283 0.051623449
-0.28138241 -0.22086798 0.051586926
-0.28157184 -0.22085671 0.051622309
-0.28176481 -0.22084473 0.051663443
-0.28195903 -0.22083884 0.051640883
-0.28215328 -0.22083361 0.051611371
-0.28234249 -0.22081989 0.051672231
-0.28253457 -0.22082481 0.051538531
-0.28273728 -0.22083108 0.051386204
-0.28293973 -0.22080833 0.051534943
-0.28312173 -0.22079301 0.051615544
-0.28331679 -0.2207997 0.051462129
-0.28352413 -0.22078523 0.051522829
-0.28370681 -0.22077602 0.051539734
-0.28390503 -0.22078884 0.051321454
-0.28410858 -0.2207676 0.05145397
-0.28430927 -0.22076257 0.051419772
-0.28450271 -0.22076041 0.051359005
-0.28468886 -0.22075416 0.051343463
-0.28489289 -0.22074588 0.051341668
-0.28508645 -0.22072862 0.051437218
-0.28527245 -0.22072597 0.051384628
-0.28546533 -0.22072606 0.051300704
-0.28566572 -0.22071768 0.051301248
-0.28586245 -0.22071046 0.051291406
-0.28605589 -0.22069991 0.051317483
-0.28624508 -0.22069646 0.051271804
-0.28643796 -0.22069097 0.051245779
-0.28663421 -0.22068644 0.05120815
-0.28683373 -0.22068301 0.051157761
-0.28702456 -0.22066699 0.051241755
-0.28722006 -0.22066574 0.05117055
-0.28741387 -0.22065395 0.051209368
-0.28762043 -0.22064969 0.051164694
-0.28780565 -0.22064528 0.051130638
-0.28800541 -0.22063883 0.051111504
-0.28818876 -0.22062701 0.051155042
-0.28837273 -0.22062701 0.051075824
-0.28857237 -0.22062057 0.051056698
-0.288762 -0.22061196 0.051064275
-0.28896075 -0.22060835 0.051016204
-0.28916991 -0.22060497 0.050961085
-0.28935727 -0.22059233 0.05101154
-0.28954533 -0.22058848 0.05097051
-0.28973702 -0.22058403 0.050934073
-0.28994384 -0.22057651 0.050922986
-0.29012436 -0.22056404 0.050974652
-0.29031983 -0.22055866 0.050946288
-0.29050863 -0.22055233 0.050930724
-0.29070073 -0.22054641 0.050909344
-0.29089913 -0.22054201 0.050869375
-0.29109514 -0.22053494 0.050858375
-0.29129112 -0.22052798 0.050846219
-0.29148686 -0.22052146 0.050829437
-0.29168004 -0.22051294 0.050834674
-0.29187563 -0.22050667 0.050815575
-0.29206166 -0.22049853 0.050819725
-0.29225412 -0.22049819 0.050740439
-0.29244107 -0.2205013 0.05062763
-0.2926462 -0.2204771 0.050790235
-0.29283056 -0.22047833 0.050698292
-0.29302037 -0.22047573 0.05064334
-0.2932173 -0.22046672 0.05065202
-0.29341191 -0.2204559 0.050680406
-0.29360828 -0.22044803 0.050677516
-0.29379702 -0.22044683 0.050608687
-0.29399374 -0.22044374 0.050555993
-0.29418007 -0.22043516 0.050564766
-0.29437891 -0.2204235 0.050600067
-0.29457942 -0.22041468 0.050605241
-0.29477164 -0.2204129 0.05054101
-0.2949518 -0.22042309 0.050357629
-0.29515457 -0.22041082 0.050397519
-0.29535362 -0.22039436 0.050482597
-0.29553682 -0.22039026 0.050446238
-0.29574126 -0.22038083 0.050456017
-0.29594722 -0.220374 0.050437976
-0.29614225 -0.22036351 0.050462887
-0.29632324 -0.22035772 0.050445072
-0.29651904 -0.22034641 0.050478082
-0.29670849 -0.22035143 0.050344408
-0.29691288 -0.22033396 0.050437547
-0.29709274 -0.22033769 0.050321318
-0.29729417 -0.22033609 0.050251223
-0.29747951 -0.2203251 0.050285477
-0.29767957 -0.22031707 0.050282553
-0.29787752 -0.22031526 0.05021596
-0.29807296 -0.22030476 0.050240859
-0.29826507 -0.22029795 0.050228737
-0.29846305 -0.22029224 0.050202668
-0.29864973 -0.22028755 0.050170917
-0.29884228 -0.22028027 0.050163418
-0.29903528 -0.22026551 0.050233509
-0.29923114 -0.22026201 0.050185461
-0.29943439 -0.22025786 0.05014082
-0.29961562 -0.22025172 0.050126478
-0.29980317 -0.22024611 0.050103977
-0.29999331 -0.22024128 0.050072182
-0.30018181 -0.22023474 0.050058939
-0.30038637 -0.22022273 0.050095342
-0.30057383 -0.22021723 0.050071687
-0.30076805 -0.22021177 0.050044496
-0.30094767 -0.22021341 0.049950264
-0.30114612 -0.22020712 0.049929984
-0.30132788 -0.22020352 0.049889009
-0.30153018 -0.2201848 0.049996067
-0.30170673 -0.22019181 0.049847446
-0.30190316 -0.22018136 0.049871184
-0.30210987 -0.22016513 0.049950417
-0.30232638 -0.22014953 0.050019134
-0.30250961 -0.22015335 0.049900565
-0.30270702 -0.2201509 0.049840916
-0.30292642 -0.22012199 0.050046243
-0.30311438 -0.2201273 0.049910262
-0.30328888 -0.22012679 0.049840406
-0.30347985 -0.22012393 0.049787764
-0.30366713 -0.22011319 0.049818527
-0.30384824 -0.22011532 0.049718499
-0.30405903 -0.22010228 0.049762961
-0.3042568 -0.22009413 0.049762368
-0.30444619 -0.22008978 0.04972595
-0.30463323 -0.22008462 0.049698826
-0.30482233 -0.22007793 0.04968673
-0.30500656 -0.22007234 0.049665421
-0.30521092 -0.22006448 0.049658976
-0.30541351 -0.22005546 0.049665295
-0.30559224 -0.22005388 0.049604658
-0.3057836 -0.22004566 0.049607594
-0.30597761 -0.22004278 0.049553767
-0.30618194 -0.22003269 0.049570493
-0.3063536 -0.22003353 0.049487922
-0.30655149 -0.22002324 0.049509324
-0.30675602 -0.22001314 0.049526051
-0.30694529 -0.22000656 0.049512789
-0.30714148 -0.22000214 0.049474005
-0.30733478 -0.21999742 0.049439874
-0.30753779 -0.21998402 0.049491342
-0.30772558 -0.21998075 0.049444519
-0.307915 -0.21997416 0.049431268
-0.30810493 -0.21996945 0.049398325
-0.30830202 -0.21996233 0.049387321
-0.30851066 -0.21995005 0.049424842
-0.30870867 -0.21994244 0.049418464
-0.30888194 -0.21994399 0.049327765
-0.30909032 -0.21993205 0.049361825
-0.30928269 -0.2199259 0.049342752
-0.30946639 -0.219923 0.049293648
-0.30965602 -0.21991853 0.049258396
-0.30986202 -0.21990626 0.049297094
-0.31004512 -0.21990572 0.049223687
-0.31023598 -0.21990053 0.049195364
-0.310422 -0.2198962 0.049160145
-0.31063226 -0.21988364 0.049199969
-0.31084725 -0.21986842 0.049265224
-0.31100824 -0.21987861 0.049090117
-0.31121117 -0.21986656 0.04912769
-0.31141847 -0.2198521 0.049188383
-0.31160814 -0.21984774 0.049151964
-0.31178638 -0.21985355 0.049014907
-0.31198582 -0.21984555 0.04901199
-0.31220138 -0.21982495 0.049132824
-0.31239423 -0.21982259 0.049074382
-0.31258771 -0.21981984 0.049019404
-0.31279397 -0.21980834 0.049049996
-0.31298071 -0.21980196 0.049035616
-0.31318465 -0.21979725 0.048996761
-0.31337398 -0.21978955 0.048995089
-0.31354603 -0.21979104 0.048905555
-0.31373787 -0.21978557 0.048879541
-0.31394774 -0.21977425 0.048906639
-0.31413466 -0.21976966 0.048873723
-0.31435287 -0.21975242 0.048958637
-0.31454811 -0.21974882 0.048911747
-0.31474021 -0.21974169 0.0489031
-0.31490931 -0.21974452 0.048800863
-0.31510535 -0.21973878 0.048775975
-0.31529802 -0.21973139 0.048769642
-0.31551227 -0.21971832 0.048812907
-0.31571254 -0.21970895 0.048823863
-0.31590351 -0.2197042 0.048790921
-0.31608504 -0.21970408 0.048714045
-0.31629035 -0.21969561 0.048713394
-0.31648666 -0.21968506 0.048738282
-0.31665927 -0.21968597 0.048654549
-0.31685245 -0.2196818 0.048614625
-0.31702289 -0.21968524 0.048505425
-0.31724808 -0.21966593 0.048608802
-0.31743118 -0.21966496 0.048540026
-0.31764543 -0.21964943 0.048608772
-0.31782463 -0.21964873 0.048538864
-0.31805566 -0.21962717 0.048663035
-0.31820932 -0.21963979 0.048465993
-0.31841916 -0.21962656 0.048512772
-0.31860685 -0.21962351 0.048463631
-0.3188214 -0.21960831 0.048528887
-0.31901577 -0.2196023 0.048507489
-0.31921488 -0.21959421 0.048505731
-0.31939915 -0.21959274 0.04844157
-0.31960368 -0.2195823 0.048461758
-0.31979382 -0.21957825 0.048421875
-0.32000425 -0.21956679 0.048450109
-0.32019737 -0.2195615 0.048421774
-0.32038426 -0.21955892 0.048368014
-0.32059997 -0.21954536 0.048415892
-0.32078326 -0.21954292 0.048362173
-0.32097632 -0.21953775 0.048332676
-0.32116437 -0.21953614 0.048268482
-0.32138255 -0.21952035 0.048338346
-0.32157639 -0.21951492 0.048311159
-0.32176349 -0.21951233 0.048257396
-0.32195681 -0.21950714 0.048227891
-0.32216823 -0.21949586 0.048253812
-0.32237282 -0.2194861 0.048267052
-0.32255343 -0.21948624 0.048187874
-0.32274315 -0.21948399 0.048129458
-0.32295102 -0.21947163 0.048168153
-0.32313526 -0.21947162 0.048088938
-0.32333666 -0.21946198 0.048102207
-0.32356241 -0.21944532 0.048177801
-0.32376736 -0.21943575 0.048188716
-0.32393047 -0.21944419 0.048030958
-0.32413864 -0.21943337 0.048053436
-0.3243424 -0.21942833 0.048018046
-0.32456627 -0.21941018 0.048109859
-0.32473558 -0.21941736 0.047962468
-0.32495975 -0.21940054 0.048040383
-0.32515609 -0.21939591 0.048003908
-0.32535267 -0.21939249 0.047954697
-0.32555348 -0.21938232 0.047973763
-0.32574362 -0.21937881 0.047928076
-0.32596153 -0.21936862 0.047940053
-0.32615525 -0.21936509 0.047893174
-0.32634377 -0.21935721 0.047893818
-0.3265399 -0.2193528 0.047855034
-0.32672957 -0.21934833 0.047819771
-0.32693079 -0.21934082 0.047811054
-0.32711759 -0.21933991 0.047739923
-0.32728723 -0.21934038 0.047661997
-0.32754654 -0.21931286 0.047835715
-0.32771185 -0.21931988 0.047691822
-0.32793885 -0.2193007 0.047792874
-0.32814011 -0.21929587 0.047756355
-0.32834142 -0.21929103 0.047719833
-0.3285467 -0.21928358 0.047708757
-0.32874519 -0.21927741 0.047687314
-0.32893643 -0.21927264 0.047654357
-0.32915118 -0.21926312 0.047660567
-0.32934791 -0.21926004 0.047607873
-0.3295539 -0.21925132 0.04760953
-0.32974437 -0.21924458 0.047597427
-0.32994381 -0.21923591 0.047601447
-0.33015659 -0.21923083 0.04756251
-0.33033973 -0.21922673 0.047526155
-0.33056986 -0.21921225 0.047577389
-0.33072627 -0.21921737 0.047456741
-0.33093399 -0.21920837 0.047460683
-0.33114296 -0.21919899 0.047468103
-0.33135512 -0.21918857 0.047484756
-0.33156276 -0.21918201 0.047463231
-0.33176523 -0.21917725 0.047425542
-0.33194408 -0.21917477 0.047374174
-0.3321794 -0.21915907 0.047435783
-0.33238828 -0.21914889 0.047451302
-0.33257395 -0.21914871 0.047373235
-0.33276463 -0.21914464 0.047333337
-0.33295497 -0.21914069 0.047292285
-0.33314919 -0.2191366 0.047251198
-0.3333692 -0.2191252 0.04727472
-0.33358908 -0.2191139 0.047297098
-0.33378345 -0.21910767 0.047278009
-0.33396676 -0.21910614 0.047215015
-0.33418965 -0.21909294 0.047255892
-0.33440346 -0.21908492 0.047247052
-0.33458847 -0.21908398 0.047177099
-0.33479619 -0.21907687 0.047161367
-0.33499837 -0.21906942 0.047151476
-0.33520883 -0.21906154 0.047142662
-0.33539176 -0.21906024 0.047077358
-0.33559838 -0.2190515 0.047079004
-0.33581644 -0.21904241 0.047079392
-0.33600566 -0.2190413 0.047009405
-0.33624545 -0.21902764 0.047047812
-0.3364448 -0.21902344 0.047005516
-0.33663505 -0.21901894 0.046970256
-0.33686274 -0.21900712 0.046994876
-0.33705038 -0.21900038 0.04698395
-0.33722681 -0.21900225 0.046888594
-0.33747047 -0.21898675 0.046944335
-0.33767107 -0.21897927 0.046935614
-0.33787918 -0.21897058 0.046936091
-0.23064503 -0.22288993 0.052465133
-0.23088309 -0.22288482 0.052415572
-0.23113035 -0.22288191 0.052339301
-0.23137386 -0.22287825 0.052272335
-0.23163173 -0.22287692 0.052175123
-0.23187362 -0.22287422 0.0520989
-0.23213176 -0.22287321 0.051998213
-0.23238738 -0.22287397 0.051880185
-0.23261178 -0.2228664 0.051862009
-0.23284274 -0.22286047 0.051824097
-0.23307784 -0.2228556 0.05177341
-0.23331219 -0.22285064 0.05172389
-0.23354103 -0.22284445 0.051689476
-0.23377116 -0.22283867 0.051650405
-0.23401636 -0.22283661 0.051566049
-0.23425484 -0.22283305 0.051500283
-0.23449966 -0.22283003 0.051426344
-0.23473154 -0.22282505 0.051378001
-0.23496617 -0.22282086 0.051320367
-0.23520857 -0.2228187 0.051238347
-0.23544092 -0.22281417 0.051185373
-0.23567449 -0.22281003 0.051127747
-0.23590733 -0.2228058 0.051071286
-0.23614624 -0.22280322 0.050995093
-0.23637836 -0.22279903 0.050938647
-0.23661989 -0.22279735 0.050851993
-0.23685636 -0.22279331 0.050792035
-0.23708776 -0.22278926 0.050734431
-0.23733586 -0.22278966 0.050623417
-0.23756173 -0.22278439 0.050580911
-0.23778105 -0.22277747 0.050558154
-0.23801439 -0.22277434 0.050490111
-0.23824698 -0.22277112 0.050423238
-0.23847234 -0.22276609 0.050378419
-0.23870528 -0.22276197 0.050320804
-0.23893468 -0.22275822 0.050260909
-0.23915803 -0.22275293 0.050219581
-0.2393875 -0.22274941 0.050157364
-0.23961413 -0.22274521 0.050103277
-0.23984012 -0.22274093 0.050050352
-0.24006331 -0.22273597 0.050005563
-0.24029006 -0.22273211 0.049947999
-0.24051481 -0.22272654 0.049908977
-0.24073747 -0.22272173 0.04986304
-0.24096087 -0.22271721 0.04981361
-0.24118328 -0.22271252 0.049766507
-0.2414003 -0.22270638 0.049736824
-0.24162757 -0.22270326 0.049671143
-0.24184811 -0.22269832 0.049627535
-0.24206702 -0.22269298 0.049588565
-0.24228616 -0.22268653 0.04956118
-0.24250855 -0.22268239 0.049508289
-0.24275231 -0.22268341 0.049392678
-0.2429823 -0.22267137 0.049418464
-0.24314067 -0.22265355 0.0495352
-0.24334666 -0.22264874 0.049496345
-0.24358512 -0.22264597 0.049422476
-0.24388732 -0.22267073 0.049035367
-0.24409583 -0.22266315 0.049024284
-0.24423933 -0.2226342 0.049262751
-0.24446467 -0.22263452 0.049162351
-0.24468517 -0.2226308 0.049105998
-0.24489722 -0.22262451 0.049079832
-0.24511062 -0.22261873 0.049047861
-0.24532282 -0.22261266 0.049019378
-0.24554798 -0.22260809 0.048969939
-0.24575214 -0.22260235 0.048941527
-0.24596643 -0.22259721 0.048902601
-0.2461915 -0.2225915 0.04886473
-0.24638456 -0.22258377 0.048861898
-0.24660373 -0.22257909 0.048815981
-0.24682701 -0.22257447 0.048767708
-0.24702421 -0.2225669 0.048761364
-0.24722996 -0.22255942 0.048750304
-0.2474397 -0.22255334 0.048722997
-0.24765332 -0.22254868 0.048679445
-0.24786344 -0.22254147 0.04866372
-0.24805892 -0.22253218 0.048675906
-0.24826007 -0.22252344 0.048679948
-0.24845649 -0.22251311 0.048702549
-0.24864031 -0.22249837 0.048776224
-0.24882144 -0.22248118 0.048876554
-0.24897477 -0.22245407 0.049091771
-0.24825358 -0.22176661 0.056533881
-0.2483533 -0.22171165 0.057061076
-0.24858014 -0.22170989 0.056981511
-0.24907222 -0.22162412 0.057659317
-0.25108567 -0.22187366 0.054203521
-0.25131968 -0.2218724 0.054115783
-0.25151494 -0.22185241 0.054239158
-0.25177759 -0.22185099 0.054140739
-0.2519919 -0.22184382 0.054122668
-0.25217217 -0.22183314 0.054155834
-0.2523981 -0.22182742 0.054117966
-0.2526201 -0.22182018 0.054097503
-0.25281888 -0.22182257 0.053986911
-0.25299907 -0.22180676 0.054073349
-0.25325912 -0.22180702 0.053958751
-0.25345173 -0.22179829 0.053966343
-0.25367734 -0.22178766 0.053979427
-0.25387201 -0.22177449 0.054032162
-0.25405428 -0.22176316 0.054071106
-0.25427225 -0.22176021 0.054007828
-0.25449264 -0.22177134 0.053797461
-0.25467819 -0.22175799 0.05385606
-0.25492704 -0.2217433 0.053901374
-0.25512215 -0.22173424 0.053911254
-0.25533202 -0.22173196 0.053844564
-0.25555342 -0.22172374 0.053834531
-0.2557424 -0.22171582 0.053835198
-0.25593126 -0.22170982 0.053816188
-0.25617486 -0.22170258 0.05378627
-0.2563647 -0.2216972 0.05376029
-0.256594 -0.22168921 0.053744406
-0.25681308 -0.22168823 0.053660274
-0.25699699 -0.22167628 0.053704992
-0.25718766 -0.22166763 0.053712592
-0.25741553 -0.22166327 0.053659648
-0.25759283 -0.22165416 0.053677794
-0.25777197 -0.22164397 0.05370634
-0.25801983 -0.22164796 0.053558268
-0.25819898 -0.22163375 0.053628501
-0.2584303 -0.22162545 0.053614903
-0.25863975 -0.2216185 0.053596862
-0.25881225 -0.22160925 0.05361852
-0.25904825 -0.22160791 0.053530775
-0.25924328 -0.22159785 0.053551078
-0.25944564 -0.22159174 0.05352731
-0.25963527 -0.22158101 0.053556919
-0.2598615 -0.2215727 0.053545684
-0.26005697 -0.22156966 0.053493023
-0.26024306 -0.2215593 0.053520352
-0.26049674 -0.22156662 0.053335167
-0.26069507 -0.22155431 0.05337745
-0.26087859 -0.22154038 0.053443015
-0.26108113 -0.22153503 0.053411145
-0.2612814 -0.2215308 0.053368866
-0.26149493 -0.22152512 0.053335741
-0.26169115 -0.22151636 0.05334213
-0.26191491 -0.22150983 0.053313546
-0.26210254 -0.2215032 0.053301491
-0.26231635 -0.22149807 0.053262565
-0.26253214 -0.22149186 0.053234056
-0.2627115 -0.22148769 0.053200062
-0.26289305 -0.22147261 0.053278387
-0.26310375 -0.22146839 0.053231381
-0.26332033 -0.22146806 0.05314149
-0.2635169 -0.22145504 0.053191889
-0.26372465 -0.22144927 0.053162277
-0.26392895 -0.22144911 0.053075962
-0.26411644 -0.22143534 0.053138018
-0.26433405 -0.22143385 0.053059693
-0.26451999 -0.221435 0.05296775
-0.26472846 -0.22141959 0.053037733
-0.26493928 -0.22140846 0.053062528
-0.26514143 -0.22139944 0.053068873
-0.26532978 -0.22139178 0.05306723
-0.26551628 -0.22138286 0.053079493
-0.26572925 -0.22138748 0.052939836
-0.26592657 -0.22137812 0.052952014
-0.26614287 -0.22137132 0.052929286
-0.26633134 -0.2213583 0.052983221
-0.26652735 -0.2213539 0.052944459
-0.26673409 -0.22134894 0.052906752
-0.26694533 -0.22135063 0.052798375
-0.26713088 -0.22134151 0.052812971
-0.2673316 -0.22132911 0.052855223
-0.26754174 -0.22132736 0.052782759
-0.26774091 -0.22131692 0.052805331
-0.26792923 -0.22130702 0.052826859
-0.26811385 -0.22129728 0.05284841
-0.26832941 -0.22130068 0.052720305
-0.26853171 -0.22128977 0.052746326
-0.2687158 -0.22127973 0.052771367
-0.2689212 -0.22128163 0.052663028
-0.2691347 -0.22127406 0.052649595
-0.26934731 -0.22126921 0.052608363
-0.26955321 -0.22125837 0.052632049
-0.26976496 -0.22125301 0.05259661
-0.26996106 -0.22124738 0.052570589
-0.2701278 -0.221232 0.052658301
-0.27032381 -0.22123004 0.052594058
-0.27053115 -0.22122452 0.05256214
-0.27074736 -0.2212166 0.052550998
-0.27091798 -0.22121258 0.052519403
-0.27110803 -0.22120138 0.052553646
-0.27130997 -0.22119462 0.052536827
-0.27152589 -0.22118673 0.052525677
-0.271727 -0.22118334 0.052474126
-0.27193066 -0.22117473 0.052475829
-0.27213088 -0.22117908 0.052344386
-0.27231562 -0.22117068 0.052352041
-0.27252057 -0.2211552 0.052424364
-0.27272898 -0.22115241 0.052363493
-0.27291176 -0.2211462 0.052349154
-0.27307138 -0.22112118 0.052539997
-0.27330238 -0.22112797 0.052370075
-0.27348006 -0.2211203 0.052373156
-0.27367398 -0.22111899 0.052303143
-0.27387372 -0.22111098 0.052300245
-0.27407625 -0.22110675 0.052256782
-0.27427441 -0.2210968 0.052274749
-0.27447501 -0.2210902 0.052256785
-0.27466241 -0.22108614 0.052218091
-0.27485934 -0.22107457 0.05225344
-0.27507472 -0.22106814 0.052227233
-0.27525944 -0.22106053 0.052226782
-0.27544668 -0.22105682 0.052184612
-0.27563894 -0.22104955 0.052177154
-0.27583593 -0.22104399 0.052149955
-0.27604753 -0.22104432 0.052055471
-0.27623698 -0.22102667 0.052156888
-0.2764416 -0.22102828 0.052052032
-0.27661362 -0.22101861 0.052078336
-0.2768088 -0.22101067 0.05207663
-0.27701253 -0.22101176 0.051977575
-0.27722731 -0.22100636 0.051940963
-0.27741632 -0.2209941 0.051986791
-0.27761102 -0.22097826 0.052067321
-0.27779084 -0.22097698 0.05200322
-0.27798057 -0.22097361 0.0519564
-0.27818105 -0.22097003 0.051907174
-0.27837783 -0.22097498 0.051771127
-0.27857423 -0.22096285 0.051812261
-0.27876654 -0.22094956 0.051867329
-0.27895507 -0.22092649 0.052025501
-0.27914172 -0.22092593 0.051950905
-0.27934745 -0.22093776 0.051739514
-0.27954584 -0.22092076 0.051830433
-0.27973682 -0.22091332 0.051825285
-0.27993342 -0.22091192 0.051755257
-0.28013405 -0.22091235 0.05166433
-0.28031954 -0.22088784 0.051838737
-0.28051817 -0.22088198 0.051813848
-0.28072166 -0.22088085 0.051737957
-0.28091171 -0.2208709 0.051759459
-0.2811043 -0.22087087 0.05167672
-0.28129989 -0.22086927 0.051609002
-0.28150466 -0.22086084 0.051608376
-0.28168732 -0.22085084 0.051633418
-0.28188068 -0.22083952 0.051667631
-0.28207901 -0.22083524 0.05162653
-0.28226557 -0.22082631 0.051638804
-0.28245583 -0.22081791 0.051644091
-0.28265274 -0.22083099 0.051423497
-0.28286073 -0.2208223 0.051424008
-0.28304866 -0.22079524 0.051623873
-0.28323254 -0.22079524 0.051544677
-0.28343827 -0.22080094 0.051396973
-0.28363436 -0.22077733 0.051557384
-0.28382176 -0.220783 0.051417947
-0.28402641 -0.22078203 0.051339738
-0.2842195 -0.22075921 0.051493235
-0.2844277 -0.2207628 0.051366348
-0.2846069 -0.22075351 0.051385626
-0.28480753 -0.22075115 0.05132366
-0.28500473 -0.2207371 0.051384475
-0.28519481 -0.22072591 0.051418722
-0.28538436 -0.22072646 0.051331371
-0.2855812 -0.22072169 0.05129607
-0.28577822 -0.22071345 0.051296666
-0.28597173 -0.22070447 0.051306561
-0.28616142 -0.22069819 0.051289856
-0.28635794 -0.22069399 0.051248766
-0.28655115 -0.22068703 0.051237822
-0.28674388 -0.22068343 0.051192127
-0.28693739 -0.22067411 0.051205501
-0.28713417 -0.22066654 0.051199161
-0.28733081 -0.2206599 0.051183544
-0.28753185 -0.22064859 0.051214211
-0.28772381 -0.22064714 0.05114653
-0.2879197 -0.22064319 0.051103141
-0.28811049 -0.22063051 0.05115243
-0.28828913 -0.22062448 0.051138137
-0.28848627 -0.22062863 0.051010184
-0.28868118 -0.22061422 0.051075652
-0.28887376 -0.2206084 0.051053137
-0.28907499 -0.22060882 0.050962206
-0.28927955 -0.22059803 0.050985906
-0.28946617 -0.22058843 0.051005118
-0.28965089 -0.22058448 0.050966449
-0.28986111 -0.22057794 0.050943773
-0.29005054 -0.22057046 0.05093981
-0.29023415 -0.22055976 0.050971791
-0.29041898 -0.22055514 0.050940074
-0.29061988 -0.22054541 0.050954532
-0.29080644 -0.22054474 0.050881103
-0.29100612 -0.22053784 0.050866626
-0.29119784 -0.22053294 0.050834849
-0.29139504 -0.2205237 0.050845865
-0.29158697 -0.22051823 0.05081987
-0.29178369 -0.22051001 0.050820481
-0.29198015 -0.22050235 0.050815288
-0.29216036 -0.22049233 0.050841518
-0.29235137 -0.22050177 0.050661512
-0.29255408 -0.22048871 0.050709534
-0.29273945 -0.2204757 0.050764665
-0.29292613 -0.22047916 0.050648391
-0.29312652 -0.22047056 0.050651278
-0.29331681 -0.22046137 0.050664678
-0.29352054 -0.22044739 0.050721962
-0.29370102 -0.22044876 0.050630052
-0.29389429 -0.22044604 0.0505751
-0.29409117 -0.22043757 0.050578017
-0.29428002 -0.22043079 0.050567109
-0.2944859 -0.22041415 0.05065101
-0.29467857 -0.22041212 0.050589114
-0.29486305 -0.22041667 0.050462432
-0.29504421 -0.22042057 0.05034389
-0.29525477 -0.22040263 0.050439335
-0.29544157 -0.22039381 0.050450444
-0.2956363 -0.22038376 0.050470751
-0.29583085 -0.22038311 0.050393775
-0.29604572 -0.22036944 0.05044286
-0.29622558 -0.2203609 0.050454028
-0.29641557 -0.22035272 0.050457008
-0.29660279 -0.22034802 0.050425261
-0.29679945 -0.22034436 0.05037839
-0.29699382 -0.220331 0.050433438
-0.29717854 -0.22033732 0.05028823
-0.29737416 -0.2203306 0.050273787
-0.29757041 -0.22031926 0.050306819
-0.29776609 -0.22031252 0.050292369
-0.29796121 -0.22031029 0.050231613
-0.29815182 -0.22030152 0.050240371
-0.29835033 -0.22029546 0.0502178
-0.29854462 -0.22029023 0.05018831
-0.29873201 -0.22028495 0.050162353
-0.29891786 -0.22027417 0.050194316
-0.29911676 -0.22026417 0.050212275
-0.29931903 -0.22025438 0.050226718
-0.29951429 -0.22025503 0.050135855
-0.29969049 -0.22025065 0.050105363
-0.29988191 -0.22024141 0.050118748
-0.30006987 -0.22023891 0.050063841
-0.30026028 -0.22023071 0.050066818
-0.30046102 -0.22021931 0.050098646
-0.30065465 -0.22021143 0.050096963
-0.3008379 -0.22021313 0.050000403
-0.30102327 -0.22020961 0.049957097
-0.30120528 -0.22021215 0.049852442
-0.30140865 -0.22019248 0.049968798
-0.3015998 -0.22019285 0.049882587
-0.30177906 -0.22018857 0.049849756
-0.30198437 -0.22017364 0.049916293
-0.30219433 -0.22015785 0.049989738
-0.30239105 -0.22015052 0.04998108
-0.30257699 -0.220155 0.049854383
-0.30278507 -0.22014107 0.049909316
-0.30300173 -0.22012031 0.050031334
-0.3031705 -0.22013019 0.049856156
-0.30336505 -0.22012462 0.04983015
-0.30354735 -0.22012067 0.049792655
-0.30373907 -0.22011197 0.049800254
-0.30392298 -0.22010672 0.049775485
-0.30412245 -0.22010262 0.049732063
-0.30432662 -0.22008975 0.049777757
-0.30451077 -0.22008695 0.049727514
-0.3047024 -0.22008105 0.049706161
-0.30488938 -0.22007355 0.049703371
-0.3050741 -0.22007027 0.049657751
-0.3052845 -0.2200606 0.049667504
-0.3054736 -0.22005659 0.049627639
-0.30565941 -0.22005004 0.049615595
-0.30584937 -0.22004299 0.049606986
-0.30604205 -0.22004117 0.049542781
