# .PCD v0.7 - Point Cloud Data file format
VERSION 0.7
FIELDS x y z
SIZE 4 4 4
TYPE F F F
COUNT 1 1 1
WIDTH 71
HEIGHT 1
VIEWPOINT 0 0 0 1 0 0 0
POINTS 71
DATA ascii
-0.14021906 -0.44290355 0.017170258
-0.1403787 -0.44277287 0.017173078
-0.14053373 -0.44264564 0.017169045
-0.14068894 -0.44251832 0.017166167
-0.14084323 -0.44239157 0.017159816
-0.14099877 -0.44226408 0.017159261
-0.1411534 -0.44213718 0.01715523
-0.1413087 -0.4420093 0.017141871
-0.14146261 -0.44188288 0.017135538
-0.14162138 -0.44175291 0.01713839
-0.14178462 -0.44162086 0.01717487
-0.14192869 -0.44150108 0.01713853
-0.1420812 -0.44137558 0.017127572
-0.14224257 -0.44124413 0.017144319
-0.14239413 -0.44111925 0.017129894
-0.14255039 -0.44099158 0.017137462
-0.14270455 -0.44086516 0.017135775
-0.14285335 -0.44074202 0.017109793
-0.14301154 -0.44061324 0.017127782
-0.14316675 -0.44048563 0.017119084
-0.14331977 -0.44035998 0.017113935
-0.14347515 -0.44023296 0.017120365
-0.14362775 -0.44010761 0.017114058
-0.14378388 -0.43998021 0.01712513
-0.14393678 -0.43985471 0.017121144
-0.1440912 -0.43972769 0.017111305
-0.1442425 -0.43960321 0.017100383
-0.14439656 -0.43947712 0.017103346
-0.14454956 -0.43935165 0.017101686
-0.14470389 -0.43922544 0.017106986
-0.14485578 -0.43910065 0.017100696
-0.14501111 -0.43897325 0.017097816
-0.1451633 -0.43884835 0.017093848
-0.14531609 -0.43872312 0.017093368
-0.14547223 -0.43859595 0.017110249
-0.14562923 -0.43846765 0.017117798
-0.14577223 -0.43834817 0.017068684
-0.14593063 -0.4382191 0.017084338
-0.14610979 -0.43807399 0.01712041
-0.1499498 -0.4350549 0.019845288
-0.1500746 -0.4349516 0.019823415
-0.1502313 -0.43481886 0.019730877
-0.1514546 -0.43382713 0.019959737
-0.15640174 -0.42976514 0.019788977
-0.15657592 -0.42962438 0.019831
-0.15670834 -0.42951831 0.01988342
-0.15683585 -0.42941132 0.01983005
-0.15701483 -0.42926446 0.019825382
-0.15716535 -0.42914343 0.019875005
-0.15729572 -0.42903414 0.019822724
-0.1574391 -0.42891833 0.019858563
-0.15756983 -0.42881322 0.019901715
-0.15769725 -0.42870843 0.019893747
-0.15783797 -0.42859271 0.019885417
-0.15799801 -0.42846367 0.019930143
-0.15816174 -0.42832759 0.019889787
-0.1583108 -0.42820752 0.01993363
-0.15843265 -0.42810273 0.019828031
-0.15858407 -0.42798519 0.019968417
-0.15873472 -0.42786697 0.020079715
-0.15889513 -0.42772993 0.019960318
-0.15904114 -0.42760885 0.019929737
-0.15916711 -0.42750356 0.019885719
-0.1593492 -0.42737043 0.020228993
-0.15948834 -0.42725685 0.02023818
-0.15963517 -0.42713562 0.02021922
-0.15976331 -0.4270235 0.020066898
-0.15988478 -0.42691982 0.019978765
-0.16006771 -0.4267886 0.020377893
-0.1601903 -0.42667317 0.020058103
-0.1603118 -0.42656425 0.01985823
