# .PCD v0.7 - Point Cloud Data file format
VERSION 0.7
FIELDS x y z
SIZE 4 4 4
TYPE F F F
COUNT 1 1 1
WIDTH 113
HEIGHT 1
VIEWPOINT 0 0 0 1 0 0 0
POINTS 113
DATA ascii
-0.18051267 -0.42448747 0.019618964
-0.18081327 -0.42424265 0.019652935
-0.18094812 -0.42413616 0.019741297
-0.18109819 -0.42401308 0.019739676
-0.18124823 -0.42388976 0.019732233
-0.18139301 -0.42377034 0.019715618
-0.18153799 -0.42365482 0.019787431
-0.18166961 -0.42354816 0.019814208
-0.18180645 -0.42344067 0.01991532
-0.18193755 -0.42334878 0.020253932
-0.18208183 -0.42323127 0.020269915
-0.18222611 -0.42311341 0.020278908
-0.18238698 -0.42297301 0.020093173
-0.18252622 -0.42285898 0.020095315
-0.18265653 -0.42276007 0.02026641
-0.18279786 -0.42264661 0.020318534
-0.1831027 -0.42238176 0.019992877
-0.18324548 -0.42224991 0.019670324
-0.18353404 -0.42200908 0.019576631
-0.18367699 -0.42189035 0.019542612
-0.18382768 -0.42176604 0.01952585
-0.18397017 -0.42164952 0.019531399
-0.18413179 -0.4215228 0.019656295
-0.18428409 -0.4213998 0.019696493
-0.18442632 -0.42128375 0.019707866
-0.18457416 -0.42116237 0.019702815
-0.18471381 -0.42104825 0.019710768
-0.18485035 -0.42093217 0.019619916
-0.18499126 -0.42081472 0.019577809
-0.18513948 -0.42069268 0.019565763
-0.18528417 -0.42057526 0.019591037
-0.18543614 -0.42045292 0.019639395
-0.18559749 -0.4203248 0.019729381
-0.1857549 -0.42019314 0.01967172
-0.18589993 -0.4200747 0.019680701
-0.18602444 -0.41997209 0.019669278
-0.18615149 -0.41987944 0.019918401
-0.1863286 -0.41972622 0.019743873
-0.18647395 -0.41960701 0.019742375
-0.18661714 -0.41948903 0.019728132
-0.18675126 -0.41938341 0.019822324
-0.18691508 -0.41924241 0.019676067
-0.18705505 -0.41912466 0.019610722
-0.18719527 -0.41901302 0.019681491
-0.18735062 -0.41888657 0.019700663
-0.18748018 -0.41878048 0.019703072
-0.18762621 -0.41866022 0.019691084
-0.18776554 -0.41854709 0.019714177
-0.1879117 -0.41842669 0.019701015
-0.18807331 -0.41829413 0.019699082
-0.18821251 -0.41817853 0.019666331
-0.18835799 -0.41805956 0.019671811
-0.18851665 -0.41792727 0.019623417
-0.18863098 -0.41783077 0.019562231
-0.1887718 -0.41771019 0.019450326
-0.18894215 -0.41757989 0.019652933
-0.18909132 -0.4174594 0.019692054
-0.18924317 -0.41733441 0.019679915
-0.18938875 -0.41721538 0.019686552
-0.18951696 -0.41711628 0.019816974
-0.18966234 -0.41699097 0.019682836
-0.18980825 -0.41687146 0.019684812
-0.18997587 -0.41673172 0.019633852
-0.1900983 -0.41662914 0.019585259
-0.19022317 -0.41652483 0.019542411
-0.19035083 -0.41644037 0.019981168
-0.19051625 -0.41629618 0.019794144
-0.1906549 -0.41617632 0.01965902
-0.19079804 -0.41605935 0.019666892
-0.19095713 -0.41593879 0.019880269
-0.19113345 -0.41578993 0.019786034
-0.1912895 -0.41565537 0.019641142
-0.19143784 -0.41553253 0.019613974
-0.19158015 -0.41541696 0.019636979
-0.19170593 -0.41531524 0.019667409
-0.19182202 -0.41522947 0.019871451
-0.19201428 -0.41506475 0.0197163
-0.192164 -0.41494009 0.01967396
-0.19231196 -0.41481805 0.019657273
-0.19245589 -0.41469857 0.019624386
-0.19257751 -0.41459799 0.019604897
-0.19270246 -0.41449913 0.019681888
-0.19284113 -0.41439497 0.019888828
-0.19300319 -0.41425788 0.019796137
-0.19315103 -0.41412851 0.019617716
-0.19328117 -0.41402686 0.019727144
-0.19342665 -0.41391146 0.019810576
-0.19360697 -0.41375706 0.01966738
-0.19373094 -0.41365498 0.019657131
-0.19390266 -0.41351259 0.019621197
-0.19406699 -0.41338167 0.019702967
-0.19420472 -0.41326958 0.019720282
-0.19434209 -0.41315243 0.019621257
-0.19482233 -0.41287979 0.022250865
-0.19496164 -0.41276455 0.022227412
-0.19511034 -0.41263965 0.022161838
-0.19525713 -0.41252106 0.022199858
-0.19539902 -0.41240507 0.022206591
-0.19655411 -0.41145742 0.022186641
-0.19669396 -0.41134417 0.022216702
-0.19683963 -0.41122591 0.02224195
-0.1969966 -0.41109702 0.022236647
-0.19713271 -0.41098621 0.022252845
-0.19727488 -0.41087124 0.022286337
-0.1978863 -0.41036659 0.022210896
-0.19801454 -0.4102602 0.022183083
-0.19815524 -0.41014606 0.022208462
-0.19830978 -0.41002244 0.022274204
-0.19942282 -0.40884602 0.01653455
-0.19956137 -0.40873358 0.016558824
-0.19971091 -0.40861115 0.01656187
-0.19986489 -0.40848446 0.016551994
-0.20001456 -0.40836194 0.016555034
