# .PCD v0.7 - Point Cloud Data file format
VERSION 0.7
FIELDS x y z
SIZE 4 4 4
TYPE F F F
COUNT 1 1 1
WIDTH 129
HEIGHT 1
VIEWPOINT 0 0 0 1 0 0 0
POINTS 129
DATA ascii
-0.20043053 -0.42059359 0.019514481
-0.20057662 -0.42047316 0.019499015
-0.20072339 -0.42035326 0.019507967
-0.2008691 -0.42023486 0.019529749
-0.20101847 -0.42011151 0.01950955
-0.20117141 -0.41998205 0.019419417
-0.20132162 -0.41985223 0.019272335
-0.20145415 -0.41974193 0.019235117
-0.20159191 -0.41963151 0.019289691
-0.20172894 -0.41952202 0.019351272
-0.20187728 -0.41940033 0.019348551
-0.20202364 -0.41927993 0.019338891
-0.20217471 -0.41915607 0.019337261
-0.20232087 -0.41903725 0.01935903
-0.20247057 -0.41891393 0.019344632
-0.20260911 -0.41880247 0.019389883
-0.20275822 -0.41867992 0.019382482
-0.20291363 -0.41855061 0.019340001
-0.20306388 -0.41842672 0.019323271
-0.20320936 -0.41830769 0.019327596
-0.20335843 -0.41818532 0.019323695
-0.20350783 -0.41806263 0.019317448
-0.20366038 -0.41793597 0.019282032
-0.20379767 -0.41782612 0.019340109
-0.20396294 -0.41768718 0.019263627
-0.204134 -0.4175491 0.019310344
-0.20426999 -0.41744307 0.019428974
-0.20441177 -0.41732985 0.019493924
-0.20456371 -0.41720414 0.019467838
-0.20544994 -0.41634807 0.016627111
-0.20560308 -0.41621685 0.016502067
-0.20575124 -0.41609603 0.016515642
-0.2059011 -0.41597322 0.016515205
-0.20605285 -0.41584814 0.016499594
-0.2062058 -0.4157227 0.016497914
-0.2063601 -0.41559568 0.016485717
-0.20651321 -0.41547012 0.016484033
-0.20666331 -0.41534716 0.016484758
-0.20681524 -0.41522303 0.016493578
-0.20696869 -0.41509715 0.016490713
-0.2071221 -0.41497135 0.016489021
-0.20727263 -0.41484797 0.016488565
-0.20742694 -0.41472116 0.016481031
-0.20757823 -0.41459695 0.016475901
-0.20773195 -0.41447088 0.016474202
-0.20788558 -0.41434497 0.016473666
-0.20803961 -0.41421857 0.016470797
-0.20819044 -0.41409501 0.016471494
-0.20834526 -0.41396779 0.016463943
-0.20849924 -0.41384158 0.016463399
-0.20865506 -0.41371325 0.016450012
-0.20880476 -0.41359109 0.01646122
-0.20895946 -0.41346413 0.016457163
-0.20911126 -0.41333959 0.016454343
-0.20926563 -0.41321304 0.016453788
-0.20942077 -0.41308567 0.016448559
-0.20957498 -0.41295934 0.016450338
-0.20972696 -0.41283473 0.016448684
-0.20988391 -0.41270539 0.016432928
-0.21003804 -0.41257927 0.016437039
-0.21019033 -0.41245523 0.016453989
-0.21034352 -0.41232932 0.016446494
-0.21049982 -0.41220084 0.016437735
-0.21065392 -0.41207483 0.016444167
-0.21080719 -0.41194978 0.016456451
-0.210969 -0.41181523 0.016413804
-0.21111998 -0.41169196 0.016423808
-0.21127158 -0.41156802 0.016430303
-0.21142793 -0.41143963 0.016425047
-0.21158192 -0.41131309 0.016417518
-0.2117368 -0.4111864 0.016422771
-0.21189082 -0.41106069 0.016433865
-0.21204811 -0.41093138 0.016425082
-0.2122004 -0.4108068 0.0164304
-0.212356 -0.41067943 0.016433313
-0.21250941 -0.41055366 0.016432781
-0.2126646 -0.41042677 0.016439185
-0.21282125 -0.41029832 0.016437411
-0.21297818 -0.41016957 0.016434457
-0.21313179 -0.41004372 0.01643509
-0.21328853 -0.40991524 0.016434472
-0.21344663 -0.40978605 0.016443131
-0.21360353 -0.4096567 0.016426217
-0.21375608 -0.40953207 0.01643502
-0.21391468 -0.40940171 0.016426204
-0.21406907 -0.40927514 0.016425656
-0.2142262 -0.4091464 0.016426187
-0.21438554 -0.4090153 0.016415032
-0.21453999 -0.4088895 0.016431928
-0.21469772 -0.40875947 0.016414991
-0.21485776 -0.40862843 0.016417779
-0.21501799 -0.4084965 0.016404267
-0.21517161 -0.40837094 0.016411882
-0.21533059 -0.40824041 0.016406555
-0.21549207 -0.40810725 0.016388353
-0.21564229 -0.40798539 0.016415838
-0.21579804 -0.40785766 0.016414085
-0.21595769 -0.40772653 0.016407572
-0.21611589 -0.40759695 0.016409246
-0.21627533 -0.40746608 0.016405068
-0.21643154 -0.40733799 0.016403306
-0.21658809 -0.40720955 0.016400363
-0.21674606 -0.40708032 0.016405534
-0.21690042 -0.4069556 0.016444542
-0.21706982 -0.4068144 0.016392391
-0.21723332 -0.40667877 0.016356681
-0.21738619 -0.406555 0.016389919
-0.21754518 -0.40642482 0.016392734
-0.21770595 -0.40629283 0.016387351
-0.21786249 -0.40616462 0.016389068
-0.21802105 -0.40603432 0.016381424
-0.21818098 -0.40590328 0.016381882
-0.21833961 -0.40577361 0.01638937
-0.21850148 -0.4056406 0.016381636
-0.21866323 -0.40550774 0.016375069
-0.21882145 -0.40537792 0.016372081
-0.21898127 -0.40524715 0.016376045
-0.21913801 -0.40511891 0.016381249
-0.21929535 -0.40499011 0.016384106
-0.21946001 -0.40485439 0.016366981
-0.21962206 -0.40472138 0.016362734
-0.21977827 -0.40459383 0.016372614
-0.21993981 -0.40446138 0.016371872
-0.22010303 -0.40432727 0.016364096
-0.2202656 -0.40419385 0.016359836
-0.2204251 -0.40406299 0.016356817
-0.22058561 -0.40393171 0.016363092
-0.22074096 -0.40380517 0.016379964
-0.22090355 -0.40367186 0.016378034
