# .PCD v0.7 - Point Cloud Data file format
VERSION 0.7
FIELDS x y z
SIZE 4 4 4
TYPE F F F
COUNT 1 1 1
WIDTH 132
HEIGHT 1
VIEWPOINT 0 0 0 1 0 0 0
POINTS 132
DATA ascii
-0.22269386 -0.41439685 0.014533175
-0.2228435 -0.41427404 0.014528111
-0.2229937 -0.41415063 0.014520712
-0.2231442 -0.41402754 0.014526118
-0.2232949 -0.41390368 0.014517546
-0.22344308 -0.41378245 0.014521843
-0.22359583 -0.41365713 0.014517868
-0.22374144 -0.41353801 0.01452223
-0.22389114 -0.41341528 0.014520666
-0.22404326 -0.41329065 0.014521369
-0.22419697 -0.41316444 0.014515039
-0.22434655 -0.41304189 0.014515808
-0.22449493 -0.41292003 0.014509616
-0.22464548 -0.41279656 0.014506869
-0.2247954 -0.41267374 0.01450763
-0.22494951 -0.41254783 0.014515262
-0.22509888 -0.41242561 0.014519527
-0.22525322 -0.41229835 0.014501547
-0.22539924 -0.41217962 0.014522193
-0.22554973 -0.41205636 0.014522938
-0.2256996 -0.41193318 0.014514389
-0.2258513 -0.41180927 0.014523244
-0.22600523 -0.41168311 0.014522739
-0.22615618 -0.41155946 0.014523461
-0.22631256 -0.4114303 0.014500769
-0.22646752 -0.41130263 0.014485105
-0.22661434 -0.41118327 0.014505729
-0.22676566 -0.41105986 0.014519255
-0.22692131 -0.41093159 0.014502402
-0.22707102 -0.4108088 0.014499677
-0.22722569 -0.41068208 0.014500313
-0.22737592 -0.41055882 0.014496405
-0.22752996 -0.41043225 0.014488906
-0.22768538 -0.41030541 0.014500005
-0.22783691 -0.41018143 0.014504213
-0.22798598 -0.41005942 0.014507316
-0.22813806 -0.40993547 0.014521992
-0.22829726 -0.40980384 0.014495735
-0.22844815 -0.4096806 0.014504611
-0.22860202 -0.40955493 0.01451342
-0.15129799 -0.47295326 0.015777497
-0.15145504 -0.47282398 0.015764128
-0.1516117 -0.4726958 0.015768224
-0.15176921 -0.47256625 0.015757164
-0.15193208 -0.47243306 0.015763417
-0.15208969 -0.4723039 0.015762836
-0.15225002 -0.4721725 0.015762175
-0.15240803 -0.47204268 0.015754592
-0.15256988 -0.4719103 0.015759721
-0.15273838 -0.47177345 0.015786782
-0.15287939 -0.47165561 0.015735416
-0.15304255 -0.47152239 0.015746322
-0.15319873 -0.47139436 0.015744608
-0.15335694 -0.47126454 0.015740512
-0.15351813 -0.47113317 0.01575613
-0.15367565 -0.47100386 0.015750891
-0.15383339 -0.4708744 0.015746806
-0.15399168 -0.47074464 0.015745036
-0.15415046 -0.47061497 0.015754897
-0.15430741 -0.47048613 0.015749674
-0.1544624 -0.47035906 0.01574799
-0.15461597 -0.47023255 0.015732374
-0.15477526 -0.47010219 0.015736399
-0.1549378 -0.46996972 0.015751982
-0.15509118 -0.4698438 0.015746841
-0.15524641 -0.4697158 0.015728859
-0.15540089 -0.4695892 0.015728351
-0.15556985 -0.46945256 0.015768211
-0.15572132 -0.46932799 0.015758468
-0.1558792 -0.46919876 0.015761372
-0.15603009 -0.46907464 0.015750485
-0.15618634 -0.46894652 0.015748769
-0.15634063 -0.46882018 0.015750594
-0.1564976 -0.46869165 0.015752351
-0.15665048 -0.46856582 0.015740251
-0.1568085 -0.46843666 0.015746633
-0.15696028 -0.46831205 0.015741542
-0.15711927 -0.46818227 0.015752558
-0.15727198 -0.46805665 0.015741622
-0.15743002 -0.46792755 0.015750332
-0.15758544 -0.46780065 0.01576028
-0.1577381 -0.46767512 0.015750507
-0.15789603 -0.46754616 0.01576039
-0.15804875 -0.46742064 0.015751785
-0.15820013 -0.46729648 0.015749026
-0.15835512 -0.46716952 0.015749674
-0.15851215 -0.46704122 0.01575841
-0.15867059 -0.46691206 0.015772941
-0.15883319 -0.46678022 0.015803646
-0.15897374 -0.46666273 0.015752289
-0.15912713 -0.46653742 0.015759962
-0.15928802 -0.46640673 0.015786059
-0.15944237 -0.46628034 0.015787885
-0.15959656 -0.4661541 0.015789714
-0.15974605 -0.46603137 0.015784685
-0.15990061 -0.46590492 0.015788823
-0.16005196 -0.46578103 0.015791897
-0.16020416 -0.46565616 0.015787955
-0.16035357 -0.46553308 0.015773617
-0.1605216 -0.46539757 0.015821643
-0.16066553 -0.46527904 0.015808607
-0.16081548 -0.46515569 0.015797744
-0.16096708 -0.4650313 0.015793819
-0.1611177 -0.46490753 0.01578643
-0.16126835 -0.46478429 0.015790682
-0.16142192 -0.46465871 0.015796017
-0.16157261 -0.46453547 0.015801428
-0.16172619 -0.46440992 0.015807934
-0.1618754 -0.46428719 0.01579708
-0.1620262 -0.46416345 0.015793186
-0.16217865 -0.46403918 0.015807863
-0.16232643 -0.4639174 0.015792396
-0.162478 -0.46379322 0.015793134
-0.16262726 -0.46367055 0.015784608
-0.16277838 -0.46354723 0.015795829
-0.16292907 -0.4634237 0.015794259
-0.16307774 -0.46330196 0.015796231
-0.16322441 -0.46318099 0.015778463
-0.1633707 -0.4630608 0.015771186
-0.1635226 -0.46293658 0.015776565
-0.16367304 -0.46281329 0.015776172
-0.16382337 -0.46269009 0.015775772
-0.16397114 -0.46256906 0.015776597
-0.16412045 -0.46244651 0.015772741
-0.16426881 -0.46232516 0.015777044
-0.16441739 -0.46220315 0.015770877
-0.16456395 -0.46208292 0.015768245
-0.16471417 -0.46195993 0.015770176
-0.16486752 -0.46183556 0.015798803
-0.16501492 -0.46171436 0.015789166
-0.16515225 -0.46159935 0.015734395
-0.16530158 -0.46147701 0.015734021
