# .PCD v0.7 - Point Cloud Data file format
VERSION 0.7
FIELDS x y z
SIZE 4 4 4
TYPE F F F
COUNT 1 1 1
WIDTH 132
HEIGHT 1
VIEWPOINT 0 0 0 1 0 0 0
POINTS 132
DATA ascii
-0.21822144 -0.41814923 0.016509019
-0.21835764 -0.41803768 0.016513705
-0.21849582 -0.41792405 0.016507858
-0.21863133 -0.41781327 0.016517222
-0.21877182 -0.41769782 0.016513646
-0.21890983 -0.41758442 0.016510135
-0.21905051 -0.41746882 0.016506553
-0.21918873 -0.41735524 0.016503036
-0.21932575 -0.41724297 0.01650653
-0.21946286 -0.41713062 0.016510032
-0.21960437 -0.41701424 0.0165041
-0.21974254 -0.41690081 0.016502913
-0.21988404 -0.41678447 0.016498152
-0.22002062 -0.41667277 0.016506318
-0.2201594 -0.4165594 0.016516749
-0.22030051 -0.41644353 0.016515486
-0.22044721 -0.41632181 0.016486149
-0.22057997 -0.41621363 0.016502563
-0.22072278 -0.41609609 0.016494269
-0.22086082 -0.41598296 0.016497746
-0.22100362 -0.41586548 0.01649062
-0.2211421 -0.41575196 0.016492918
-0.22128372 -0.41563573 0.016492803
-0.22142404 -0.41552034 0.016486902
-0.22156256 -0.41540682 0.016490366
-0.22170497 -0.41528985 0.016487904
-0.22185159 -0.41516852 0.016465558
-0.22198923 -0.41505602 0.016474858
-0.22213174 -0.41493902 0.01647356
-0.22226931 -0.4148266 0.01648402
-0.22241449 -0.41470689 0.016471023
-0.22255585 -0.41459116 0.016476735
-0.22270241 -0.41447064 0.016470676
-0.22283825 -0.41435954 0.016478861
-0.22298066 -0.41424277 0.016481057
-0.22312638 -0.4141221 0.016456403
-0.22326928 -0.41400489 0.016457416
-0.2234118 -0.4138881 0.01646078
-0.2235505 -0.4137747 0.016470052
-0.22369477 -0.41365618 0.016466381
-0.22383966 -0.413537 0.016460372
-0.22398154 -0.41342041 0.01645676
-0.22412643 -0.41330129 0.016451912
-0.22426619 -0.41318694 0.016458826
-0.22441635 -0.41306251 0.01643173
-0.2245595 -0.41294524 0.016436238
-0.22470224 -0.41282842 0.016443076
-0.22484323 -0.41271287 0.016446479
-0.22498618 -0.4125959 0.016453311
-0.22513174 -0.41247576 0.016437974
-0.22528055 -0.41235337 0.016431855
-0.22542121 -0.41223827 0.016438756
-0.22556296 -0.41212261 0.01645261
-0.22570658 -0.41200453 0.016447786
-0.22585547 -0.41188166 0.016432364
-0.22599824 -0.4117645 0.01643222
-0.22614618 -0.41164315 0.016433114
-0.2262861 -0.41152892 0.016445845
-0.22643444 -0.4114067 0.016435087
-0.15419474 -0.4707225 0.017310226
-0.1543427 -0.47060066 0.017300639
-0.15448925 -0.4704802 0.017295748
-0.15464227 -0.47035536 0.017311623
-0.15479036 -0.47023389 0.017312504
-0.15493576 -0.47011426 0.017305313
-0.15507995 -0.46999544 0.01729466
-0.15522474 -0.46987626 0.017286316
-0.15537407 -0.46975404 0.017292984
-0.15552343 -0.4696314 0.017291501
-0.15568246 -0.46950269 0.017330509
-0.15582097 -0.4693878 0.0173037
-0.15597005 -0.46926585 0.017311547
-0.15611403 -0.46914732 0.017303221
-0.15625682 -0.46902964 0.017291434
-0.15640441 -0.46890873 0.017295819
-0.15654661 -0.46879146 0.017282888
-0.15669705 -0.46866867 0.01729767
-0.15684074 -0.46855044 0.017290521
-0.15698671 -0.4684307 0.017291456
-0.15712844 -0.46831384 0.017278537
-0.15727484 -0.46819383 0.017281791
-0.15742487 -0.46807146 0.017297745
-0.15756962 -0.46795264 0.017296391
-0.15771425 -0.46783391 0.017295029
-0.15785706 -0.4677164 0.017287904
-0.15799941 -0.46759921 0.017279621
-0.15815036 -0.46747634 0.017301369
-0.15829346 -0.46735871 0.017296558
-0.15843643 -0.46724117 0.017291758
-0.15858194 -0.46712196 0.017296195
-0.1587283 -0.46700221 0.0173041
-0.15887254 -0.4668839 0.01730508
-0.15902026 -0.46676332 0.017318772
-0.15916786 -0.46664244 0.017323155
-0.15930162 -0.46653107 0.017288327
-0.15944695 -0.46641257 0.017304411
-0.15959378 -0.46629265 0.017316956
-0.15973692 -0.4661752 0.017316803
-0.15987739 -0.46605951 0.017307406
-0.16002062 -0.46594203 0.017308412
-0.16016658 -0.46582276 0.017319817
-0.16030735 -0.46570694 0.017312745
-0.16044968 -0.46558967 0.017302131
-0.16060276 -0.46546584 0.01734129
-0.16073991 -0.46535286 0.017331978
-0.16088115 -0.46523681 0.017328374
-0.16102041 -0.46512207 0.017317848
-0.1611605 -0.4650068 0.017310783
-0.16130325 -0.46488982 0.017314129
-0.1614462 -0.46477273 0.017318632
-0.16158505 -0.46465832 0.017308118
-0.16172715 -0.46454182 0.017310312
-0.16187203 -0.46442309 0.017313605
-0.16201147 -0.46430835 0.017306555
-0.16215152 -0.4641937 0.017312303
-0.16229226 -0.46407816 0.01731104
-0.16243079 -0.46396405 0.017301694
-0.16257191 -0.46384832 0.017302753
-0.16271202 -0.46373323 0.017300347
-0.16285613 -0.4636156 0.017314132
-0.16299772 -0.46349916 0.017308198
-0.16313751 -0.46338433 0.017305801
-0.1632743 -0.46327147 0.017291836
-0.16341676 -0.46315497 0.017301014
-0.16355452 -0.46304151 0.017291676
-0.1636939 -0.46292704 0.017289288
-0.16383232 -0.4628132 0.017283436
-0.1639718 -0.4626987 0.017282218
-0.16411284 -0.46258321 0.017287929
-0.16425154 -0.46246925 0.017284399
-0.16439013 -0.46235538 0.017280862
-0.16452891 -0.46224141 0.017278489
