# .PCD v0.7 - Point Cloud Data file format
VERSION 0.7
FIELDS x y z
SIZE 4 4 4
TYPE F F F
COUNT 1 1 1
WIDTH 112
HEIGHT 1
VIEWPOINT 0 0 0 1 0 0 0
POINTS 112
DATA ascii
-0.14108644 -0.36228254 0.035668984
-0.14170726 -0.36177349 0.035668038
-0.1418352 -0.36166853 0.035667051
-0.1419601 -0.36156678 0.035681274
-0.14208423 -0.36146432 0.035666425
-0.14220507 -0.3613655 0.035671443
-0.14233088 -0.36126223 0.035669345
-0.14245164 -0.36116356 0.035676695
-0.14258172 -0.36105713 0.035681475
-0.14270395 -0.36095607 0.035663184
-0.14282821 -0.36085361 0.035650663
-0.14295076 -0.36075395 0.035668425
-0.14307287 -0.36065322 0.035654791
-0.14319642 -0.36055198 0.035656247
-0.14332472 -0.36044675 0.035655264
-0.14344774 -0.36034638 0.035666037
-0.144021 -0.35984764 0.035044938
-0.14444315 -0.3595286 0.035630964
-0.14456682 -0.35942745 0.035635907
-0.14469118 -0.35932529 0.035631523
-0.14481635 -0.35922343 0.035648063
-0.14493939 -0.3591232 0.035662338
-0.1450642 -0.35902184 0.035683535
-0.14518185 -0.35892653 0.03570842
-0.14531146 -0.35881838 0.035667822
-0.14544258 -0.35870954 0.035638832
-0.14556964 -0.35860512 0.035633214
-0.14568925 -0.35850713 0.035634775
-0.14624527 -0.35803211 0.035221256
-0.14644237 -0.35788754 0.03558968
-0.14656645 -0.35778734 0.035622537
-0.14669447 -0.35768184 0.035611078
-0.14681824 -0.35758087 0.035621844
-0.1469433 -0.35747817 0.0356186
-0.14707191 -0.35737199 0.035602473
-0.14719369 -0.35727254 0.035610959
-0.14731297 -0.3571775 0.035670709
-0.14743783 -0.35707512 0.035670962
-0.14757064 -0.35696468 0.035637274
-0.14769274 -0.35686484 0.035643421
-0.14782646 -0.35675442 0.03562599
-0.14795376 -0.35665008 0.03562735
-0.14807776 -0.35654792 0.035615996
-0.14857872 -0.35608545 0.034497574
-0.14882796 -0.35593364 0.035633817
-0.148954 -0.35583106 0.035650332
-0.14907947 -0.35572726 0.035629626
-0.14920214 -0.35562888 0.035677657
-0.14932591 -0.35552719 0.035673287
-0.14946337 -0.35541251 0.035630167
-0.14959806 -0.35530221 0.035633653
-0.15219948 -0.35227442 0.016279075
-0.15234035 -0.35215989 0.016299866
-0.15249009 -0.35203671 0.016291331
-0.15263541 -0.35191786 0.016298044
-0.15278532 -0.35179457 0.016289506
-0.15293075 -0.35167563 0.016296217
-0.15307795 -0.3515546 0.016288918
-0.15322638 -0.35143214 0.016272277
-0.15337647 -0.35130873 0.016264893
-0.15351978 -0.35119343 0.016312387
-0.15366542 -0.35107338 0.016298145
-0.15381226 -0.35095292 0.01629667
-0.15396413 -0.35082752 0.016277608
-0.15411082 -0.35070726 0.016278476
-0.15425745 -0.35058716 0.016280493
-0.15440349 -0.35046771 0.016287185
-0.15455405 -0.350344 0.01628096
-0.15469994 -0.35022479 0.016289979
-0.15484869 -0.35010228 0.016277991
-0.15499583 -0.3499817 0.016278837
-0.15514527 -0.34985936 0.01628311
-0.15529269 -0.34973845 0.016282789
-0.15544358 -0.3496145 0.016277716
-0.15559214 -0.34949237 0.01627038
-0.15573834 -0.34937298 0.016280552
-0.15588567 -0.34925321 0.016302345
-0.15604271 -0.34912232 0.016256385
-0.15619226 -0.34899828 0.016225751
-0.15633723 -0.34888038 0.016246438
-0.15648445 -0.34875992 0.016251929
-0.15663674 -0.3486346 0.016242169
-0.15678552 -0.34851244 0.016238321
-0.15693438 -0.34839022 0.016234469
-0.15708385 -0.34826732 0.016227104
-0.15723424 -0.34814426 0.016232524
-0.15738265 -0.34802261 0.016233336
-0.15753114 -0.34790093 0.016234145
-0.15768008 -0.34777874 0.016232613
-0.1578306 -0.34765562 0.01623919
-0.15798043 -0.34753251 0.016232984
-0.15813129 -0.34740824 0.01622094
-0.15828189 -0.34728432 0.016211223
-0.15843479 -0.34715867 0.016204936
-0.15857902 -0.34704185 0.016236112
-0.15873274 -0.34691456 0.016208861
-0.15888202 -0.34679219 0.016209651
-0.15903273 -0.34666827 0.016202252
-0.15918104 -0.34654704 0.016210057
-0.15933318 -0.3464224 0.016211931
-0.15948361 -0.34629887 0.01620804
-0.15963393 -0.34617549 0.016205311
-0.15978594 -0.34605032 0.016193228
-0.15993866 -0.34592512 0.016193926
-0.1600931 -0.34579811 0.01618528
-0.16024201 -0.34567636 0.016193062
-0.16038923 -0.34555578 0.016195063
-0.16054156 -0.34543034 0.016184142
-0.16068992 -0.34530929 0.016196596
-0.16084726 -0.34518 0.016190194
-0.16099463 -0.34505931 0.016193353
-0.161147 -0.34493399 0.016184762
