# .PCD v0.7 - Point Cloud Data file format
VERSION 0.7
FIELDS x y z
SIZE 4 4 4
TYPE F F F
COUNT 1 1 1
WIDTH 132
HEIGHT 1
VIEWPOINT 0 0 0 1 0 0 0
POINTS 132
DATA ascii
-0.16050333 -0.33241862 0.016539996
-0.16065672 -0.33229217 0.016524339
-0.16080499 -0.33217165 0.016546052
-0.16096404 -0.33204001 0.016518615
-0.16112299 -0.33190793 0.016479541
-0.16126511 -0.33179319 0.016517704
-0.16141868 -0.33166671 0.016504364
-0.16157654 -0.33153701 0.016497903
-0.16172802 -0.3314133 0.016507888
-0.16187933 -0.3312898 0.016519049
-0.16203263 -0.33116367 0.016509216
-0.16219109 -0.33103293 0.016489938
-0.1623404 -0.33091092 0.016498819
-0.16249567 -0.33078349 0.016494745
-0.16265213 -0.33065483 0.016485991
-0.16280523 -0.33052963 0.016492454
-0.16295883 -0.33040339 0.016484933
-0.16311437 -0.33027577 0.016482024
-0.16326575 -0.33015183 0.016485032
-0.16342348 -0.33002204 0.016473912
-0.16357885 -0.32989463 0.016473336
-0.16374078 -0.32976064 0.016445817
-0.16389242 -0.32963654 0.016449988
-0.16404456 -0.32951251 0.016464619
-0.16419815 -0.32938647 0.016461749
-0.085481137 -0.39395195 0.01740085
-0.085635275 -0.39382452 0.017377021
-0.085791886 -0.39369541 0.01736127
-0.085954241 -0.39356291 0.017373305
-0.086116105 -0.39342988 0.017365571
-0.086277023 -0.39329839 0.017374152
-0.08644148 -0.39316365 0.017375652
-0.086598784 -0.39303461 0.017373854
-0.086758174 -0.39290377 0.017369675
-0.08691597 -0.39277405 0.017360885
-0.087083668 -0.39263764 0.017384414
-0.08723937 -0.39250937 0.017369857
-0.087399937 -0.39237782 0.017371457
-0.087561056 -0.39224595 0.017375382
-0.087706476 -0.39212459 0.017328508
-0.087868378 -0.39199221 0.017335894
-0.088032916 -0.3918581 0.017352521
-0.088187493 -0.3917307 0.017336834
-0.08834438 -0.39160174 0.017329229
-0.088504806 -0.39147091 0.017343644
-0.088660389 -0.39134288 0.017332571
-0.088818245 -0.39121336 0.0173296
-0.088972867 -0.39108598 0.017316232
-0.089131832 -0.39095578 0.017317884
-0.089292333 -0.39082456 0.017325306
-0.08944726 -0.39069706 0.017314261
-0.089605764 -0.39056721 0.017315924
-0.08976569 -0.39043599 0.017312888
-0.089918219 -0.39031014 0.017294925
-0.090077206 -0.39017957 0.017289594
-0.090245813 -0.39004314 0.017328221
-0.090399705 -0.38991693 0.017326513
-0.090550736 -0.38979214 0.017305097
-0.090710878 -0.38966137 0.017316028
-0.090865307 -0.38953441 0.017307317
-0.091026068 -0.38940281 0.017311251
-0.091180235 -0.38927603 0.017302547
-0.091333963 -0.38914958 0.017292701
-0.091494337 -0.38901877 0.017307108
-0.09165132 -0.38888976 0.017299499
-0.09180627 -0.38876256 0.017295433
-0.091961414 -0.38863528 0.017292533
-0.092116117 -0.38850829 0.017288474
-0.092278287 -0.38837597 0.017301673
-0.092431769 -0.38824981 0.017294157
-0.092587367 -0.38812181 0.017284252
-0.092743441 -0.38799402 0.017287139
-0.092898116 -0.38786715 0.01728541
-0.093052678 -0.38774037 0.017283686
-0.093208119 -0.38761258 0.017274957
-0.093361206 -0.38748679 0.017268609
-0.093518153 -0.38735855 0.017277293
-0.093682975 -0.38722476 0.017305559
-0.093823656 -0.38710654 0.017242514
-0.093974665 -0.38698268 0.01724088
-0.094135441 -0.38685155 0.017255288
-0.094290525 -0.38672462 0.017259359
-0.094448313 -0.38659549 0.017263371
-0.09460105 -0.38647011 0.017259363
-0.094755329 -0.38634324 0.017250653
-0.094910964 -0.38621554 0.01724774
-0.095060147 -0.38609248 0.017231023
-0.09522976 -0.38595539 0.017273124
-0.095381111 -0.38583153 0.017277304
-0.095530167 -0.38570809 0.017250117
-0.095684342 -0.38558143 0.017243741
-0.095839038 -0.38545498 0.017251324
-0.09599413 -0.38532779 0.017249586
-0.096146859 -0.38520262 0.017250229
-0.096301429 -0.38507581 0.017247343
-0.096451111 -0.3849526 0.017236434
-0.096606314 -0.38482541 0.017237011
-0.096758313 -0.3847008 0.017236512
-0.096911892 -0.38457468 0.017231323
-0.097062558 -0.38445094 0.017226208
-0.097215928 -0.384325 0.017221022
-0.097368315 -0.38420022 0.017224006
-0.097521737 -0.38407427 0.017219979
-0.097672269 -0.38395071 0.017216029
-0.097826838 -0.38382411 0.017217794
-0.097980216 -0.38369825 0.017214939
-0.098132148 -0.38357332 0.017206302
-0.098284125 -0.38344893 0.017210454
-0.098435335 -0.3833245 0.017199505
-0.098584995 -0.3832016 0.017194416
-0.098742843 -0.38307309 0.017213549
-0.098892808 -0.38295001 0.017210783
-0.099045709 -0.38282463 0.017209101
-0.09919624 -0.38270125 0.0172098
-0.099346101 -0.38257778 0.017195396
-0.099497214 -0.3824541 0.01719958
-0.099652514 -0.38232732 0.017210638
-0.099810474 -0.38219893 0.017234419
-0.099954367 -0.38207856 0.017181773
-0.10010029 -0.38195872 0.017176781
-0.10026391 -0.38182637 0.017215546
-0.10040937 -0.38170686 0.017209398
-0.10055555 -0.38158575 0.017181125
-0.10070312 -0.38146439 0.017172601
-0.10085557 -0.38133952 0.017174421
-0.10100371 -0.38121787 0.017169371
-0.10115741 -0.38109228 0.017178141
-0.10130787 -0.38096869 0.017171871
-0.10145919 -0.38084456 0.017170221
-0.10160744 -0.38072291 0.017167497
-0.10175692 -0.38059995 0.017157763
-0.10190453 -0.38047874 0.017152719
