# .PCD v0.7 - Point Cloud Data file format
VERSION 0.7
FIELDS x y z
SIZE 4 4 4
TYPE F F F
COUNT 1 1 1
WIDTH 118
HEIGHT 1
VIEWPOINT 0 0 0 1 0 0 0
POINTS 118
DATA ascii
-0.15865737 -0.38711733 0.020045089
-0.15880227 -0.38699737 0.020020364
-0.15894197 -0.38688177 0.019996936
-0.15905243 -0.38679391 0.020053413
-0.15917155 -0.38670105 0.020153899
-0.15932281 -0.38657466 0.020103395
-0.1594764 -0.38644686 0.020063311
-0.15965274 -0.38629857 0.019984225
-0.15980048 -0.3861765 0.019964077
-0.15994564 -0.38605663 0.019945167
-0.16008665 -0.38594177 0.019960109
-0.16023102 -0.38582343 0.019959841
-0.16037335 -0.38570619 0.019947976
-0.16051532 -0.38558966 0.01994428
-0.16063823 -0.3854894 0.019955045
-0.16079988 -0.38535804 0.019978758
-0.16093622 -0.38524413 0.019933306
-0.16107833 -0.38512984 0.019979654
-0.16122842 -0.38500661 0.019974574
-0.16136898 -0.38489032 0.019952284
-0.16151403 -0.38477108 0.019945018
-0.16165569 -0.3846553 0.019951802
-0.16178642 -0.38455313 0.020056635
-0.16192004 -0.38444188 0.020020565
-0.16208695 -0.38430211 0.019958019
-0.16222993 -0.3841843 0.019944975
-0.16237095 -0.38406965 0.019964579
-0.16251579 -0.38394895 0.019923553
-0.16265912 -0.38383269 0.019948917
-0.16280201 -0.38371515 0.019940536
-0.16294473 -0.38359794 0.019935651
-0.1630871 -0.38348129 0.019936595
-0.16323079 -0.3833645 0.019957298
-0.16337168 -0.38325015 0.019980395
-0.16351998 -0.38312647 0.01993579
-0.163661 -0.38301191 0.019957721
-0.16380337 -0.38289538 0.019960988
-0.16394569 -0.38277894 0.019965423
-0.16408297 -0.3826682 0.020002587
-0.16423644 -0.38253891 0.019929912
-0.16438034 -0.3824203 0.019915685
-0.16452214 -0.38230473 0.019929446
-0.16466606 -0.38218775 0.019950144
-0.16481151 -0.38206702 0.019918412
-0.16494773 -0.3819578 0.019969566
-0.16509472 -0.38183808 0.019985521
-0.16524163 -0.38171545 0.019938631
-0.16538593 -0.38159648 0.019924393
-0.16551906 -0.38149151 0.020011712
-0.16563603 -0.38139251 0.019945802
-0.16578102 -0.38127851 0.020047942
-0.16591115 -0.3811703 0.020015452
-0.1660821 -0.38101816 0.019763075
-0.16625355 -0.38088542 0.019926222
-0.16639788 -0.38076663 0.019916633
-0.16653997 -0.38064957 0.019903624
-0.16666821 -0.38054553 0.019925881
-0.16680369 -0.38043725 0.019984044
-0.16699353 -0.38039881 0.022441983
-0.16714254 -0.38027671 0.022442754
-0.16726959 -0.38017315 0.022454573
-0.16740203 -0.38006508 0.022465089
-0.16754949 -0.37994379 0.02245659
-0.16841993 -0.37923622 0.022579391
-0.1685586 -0.3791227 0.022582762
-0.16869493 -0.37900874 0.022536138
-0.16884515 -0.37888426 0.022507783
-0.16899988 -0.37875307 0.022416452
-0.16913012 -0.37864688 0.022428187
-0.1692638 -0.37853754 0.022432849
-0.1694074 -0.37841704 0.022374405
-0.16956043 -0.37829369 0.022418136
-0.16970345 -0.37817618 0.022412082
-0.17042804 -0.37759095 0.022594549
-0.17057434 -0.3774696 0.022563966
-0.17185813 -0.37613294 0.016597906
-0.17200345 -0.3760142 0.016605753
-0.17215218 -0.37589243 0.016608864
-0.17230056 -0.37577212 0.016636424
-0.17245311 -0.37564689 0.016632443
-0.17261069 -0.37551478 0.01657014
-0.17275771 -0.37539512 0.016588427
-0.17290683 -0.37527305 0.016591515
-0.1730579 -0.37514871 0.0165806
-0.17320748 -0.37502614 0.016581357
-0.17336121 -0.37489972 0.016572692
-0.1735111 -0.37477684 0.016572271
-0.17366223 -0.37465256 0.016563676
-0.17381197 -0.37452993 0.016565597
-0.1739639 -0.37440568 0.016572114
-0.17411396 -0.37428272 0.016572855
-0.17426595 -0.37415758 0.016560748
-0.17442149 -0.37402928 0.016543886
-0.174569 -0.37391025 0.016583102
-0.17471844 -0.37378716 0.01657106
-0.17486992 -0.37366271 0.016564785
-0.17502134 -0.37353837 0.016559672
-0.17517495 -0.37341243 0.016559163
-0.17532636 -0.37328812 0.01655522
-0.17547841 -0.37316316 0.016547762
-0.17563002 -0.37303871 0.016543804
-0.17578417 -0.37291226 0.01654212
-0.17593579 -0.37278786 0.016539332
-0.17608804 -0.37266278 0.016533028
-0.17624187 -0.37253594 0.01651738
-0.17639305 -0.37241212 0.016519263
-0.17654504 -0.37228739 0.016516468
-0.1766977 -0.37216198 0.016510151
-0.17685026 -0.37203667 0.01650502
-0.17700198 -0.37191236 0.016505718
-0.17715624 -0.37178606 0.016508674
-0.17730628 -0.37166283 0.016503608
-0.17745808 -0.37153849 0.016505465
-0.17761074 -0.37141323 0.016502652
-0.17776372 -0.37128764 0.016498657
-0.17792146 -0.37115845 0.016500369
-0.17807138 -0.37103549 0.016498787
-0.17822365 -0.37091076 0.016500644
