# .PCD v0.7 - Point Cloud Data file format
VERSION 0.7
FIELDS x y z
SIZE 4 4 4
TYPE F F F
COUNT 1 1 1
WIDTH 132
HEIGHT 1
VIEWPOINT 0 0 0 1 0 0 0
POINTS 132
DATA ascii
-0.2188646 -0.41790712 0.015336858
-0.21900202 -0.41779482 0.015344949
-0.21914165 -0.41768023 0.01534135
-0.21928008 -0.41756693 0.015344763
-0.21941817 -0.417454 0.015350506
-0.2195583 -0.41733894 0.015345723
-0.21969809 -0.41722423 0.015343281
-0.21983819 -0.41710925 0.015339669
-0.21997663 -0.41699603 0.015345402
-0.22011805 -0.41687968 0.015335936
-0.22025867 -0.4167642 0.015331142
-0.22039874 -0.41664934 0.015329862
-0.22053631 -0.41653773 0.015355401
-0.2206728 -0.41642606 0.015360024
-0.22082204 -0.41630164 0.015313119
-0.22095761 -0.41619098 0.015323587
-0.22109471 -0.41607934 0.015339827
-0.22123256 -0.41596693 0.015352567
-0.22137283 -0.41585201 0.015353602
-0.22151507 -0.41573504 0.015345275
-0.22165696 -0.41561848 0.015339287
-0.22179803 -0.41550279 0.015337971
-0.22193751 -0.41538876 0.015344848
-0.22208141 -0.41527018 0.015330656
-0.22222495 -0.41515201 0.015318815
-0.22236353 -0.41503897 0.015331524
-0.22250465 -0.41492337 0.015332539
-0.22264773 -0.41480628 0.015336991
-0.22278862 -0.41469038 0.015327538
-0.22292855 -0.41457605 0.015335564
-0.22306982 -0.41446036 0.015337734
-0.22321293 -0.41434279 0.015331713
-0.22335465 -0.41422665 0.015332711
-0.22349764 -0.41410872 0.015316223
-0.22363935 -0.41399267 0.015318391
-0.22378244 -0.41387522 0.015314693
-0.22392231 -0.41376111 0.015326209
-0.22406562 -0.41364348 0.015322516
-0.22421008 -0.41352469 0.01531413
-0.22435364 -0.41340685 0.015310429
-0.22449443 -0.41329187 0.015319592
-0.22463927 -0.41317278 0.015311208
-0.22478212 -0.41305572 0.015312175
-0.22492695 -0.41293669 0.015304941
-0.2250679 -0.41282162 0.01531527
-0.22521082 -0.41270459 0.015317397
-0.22535843 -0.41258332 0.015311262
-0.22550185 -0.41246581 0.015312214
-0.22564271 -0.41235039 0.015313234
-0.22578774 -0.4122313 0.015308334
-0.22593042 -0.41211459 0.015313959
-0.22607461 -0.41199642 0.015313732
-0.22622138 -0.41187564 0.015302956
-0.2263661 -0.41175693 0.015301555
-0.22651008 -0.41163903 0.015303655
-0.2266508 -0.41152442 0.015319811
-0.22679488 -0.41140693 0.015333549
-0.15381706 -0.471277 0.016539503
-0.15396436 -0.47115591 0.016532175
-0.15411612 -0.47103146 0.016530551
-0.15426865 -0.47090688 0.016540531
-0.15441845 -0.47078419 0.01654245
-0.15456629 -0.47066283 0.016538598
-0.15471581 -0.47054037 0.016540524
-0.15486263 -0.47041976 0.016534366
-0.15501709 -0.47029358 0.016544305
-0.15516257 -0.47017393 0.016534694
-0.15530899 -0.47005364 0.016528558
-0.15545836 -0.46993098 0.016523495
-0.15561834 -0.4698016 0.016562378
-0.15576161 -0.46968389 0.016556324
-0.15590738 -0.46956372 0.016540883
-0.15605557 -0.46944234 0.016542844
-0.15620187 -0.46932226 0.016539032
-0.15634736 -0.46920273 0.016532911
-0.15650095 -0.46907738 0.016545203
-0.15664721 -0.46895739 0.016542552
-0.15679023 -0.46883959 0.016529523
-0.15693519 -0.4687205 0.016523415
-0.15708855 -0.4685958 0.016546175
-0.15723427 -0.46847627 0.016543549
-0.15738186 -0.46835506 0.016538532
-0.15752494 -0.46823731 0.016527833
-0.15767431 -0.46811536 0.016539063
-0.15782554 -0.46799225 0.016557228
-0.15797326 -0.46787104 0.01655454
-0.15811917 -0.46775147 0.016555399
-0.15826565 -0.46763113 0.016549252
-0.15841064 -0.46751222 0.016547805
-0.15856078 -0.46738994 0.016564837
-0.15870354 -0.46727255 0.016556455
-0.15885308 -0.46715027 0.016563032
-0.15899724 -0.46703202 0.016560446
-0.15914385 -0.46691212 0.016567096
-0.1592945 -0.4667896 0.016588766
-0.15944636 -0.46666589 0.016605753
-0.15958177 -0.46655303 0.016563829
-0.1597252 -0.46643579 0.016570562
-0.15987366 -0.46631479 0.016586479
-0.16002432 -0.46619198 0.016601166
-0.16016525 -0.46607599 0.016590511
-0.16030934 -0.46595749 0.016582105
-0.16045272 -0.46583951 0.01657139
-0.16060437 -0.46571699 0.016611647
-0.16074331 -0.4656024 0.016595233
-0.16088633 -0.46548468 0.016584525
-0.16103184 -0.46536583 0.016593525
-0.16117495 -0.46524808 0.016583985
-0.1613196 -0.46512982 0.016590688
-0.16146341 -0.46501169 0.016584611
-0.16160569 -0.46489501 0.016583232
-0.16174607 -0.46477956 0.016574923
-0.16189112 -0.46466112 0.016585106
-0.16203716 -0.46454161 0.016589442
-0.16217929 -0.46442512 0.016589228
-0.16232273 -0.46430734 0.016584331
-0.16246404 -0.46419141 0.016581809
-0.16261224 -0.46407059 0.016596559
-0.16275421 -0.46395427 0.016597522
-0.16289371 -0.46383953 0.016589224
-0.16303603 -0.46372303 0.016592508
-0.16317996 -0.46360505 0.016592247
-0.16332263 -0.46348837 0.016597832
-0.16346402 -0.46337253 0.016598808
-0.16360277 -0.46325839 0.01658937
-0.1637457 -0.46314111 0.016586816
-0.16388454 -0.46302694 0.016578536
-0.16403119 -0.46290734 0.016592169
-0.16417094 -0.46279263 0.016588528
-0.16431254 -0.46267679 0.016592987
-0.16445291 -0.46256173 0.016592821
-0.16459686 -0.46244392 0.016597211
