# .PCD v0.7 - Point Cloud Data file format
VERSION 0.7
FIELDS x y z
SIZE 4 4 4
TYPE F F F
COUNT 1 1 1
WIDTH 132
HEIGHT 1
VIEWPOINT 0 0 0 1 0 0 0
POINTS 132
DATA ascii
-0.2201606 -0.41737089 0.015989238
-0.22029482 -0.41726062 0.015984628
-0.22042988 -0.41714951 0.015976494
-0.22055551 -0.41704765 0.016002361
-0.22068979 -0.41693741 0.015998907
-0.22082148 -0.41682932 0.015996683
-0.2209515 -0.41672349 0.016014284
-0.22108588 -0.41661268 0.016000357
-0.22121906 -0.41650364 0.016003914
-0.22134838 -0.41639808 0.016014552
-0.22148751 -0.41628349 0.016002823
-0.22162578 -0.41616827 0.01596202
-0.22175376 -0.41606465 0.015991315
-0.22188346 -0.41595876 0.016001943
-0.22201622 -0.41585028 0.016010173
-0.22214869 -0.41574162 0.016009087
-0.22228764 -0.41562685 0.015990382
-0.22241929 -0.41551906 0.015993979
-0.22255245 -0.41541025 0.016002197
-0.22268587 -0.41530067 0.015998766
-0.2228211 -0.4151898 0.01599877
-0.22295718 -0.4150776 0.015984798
-0.22309047 -0.41496873 0.015994173
-0.22322302 -0.41486013 0.015996575
-0.22335896 -0.41474864 0.015995411
-0.22349116 -0.41464043 0.016000153
-0.2236276 -0.41452798 0.015987333
-0.22376278 -0.4144173 0.015990838
-0.22389753 -0.41430709 0.015996683
-0.224031 -0.41419768 0.015997903
-0.22416988 -0.41408333 0.01598735
-0.22430386 -0.41397348 0.015987396
-0.22443876 -0.41386318 0.015994398
-0.22457297 -0.41375315 0.015994439
-0.15692292 -0.46927935 0.017235273
-0.15706344 -0.46916401 0.01723283
-0.15720972 -0.46904477 0.017248848
-0.15734887 -0.46893078 0.017251091
-0.15749004 -0.46881506 0.01725211
-0.15762889 -0.46870095 0.017246218
-0.15777016 -0.46858522 0.017248405
-0.15791418 -0.46846765 0.017259832
-0.15805224 -0.46835414 0.01725279
-0.15819162 -0.46823972 0.017250376
-0.15833195 -0.46812472 0.017251417
-0.15847068 -0.46801117 0.017256001
-0.15861464 -0.46789375 0.01726976
-0.15875453 -0.46777907 0.017270813
-0.15889181 -0.46766621 0.017263791
-0.15903318 -0.46755058 0.017270636
-0.15917651 -0.46743369 0.017284403
-0.15931514 -0.46731997 0.017283166
-0.15945399 -0.46720609 0.017283095
-0.15959443 -0.4670912 0.017288795
-0.15972921 -0.4669801 0.017276019
-0.1598711 -0.46686429 0.0172875
-0.1600101 -0.46675041 0.017289747
-0.16014715 -0.46663824 0.017294362
-0.16028418 -0.46652573 0.017290849
-0.16041838 -0.46641511 0.017278086
-0.16056506 -0.46629581 0.017299917
-0.16070025 -0.46618497 0.017299931
-0.16083375 -0.46607488 0.017286027
-0.16096851 -0.46596396 0.017276751
-0.16110712 -0.4658505 0.017281327
-0.16124696 -0.46573627 0.017290533
-0.16138431 -0.46562371 0.017291661
-0.16151926 -0.46551272 0.017284701
-0.1616554 -0.46540099 0.017282369
-0.16179188 -0.46528944 0.017290492
-0.16192907 -0.46517706 0.017292783
-0.16206452 -0.46506584 0.017289301
-0.1621989 -0.46495533 0.017282365
-0.16233221 -0.46484557 0.017271956
-0.16247244 -0.46473125 0.017286962
-0.16260681 -0.46462083 0.017281186
-0.16274358 -0.46450883 0.01728465
-0.1628774 -0.4643988 0.017277719
-0.16301645 -0.46428534 0.017290436
-0.1631501 -0.46417585 0.01729282
-0.16328515 -0.46406507 0.017291678
-0.16341978 -0.46395457 0.017289376
-0.16355583 -0.46384317 0.017292868
-0.16369514 -0.46372968 0.01730907
-0.16382849 -0.46362007 0.01730331
-0.16396509 -0.46350837 0.01731028
-0.16410035 -0.46339759 0.017312622
-0.16423306 -0.46328887 0.017315021
-0.16437019 -0.46317691 0.017325466
-0.1645039 -0.46306717 0.01732319
-0.1646366 -0.4629581 0.017317457
-0.1647692 -0.46284911 0.017311716
-0.16490467 -0.46273828 0.017317545
-0.16503766 -0.46262908 0.017314127
-0.16517086 -0.46251976 0.017311873
-0.16530035 -0.46241328 0.017305054
-0.16542956 -0.46230656 0.017287759
-0.165572 -0.46219137 0.017323671
-0.16570304 -0.46208352 0.017314481
-0.16583456 -0.46197537 0.017307609
-0.16596542 -0.46186766 0.017298425
-0.16609932 -0.46175802 0.017301964
-0.16623595 -0.46164668 0.017317072
-0.16636202 -0.46154207 0.017289398
-0.16648944 -0.4614366 0.017267501
-0.16662267 -0.46132746 0.017269896
-0.16675885 -0.46121648 0.017285017
-0.16689186 -0.46110752 0.017287418
-0.16702339 -0.46099952 0.017284038
-0.16715482 -0.4608916 0.017280659
-0.16728669 -0.46078342 0.017279597
-0.16741611 -0.46067727 0.017278593
-0.16754781 -0.46056923 0.017277537
-0.16767968 -0.46046108 0.017277637
-0.16780984 -0.46035406 0.0172708
-0.167941 -0.46024641 0.0172686
-0.16807498 -0.46013704 0.017279116
-0.16820593 -0.46002954 0.017276911
-0.1683355 -0.45992297 0.01726893
-0.16846575 -0.45981595 0.01726442
-0.16859853 -0.45970738 0.017271478
-0.16872707 -0.45960149 0.017260034
-0.16886017 -0.45949277 0.017269405
-0.16899136 -0.45938525 0.017270692
-0.16912119 -0.45927861 0.017266195
-0.1692522 -0.45917124 0.017267477
-0.1693826 -0.45906425 0.017266456
-0.16951193 -0.45895797 0.017260801
-0.16964144 -0.45885158 0.017256312
-0.16977209 -0.4587445 0.017257605
-0.1699034 -0.45863703 0.017262379
-0.17003141 -0.45853162 0.017252108
