# .PCD v0.7 - Point Cloud Data file format
VERSION 0.7
FIELDS x y z
SIZE 4 4 4
TYPE F F F
COUNT 1 1 1
WIDTH 119
HEIGHT 1
VIEWPOINT 0 0 0 1 0 0 0
POINTS 119
DATA ascii
-0.13370465 -0.43165034 0.01729295
-0.13386428 -0.43151999 0.017302778
-0.13402054 -0.43139169 0.017297562
-0.13417618 -0.43126377 0.017290041
-0.13433364 -0.43113542 0.017304575
-0.13448811 -0.43100828 0.017292425
-0.1346442 -0.43088016 0.017288383
-0.13480194 -0.43075109 0.01729244
-0.1349528 -0.43062678 0.017278062
-0.13511033 -0.43049788 0.017282125
-0.13526848 -0.43036863 0.017289661
-0.13542239 -0.43024191 0.017277524
-0.13557462 -0.43011689 0.01727125
-0.13573198 -0.42998818 0.017276477
-0.13588732 -0.42986068 0.017272454
-0.13603975 -0.42973492 0.017254537
-0.13619375 -0.42960891 0.017258691
-0.13635281 -0.4294793 0.017274354
-0.13650824 -0.42935184 0.017272649
-0.13665758 -0.42922798 0.01724086
-0.13681309 -0.42910048 0.017240316
-0.13697484 -0.42897013 0.017286161
-0.13712694 -0.42884469 0.017269421
-0.13728201 -0.42871687 0.017253766
-0.13743062 -0.42859346 0.017219655
-0.13972232 -0.42716619 0.026726304
-0.13986127 -0.42705154 0.026709899
-0.14000934 -0.4269304 0.026714208
-0.14014231 -0.42681983 0.026680505
-0.14027631 -0.42670935 0.026666559
-0.14041075 -0.42659795 0.02664097
-0.14056775 -0.42647189 0.026695084
-0.14070924 -0.42635453 0.02666582
-0.14085042 -0.42623806 0.026649356
-0.1409919 -0.42612213 0.026649177
-0.14113258 -0.42600733 0.0266595
-0.14222451 -0.42512605 0.026945367
-0.14232932 -0.42503604 0.026858876
-0.14247738 -0.42490813 0.026720064
-0.14260831 -0.42479813 0.026663143
-0.14273854 -0.42469072 0.026648125
-0.14286257 -0.42458808 0.026627459
-0.14299484 -0.42447808 0.026593776
-0.14313523 -0.42436451 0.026625048
-0.14326739 -0.42425612 0.026622783
-0.1434086 -0.42414066 0.026628431
-0.14354871 -0.42402506 0.026612006
-0.14369628 -0.42390555 0.02664192
-0.14383037 -0.42379466 0.026620992
-0.14396887 -0.42367995 0.026595296
-0.14411488 -0.42356056 0.026600819
-0.14424942 -0.42344946 0.02658337
-0.14438218 -0.42333853 0.026538042
-0.14452599 -0.42322111 0.026547112
-0.14466214 -0.42310843 0.026523799
-0.14480476 -0.42299166 0.02652592
-0.14494719 -0.42287582 0.026544338
-0.14509577 -0.42275608 0.026587039
-0.14522929 -0.42264479 0.026547503
-0.14537711 -0.42252469 0.02656927
-0.14551626 -0.42240974 0.026550539
-0.14565143 -0.42229849 0.026540054
-0.1457976 -0.42218095 0.026587468
-0.14593424 -0.42206731 0.0265525
-0.14606877 -0.42195642 0.026538542
-0.14621609 -0.4218367 0.026560333
-0.14634915 -0.42172569 0.026518477
-0.14649034 -0.42160988 0.026515985
-0.14663069 -0.42149535 0.026526306
-0.14677159 -0.42137882 0.026504038
-0.14690767 -0.42126724 0.02650284
-0.14704056 -0.42115632 0.02645983
-0.14717662 -0.42104387 0.026440019
-0.14733227 -0.42092049 0.026527911
-0.1474444 -0.42081738 0.026291117
-0.14754264 -0.42072234 0.025984865
-0.14767279 -0.42061156 0.025897719
-0.14780866 -0.42049059 0.025695218
-0.14788678 -0.42040887 0.025322003
-0.14800766 -0.42030674 0.025257193
-0.14814492 -0.42019439 0.025259454
-0.14842275 -0.41972381 0.020137021
-0.14854792 -0.41961998 0.020110503
-0.14866328 -0.41952452 0.020091224
-0.1488059 -0.41940802 0.020099167
-0.14896525 -0.41927812 0.020113653
-0.14913873 -0.4191348 0.020089373
-0.14928824 -0.41901118 0.020065721
-0.14943872 -0.41888937 0.020097889
-0.1495837 -0.41877094 0.02010577
-0.14972849 -0.41865259 0.020112496
-0.14987332 -0.41853312 0.020095937
-0.15001865 -0.41841462 0.020108469
-0.15012914 -0.41830829 0.019775134
-0.15027319 -0.41819015 0.019773725
-0.15045176 -0.41805801 0.020072799
-0.15058981 -0.41794229 0.02001803
-0.15074109 -0.41782048 0.020064142
-0.15088312 -0.41770333 0.020047655
-0.15103027 -0.41758311 0.020055477
-0.15118137 -0.41746151 0.020102765
-0.15132004 -0.41734555 0.020053791
-0.1514425 -0.41724274 0.020001741
-0.15154973 -0.41715014 0.019902384
-0.15170048 -0.41703266 0.02002997
-0.15185452 -0.41690901 0.02008415
-0.15199158 -0.41679353 0.020017767
-0.15216829 -0.41666147 0.020286633
-0.15233491 -0.41651797 0.020140357
-0.15248115 -0.4163956 0.020086534
-0.15262204 -0.41627753 0.020031683
-0.15272485 -0.41618875 0.019935932
-0.15286919 -0.41607523 0.02003691
-0.15301408 -0.41595456 0.019995917
-0.15315467 -0.41584226 0.02005744
-0.15333191 -0.4157027 0.020177353
-0.15348132 -0.415575 0.020066429
-0.15363812 -0.41544682 0.02007284
-0.15378125 -0.41532961 0.020074949
