# .PCD v0.7 - Point Cloud Data file format
VERSION 0.7
FIELDS x y z
SIZE 4 4 4
TYPE F F F
COUNT 1 1 1
WIDTH 124
HEIGHT 1
VIEWPOINT 0 0 0 1 0 0 0
POINTS 124
DATA ascii
-0.11356162 -0.40212893 0.016968977
-0.11371461 -0.40200371 0.016973171
-0.11386531 -0.40187982 0.016966956
-0.11401801 -0.40175417 0.016957186
-0.11416782 -0.40163085 0.016947504
-0.11432203 -0.40150434 0.016945858
-0.11447311 -0.4013803 0.016943112
-0.11462595 -0.40125462 0.016935676
-0.11477965 -0.40112847 0.016932875
-0.11493185 -0.40100321 0.016923126
-0.11508468 -0.40087825 0.016930817
-0.11523603 -0.40075353 0.016917603
-0.11538636 -0.40063006 0.016913716
-0.1155403 -0.40050384 0.016914396
-0.11569347 -0.40037811 0.016911605
-0.11584633 -0.40025261 0.016907662
-0.11599888 -0.40012726 0.016902559
-0.11971888 -0.39787728 0.033977993
-0.11985025 -0.39776868 0.033959467
-0.11998612 -0.39765814 0.033978071
-0.12011907 -0.3975493 0.033981618
-0.12024172 -0.39744693 0.033943549
-0.12037554 -0.39733636 0.033926129
-0.12051385 -0.39722455 0.033959791
-0.12064862 -0.39711475 0.033974931
-0.12078518 -0.39700395 0.034000501
-0.12091418 -0.39689681 0.033971563
-0.12104123 -0.39679205 0.033958972
-0.12117683 -0.39668122 0.033967111
-0.12131166 -0.39657024 0.033957809
-0.12143999 -0.39646479 0.033953335
-0.12158266 -0.39634949 0.033989213
-0.12171346 -0.39624274 0.033999797
-0.12184278 -0.39613482 0.033960395
-0.12196845 -0.39603093 0.033942018
-0.12211148 -0.39591554 0.033982545
-0.12223704 -0.39581171 0.033964172
-0.12237649 -0.39569834 0.033985015
-0.12250989 -0.39558896 0.03398506
-0.12263346 -0.39548692 0.033970229
-0.12277186 -0.39537421 0.033986434
-0.12289977 -0.3952685 0.033969171
-0.12302887 -0.39516288 0.033973977
-0.12316662 -0.39505056 0.033987883
-0.12329812 -0.39494228 0.033978667
-0.12343314 -0.39483288 0.034006603
-0.12357229 -0.39472064 0.034046061
-0.12370227 -0.39461395 0.034043867
-0.1238274 -0.39451054 0.034026675
-0.12396095 -0.39440131 0.034032539
-0.12408552 -0.39429748 0.033996738
-0.12421519 -0.39419028 0.033978269
-0.12434493 -0.39408377 0.033976078
-0.12447533 -0.39397696 0.033978529
-0.1246113 -0.39386734 0.034018073
-0.12473851 -0.39376146 0.033984534
-0.12487148 -0.39365339 0.034005534
-0.12500779 -0.39354292 0.034033436
-0.12512979 -0.39344046 0.033981413
-0.1252622 -0.39333197 0.033983812
-0.12539014 -0.39322653 0.03397236
-0.12552643 -0.39311695 0.034018874
-0.12565725 -0.39301014 0.034028299
-0.12578936 -0.3929019 0.034030706
-0.12591578 -0.39279726 0.034009993
-0.12604569 -0.39269015 0.033997327
-0.12617239 -0.3925854 0.033978932
-0.12630369 -0.3924776 0.033976704
-0.12643304 -0.39237159 0.033978011
-0.12656045 -0.39226654 0.033965424
-0.12669316 -0.39215899 0.03399225
-0.12682596 -0.39205056 0.034002781
-0.12695616 -0.39194426 0.034012221
-0.12708867 -0.39183605 0.034021601
-0.1272133 -0.3917332 0.034007911
-0.12734383 -0.39162505 0.033984758
-0.12747335 -0.39151913 0.033990726
-0.12760089 -0.39141414 0.03398161
-0.12772883 -0.39130893 0.033975977
-0.12785836 -0.39120308 0.033983104
-0.12798838 -0.39109701 0.03399488
-0.12811583 -0.39099118 0.033967156
-0.12824421 -0.39088589 0.033966161
-0.12837154 -0.39078104 0.033957053
-0.12850346 -0.39067423 0.033986233
-0.12863445 -0.39056692 0.03398867
-0.12876621 -0.39046025 0.03401785
-0.12889366 -0.39035451 0.033991288
-0.129022 -0.39024931 0.033992626
-0.12914896 -0.39014474 0.033982366
-0.12927842 -0.39003912 0.033994153
-0.12940925 -0.38993201 0.033997759
-0.12953572 -0.38982767 0.03398402
-0.12966609 -0.38972077 0.033984147
-0.12979341 -0.3896161 0.033978529
-0.12992336 -0.38951042 0.033997286
-0.1300521 -0.38940522 0.034005594
-0.13018242 -0.38929844 0.034006886
-0.13031031 -0.38919362 0.034008235
-0.13043845 -0.38908768 0.033989795
-0.1305669 -0.38898271 0.033996951
-0.13069464 -0.38887691 0.033975042
-0.13082099 -0.38877273 0.033962466
-0.13095002 -0.38866758 0.033976588
-0.13107818 -0.38856277 0.03398259
-0.13120715 -0.38845658 0.033973441
-0.13133432 -0.38835216 0.033970155
-0.13146459 -0.38824442 0.033950511
-0.13115999 -0.38785145 0.020239336
-0.13128623 -0.38774836 0.020248879
-0.13142113 -0.38764003 0.020297762
-0.13158622 -0.38750502 0.020305132
-0.13174455 -0.38737473 0.020295227
-0.13188654 -0.38725746 0.020277595
-0.13202721 -0.387142 0.020275131
-0.13216522 -0.38703018 0.020304151
-0.13230756 -0.38691285 0.020291161
-0.13244875 -0.38679582 0.020264249
-0.13259238 -0.38667819 0.020267518
-0.13273454 -0.38656247 0.020285957
-0.13288048 -0.38644126 0.0202531
-0.13302 -0.38632613 0.020237863
-0.13317651 -0.38620767 0.020447928
-0.13331139 -0.38609356 0.020373464
