# .PCD v0.7 - Point Cloud Data file format
VERSION 0.7
FIELDS x y z
SIZE 4 4 4
TYPE F F F
COUNT 1 1 1
WIDTH 120
HEIGHT 1
VIEWPOINT 0 0 0 1 0 0 0
POINTS 120
DATA ascii
-0.15626454 -0.45007321 0.01698187
-0.1564213 -0.44994494 0.016986001
-0.15657932 -0.44981599 0.01699708
-0.15672453 -0.44969448 0.016943332
-0.1568772 -0.44957 0.016956877
-0.1583534 -0.44860607 0.022249587
-0.15848109 -0.44849673 0.022148574
-0.15862434 -0.44837779 0.022114659
-0.15876725 -0.44825971 0.022093542
-0.15891391 -0.4481388 0.022078151
-0.15906321 -0.44801709 0.022091787
-0.15921596 -0.44789279 0.022109983
-0.15936479 -0.4477714 0.022122459
-0.15951413 -0.44764906 0.022123292
-0.15965645 -0.4475314 0.02210103
-0.15980689 -0.4474085 0.022108816
-0.15995765 -0.44728613 0.022134043
-0.16010663 -0.44716409 0.022134885
-0.16025242 -0.44704458 0.022133479
-0.16040061 -0.44692302 0.022130849
-0.16054748 -0.44680291 0.022136396
-0.1606925 -0.44668317 0.022116385
-0.16084382 -0.44656065 0.022148591
-0.16098763 -0.44644234 0.022137925
-0.16114131 -0.4463186 0.022185192
-0.16128603 -0.44619909 0.022165189
-0.16143432 -0.44607836 0.02218234
-0.16158013 -0.44595829 0.022169292
-0.16172959 -0.44583699 0.022194564
-0.1618533 -0.44572735 0.022016853
-0.16196011 -0.44562826 0.021767426
-0.16207488 -0.44552705 0.02161322
-0.16223517 -0.44531208 0.019811329
-0.16236706 -0.44520351 0.019800972
-0.16250569 -0.44508743 0.019747391
-0.16264687 -0.44496921 0.019692576
-0.16278903 -0.44485205 0.019678462
-0.1629272 -0.44473538 0.019603942
-0.16306546 -0.44461864 0.019529417
-0.16322799 -0.44448599 0.01954155
-0.16341716 -0.44433144 0.019550676
-0.1635668 -0.44420967 0.019568952
-0.1637212 -0.44408548 0.01961969
-0.16388263 -0.4439595 0.019755188
-0.16402344 -0.44383979 0.019661978
-0.1641648 -0.44372234 0.01962694
-0.16430716 -0.44360435 0.019598868
-0.16445456 -0.44348389 0.01960556
-0.16460226 -0.44336241 0.019595962
-0.1647421 -0.44324836 0.019607512
-0.16489124 -0.44313419 0.019780554
-0.16498256 -0.44304225 0.019411681
-0.16518258 -0.44288447 0.019543864
-0.16533396 -0.4427622 0.019581877
-0.16548537 -0.44263995 0.019621063
-0.16563205 -0.44252002 0.019626614
-0.16578974 -0.44239947 0.019813405
-0.16590752 -0.44230264 0.019806903
-0.16603522 -0.44219461 0.019733813
-0.16619092 -0.4420687 0.019769395
-0.16635904 -0.44193509 0.019859333
-0.16648412 -0.44181967 0.019580362
-0.16665235 -0.44168219 0.019588847
-0.1667835 -0.44157344 0.019561056
-0.16694105 -0.44144383 0.019550044
-0.16709083 -0.44132271 0.019584607
-0.16721366 -0.44122168 0.019576803
-0.16736116 -0.44110265 0.019616079
-0.16749345 -0.44099647 0.019663896
-0.16760632 -0.4408938 0.01944457
-0.16776116 -0.44077057 0.019523222
-0.16790548 -0.44065094 0.019493928
-0.16805723 -0.44052917 0.019549385
-0.16819902 -0.44041276 0.01954459
-0.16833812 -0.44029647 0.019494493
-0.16891666 -0.43987966 0.02072823
-0.16906101 -0.4397617 0.020735011
-0.16921407 -0.43963912 0.020796247
-0.16935489 -0.43952262 0.020772865
-0.16950245 -0.43940237 0.020786544
-0.16964678 -0.4392845 0.020795647
-0.16978841 -0.43916774 0.020780385
-0.16992839 -0.43905279 0.020774469
-0.17006832 -0.43893552 0.020718524
-0.17037894 -0.43862623 0.019538812
-0.17052263 -0.43850821 0.019532807
-0.17067657 -0.43838528 0.01960217
-0.17083219 -0.43826061 0.019663349
-0.17097719 -0.438146 0.019753885
-0.17156172 -0.43773457 0.021209732
-0.17169659 -0.43762431 0.021214418
-0.17183842 -0.43750787 0.021209624
-0.17199564 -0.43738255 0.021285892
-0.17213841 -0.4372659 0.021292705
-0.17228039 -0.43714949 0.021291398
-0.17242694 -0.437029 0.02128299
-0.17256062 -0.43691784 0.021248151
-0.17271113 -0.43679622 0.021285027
-0.17286074 -0.43667492 0.021312606
-0.17299977 -0.4365623 0.021340467
-0.1731407 -0.43644631 0.021329876
-0.17327493 -0.43633357 0.021270588
-0.17341825 -0.43621844 0.021320444
-0.17356469 -0.43609813 0.0213132
-0.17370172 -0.43598616 0.02132017
-0.17385644 -0.43586236 0.021384861
-0.17399274 -0.43574756 0.02131737
-0.17413327 -0.4356333 0.021337043
-0.17427503 -0.43551725 0.02133923
-0.1746152 -0.43516183 0.019687496
-0.17475732 -0.43504131 0.019600082
-0.17488569 -0.43493339 0.019540936
-0.17502841 -0.43481609 0.019533798
-0.17515235 -0.43471408 0.019523643
-0.17528839 -0.43460312 0.019535281
-0.17543201 -0.43448576 0.019542081
-0.17557761 -0.43436635 0.019539509
-0.17573559 -0.43423617 0.019523837
-0.17585967 -0.43413225 0.019475274
-0.17600654 -0.43401462 0.019534348
