# .PCD v0.7 - Point Cloud Data file format
VERSION 0.7
FIELDS x y z
SIZE 4 4 4
TYPE F F F
COUNT 1 1 1
WIDTH 132
HEIGHT 1
VIEWPOINT 0 0 0 1 0 0 0
POINTS 132
DATA ascii
-0.16065288 -0.33095503 0.016505519
-0.16080728 -0.33082837 0.016501483
-0.1609621 -0.33070186 0.016509088
-0.16111831 -0.33057395 0.016510826
-0.16127598 -0.33044457 0.016506702
-0.16143276 -0.33031559 0.016494462
-0.16158862 -0.33018753 0.016486896
-0.16174169 -0.33006236 0.016492216
-0.16190171 -0.32993129 0.016492695
-0.16205689 -0.329804 0.016489796
-0.16221565 -0.32967368 0.016484484
-0.16237277 -0.32954451 0.016474567
-0.16253263 -0.32941315 0.016465735
-0.16268426 -0.32928956 0.016480394
-0.16284773 -0.32915461 0.016457507
-0.16300376 -0.32902664 0.016454589
-0.16316199 -0.328897 0.01645511
-0.16331746 -0.32876968 0.016455708
-0.16347314 -0.32864267 0.01646794
-0.16363509 -0.32850885 0.016442752
-0.084835514 -0.39311254 0.017365716
-0.084989801 -0.39298514 0.017343059
-0.085156128 -0.39284953 0.017358493
-0.085334748 -0.39270565 0.017413173
-0.085478269 -0.39258644 0.017376836
-0.085633099 -0.39245871 0.017357655
-0.085795477 -0.39232549 0.017353408
-0.085950732 -0.39219794 0.017345859
-0.086128689 -0.39205423 0.017392403
-0.086284399 -0.39192599 0.017377861
-0.086428158 -0.39180586 0.017325224
-0.086592227 -0.39167202 0.017338388
-0.086754322 -0.39153954 0.017345781
-0.086913064 -0.39140934 0.017342791
-0.087071314 -0.39127949 0.017338652
-0.087226853 -0.39115193 0.017335746
-0.087385982 -0.3910211 0.017325774
-0.087542415 -0.39089254 0.017317023
-0.087700665 -0.39076322 0.017324518
-0.087862857 -0.39063042 0.017326098
-0.088018179 -0.39050266 0.017315056
-0.08817476 -0.39037406 0.017308632
-0.088335827 -0.39024296 0.017327685
-0.088490069 -0.39011601 0.017314341
-0.088645548 -0.38998821 0.017305624
-0.088805646 -0.38985738 0.017313071
-0.088955939 -0.38973355 0.017297499
-0.089115083 -0.38960338 0.017302651
-0.089273386 -0.3894738 0.017305493
-0.089429215 -0.38934588 0.017300248
-0.089583255 -0.38921919 0.01728924
-0.089738831 -0.38909149 0.017284002
-0.089897245 -0.38896194 0.017289173
-0.090053469 -0.3888334 0.017276935
-0.090221733 -0.38869736 0.017317923
-0.090369955 -0.38857505 0.017298916
-0.090524867 -0.38844791 0.017293707
-0.090681262 -0.38831979 0.017294269
-0.090836555 -0.38819245 0.017291369
-0.090992674 -0.38806453 0.017291937
-0.091146432 -0.38793823 0.017284427
-0.091305152 -0.38780868 0.0172954
-0.091457069 -0.3876836 0.017282117
-0.091609202 -0.38755843 0.017269989
-0.091764025 -0.38743198 0.017278744
-0.091916867 -0.38730636 0.017270088
-0.092074588 -0.38717759 0.017279927
-0.092234939 -0.38704708 0.017300168
-0.092388377 -0.38692069 0.017284524
-0.092528418 -0.38680348 0.017229656
-0.092686459 -0.38667506 0.017253449
-0.092843488 -0.38654685 0.017263306
-0.092996128 -0.3864215 0.017256986
-0.093148336 -0.38629645 0.017249515
-0.09330377 -0.38616934 0.017254764
-0.093455151 -0.38604489 0.017244985
-0.093613312 -0.38591605 0.017261794
-0.093767151 -0.38579002 0.017262423
-0.09391997 -0.3856647 0.017259588
-0.094070017 -0.38554117 0.017246354
-0.094226144 -0.38541374 0.017257396
-0.094378904 -0.38528851 0.017255733
-0.09453097 -0.38516372 0.017251747
-0.09468089 -0.38504037 0.017239686
-0.094833322 -0.38491541 0.017238023
-0.094981611 -0.3847931 0.017220184
-0.095147528 -0.38465905 0.017262384
-0.095296204 -0.38453707 0.017258497
-0.09544418 -0.38441503 0.017240668
-0.095593773 -0.38429198 0.017229766
-0.095749468 -0.38416505 0.017244319
-0.095898569 -0.38404235 0.017232269
-0.096048698 -0.38391903 0.017224856
-0.096199289 -0.38379541 0.017219748
-0.09635061 -0.38367134 0.017218113
-0.09650182 -0.3835474 0.017216491
-0.096652091 -0.38342404 0.017211393
-0.096802816 -0.38330042 0.017208613
-0.09695372 -0.38317671 0.017206999
-0.097105041 -0.38305277 0.017207693
-0.097257063 -0.3829284 0.017211862
-0.097404689 -0.38280681 0.017197531
-0.097557947 -0.38268116 0.017195845
-0.097709373 -0.38255721 0.017198868
-0.09786202 -0.38243255 0.017207669
-0.098011643 -0.38230979 0.017203759
-0.098162226 -0.38218644 0.017204473
-0.09831582 -0.38206124 0.017219082
-0.098462276 -0.38194051 0.017202452
-0.098606348 -0.38182127 0.017175402
-0.098758072 -0.3816973 0.017183067
-0.098908924 -0.38157389 0.017187275
-0.099060126 -0.38144973 0.017180994
-0.099210761 -0.3813265 0.017185196
-0.099359266 -0.38120461 0.017180145
-0.099509686 -0.38108152 0.017184354
-0.099657759 -0.38095993 0.017178154
-0.099803261 -0.38083991 0.01716039
-0.099951707 -0.38071755 0.017143708
-0.10010818 -0.38059032 0.01716521
-0.10025586 -0.38046962 0.017171822
-0.10040154 -0.38034958 0.017156372
-0.1005516 -0.38022628 0.017148959
-0.10070171 -0.38010359 0.017155508
-0.10084861 -0.37998286 0.017147006
-0.10099591 -0.37986189 0.017140826
-0.10114266 -0.37974128 0.017132331
-0.10129075 -0.37961987 0.01713079
-0.10144265 -0.37949559 0.017134961
-0.10159077 -0.37937421 0.017134581
-0.10173719 -0.37925386 0.017126091
-0.10188492 -0.37913278 0.01712455
