# .PCD v0.7 - Point Cloud Data file format
VERSION 0.7
FIELDS x y z
SIZE 4 4 4
TYPE F F F
COUNT 1 1 1
WIDTH 127
HEIGHT 1
VIEWPOINT 0 0 0 1 0 0 0
POINTS 127
DATA ascii
-0.15105885 -0.38037103 0.025909796
-0.15119524 -0.38026044 0.025935328
-0.15193513 -0.3793709 0.019944301
-0.15210308 -0.37922785 0.019830544
-0.15225497 -0.3791061 0.019889412
-0.15239859 -0.37898818 0.019884499
-0.15254205 -0.37887055 0.019884249
-0.15268081 -0.37875617 0.019871322
-0.15283144 -0.37863362 0.019890659
-0.15296811 -0.37852043 0.019866154
-0.15311128 -0.37840354 0.019876383
-0.15325761 -0.37828347 0.019873729
-0.15340047 -0.37816721 0.019892108
-0.15352914 -0.37806097 0.019875946
-0.15368617 -0.37793195 0.019869529
-0.15381671 -0.37782505 0.019871939
-0.15395421 -0.37771338 0.01989395
-0.15410995 -0.37758678 0.019916652
-0.15422723 -0.377491 0.019924061
-0.15434404 -0.37739602 0.019940794
-0.1544781 -0.37729037 0.020030394
-0.154623 -0.3771753 0.020109227
-0.15477011 -0.37704688 0.019943649
-0.1549273 -0.37691784 0.01993954
-0.15509705 -0.3767767 0.019897876
-0.15524538 -0.37665367 0.019867245
-0.15538302 -0.37654182 0.019888092
-0.15552403 -0.37642661 0.019896049
-0.15564793 -0.37632653 0.019927725
-0.1557665 -0.3762309 0.019960705
-0.15590164 -0.37612301 0.020022342
-0.15604259 -0.37600988 0.020073356
-0.15618885 -0.37588832 0.02003812
-0.15633973 -0.37576351 0.020014402
-0.15651596 -0.37561288 0.019884126
-0.15667751 -0.37547943 0.01986246
-0.15681748 -0.375366 0.019890226
-0.1569609 -0.37524733 0.019866705
-0.15710746 -0.3751258 0.019837281
-0.15724885 -0.37501025 0.019845227
-0.15739143 -0.37489474 0.019874087
-0.1575316 -0.37478104 0.019899527
-0.15766923 -0.37466598 0.019851714
-0.15778217 -0.37457353 0.019854587
-0.15791176 -0.37446856 0.019881465
-0.15805596 -0.37435073 0.019889336
-0.15821694 -0.37422016 0.019918883
-0.15834768 -0.37411034 0.019863099
-0.15850127 -0.37398556 0.019887028
-0.15863416 -0.37387598 0.019873085
-0.15878242 -0.37375408 0.019865729
-0.15891282 -0.37364954 0.019915849
-0.15905769 -0.3735294 0.019886469
-0.15920825 -0.3734059 0.019884873
-0.15939343 -0.37325537 0.019911457
-0.1595118 -0.37315854 0.019916516
-0.1596739 -0.37302372 0.019875051
-0.15982446 -0.37290177 0.019906031
-0.15995792 -0.37279308 0.019921167
-0.16011892 -0.37265712 0.019836675
-0.16025588 -0.37254789 0.019901756
-0.16037524 -0.37245938 0.020098787
-0.16050765 -0.37235203 0.020124422
-0.16065387 -0.37223178 0.020115949
-0.16080286 -0.37210658 0.020051558
-0.16096762 -0.37196863 0.019990241
-0.16111074 -0.37185255 0.020016756
-0.16125455 -0.37173432 0.020009516
-0.16140193 -0.37161154 0.019967267
-0.16154379 -0.37149587 0.019981023
-0.16169821 -0.37136537 0.019897863
-0.16183159 -0.37126064 0.019995624
-0.16198266 -0.37113452 0.019947469
-0.16212776 -0.37101483 0.019932045
-0.16223145 -0.37093699 0.020082939
-0.16236898 -0.37082452 0.020088658
-0.16251808 -0.37070099 0.020061497
-0.1626682 -0.37057742 0.020050593
-0.16281469 -0.37045726 0.020049103
-0.16295737 -0.37034187 0.020082619
-0.16311903 -0.37020856 0.020065602
-0.16324757 -0.37010401 0.020083185
-0.16340712 -0.36997226 0.020062733
-0.16355984 -0.36984566 0.020033147
-0.16370355 -0.36972803 0.020036381
-0.1638501 -0.36960584 0.019992996
-0.16398488 -0.36948952 0.019869626
-0.1641371 -0.36937329 0.020050675
-0.16428286 -0.36925638 0.020105053
-0.16444425 -0.36911744 0.019964693
-0.16459954 -0.36898702 0.019898975
-0.16543967 -0.36812735 0.016279127
-0.16558626 -0.36800793 0.016295077
-0.16573423 -0.36788687 0.016300533
-0.16588247 -0.36776656 0.016325751
-0.16603887 -0.36763558 0.016266976
-0.16618429 -0.36751661 0.016272495
-0.16633378 -0.36739486 0.01628954
-0.1664841 -0.36727118 0.016279802
-0.16663682 -0.36714569 0.016273487
-0.16678765 -0.36702147 0.016261403
-0.16693604 -0.36690015 0.016268007
-0.16708753 -0.36677524 0.016252415
-0.16724323 -0.36664736 0.016247194
-0.16738907 -0.36652905 0.016273636
-0.16754231 -0.36640221 0.016247539
-0.16769336 -0.3662779 0.01623778
-0.16784286 -0.36615545 0.016239692
-0.16799344 -0.36603177 0.016234597
-0.16814639 -0.3659063 0.016232939
-0.16829476 -0.36578521 0.016244192
-0.16844906 -0.36565825 0.016234349
-0.16859999 -0.36553431 0.016229253
-0.16874978 -0.36541164 0.016232319
-0.16889983 -0.36528873 0.016234228
-0.16905226 -0.36516315 0.016220942
-0.16920267 -0.36503989 0.01622167
-0.16935435 -0.36491609 0.016232837
-0.16950598 -0.36479145 0.016226554
-0.16965736 -0.36466718 0.016222607
-0.1698081 -0.36454365 0.016223328
-0.16995838 -0.36442065 0.016227551
-0.17011169 -0.36429429 0.016213082
-0.17026643 -0.36416721 0.016207878
-0.17042015 -0.36404043 0.016192235
-0.17057042 -0.36391759 0.016198792
-0.17072153 -0.36379379 0.016200662
