# .PCD v0.7 - Point Cloud Data file format
VERSION 0.7
FIELDS x y z
SIZE 4 4 4
TYPE F F F
COUNT 1 1 1
WIDTH 132
HEIGHT 1
VIEWPOINT 0 0 0 1 0 0 0
POINTS 132
DATA ascii
-0.21963087 -0.41195321 0.016346436
-0.21978837 -0.41182446 0.016351661
-0.21994822 -0.4116933 0.016345192
-0.22010727 -0.41156298 0.016343392
-0.22026464 -0.41143444 0.016350951
-0.22043112 -0.41129702 0.016326845
-0.22058609 -0.41116974 0.016318174
-0.22074491 -0.41104043 0.016335007
-0.22090614 -0.41090795 0.016325001
-0.22106346 -0.41077894 0.016320916
-0.2212214 -0.41065061 0.016343592
-0.22138536 -0.41051537 0.016321883
-0.22155336 -0.4103753 0.016266311
-0.22170658 -0.41025132 0.016299583
-0.22186911 -0.41011769 0.016287223
-0.22202623 -0.40998903 0.016287796
-0.222184 -0.4098604 0.016300004
-0.22235057 -0.40972325 0.016284047
-0.22250709 -0.40959534 0.016289296
-0.22266906 -0.40946239 0.016282761
-0.22282335 -0.40933681 0.01629971
-0.22298509 -0.40920481 0.016309485
-0.2231482 -0.40907079 0.01629944
-0.22331393 -0.40893409 0.016277682
-0.22347237 -0.4088043 0.016277062
-0.2236329 -0.40867305 0.016281046
-0.22379583 -0.40853932 0.016274497
-0.22395456 -0.40840995 0.01628783
-0.22412233 -0.40827131 0.016260199
-0.22428542 -0.4081375 0.016254805
-0.22443305 -0.40801895 0.016306847
-0.22459713 -0.40788418 0.016297936
-0.22476241 -0.40774822 0.016284343
-0.22492996 -0.40761 0.016261371
-0.22508898 -0.40748048 0.016277036
-0.22525182 -0.40734708 0.0162763
-0.2254075 -0.40721986 0.016281569
-0.2255784 -0.40707892 0.016259681
-0.22573978 -0.40694711 0.016267132
-0.22590399 -0.40681243 0.01626288
-0.22606778 -0.40667823 0.016260957
-0.22622791 -0.40654773 0.016275425
-0.22639419 -0.40641049 0.016251324
-0.22655594 -0.40627843 0.016259938
-0.22671893 -0.40614513 0.016263857
-0.22688539 -0.40600836 0.016253715
-0.22704782 -0.40587568 0.016261142
-0.22721571 -0.40573752 0.01624631
-0.22737192 -0.40561116 0.016280673
-0.22754067 -0.40547219 0.016263489
-0.22771372 -0.40532839 0.016217098
-0.14618431 -0.47214288 0.017337199
-0.14635003 -0.47200698 0.017332908
-0.14653131 -0.47185969 0.017358463
-0.14669387 -0.47172552 0.01733564
-0.1468607 -0.47158852 0.017326657
-0.14703029 -0.47144964 0.017326925
-0.14720662 -0.47130626 0.01734912
-0.14737476 -0.47116843 0.017345924
-0.14752689 -0.47104141 0.017291948
-0.14769909 -0.47090089 0.01730261
-0.14787108 -0.47076052 0.017313283
-0.14804181 -0.47062102 0.017320493
-0.14820758 -0.47048536 0.017322021
-0.14837639 -0.47034675 0.017314157
-0.14853992 -0.47021219 0.01729944
-0.14870857 -0.47007421 0.017302051
-0.14888056 -0.46993399 0.017316218
-0.14904331 -0.4698 0.017300362
-0.14920497 -0.46966723 0.017291524
-0.14937195 -0.46953043 0.017290689
-0.14953291 -0.46939769 0.017270228
-0.14971161 -0.46925315 0.017309815
-0.1498764 -0.46911791 0.017303217
-0.15003559 -0.46898642 0.01727815
-0.15019672 -0.46885368 0.017260006
-0.15036955 -0.46871313 0.017282292
-0.15053208 -0.46857947 0.017269943
-0.15070322 -0.46844015 0.01728761
-0.15086681 -0.4683063 0.017290356
-0.15102693 -0.46817431 0.017271075
-0.15119423 -0.46803758 0.017277215
-0.15136236 -0.46789986 0.01727635
-0.15152209 -0.46776867 0.017267562
-0.1516922 -0.46763018 0.017285259
-0.15185982 -0.46749333 0.01729488
-0.1520201 -0.46736184 0.01728957
-0.1521832 -0.46722803 0.017284175
-0.15234876 -0.46709263 0.017288029
-0.15250903 -0.46696073 0.017273407
-0.15267687 -0.46682388 0.017286513
-0.15283909 -0.46669072 0.017279979
-0.15299995 -0.46655852 0.017268833
-0.15316099 -0.46642619 0.017258842
-0.1533279 -0.46629006 0.017270811
-0.15349807 -0.4661518 0.017295487
-0.15364404 -0.46602938 0.017231202
-0.15380663 -0.46589661 0.017239792
-0.15397248 -0.46576077 0.017238976
-0.15413061 -0.46563146 0.017243035
-0.15429261 -0.46549866 0.017239999
-0.15445361 -0.46536654 0.0172335
-0.15461069 -0.46523646 0.017201498
-0.15478337 -0.46509731 0.017251715
-0.15494101 -0.46496794 0.017245304
-0.15510118 -0.46483642 0.017237663
-0.155266 -0.46470192 0.017248528
-0.15542211 -0.46457362 0.017237496
-0.15558308 -0.46444166 0.017234487
-0.15574336 -0.46431017 0.017229177
-0.1559038 -0.46417859 0.017225012
-0.15606298 -0.46404836 0.017227871
-0.15622434 -0.46391624 0.017228343
-0.156385 -0.46378461 0.017226513
-0.15655047 -0.46364936 0.017232701
-0.15670392 -0.46352345 0.017226398
-0.15686592 -0.46339101 0.017231505
-0.1570258 -0.46325994 0.017228525
-0.15718669 -0.46312827 0.017230179
-0.15734915 -0.46299562 0.017238766
-0.15750754 -0.46286556 0.017231174
-0.15766516 -0.46273658 0.017232902
-0.15782304 -0.46260688 0.017224165
-0.15798499 -0.46247467 0.017232763
-0.15814155 -0.46234584 0.017219398
-0.15830144 -0.46221551 0.017232712
-0.15845889 -0.4620862 0.017223975
-0.15861978 -0.46195471 0.01723028
-0.15878135 -0.46182287 0.017240059
-0.15893665 -0.46169549 0.017236039
-0.15909395 -0.46156636 0.017228477
-0.15925166 -0.46143696 0.017223224
