# .PCD v0.7 - Point Cloud Data file format
VERSION 0.7
FIELDS x y z
SIZE 4 4 4
TYPE F F F
COUNT 1 1 1
WIDTH 132
HEIGHT 1
VIEWPOINT 0 0 0 1 0 0 0
POINTS 132
DATA ascii
-0.22866295 -0.40888831 0.016326975
-0.22882406 -0.40875605 0.016321631
-0.22898231 -0.40862671 0.016329166
-0.22914757 -0.4084903 0.016307421
-0.22930913 -0.40835768 0.016302077
-0.22946973 -0.40822604 0.016301397
-0.2296285 -0.40809625 0.016308919
-0.2297903 -0.40796292 0.016291926
-0.22995216 -0.40783009 0.016287724
-0.23011956 -0.40769172 0.016261272
-0.14878446 -0.47438967 0.017291138
-0.14895208 -0.47425202 0.017284475
-0.14911614 -0.47411722 0.017276745
-0.14928594 -0.47397858 0.01728748
-0.14945334 -0.47384155 0.017291304
-0.14962105 -0.47370392 0.01728696
-0.14978266 -0.47357088 0.017273474
-0.14995268 -0.4734326 0.017297015
-0.15011667 -0.47329757 0.017282296
-0.15027405 -0.473167 0.017246794
-0.15045518 -0.47302088 0.017297981
-0.15061836 -0.47288644 0.017282123
-0.15078175 -0.47275278 0.01728721
-0.1509475 -0.47261667 0.017280597
-0.15110992 -0.4724828 0.017263589
-0.15127411 -0.47234821 0.017262837
-0.15144011 -0.47221199 0.017258547
-0.15161121 -0.47207236 0.017271578
-0.15177505 -0.47193855 0.017281307
-0.15194151 -0.47180164 0.017270025
-0.15209147 -0.47167668 0.017224245
-0.152265 -0.47153553 0.017247684
-0.15243155 -0.47139952 0.017258512
-0.1525948 -0.47126532 0.017248474
-0.15275763 -0.47113183 0.017247757
-0.15292099 -0.47099805 0.017249346
-0.15308455 -0.47086415 0.017252102
-0.15324923 -0.47072902 0.017249007
-0.15341046 -0.47059673 0.017244838
-0.15357156 -0.47046405 0.017230196
-0.15373717 -0.47032887 0.017242208
-0.15390626 -0.4701905 0.01724598
-0.15406528 -0.4700602 0.017246522
-0.15423077 -0.46992424 0.017238755
-0.15439315 -0.46979082 0.017231058
-0.15455212 -0.46966016 0.017222293
-0.15472004 -0.46952361 0.017245887
-0.1548833 -0.46938968 0.017242828
-0.15504186 -0.46925935 0.017234072
-0.15519981 -0.46912849 0.017202057
-0.15536262 -0.46899539 0.017209481
-0.1555406 -0.46885189 0.01726192
-0.15568966 -0.46872836 0.017231286
-0.15585117 -0.46859574 0.017224781
-0.15600991 -0.46846542 0.017219521
-0.1561771 -0.4683291 0.017234983
-0.15634008 -0.46819556 0.017235424
-0.15650135 -0.46806318 0.017230086
-0.15665989 -0.46793306 0.01722599
-0.15682122 -0.46780068 0.017221812
-0.15698166 -0.46766937 0.017225817
-0.15714444 -0.46753559 0.017216951
-0.1573045 -0.46740407 0.017209316
-0.15746665 -0.46727175 0.017221417
-0.15762201 -0.46714383 0.017208092
-0.15778679 -0.46700934 0.017220128
-0.15795588 -0.4668721 0.017249504
-0.15811262 -0.46674284 0.017231483
-0.15826155 -0.46661863 0.017183397
-0.15842848 -0.46648338 0.017217502
-0.15859021 -0.46635151 0.017231936
-0.15874827 -0.46622148 0.01722087
-0.1589068 -0.46609169 0.017223746
-0.15906899 -0.46595907 0.017230026
-0.15923247 -0.46582565 0.017242095
-0.15939093 -0.46569544 0.017234512
-0.15954837 -0.46556646 0.017235095
-0.15970659 -0.46543646 0.017227504
-0.15987039 -0.46530291 0.017243067
-0.16002668 -0.4651742 0.017228547
-0.16018254 -0.46504629 0.017224511
-0.16033733 -0.46491802 0.017192576
-0.16050884 -0.46478024 0.017254487
-0.16066526 -0.46465153 0.017242294
-0.16081899 -0.46452504 0.01723133
-0.16097824 -0.46439457 0.017231867
-0.16113423 -0.46426672 0.017231328
-0.16129217 -0.46413711 0.017227247
-0.16145079 -0.46400708 0.017226631
-0.16160689 -0.46387869 0.017215617
-0.16176459 -0.46374983 0.017224334
-0.16192421 -0.46361926 0.017229522
-0.16207901 -0.4634923 0.017226685
-0.16223574 -0.46336356 0.017220303
-0.16239291 -0.46323457 0.017216235
-0.1625492 -0.46310616 0.017208707
-0.16270436 -0.46297905 0.017209347
-0.16286173 -0.46285 0.017207604
-0.16301334 -0.46272513 0.017193215
-0.16317026 -0.46259642 0.017190311
-0.16332525 -0.46246946 0.017192129
-0.16348453 -0.46233934 0.017200816
-0.1636388 -0.46221289 0.017200312
-0.16379607 -0.46208405 0.017200898
-0.16395044 -0.46195698 0.017188761
-0.16411434 -0.46182355 0.017207809
-0.16425751 -0.46170396 0.017157543
-0.16440934 -0.46157911 0.017147802
-0.16456723 -0.46145058 0.017166996
-0.16472365 -0.46132237 0.017166436
-0.16487689 -0.46119672 0.017164808
-0.1650319 -0.46106941 0.017158475
-0.16518521 -0.46094376 0.017157994
-0.16533644 -0.46081877 0.017134294
-0.16550145 -0.46068549 0.017177748
-0.16564947 -0.46056309 0.017152973
-0.16580191 -0.46043804 0.017150193
-0.16595662 -0.46031103 0.017145026
-0.16610771 -0.46018684 0.017136464
-0.16626412 -0.46005884 0.017140565
-0.16641575 -0.45993435 0.01713549
-0.16657102 -0.4598071 0.017134957
-0.16672294 -0.45968246 0.017132193
-0.16687599 -0.45955658 0.017121259
-0.16703032 -0.45942992 0.017117262
-0.16718546 -0.45930281 0.017117906
-0.1673366 -0.45917875 0.017112833
-0.16749135 -0.45905191 0.017112326
-0.16764253 -0.45892784 0.017108411
-0.16779277 -0.45880434 0.017099869
-0.16794901 -0.4586767 0.017108634
-0.16810082 -0.45855233 0.017109364
