# .PCD v0.7 - Point Cloud Data file format
VERSION 0.7
FIELDS x y z
SIZE 4 4 4
TYPE F F F
COUNT 1 1 1
WIDTH 132
HEIGHT 1
VIEWPOINT 0 0 0 1 0 0 0
POINTS 132
DATA ascii
-0.21954179 -0.40279442 0.016459364
-0.21970578 -0.40265965 0.016451577
-0.21986431 -0.4025299 0.016455574
-0.22002666 -0.40239629 0.016443176
-0.22018519 -0.40226662 0.016448343
-0.22034869 -0.40213248 0.016445218
-0.22050746 -0.40200257 0.016450379
-0.22067066 -0.40186822 0.016436789
-0.2208313 -0.40173647 0.01643491
-0.22099346 -0.40160379 0.016439971
-0.22115275 -0.40147349 0.016445119
-0.22131354 -0.40134168 0.016444406
-0.22147942 -0.40120476 0.016422594
-0.2216399 -0.40107387 0.01643702
-0.22180054 -0.4009423 0.016438633
-0.22196215 -0.40080976 0.016436726
-0.22212419 -0.40067682 0.016433651
-0.22229278 -0.40053788 0.01641643
-0.22245228 -0.40040755 0.016425062
-0.14086881 -0.46731633 0.01745303
-0.1410373 -0.46717796 0.017446313
-0.14120108 -0.46704322 0.017435059
-0.1413641 -0.46690857 0.017412182
-0.14153862 -0.4667666 0.017435573
-0.14171027 -0.46662572 0.017431103
-0.14187394 -0.46649069 0.017411701
-0.14204368 -0.4663516 0.017411934
-0.14221142 -0.46621388 0.017406397
-0.14238262 -0.46607384 0.017412409
-0.14255005 -0.46593636 0.017406881
-0.14272484 -0.46579397 0.017425604
-0.14289032 -0.46565834 0.017424786
-0.14304197 -0.46553153 0.017369615
-0.14322191 -0.46538574 0.017406836
-0.14339206 -0.46524656 0.017412877
-0.14355327 -0.4651134 0.017390048
-0.14371961 -0.46497685 0.017384548
-0.14388859 -0.4648385 0.017388292
-0.14405602 -0.46470127 0.017387422
-0.14422986 -0.46455976 0.01740849
-0.14438902 -0.46442807 0.017381065
-0.14455158 -0.46429458 0.017375663
-0.14472079 -0.46415624 0.017382892
-0.14488204 -0.46402368 0.017374035
-0.14505059 -0.46388584 0.017380118
-0.14521654 -0.46374926 0.017367646
-0.14538106 -0.46361411 0.017361034
-0.14554848 -0.46347755 0.017375289
-0.14571436 -0.46334156 0.017374463
-0.14587811 -0.46320704 0.0173667
-0.14604369 -0.46307129 0.017365869
-0.14620847 -0.46293658 0.017373215
-0.14636981 -0.46280366 0.017358534
-0.14653267 -0.46266979 0.017349634
-0.14669742 -0.46253422 0.017337196
-0.1468603 -0.46240085 0.017339937
-0.14702892 -0.46226326 0.017352998
-0.14718963 -0.46213087 0.017338336
-0.14735119 -0.46199796 0.017327141
-0.14751615 -0.46186283 0.017328657
-0.14767842 -0.46172947 0.017320935
-0.14784405 -0.46159399 0.017325934
-0.14800826 -0.4614594 0.017326303
-0.14817107 -0.46132579 0.017322065
-0.14833435 -0.46119186 0.017320136
-0.14849973 -0.46105662 0.017326303
-0.14866026 -0.46092457 0.017315134
-0.14883539 -0.46078253 0.01734782
-0.14898887 -0.46065506 0.017311223
-0.14915013 -0.46052206 0.017293053
-0.1493261 -0.46038008 0.017342011
-0.14948021 -0.46025229 0.017308896
-0.14963737 -0.460123 0.017298978
-0.14979918 -0.45999026 0.017295927
-0.14996055 -0.45985782 0.017291717
-0.15012361 -0.45972431 0.017294455
-0.15028593 -0.4595913 0.017294871
-0.15044662 -0.45945936 0.017289519
-0.15060927 -0.45932618 0.017292269
-0.1507715 -0.45919332 0.017293856
-0.15093504 -0.45905963 0.017301232
-0.15109465 -0.45892847 0.017293589
-0.15125647 -0.45879591 0.017295189
-0.15141527 -0.45866531 0.017285224
-0.15158233 -0.45852947 0.017308813
-0.15173945 -0.45839998 0.017293073
-0.15189791 -0.45826966 0.017283119
-0.15205881 -0.45813781 0.017283581
-0.15222016 -0.45800573 0.017286364
-0.15238222 -0.45787317 0.017292619
-0.15253995 -0.45774341 0.017281525
-0.15270345 -0.45761001 0.017294724
-0.15286095 -0.45748043 0.017283633
-0.15302223 -0.4573485 0.017288737
-0.15317924 -0.45721924 0.017276501
-0.15333919 -0.45708817 0.01727698
-0.15349847 -0.45695758 0.017275156
-0.15365708 -0.45682737 0.017271031
-0.15381506 -0.45669761 0.017264578
-0.15397158 -0.45656878 0.017252356
-0.1541293 -0.45643866 0.017233111
-0.15429789 -0.45630234 0.017274108
-0.15445228 -0.45617548 0.017266592
-0.15460944 -0.45604631 0.017259004
-0.15476626 -0.45591742 0.017250262
-0.15493107 -0.45578358 0.017277397
-0.15508246 -0.45565745 0.017232714
-0.15523639 -0.45553097 0.01722521
-0.15539874 -0.45539874 0.017243087
-0.15555793 -0.45526788 0.017234284
-0.15571466 -0.4551391 0.017227868
-0.15586947 -0.45501217 0.017226161
-0.15602727 -0.4548828 0.017225545
-0.15618321 -0.45475462 0.017216818
-0.15633732 -0.45462754 0.017199999
-0.15649384 -0.45449904 0.017194755
-0.15665348 -0.45436865 0.017204564
-0.15681054 -0.45423985 0.017202798
-0.15696773 -0.45411098 0.017202191
-0.15712142 -0.45398426 0.017185379
-0.15727794 -0.45385584 0.017182469
-0.15743269 -0.45372853 0.017171454
-0.15759024 -0.45359954 0.017174324
-0.15774554 -0.45347193 0.017166784
-0.15790239 -0.45334339 0.017167354
-0.15805727 -0.45321608 0.017158665
-0.15821512 -0.453087 0.017165029
-0.15837099 -0.45295912 0.017162126
-0.15852769 -0.45283076 0.01716386
-0.15868314 -0.45270318 0.017159816
-0.15883964 -0.452575 0.017161556
-0.15899141 -0.45245028 0.017154109
