# .PCD v0.7 - Point Cloud Data file format
VERSION 0.7
FIELDS x y z
SIZE 4 4 4
TYPE F F F
COUNT 1 1 1
WIDTH 106
HEIGHT 1
VIEWPOINT 0 0 0 1 0 0 0
POINTS 106
DATA ascii
-0.12578689 -0.37225819 0.036032874
-0.12591279 -0.37215528 0.036038868
-0.12603694 -0.37205419 0.036053047
-0.12616195 -0.37195152 0.036047421
-0.12675124 -0.37144533 0.035539504
-0.12687638 -0.37134394 0.035565313
-0.12712565 -0.37114146 0.03560413
-0.12724933 -0.37104034 0.035609022
-0.12737483 -0.37093741 0.035606876
-0.12750033 -0.37083447 0.03560473
-0.12762447 -0.37073159 0.035579342
-0.12774725 -0.37062868 0.035529539
-0.12787271 -0.37052572 0.035526231
-0.12797372 -0.37041834 0.03498929
-0.12808885 -0.37031648 0.034825616
-0.1285248 -0.37001336 0.036006074
-0.12864554 -0.36991465 0.03601104
-0.12877098 -0.36981225 0.03601937
-0.12889422 -0.36971173 0.036030091
-0.12901732 -0.36961126 0.036038481
-0.12914212 -0.36950883 0.036035191
-0.12926668 -0.36940634 0.03602609
-0.12938976 -0.36930591 0.036035646
-0.12951685 -0.36920166 0.036033459
-0.1296386 -0.3691009 0.036011625
-0.12976366 -0.36899859 0.036015309
-0.12988518 -0.36889771 0.035986505
-0.13000962 -0.36879516 0.035973903
-0.13013333 -0.36869505 0.036002077
-0.13025884 -0.36859301 0.036019713
-0.1303817 -0.36849266 0.036026955
-0.13050528 -0.3683897 0.035989933
-0.13062958 -0.36828706 0.035972696
-0.13075551 -0.36818537 0.036005452
-0.13109025 -0.36785895 0.034868687
-0.13121624 -0.36775571 0.034868859
-0.13134316 -0.36765331 0.034903932
-0.13147993 -0.36756444 0.035410162
-0.13160366 -0.36746413 0.035433676
-0.13172999 -0.36736244 0.035473414
-0.13185337 -0.36726198 0.035487615
-0.13197853 -0.36715907 0.035479657
-0.13210155 -0.36705819 0.035478745
-0.13222645 -0.36695489 0.035457991
-0.13235128 -0.36685133 0.035430256
-0.1324767 -0.36674872 0.035433933
-0.13272707 -0.36651587 0.034830187
-0.13310763 -0.3662549 0.035939943
-0.13323265 -0.36615318 0.035955273
-0.13335547 -0.3660537 0.035981126
-0.13348038 -0.3659519 0.035992969
-0.1336031 -0.3658523 0.036014177
-0.13372776 -0.36574957 0.036001582
-0.13385242 -0.36564657 0.035983164
-0.13397719 -0.36554408 0.035977546
-0.134102 -0.36544174 0.035976578
-0.13422677 -0.36533898 0.035965137
-0.13435391 -0.36523524 0.035974588
-0.13449682 -0.36511588 0.035925429
-0.13520093 -0.36382967 0.02045799
-0.13532872 -0.36372665 0.020495361
-0.13545918 -0.36362007 0.020502396
-0.1355972 -0.36350808 0.020526694
-0.13573301 -0.36339569 0.020502165
-0.1358707 -0.36328551 0.020560227
-0.13601369 -0.36316967 0.020589048
-0.1361527 -0.36306277 0.020742523
-0.13628261 -0.36295798 0.020778676
-0.13643059 -0.36282837 0.020596679
-0.13657495 -0.36270654 0.020519536
-0.13671561 -0.3625918 0.020530954
-0.13685599 -0.36247805 0.020558683
-0.13699538 -0.36236078 0.020492151
-0.13713588 -0.36224657 0.020512896
-0.13727888 -0.36213043 0.020535894
-0.13742192 -0.36201411 0.020555401
-0.13758065 -0.36188424 0.020559365
-0.13772777 -0.36176667 0.020624163
-0.13821501 -0.36187389 0.031670667
-0.13833642 -0.36177611 0.031708214
-0.13846444 -0.36167356 0.031759541
-0.13871971 -0.36165413 0.035897888
-0.13884096 -0.36155722 0.035950564
-0.13896567 -0.36145577 0.035967059
-0.1390902 -0.36135468 0.035988223
-0.13921514 -0.36125273 0.03599773
-0.13934116 -0.36114863 0.035979278
-0.13946587 -0.36104721 0.035995785
-0.13958859 -0.36094701 0.036004182
-0.13971426 -0.36084372 0.03599738
-0.13984025 -0.36073986 0.035983577
-0.13996877 -0.36063367 0.035965059
-0.14040133 -0.36022648 0.034815241
-0.14052869 -0.36012155 0.034802571
-0.14064652 -0.36004204 0.035174277
-0.14076233 -0.35994843 0.035202652
-0.14088455 -0.35984999 0.035240166
-0.1410109 -0.35974652 0.035241496
-0.14113638 -0.35964254 0.035216067
-0.14126314 -0.35954037 0.035253473
-0.14138488 -0.35944071 0.035256073
-0.14151716 -0.35933137 0.035235126
-0.14165473 -0.35922274 0.035324629
-0.14181525 -0.35906807 0.03481986
-0.14193095 -0.3589713 0.034777235
-0.14205323 -0.35887125 0.034780994
