# .PCD v0.7 - Point Cloud Data file format
VERSION 0.7
FIELDS x y z
SIZE 4 4 4
TYPE F F F
COUNT 1 1 1
WIDTH 130
HEIGHT 1
VIEWPOINT 0 0 0 1 0 0 0
POINTS 130
DATA ascii
-0.15856203 -0.37142947 0.020244328
-0.15870653 -0.37131143 0.020252189
-0.15884821 -0.37119582 0.020262443
-0.15897298 -0.37109464 0.020284783
-0.15912548 -0.37096733 0.020235416
-0.15927817 -0.37083989 0.020186044
-0.15942484 -0.3707231 0.020257827
-0.15956056 -0.3706167 0.020360161
-0.15968511 -0.37051323 0.020330137
-0.15982346 -0.37039819 0.020295111
-0.15996873 -0.37027678 0.020244764
-0.16011578 -0.37015438 0.020204851
-0.16026066 -0.37003738 0.020240627
-0.16041002 -0.36991456 0.020232055
-0.16055438 -0.36979577 0.020221299
-0.16070257 -0.36967334 0.020199968
-0.16084599 -0.36955577 0.020199716
-0.16098949 -0.3694382 0.020199452
-0.16113229 -0.3693215 0.020206185
-0.1612767 -0.36920512 0.020247784
-0.16141966 -0.36908823 0.020253355
-0.16155843 -0.36897776 0.020321865
-0.16170353 -0.36885825 0.020308755
-0.16185333 -0.36873963 0.020396758
-0.16202445 -0.36859575 0.020318981
-0.16218193 -0.36846218 0.020222936
-0.16232716 -0.36834264 0.020212155
-0.16246641 -0.36822942 0.020230625
-0.16261281 -0.36810958 0.020233775
-0.16274714 -0.36800236 0.020294258
-0.16290246 -0.36787385 0.020268081
-0.16305818 -0.36774284 0.020195367
-0.16390203 -0.36687705 0.016501237
-0.16404688 -0.36675867 0.016507916
-0.16419847 -0.36663431 0.01650512
-0.16434723 -0.36651233 0.016503558
-0.16450092 -0.36638555 0.016485574
-0.16465126 -0.36626276 0.016494432
-0.16479588 -0.36614579 0.016526723
-0.16494475 -0.36602378 0.016526319
-0.16510601 -0.36588818 0.01645346
-0.16524847 -0.36577281 0.016482305
-0.16539961 -0.36564922 0.016487662
-0.16554962 -0.36552602 0.016481407
-0.16570018 -0.36540216 0.016471654
-0.16585006 -0.36527917 0.016467733
-0.16600053 -0.36515644 0.016480088
-0.1661499 -0.36503407 0.016480831
-0.16630344 -0.36490786 0.016472163
-0.16645297 -0.36478534 0.0164729
-0.16660391 -0.36466128 0.0164643
-0.16675377 -0.36453843 0.016463868
-0.16690667 -0.36441308 0.016462199
-0.1670562 -0.36429068 0.016465267
-0.16720596 -0.36416805 0.016467169
-0.16735581 -0.36404535 0.016469069
-0.16750869 -0.36392009 0.016469719
-0.16765887 -0.36379707 0.016470451
-0.16781437 -0.36366892 0.016454738
-0.16796386 -0.36354673 0.016461309
-0.1681159 -0.36342168 0.01645151
-0.16826481 -0.36330017 0.016462736
-0.16842002 -0.36317247 0.016451692
-0.16857073 -0.363049 0.016452409
-0.16872187 -0.36292508 0.016450785
-0.16887312 -0.36280107 0.016449159
-0.16902819 -0.36267364 0.01644161
-0.16918036 -0.36254865 0.016435297
-0.16933189 -0.3624244 0.016433664
-0.16948822 -0.36229566 0.01642026
-0.16964258 -0.36216915 0.016419712
-0.16978826 -0.36205146 0.016455464
-0.16994342 -0.36192328 0.016433954
-0.17009436 -0.36179903 0.016421862
-0.17024928 -0.36167201 0.016420137
-0.17040031 -0.36154851 0.016425487
-0.17055482 -0.36142197 0.016427265
-0.17070702 -0.36129725 0.016426774
-0.17085952 -0.36117372 0.016457699
-0.17102605 -0.36103338 0.01637538
-0.17117085 -0.36091602 0.016403005
-0.17132099 -0.36079365 0.016416539
-0.17147712 -0.3606655 0.016412452
-0.17163116 -0.36053893 0.016404932
-0.17178607 -0.36041218 0.016409021
-0.171938 -0.3602879 0.016414355
-0.17209542 -0.3601585 0.016405586
-0.17224905 -0.3600325 0.016402725
-0.17240648 -0.35990313 0.016395116
-0.17255661 -0.35978019 0.016397007
-0.17271432 -0.3596513 0.016404523
-0.17287077 -0.35952237 0.016388787
-0.17302912 -0.35939214 0.016378835
-0.17318231 -0.35926676 0.016381806
-0.17333274 -0.35914361 0.016384851
-0.17348701 -0.35901713 0.016383145
-0.17364405 -0.35888842 0.016382525
-0.17380074 -0.35876009 0.016384248
-0.17395376 -0.35863501 0.016390715
-0.17410688 -0.35850984 0.016397178
-0.17426491 -0.35837948 0.016379081
-0.17441732 -0.35825515 0.016390225
-0.17457905 -0.35812229 0.016383663
-0.17473282 -0.35799652 0.016388951
-0.17488419 -0.35787401 0.016421054
-0.17504591 -0.35773993 0.016387738
-0.17520218 -0.35761228 0.016396452
-0.17535898 -0.35748342 0.016388856
-0.17551544 -0.35735497 0.016383603
-0.17566963 -0.35722893 0.016390041
-0.17583044 -0.35709661 0.016378852
-0.17598727 -0.35696787 0.016373586
-0.17614543 -0.35683838 0.01637643
-0.17630054 -0.35671148 0.016380511
-0.17646289 -0.35657769 0.016364632
-0.17661627 -0.35645264 0.016378071
-0.17677064 -0.35632721 0.016400795
-0.17693247 -0.35619342 0.016375618
-0.17709702 -0.35605684 0.016338738
-0.17725059 -0.3559317 0.016353343
-0.17740564 -0.35580564 0.016374879
-0.17756632 -0.35567316 0.016357873
-0.17772208 -0.35554644 0.016377069
-0.17788044 -0.35541642 0.016371766
-0.17804214 -0.35528362 0.016365213
-0.17819947 -0.35515469 0.016365748
-0.17835829 -0.35502493 0.016373225
-0.17851746 -0.35489419 0.016366739
-0.17867972 -0.35476092 0.016360162
-0.17883649 -0.35463268 0.016365372
