# .PCD v0.7 - Point Cloud Data file format
VERSION 0.7
FIELDS x y z
SIZE 4 4 4
TYPE F F F
COUNT 1 1 1
WIDTH 132
HEIGHT 1
VIEWPOINT 0 0 0 1 0 0 0
POINTS 132
DATA ascii
-0.22369549 -0.41365689 0.016477227
-0.2238408 -0.41353729 0.016468838
-0.2239818 -0.41342157 0.016468707
-0.22412421 -0.41330445 0.016462732
-0.22426386 -0.41319019 0.016469618
-0.22440967 -0.41307017 0.016461227
-0.22455564 -0.4129495 0.016441187
-0.22469537 -0.41283521 0.016449232
-0.22483492 -0.41272113 0.016458452
-0.22497882 -0.41260314 0.016460579
-0.22511911 -0.41248834 0.016467448
-0.22526923 -0.4123641 0.016443813
-0.2254135 -0.41224581 0.016445931
-0.22555168 -0.41213325 0.016463328
-0.22569224 -0.41201773 0.016459718
-0.22584213 -0.41189384 0.016439579
-0.22598338 -0.41177821 0.016445266
-0.22612672 -0.41166049 0.016442748
-0.22627059 -0.41154274 0.016449537
-0.2264109 -0.41142863 0.016471528
-0.15405287 -0.47083774 0.01732694
-0.15420204 -0.47071543 0.017328901
-0.1543459 -0.47059676 0.017314708
-0.15449443 -0.47047493 0.017315526
-0.15464719 -0.47035027 0.017330199
-0.15479541 -0.47022867 0.017331026
-0.15493983 -0.4701097 0.01732032
-0.15508558 -0.46998984 0.017314227
-0.15523121 -0.46987006 0.01730814
-0.1553767 -0.4697504 0.017302055
-0.15553965 -0.4696182 0.017335072
-0.15568426 -0.46949959 0.01733599
-0.15582576 -0.46938267 0.017318375
-0.15597107 -0.46926323 0.017313456
-0.15611799 -0.46914274 0.017314317
-0.15626337 -0.46902326 0.017310565
-0.15640932 -0.46890345 0.01730912
-0.15655269 -0.46878538 0.0172996
-0.15670627 -0.46866009 0.017315412
-0.15684973 -0.46854201 0.017307058
-0.15699479 -0.46842286 0.017304476
-0.15713835 -0.46830475 0.017297272
-0.15728419 -0.46818513 0.017298158
-0.15743363 -0.46806312 0.017311756
-0.15758049 -0.46794245 0.017307956
-0.15772624 -0.46782294 0.017310016
-0.15786749 -0.46770647 0.017297059
-0.1580123 -0.46758762 0.017296804
-0.15816236 -0.46746534 0.017315036
-0.15830557 -0.46734762 0.01731018
-0.15844965 -0.46722934 0.017308783
-0.15859561 -0.46710983 0.017314319
-0.15873978 -0.4669911 0.017304778
-0.15888873 -0.46686965 0.017321877
-0.15903884 -0.46674746 0.017343599
-0.15918098 -0.46663013 0.017328288
-0.15931582 -0.46651852 0.017306194
-0.15946452 -0.46639735 0.017324463
-0.15961376 -0.46627539 0.017335735
-0.15975669 -0.46615806 0.017334364
-0.15989694 -0.46604249 0.017323764
-0.16003932 -0.46592557 0.017321251
-0.16018832 -0.46580386 0.017333688
-0.16032888 -0.46568817 0.017325411
-0.1604732 -0.46556959 0.017321676
-0.16062406 -0.46544763 0.017362
-0.16075927 -0.46533546 0.017335236
-0.16090278 -0.46521792 0.017339673
-0.16104445 -0.46510112 0.017327866
-0.16118589 -0.46498498 0.017325375
-0.16132812 -0.46486831 0.017326355
-0.16146933 -0.46475235 0.01732387
-0.16161102 -0.46463606 0.017323704
-0.16175352 -0.46451929 0.017327007
-0.16189529 -0.46440303 0.017328
-0.16203573 -0.46428761 0.017324373
-0.16218048 -0.46416903 0.01732761
-0.16232041 -0.46405399 0.017322838
-0.16245905 -0.46393979 0.017313438
-0.16260085 -0.46382359 0.017316759
-0.16274047 -0.46370882 0.017311985
-0.16288498 -0.46359092 0.017326869
-0.16302578 -0.46347496 0.017317412
-0.16316712 -0.46335915 0.017320747
-0.1633043 -0.46324602 0.017307892
-0.1634437 -0.46313146 0.017304294
-0.163583 -0.46301702 0.017300699
-0.16372333 -0.46290192 0.017301727
-0.1638647 -0.46278569 0.017296907
-0.16400483 -0.46267077 0.01729794
-0.16414569 -0.46255541 0.017302455
-0.16428392 -0.46244171 0.017296556
-0.1644249 -0.46232581 0.017291749
-0.16456486 -0.46221107 0.017293956
-0.16470225 -0.46209797 0.017285749
-0.16484094 -0.46198407 0.017283328
-0.16498262 -0.46186781 0.017283162
-0.16512382 -0.46175238 0.017292319
-0.16526192 -0.4616389 0.017288744
-0.16539073 -0.46153125 0.017245859
-0.16553554 -0.46141312 0.017260736
-0.16567874 -0.4612965 0.017280314
-0.16581221 -0.46118599 0.017258244
-0.16594748 -0.46107438 0.017244279
-0.16608812 -0.46095893 0.017242968
-0.16622692 -0.46084514 0.017245207
-0.16636351 -0.46073273 0.017238189
-0.16650264 -0.46061879 0.017242739
-0.16664186 -0.46050429 0.017236814
-0.16678078 -0.46039051 0.01724137
-0.16691807 -0.46027777 0.017238986
-0.1670555 -0.46016493 0.017237768
-0.16719362 -0.46005118 0.01722838
-0.16732986 -0.45993912 0.017222531
-0.16746907 -0.45982528 0.01723057
-0.1676044 -0.45971382 0.017221265
-0.16774319 -0.45959973 0.017216511
-0.16787837 -0.45948836 0.0172072
-0.16801521 -0.45937604 0.017205996
-0.16815294 -0.45926318 0.017209422
-0.16829139 -0.45914939 0.017204676
-0.16842847 -0.45903698 0.017205799
-0.16856746 -0.45892286 0.017204531
-0.16870171 -0.45881218 0.017192923
-0.16883852 -0.45869997 0.01719404
-0.16897452 -0.45858827 0.017191689
-0.16911295 -0.45847458 0.017189275
-0.16924903 -0.45836288 0.017188091
-0.16938385 -0.45825192 0.017181119
-0.16952071 -0.45813981 0.017184567
-0.16965905 -0.45802623 0.017183315
-0.16979295 -0.4579159 0.017172877
