# .PCD v0.7 - Point Cloud Data file format
VERSION 0.7
FIELDS x y z
SIZE 4 4 4
TYPE F F F
COUNT 1 1 1
WIDTH 132
HEIGHT 1
VIEWPOINT 0 0 0 1 0 0 0
POINTS 132
DATA ascii
-0.21995339 -0.41762874 0.016060073
-0.22008528 -0.41752058 0.016060166
-0.22021364 -0.41741562 0.016066175
-0.22034766 -0.41730529 0.016056901
-0.2204735 -0.41720295 0.016075777
-0.22060651 -0.41709375 0.016072351
-0.22073428 -0.41698894 0.016071392
-0.2208675 -0.41687953 0.016067963
-0.22099538 -0.41677517 0.016078632
-0.22112815 -0.41666579 0.016067062
-0.22125773 -0.4165597 0.016070718
-0.22138934 -0.41645205 0.016076632
-0.22152001 -0.41634539 0.016087238
-0.22166002 -0.41622916 0.016055707
-0.22178939 -0.41612288 0.016051207
-0.22191724 -0.41601914 0.01607585
-0.22204584 -0.41591418 0.016086502
-0.22217977 -0.41580379 0.016073741
-0.22231226 -0.41569489 0.016068008
-0.22244678 -0.41558444 0.016064543
-0.2225779 -0.41547698 0.016065819
-0.22270997 -0.41536906 0.016074061
-0.22284156 -0.41526115 0.016074162
-0.22297895 -0.41514787 0.016060151
-0.22310942 -0.41504115 0.016066104
-0.22324216 -0.41493264 0.016073158
-0.22337556 -0.414823 0.016067393
-0.22350633 -0.41471604 0.016073337
-0.22364107 -0.41460508 0.016062886
-0.22377619 -0.41449425 0.016061734
-0.22390811 -0.41438618 0.01606416
-0.22404008 -0.41427854 0.016077055
-0.22417277 -0.41416973 0.016077127
-0.22431317 -0.41405368 0.016056057
-0.15723518 -0.46910757 0.01722924
-0.15737523 -0.46899274 0.017229095
-0.15751551 -0.46887776 0.017230101
-0.15765601 -0.46876267 0.017232273
-0.15780038 -0.46864495 0.017247144
-0.15793802 -0.46853182 0.01724124
-0.15807553 -0.46841881 0.017235346
-0.15821435 -0.4683049 0.017234061
-0.15835954 -0.46818674 0.017253563
-0.15849665 -0.46807441 0.017255822
-0.15863433 -0.46796137 0.017252246
-0.15877295 -0.46784768 0.017252136
-0.15891072 -0.46773461 0.017249728
-0.15905333 -0.46761829 0.017263476
-0.15919118 -0.46750522 0.017262226
-0.15933031 -0.46739128 0.017265592
-0.15946859 -0.46727794 0.01726665
-0.15960987 -0.46716261 0.017278114
-0.15974578 -0.46705091 0.017272253
-0.15988329 -0.46693814 0.017272171
-0.16001758 -0.46682757 0.017261703
-0.16016002 -0.46671155 0.017278945
-0.1602992 -0.46659774 0.017285801
-0.16042869 -0.46649042 0.017260334
-0.1605728 -0.46637297 0.017276375
-0.16070494 -0.46626467 0.017277593
-0.16084291 -0.46615174 0.01728216
-0.16097502 -0.46604273 0.017267097
-0.1611114 -0.46593091 0.017267045
-0.16124697 -0.46581963 0.017264683
-0.16138476 -0.46570691 0.017270416
-0.16152109 -0.46559519 0.017271522
-0.16165696 -0.46548378 0.017271496
-0.16179173 -0.4653731 0.017267995
-0.16192736 -0.46526191 0.017267961
-0.16206579 -0.46514887 0.017278329
-0.16219953 -0.46503893 0.017272523
-0.16233157 -0.46493015 0.017260952
-0.16246897 -0.46481785 0.017269026
-0.16260496 -0.46470648 0.017272472
-0.16273922 -0.4645963 0.017270146
-0.16287082 -0.46448788 0.017258586
-0.16300772 -0.46437597 0.017266661
-0.16314638 -0.46426296 0.017281683
-0.16328017 -0.46415314 0.017279368
-0.16341166 -0.46404487 0.017268971
-0.16354837 -0.4639332 0.017278222
-0.16368739 -0.46382001 0.017296724
-0.16382134 -0.46371019 0.017296735
-0.16395426 -0.46360105 0.017293284
-0.16408981 -0.46349022 0.017300233
-0.16422555 -0.46337926 0.017308339
-0.16435781 -0.4632706 0.017303744
-0.1644921 -0.46316066 0.017307237
-0.16462475 -0.4630518 0.017304961
-0.16475791 -0.4629426 0.017304994
-0.16489035 -0.46283391 0.017302714
-0.16502449 -0.46272412 0.01730738
-0.16515553 -0.46261635 0.017300485
-0.16528678 -0.4625085 0.017294746
-0.16541676 -0.46240145 0.017284388
-0.16555367 -0.46228996 0.017301776
-0.16568783 -0.46218029 0.017308772
-0.16581932 -0.4620719 0.017296044
-0.16594921 -0.46196496 0.017286848
-0.16608161 -0.46185645 0.01728807
-0.16621304 -0.4617486 0.017285816
-0.16634977 -0.46163735 0.017305538
-0.16647446 -0.46153381 0.017276704
-0.16660139 -0.46142888 0.017257117
-0.16673638 -0.46131882 0.017271062
-0.1668676 -0.46121117 0.017269984
-0.16699956 -0.46110308 0.017272377
-0.16713059 -0.46099558 0.017271305
-0.16726097 -0.46088853 0.017267916
-0.16739182 -0.46078119 0.01726684
-0.16752256 -0.46067393 0.017265774
-0.16765457 -0.46056589 0.017270494
-0.1677843 -0.46045932 0.017265953
-0.16791369 -0.46035299 0.017260272
-0.16804379 -0.46024621 0.017258054
-0.16817273 -0.46014017 0.017251223
-0.1683016 -0.46003419 0.017244376
-0.16843276 -0.45992681 0.01724796
-0.16856329 -0.45981982 0.017249219
-0.16869321 -0.45971325 0.017248176
-0.16882356 -0.45960644 0.017249439
-0.16895354 -0.45949987 0.017249554
-0.16908164 -0.45939445 0.017241575
-0.16921325 -0.45928693 0.017249798
-0.16934273 -0.45918071 0.017248757
-0.16947444 -0.45907265 0.017247666
-0.16960196 -0.45896769 0.017238541
-0.16973217 -0.45886108 0.017242141
-0.16986229 -0.45875454 0.017245742
-0.16999181 -0.45864841 0.017247029
-0.17011951 -0.45854339 0.017240219
-0.17024763 -0.45843813 0.017235732
