# .PCD v0.7 - Point Cloud Data file format
VERSION 0.7
FIELDS x y z
SIZE 4 4 4
TYPE F F F
COUNT 1 1 1
WIDTH 129
HEIGHT 1
VIEWPOINT 0 0 0 1 0 0 0
POINTS 129
DATA ascii
-0.10228634 -0.39818865 0.017473768
-0.1024443 -0.39805922 0.017475493
-0.1025964 -0.39793402 0.017465729
-0.10275212 -0.39780605 0.017459374
-0.10290832 -0.39767832 0.017466955
-0.10306466 -0.39754999 0.017464062
-0.10322003 -0.39742228 0.017457714
-0.10337415 -0.39729595 0.01745837
-0.10353184 -0.39716685 0.017462434
-0.10368968 -0.39703766 0.017467655
-0.10384009 -0.39691371 0.017454443
-0.10399519 -0.39678627 0.017449263
-0.10414735 -0.39666128 0.017444158
-0.10430472 -0.39653248 0.017449381
-0.10445695 -0.39640746 0.017445443
-0.1046108 -0.39628088 0.017436795
-0.10476337 -0.39615571 0.017435171
-0.10491864 -0.39602831 0.017433476
-0.1050718 -0.39590281 0.017435327
-0.10522658 -0.39577577 0.017432474
-0.10537819 -0.39565125 0.017428543
-0.10553144 -0.39552519 0.017419921
-0.10568416 -0.39540005 0.017421782
-0.10583906 -0.39527303 0.017421259
-0.10599384 -0.39514607 0.017420737
-0.10613992 -0.39502448 0.017382044
-0.10629868 -0.39489514 0.017400043
-0.10645837 -0.39476585 0.017435459
-0.10660683 -0.39464343 0.017421139
-0.10675955 -0.39451787 0.017413689
-0.10690939 -0.39439467 0.017406324
-0.10706243 -0.39426893 0.017401187
-0.10721487 -0.39414418 0.017406547
-0.10737298 -0.39401543 0.017425723
-0.10752945 -0.3938877 0.017437959
-0.10767363 -0.39376739 0.017393496
-0.10781892 -0.39364764 0.017380428
-0.10797534 -0.39352 0.017393824
-0.10812552 -0.39339614 0.017378291
-0.10827856 -0.39327058 0.017376654
-0.10843089 -0.39314607 0.017385507
-0.1123993 -0.39068317 0.034417775
-0.11271551 -0.39043635 0.034686498
-0.11285006 -0.39032727 0.034713265
-0.11299399 -0.39021155 0.034763053
-0.11312734 -0.39010325 0.034785196
-0.11326054 -0.38999391 0.034782905
-0.11339459 -0.38988411 0.034785252
-0.11352649 -0.38977557 0.034777179
-0.11365819 -0.38966775 0.034780748
-0.11378973 -0.38955945 0.034771517
-0.11392149 -0.38945162 0.034776255
-0.11405469 -0.3893424 0.034776293
-0.11418495 -0.3892355 0.034774076
-0.11431754 -0.38912666 0.034771807
-0.11444832 -0.38901949 0.034773067
-0.11458054 -0.38891089 0.034769639
-0.11471052 -0.38880423 0.034767441
-0.11484324 -0.38869539 0.034767494
-0.11497612 -0.38858649 0.034768701
-0.11510763 -0.38847837 0.034762971
-0.11523519 -0.38837314 0.034749191
-0.11536828 -0.38826418 0.034752723
-0.11549826 -0.38815761 0.034752842
-0.11563139 -0.38804865 0.034757532
-0.11576059 -0.38794255 0.034754183
-0.11589296 -0.38783407 0.034755412
-0.11602306 -0.3877275 0.03475786
-0.11615445 -0.38761961 0.034754455
-0.1162836 -0.38751361 0.034752268
-0.11641587 -0.38740525 0.03475466
-0.11654588 -0.38729879 0.03475827
-0.1166774 -0.38719091 0.034757189
-0.11680628 -0.38708514 0.03475501
-0.11693807 -0.38697711 0.034756254
-0.11706764 -0.38687035 0.034744747
-0.11719891 -0.38676265 0.034743674
-0.11732889 -0.38665634 0.034749616
-0.11745907 -0.38654926 0.03474275
-0.11758538 -0.3864443 0.034712721
-0.1177205 -0.38633394 0.034722012
-0.11785347 -0.38622475 0.034718566
-0.11797597 -0.38612184 0.034665361
-0.11809434 -0.38602245 0.034615755
-0.11821901 -0.38591975 0.034605544
-0.11834709 -0.38581318 0.034571968
-0.1184719 -0.38570902 0.03453267
-0.11859743 -0.38560516 0.034513123
-0.1187303 -0.38549751 0.0345411
-0.11887911 -0.38537878 0.034611706
-0.11901683 -0.38526869 0.034673296
-0.11914888 -0.38516015 0.034667544
-0.11927119 -0.38505879 0.034644596
-0.11938915 -0.38495964 0.034592673
-0.11951395 -0.38485554 0.034554534
-0.11964783 -0.38474685 0.034577828
-0.11976587 -0.38464838 0.034542181
-0.1198991 -0.38454008 0.034562003
-0.12002734 -0.38443577 0.03458079
-0.12016182 -0.38432842 0.034643624
-0.12029628 -0.38422114 0.034707621
-0.12042505 -0.38411593 0.034715921
-0.12055544 -0.38400918 0.034719523
-0.12068278 -0.38390473 0.034718554
-0.12081224 -0.38379848 0.034716357
-0.12093963 -0.38369402 0.034716547
-0.12106682 -0.38358968 0.034715578
-0.12119442 -0.38348517 0.034718093
-0.12132277 -0.38337949 0.034708943
-0.12145027 -0.38327506 0.034711462
-0.12157772 -0.38317066 0.034713976
-0.12170359 -0.38306704 0.034704894
-0.12183268 -0.38296106 0.034702718
-0.12196043 -0.38285661 0.034708709
-0.12209016 -0.38275039 0.034712337
-0.12221706 -0.38264635 0.034712534
-0.12234391 -0.38254234 0.034712739
-0.12247071 -0.38243839 0.03471294
-0.12260009 -0.38233241 0.034715399
-0.12272664 -0.38222858 0.034714449
-0.12285607 -0.38212264 0.034718074
-0.12298337 -0.38201851 0.034724087
-0.12311063 -0.38191444 0.034730099
-0.12323796 -0.38181037 0.034737267
-0.12336265 -0.38170651 0.034702621
-0.123483 -0.38160542 0.034650635
-0.12361207 -0.38149968 0.034653112
-0.12373781 -0.38139632 0.034647521
-0.12386234 -0.38129348 0.034631498
