# .PCD v0.7 - Point Cloud Data file format
VERSION 0.7
FIELDS x y z
SIZE 4 4 4
TYPE F F F
COUNT 1 1 1
WIDTH 132
HEIGHT 1
VIEWPOINT 0 0 0 1 0 0 0
POINTS 132
DATA ascii
-0.22411239 -0.41330439 0.016424762
-0.22425728 -0.41318485 0.016410582
-0.22440046 -0.4130671 0.016404588
-0.22454162 -0.41295144 0.016407967
-0.22468314 -0.41283596 0.016421806
-0.22482561 -0.41271901 0.016420489
-0.22497007 -0.41260004 0.016410971
-0.22511195 -0.41248372 0.01641316
-0.22525668 -0.41236454 0.016403645
-0.22539873 -0.41224864 0.016417472
-0.22553848 -0.41213456 0.016430188
-0.22568341 -0.41201472 0.016410187
-0.2258281 -0.41189569 0.016402991
-0.22597308 -0.41177687 0.016406272
-0.22611496 -0.41166073 0.016411953
-0.22626145 -0.41153994 0.016398892
-0.22640342 -0.41142425 0.016416211
-0.22655813 -0.41129524 0.016370343
-0.15398873 -0.47087917 0.017299624
-0.15413871 -0.47075626 0.017302785
-0.15428758 -0.47063375 0.017294334
-0.15443468 -0.47051281 0.017289428
-0.15459023 -0.47038582 0.017302928
-0.15474269 -0.47026092 0.017307198
-0.15489024 -0.47013935 0.017296448
-0.15503603 -0.4700194 0.017289247
-0.15518479 -0.46989709 0.017283138
-0.15533033 -0.46977735 0.017275933
-0.15548904 -0.46964794 0.017294012
-0.15564087 -0.46952441 0.017316921
-0.15578368 -0.46940619 0.017293492
-0.15592867 -0.46928689 0.01728631
-0.15607977 -0.46916312 0.017290615
-0.15622517 -0.46904358 0.017285751
-0.15637456 -0.46892101 0.017285438
-0.15651962 -0.46880135 0.017271264
-0.15667397 -0.46867549 0.017288286
-0.15681849 -0.46855664 0.017282285
-0.15696663 -0.46843496 0.017279673
-0.15710953 -0.46831724 0.017269054
-0.15725844 -0.46819511 0.017269913
-0.15740895 -0.46807232 0.017285874
-0.15755722 -0.46795067 0.017285589
-0.15770166 -0.467832 0.017281912
-0.15784661 -0.46771258 0.017271241
-0.15799282 -0.46759278 0.017274499
-0.15814558 -0.4674682 0.017291563
-0.15828882 -0.46735039 0.017285585
-0.15843494 -0.46723029 0.017280705
-0.15858425 -0.4671081 0.017287375
-0.15873472 -0.46698514 0.017298676
-0.15887976 -0.46686625 0.017300803
-0.15903223 -0.46674204 0.017320205
-0.15917473 -0.46662441 0.017304935
-0.15930997 -0.46651202 0.01727356
-0.15946129 -0.46638906 0.017299971
-0.15961152 -0.46626642 0.017313598
-0.15975225 -0.46615049 0.017303035
-0.15989614 -0.46603206 0.017294712
-0.16004214 -0.46591225 0.017294485
-0.16019119 -0.46579045 0.017305821
-0.16033208 -0.46567449 0.017297585
-0.16048223 -0.46555161 0.017304234
-0.1606306 -0.46543121 0.017334212
-0.16077158 -0.46531481 0.01731782
-0.16091618 -0.46519604 0.017315309
-0.1610579 -0.46507919 0.017302381
-0.16120028 -0.46496236 0.017302247
-0.16134486 -0.46484369 0.017300896
-0.16149053 -0.4647243 0.017304169
-0.16163273 -0.46460721 0.017294727
-0.16177617 -0.46448976 0.017300388
-0.16191816 -0.46437284 0.017290954
-0.16206016 -0.46425638 0.017292
-0.16220643 -0.46413675 0.017299918
-0.1623455 -0.46402219 0.017290557
-0.16248707 -0.46390563 0.017281134
-0.16263239 -0.46378663 0.017286744
-0.16277963 -0.46366644 0.017300449
-0.16292062 -0.46355078 0.017300351
-0.16306032 -0.46343547 0.017285163
-0.16320199 -0.46331939 0.01728854
-0.16334496 -0.463202 0.017287219
-0.16348323 -0.46308815 0.01727788
-0.163626 -0.46297094 0.017276576
-0.16376351 -0.46285757 0.017264925
-0.16390891 -0.46273875 0.017275196
-0.16404708 -0.46262503 0.017267019
-0.1641891 -0.46250886 0.017275047
-0.1643305 -0.46239263 0.017270276
-0.16447151 -0.46227667 0.017264366
-0.16461354 -0.46216008 0.017263072
-0.16475262 -0.46204585 0.017260693
-0.16489306 -0.4619303 0.017253628
-0.16503333 -0.46181539 0.017257039
-0.16517739 -0.46169758 0.017266173
-0.16531119 -0.46158674 0.017242987
-0.16544938 -0.46147269 0.017227829
-0.16559407 -0.46135506 0.01725208
-0.16573101 -0.46124181 0.017232291
-0.1658688 -0.46112853 0.017227625
-0.16600853 -0.46101359 0.017220579
-0.16614798 -0.46089932 0.01722401
-0.16628778 -0.46078435 0.017218122
-0.16642573 -0.46067107 0.017215773
-0.16656613 -0.46055576 0.017213359
-0.16670415 -0.46044245 0.017212179
-0.16684565 -0.46032652 0.017215556
-0.1669822 -0.46021417 0.017208591
-0.16712198 -0.46009931 0.017205033
-0.16725838 -0.45998707 0.017198063
-0.16739924 -0.45987162 0.017200299
-0.16753671 -0.45975876 0.017199131
-0.16767514 -0.45964482 0.017190948
-0.16781095 -0.45953304 0.017182831
-0.16794866 -0.45942008 0.017183987
-0.16808678 -0.45930693 0.017187454
-0.16822512 -0.45919308 0.017180443
-0.16836111 -0.45908126 0.017174652
-0.16850172 -0.45896608 0.017179213
-0.16863681 -0.45885482 0.017169956
-0.16877556 -0.45874083 0.017166425
-0.16891243 -0.45862854 0.017166434
-0.16905077 -0.45851481 0.017161742
-0.16918769 -0.45840251 0.017162919
-0.16932541 -0.45828921 0.017155914
-0.1694624 -0.45817691 0.017158248
-0.16959815 -0.45806539 0.017154794
-0.16973357 -0.45795405 0.017150179
-0.16987213 -0.45784032 0.017148983
-0.17000811 -0.45772871 0.017147843
-0.17014559 -0.45761564 0.017142024
