# .PCD v0.7 - Point Cloud Data file format
VERSION 0.7
FIELDS x y z
SIZE 4 4 4
TYPE F F F
COUNT 1 1 1
WIDTH 132
HEIGHT 1
VIEWPOINT 0 0 0 1 0 0 0
POINTS 132
DATA ascii
-0.22104932 -0.41584426 0.016499948
-0.22118877 -0.41572973 0.016497497
-0.22132762 -0.41561586 0.016498562
-0.22146678 -0.41550168 0.016498439
-0.22160654 -0.41538692 0.016495991
-0.22174594 -0.41527253 0.016495863
-0.22189049 -0.41515282 0.016471179
-0.22202767 -0.41504079 0.016482748
-0.22216836 -0.41492516 0.016477946
-0.22230719 -0.41481146 0.016482495
-0.22244613 -0.41469768 0.016487038
-0.22258738 -0.41458151 0.016481051
-0.2227269 -0.41446662 0.016471619
-0.22286537 -0.41435337 0.016479664
-0.22300497 -0.41423899 0.016483031
-0.22314642 -0.41412273 0.016478209
-0.22329055 -0.41400373 0.016461678
-0.22343123 -0.41388831 0.016461516
-0.22357073 -0.4137741 0.016467215
-0.22371009 -0.41366008 0.016474079
-0.22385342 -0.413542 0.016463378
-0.22399481 -0.41342595 0.016462049
-0.22413841 -0.41330764 0.01645134
-0.22427791 -0.41319352 0.01645937
-0.22441888 -0.41307747 0.0164499
-0.22456366 -0.41295803 0.016435673
-0.2247027 -0.41284448 0.016447194
-0.22484371 -0.41272894 0.016450524
-0.22498457 -0.41261357 0.016455021
-0.2251258 -0.41249785 0.016458346
-0.22527397 -0.41237512 0.016432399
-0.22541727 -0.41225785 0.016439162
-0.22555555 -0.4121452 0.016456524
-0.22569597 -0.41202986 0.016454048
-0.22584027 -0.41191116 0.016446825
-0.22598849 -0.411789 0.016434837
-0.22613083 -0.41167232 0.016436964
-0.2262716 -0.41155726 0.016446123
-0.22640838 -0.41144571 0.016461194
-0.15401505 -0.47087842 0.017306682
-0.15417002 -0.47075218 0.017325938
-0.15431669 -0.47063157 0.017319812
-0.15446432 -0.4705103 0.017317152
-0.15461306 -0.47038794 0.017309804
-0.15476881 -0.47026125 0.017333701
-0.15491579 -0.4701401 0.017321736
-0.15506104 -0.47002056 0.017313316
-0.15520687 -0.46990064 0.017307213
-0.15534861 -0.46978351 0.017288411
-0.15551144 -0.46965137 0.017320268
-0.15566415 -0.46952727 0.017346563
-0.15580639 -0.46940944 0.017321926
-0.15595081 -0.46929055 0.017313529
-0.15609407 -0.46917251 0.017301669
-0.15624353 -0.46905029 0.017310595
-0.15639272 -0.46892786 0.017310224
-0.1565356 -0.46881011 0.017298376
-0.15668382 -0.46868837 0.017295692
-0.15683408 -0.4685657 0.017309258
-0.15698202 -0.46844423 0.017306579
-0.1571244 -0.46832687 0.017294742
-0.15727378 -0.46820444 0.01729786
-0.15741831 -0.46808571 0.017294109
-0.15757151 -0.46796077 0.017311089
-0.15771575 -0.46784228 0.017307347
-0.15785785 -0.46772519 0.017296677
-0.15800354 -0.46760577 0.017298728
-0.15815242 -0.46748382 0.017303007
-0.15829918 -0.46736372 0.017309682
-0.15844543 -0.46724355 0.017305886
-0.15859157 -0.4671239 0.017311417
-0.15873855 -0.46700329 0.017311094
-0.15888311 -0.46688473 0.017312003
-0.15903834 -0.46675873 0.017341724
-0.1591823 -0.46664017 0.017332178
-0.15931767 -0.46652773 0.017301898
-0.1594643 -0.4664079 0.017312065
-0.15961727 -0.46628347 0.017336033
-0.15976173 -0.46616468 0.017329954
-0.15990447 -0.46604705 0.017318107
-0.16004862 -0.46592891 0.017321359
-0.16019495 -0.46580896 0.017323384
-0.16033821 -0.46569148 0.017324327
-0.16048658 -0.46556976 0.017325137
-0.16063635 -0.4654485 0.01736082
-0.16077434 -0.46533409 0.017333962
-0.16091816 -0.46521586 0.017329071
-0.16106218 -0.46509755 0.017325344
-0.16120499 -0.46498045 0.017327458
-0.1613494 -0.46486193 0.01732604
-0.16148984 -0.46474642 0.017320074
-0.16163431 -0.46462789 0.017319825
-0.16177757 -0.46451059 0.01732542
-0.16192 -0.46439344 0.017318232
-0.16206381 -0.46427536 0.017316829
-0.16220781 -0.46415722 0.017316595
-0.1623491 -0.46404129 0.017316416
-0.1624905 -0.46392485 0.017306935
-0.16263534 -0.46380621 0.017311329
-0.16278006 -0.46368769 0.017315725
-0.16292089 -0.46357211 0.01731557
-0.16306305 -0.46345529 0.01731072
-0.16320452 -0.46333936 0.017314028
-0.16334732 -0.46322215 0.017312663
-0.163486 -0.46310756 0.0172951
-0.16363059 -0.46298924 0.01730182
-0.16376793 -0.46287602 0.017290112
-0.16391316 -0.46275735 0.017300315
-0.16405401 -0.46264145 0.017293179
-0.16419618 -0.46252477 0.01729182
-0.16433623 -0.46240991 0.017292844
-0.16447735 -0.46229389 0.017288022
-0.16461746 -0.46217903 0.017290205
-0.164757 -0.46206409 0.01727961
-0.16489646 -0.46194917 0.01726901
-0.16504048 -0.46183142 0.017278073
-0.16518262 -0.46171537 0.017290687
-0.16532044 -0.46160159 0.017274316
-0.16545549 -0.4614895 0.017246375
-0.16560337 -0.46136943 0.017273964
-0.16573864 -0.46125776 0.017258819
-0.16587853 -0.46114272 0.017252866
-0.16601808 -0.46102792 0.017245753
-0.1661586 -0.4609125 0.017243275
-0.16629697 -0.46079898 0.017243184
-0.16643651 -0.46068421 0.01723724
-0.16657752 -0.46056858 0.01723823
-0.1667179 -0.46045333 0.017236926
-0.16685566 -0.46034026 0.01723568
-0.1669956 -0.46022534 0.017233217
-0.16713545 -0.46011049 0.017230757
-0.16727369 -0.45999664 0.017221356
