# .PCD v0.7 - Point Cloud Data file format
VERSION 0.7
FIELDS x y z
SIZE 4 4 4
TYPE F F F
COUNT 1 1 1
WIDTH 128
HEIGHT 1
VIEWPOINT 0 0 0 1 0 0 0
POINTS 128
DATA ascii
-0.14600813 -0.37350288 0.020630354
-0.14614853 -0.37338609 0.020594083
-0.14629129 -0.37325868 0.020373866
-0.14642173 -0.37314549 0.020241261
-0.14655088 -0.37304038 0.02025649
-0.14668545 -0.37293461 0.020351868
-0.14682119 -0.37282577 0.020403
-0.14696249 -0.37271166 0.020438854
-0.14710246 -0.37259671 0.020434009
-0.14724189 -0.37248304 0.020446628
-0.14738218 -0.37238175 0.020736206
-0.1475099 -0.37227565 0.020706084
-0.14738932 -0.37308815 0.035800733
-0.14748396 -0.37301597 0.035914619
-0.14759603 -0.37292773 0.035990797
-0.14771974 -0.37282699 0.036005005
-0.14784727 -0.37272143 0.035983033
-0.14797227 -0.37261829 0.035968103
-0.14809607 -0.37251744 0.035981152
-0.14822277 -0.37241361 0.035981312
-0.14834537 -0.37231264 0.035971098
-0.14847068 -0.37221137 0.036001556
-0.14859784 -0.37210453 0.035945848
-0.14871964 -0.37200511 0.035954274
-0.14884448 -0.37190253 0.035948671
-0.14897075 -0.37179959 0.035960473
-0.14909528 -0.37169757 0.035961859
-0.14921966 -0.37159589 0.035966732
-0.1493437 -0.37149274 0.035935543
-0.14946485 -0.37139452 0.035957962
-0.14959165 -0.37129074 0.035961606
-0.14971977 -0.37118489 0.035943106
-0.14984427 -0.37108308 0.035947986
-0.14996375 -0.37098572 0.035959974
-0.15008998 -0.37088117 0.035936873
-0.15021572 -0.37077749 0.035923086
-0.15033945 -0.37067693 0.035941944
-0.15046468 -0.37057412 0.035937492
-0.15058516 -0.37047526 0.035935484
-0.15070947 -0.3703739 0.035946187
-0.15084006 -0.3702662 0.035932273
-0.15096498 -0.37016395 0.03593481
-0.15108983 -0.37006178 0.035938509
-0.15121688 -0.36995795 0.03594448
-0.15134227 -0.36985502 0.035941184
-0.15146697 -0.36975315 0.035948373
-0.15158835 -0.36965469 0.035969622
-0.15171953 -0.36954486 0.035920791
-0.15184258 -0.36944106 0.035858206
-0.15196384 -0.36934426 0.035913207
-0.15209471 -0.36923653 0.035902787
-0.15221925 -0.36913502 0.035914633
-0.15234549 -0.3690325 0.03593459
-0.15247408 -0.36892667 0.035925388
-0.15259942 -0.36882406 0.035927914
-0.15272325 -0.36872226 0.035921164
-0.15284753 -0.36862117 0.035937682
-0.15297338 -0.36851794 0.03593554
-0.15310071 -0.36841395 0.035943825
-0.15322672 -0.36830926 0.035913751
-0.15335414 -0.36820397 0.035895266
-0.15347898 -0.36810222 0.035907116
-0.15360576 -0.36799908 0.035923567
-0.15373105 -0.36789674 0.035930745
-0.15385742 -0.36779296 0.03592626
-0.15398321 -0.36768997 0.035928775
-0.15411215 -0.36758405 0.035923056
-0.15423548 -0.36748433 0.035952397
-0.15436661 -0.36737555 0.035924509
-0.15449473 -0.36726731 0.035855971
-0.1546174 -0.36716855 0.035893481
-0.15474056 -0.36707026 0.035949588
-0.15487212 -0.36696216 0.035943802
-0.15499485 -0.36686221 0.035956867
-0.15512888 -0.36675096 0.035927743
-0.15525512 -0.36664763 0.035930242
-0.15538381 -0.36654118 0.035909411
-0.15550685 -0.36644194 0.035943408
-0.1556327 -0.36633912 0.035950571
-0.15575986 -0.36623469 0.035946067
-0.15589091 -0.36612639 0.035927489
-0.15601966 -0.36602107 0.035931088
-0.15614763 -0.36591569 0.035920743
-0.15626749 -0.36581945 0.035962977
-0.15639856 -0.36571026 0.035925776
-0.15652555 -0.36560619 0.03592594
-0.15665324 -0.36550128 0.035920255
-0.15677154 -0.36540699 0.035976488
-0.15690584 -0.36529684 0.035975292
-0.15958777 -0.36218429 0.016633119
-0.15972254 -0.3620756 0.016670315
-0.15986674 -0.36195764 0.01667466
-0.16001387 -0.36183718 0.016677778
-0.16016352 -0.36171478 0.016683154
-0.16031121 -0.36159372 0.016682759
-0.16045882 -0.36147279 0.016683536
-0.16060694 -0.36135125 0.016680809
-0.16075559 -0.36122915 0.016674567
-0.16090328 -0.36110818 0.016676502
-0.16105437 -0.36098421 0.016673697
-0.16120249 -0.36086279 0.016673289
-0.16135238 -0.36073932 0.016660046
-0.16149989 -0.36061868 0.016665477
-0.16165365 -0.36049169 0.016645141
-0.16179967 -0.36037385 0.016683195
-0.1619481 -0.36025125 0.016662996
-0.16209827 -0.36012757 0.016650904
-0.16224939 -0.36000383 0.01665275
-0.16239828 -0.3598817 0.016651161
-0.16254613 -0.35976085 0.016657755
-0.16269717 -0.35963634 0.016642138
-0.16284682 -0.35951343 0.016637042
-0.16299406 -0.35939336 0.01664947
-0.16314352 -0.35927254 0.016685102
-0.16330135 -0.35914034 0.016625097
-0.16345201 -0.35901552 0.01659669
-0.16359559 -0.35889971 0.016635977
-0.16374819 -0.35877451 0.016633132
-0.16389775 -0.35865191 0.016632689
-0.16404882 -0.35852763 0.016622895
-0.16419892 -0.35840449 0.016620116
-0.16435134 -0.35827959 0.016620759
-0.1645018 -0.35815609 0.01661681
-0.16464999 -0.35803515 0.016628042
-0.16480225 -0.35790968 0.016613565
-0.16495559 -0.35778388 0.016610693
-0.16510716 -0.35765925 0.016602056
-0.16525789 -0.35753557 0.016599251
