# .PCD v0.7 - Point Cloud Data file format
VERSION 0.7
FIELDS x y z
SIZE 4 4 4
TYPE F F F
COUNT 1 1 1
WIDTH 116
HEIGHT 1
VIEWPOINT 0 0 0 1 0 0 0
POINTS 116
DATA ascii
-0.14558028 -0.42103386 0.026485384
-0.1457133 -0.42092383 0.026463317
-0.14584984 -0.42081124 0.026448138
-0.14599323 -0.42069361 0.026445594
-0.14614573 -0.42057255 0.026527774
-0.14627939 -0.4204596 0.026455641
-0.14641385 -0.42034894 0.026445178
-0.14655209 -0.4202356 0.026443928
-0.14669359 -0.42011988 0.026448403
-0.14676504 -0.42003566 0.025907658
-0.14689535 -0.41992491 0.025823973
-0.14703202 -0.41981217 0.025807632
-0.14715891 -0.41969445 0.025518019
-0.14724597 -0.41961157 0.025274828
-0.14737974 -0.41950187 0.025272533
-0.14751741 -0.41917062 0.020667952
-0.14762644 -0.4190647 0.020318275
-0.1477779 -0.41894668 0.020447047
-0.14791995 -0.41882858 0.020410772
-0.14806767 -0.41870809 0.020422077
-0.14821997 -0.41857818 0.020314546
-0.14839922 -0.4184317 0.02032271
-0.14854096 -0.41831475 0.020306235
-0.14869191 -0.41820735 0.02064918
-0.14881787 -0.41808245 0.020191986
-0.14895567 -0.41796595 0.020116249
-0.14909963 -0.41784698 0.020095065
-0.14925076 -0.41772521 0.020138877
-0.14939606 -0.41760692 0.020154893
-0.14952317 -0.41749907 0.020077113
-0.14965798 -0.41738829 0.020070132
-0.1498097 -0.41726527 0.020097632
-0.1499663 -0.41713572 0.02007146
-0.15010606 -0.41702074 0.02006202
-0.15026225 -0.416895 0.020109188
-0.15040128 -0.41677788 0.020041568
-0.15054597 -0.41665995 0.020055281
-0.15069334 -0.41653991 0.020070095
-0.15083973 -0.41642022 0.020075614
-0.15098244 -0.41630179 0.020043982
-0.15109591 -0.41620335 0.019929301
-0.15120924 -0.41611016 0.01992172
-0.15137823 -0.41598323 0.020165261
-0.15150696 -0.41586927 0.019986175
-0.151669 -0.41574618 0.020190321
-0.15184417 -0.41560158 0.020168327
-0.15200058 -0.4154695 0.020085121
-0.15212606 -0.41536728 0.020098165
-0.15224685 -0.41526926 0.020118322
-0.15237674 -0.41515875 0.020032316
-0.15252568 -0.41503862 0.020072695
-0.15266474 -0.41492119 0.019999251
-0.15281603 -0.41480052 0.02006866
-0.15295799 -0.41468379 0.020060331
-0.15310258 -0.41456494 0.020051936
-0.15324466 -0.41444668 0.020013329
-0.15339486 -0.41432652 0.020074625
-0.15354218 -0.41420236 0.02000214
-0.15369917 -0.41407606 0.020051617
-0.15382543 -0.41396913 0.019978508
-0.15399311 -0.41383916 0.020134792
-0.1541578 -0.41370168 0.020081636
-0.15430881 -0.41357842 0.020091694
-0.15443292 -0.41348201 0.020202547
-0.15455721 -0.41337878 0.020173717
-0.15469761 -0.41326082 0.020111892
-0.15484482 -0.41314355 0.020182567
-0.15500706 -0.41300994 0.020169061
-0.15514845 -0.41289359 0.020158416
-0.1553169 -0.41275746 0.020198274
-0.15546212 -0.41263509 0.020127013
-0.1555939 -0.41252154 0.020009534
-0.1557081 -0.41242287 0.019901823
-0.15583412 -0.41231927 0.019895062
-0.15597738 -0.41220266 0.019911144
-0.15612647 -0.41208175 0.019937543
-0.15626617 -0.41196534 0.019896679
-0.1564104 -0.41184878 0.019931357
-0.15655647 -0.41172802 0.01990895
-0.15673515 -0.41158578 0.019996278
-0.15686046 -0.41148007 0.019932507
-0.15700436 -0.41136828 0.020061467
-0.15716051 -0.41124129 0.020081863
-0.15729693 -0.41113636 0.020226151
-0.15744501 -0.41101605 0.020247925
-0.15759233 -0.41089815 0.020306956
-0.15774901 -0.41075918 0.020084085
-0.15790421 -0.41062972 0.020035837
-0.15801981 -0.41053244 0.019981628
-0.15816286 -0.41041908 0.020062894
-0.15829071 -0.41031078 0.019988585
-0.15901352 -0.4100464 0.026899897
-0.15924469 -0.40964222 0.022373211
-0.15937966 -0.40952942 0.02232665
-0.15952164 -0.40941307 0.022326462
-0.15966631 -0.40929469 0.022329705
-0.15980943 -0.40917894 0.022362083
-0.15994692 -0.4090673 0.022382963
-0.16009228 -0.40894943 0.022409461
-0.16065066 -0.40870425 0.026885437
-0.16093461 -0.40825769 0.022377169
-0.16107558 -0.40814063 0.022344423
-0.16121696 -0.40802389 0.022325628
-0.16135618 -0.40790966 0.022322021
-0.16149567 -0.40779573 0.022330049
-0.16163798 -0.40768006 0.022349646
-0.1617804 -0.40756461 0.022376221
-0.16192183 -0.40744784 0.022357425
-0.16242225 -0.40725312 0.026896598
-0.16276532 -0.40675759 0.022376318
-0.16290672 -0.40664029 0.022345891
-0.16304566 -0.40652525 0.02232134
-0.16318741 -0.40640867 0.022311848
-0.1633268 -0.40629488 0.022321047
-0.16346891 -0.40617961 0.022345301
-0.16360843 -0.40606675 0.022376601
