# .PCD v0.7 - Point Cloud Data file format
VERSION 0.7
FIELDS x y z
SIZE 4 4 4
TYPE F F F
COUNT 1 1 1
WIDTH 132
HEIGHT 1
VIEWPOINT 0 0 0 1 0 0 0
POINTS 132
DATA ascii
-0.23006921 -0.40744886 0.016261252
-0.14866315 -0.47422147 0.017355016
-0.14882681 -0.47408688 0.01734494
-0.14899264 -0.47395039 0.017332487
-0.14915675 -0.47381553 0.017324731
-0.14933437 -0.47367111 0.017350368
-0.14949851 -0.47353628 0.017343782
-0.14966358 -0.47340083 0.017340653
-0.14982575 -0.47326693 0.017318983
-0.14999287 -0.47312972 0.017313479
-0.15016037 -0.47299269 0.017319595
-0.15032859 -0.47285479 0.017318714
-0.15050574 -0.47271132 0.017357165
-0.1506615 -0.47258183 0.017317049
-0.15082584 -0.47244704 0.017315097
-0.15099731 -0.47230706 0.017326934
-0.15116063 -0.47217301 0.017322689
-0.15132822 -0.47203565 0.017322993
-0.15149611 -0.47189856 0.017334921
-0.15164775 -0.47177196 0.017283272
-0.15181985 -0.47163209 0.017310213
-0.15198302 -0.4714978 0.01729783
-0.15214308 -0.47136608 0.017285528
-0.15230907 -0.47122991 0.017283542
-0.15247765 -0.47109208 0.017290793
-0.15264103 -0.47095817 0.017291196
-0.15280525 -0.47082373 0.017295079
-0.15296794 -0.47068989 0.017283868
-0.15312752 -0.47055861 0.017272741
-0.15329865 -0.4704192 0.017291564
-0.15346658 -0.47028193 0.017300002
-0.15362705 -0.47014964 0.01728303
-0.15378642 -0.47001857 0.017273076
-0.15395784 -0.46987906 0.017295383
-0.15411296 -0.46975133 0.017282039
-0.15427849 -0.46961576 0.017284717
-0.15444022 -0.46948323 0.017285174
-0.15460482 -0.46934834 0.017285546
-0.15476564 -0.46921644 0.017283697
-0.15493096 -0.46908063 0.017277068
-0.15508959 -0.46895021 0.017268293
-0.15524818 -0.46881938 0.017249048
-0.1554177 -0.46868184 0.017280709
-0.1555849 -0.46854541 0.017293826
-0.15573627 -0.46842033 0.017271267
-0.15589845 -0.4682872 0.017267052
-0.15606084 -0.46815395 0.017264001
-0.15622202 -0.46802202 0.017267952
-0.15638381 -0.46788922 0.017263746
-0.15654701 -0.46775553 0.017265324
-0.15670794 -0.46762332 0.017258821
-0.15686721 -0.46749222 0.017246529
-0.15702783 -0.4673613 0.017262138
-0.15718867 -0.46722922 0.017256796
-0.15734737 -0.46709907 0.017255001
-0.1575155 -0.46696231 0.017278554
-0.15767296 -0.46683252 0.01726166
-0.15782464 -0.46670642 0.017222822
-0.15798649 -0.46657485 0.017246537
-0.15815073 -0.46644071 0.017257391
-0.15830633 -0.46631268 0.017246366
-0.15846765 -0.46618047 0.017246831
-0.15863034 -0.46604794 0.017264707
-0.15878993 -0.46591687 0.017259397
-0.15894824 -0.4657872 0.017261103
-0.15910934 -0.46565524 0.017262738
-0.15927057 -0.46552372 0.017277159
-0.1594291 -0.46539345 0.017269548
-0.15958408 -0.46526599 0.017259708
-0.15974523 -0.46513408 0.01726366
-0.15990196 -0.46500555 0.017261915
-0.1600623 -0.46487418 0.017263569
-0.16021517 -0.46474814 0.017246794
-0.16037649 -0.46461567 0.017241441
-0.16054246 -0.46448138 0.017280173
-0.16069502 -0.46435559 0.017263416
-0.16085269 -0.4642266 0.017268628
-0.16100956 -0.46409756 0.01725873
-0.16116619 -0.46396926 0.017260477
-0.1613234 -0.46384007 0.017252902
-0.16147873 -0.46371263 0.017250024
-0.16163869 -0.46358174 0.017255176
-0.16179299 -0.46345499 0.017248847
-0.16195112 -0.46332529 0.017247066
-0.16210628 -0.46319807 0.017245352
-0.16226262 -0.46306953 0.017236639
-0.16241547 -0.46294373 0.017225683
-0.16257423 -0.46281374 0.017228536
-0.1627308 -0.4626857 0.01723494
-0.16288751 -0.46255702 0.017229706
-0.16304255 -0.46242997 0.017230336
-0.16319932 -0.46230131 0.01722626
-0.16335467 -0.46217412 0.017229203
-0.16350915 -0.46204746 0.017228678
-0.16366276 -0.46192136 0.017224684
-0.16382147 -0.46179101 0.01721824
-0.1639694 -0.46166843 0.017188799
-0.16412699 -0.46153995 0.017204477
-0.16428393 -0.46141192 0.01721785
-0.16443697 -0.46128568 0.017199907
-0.16459002 -0.46116006 0.01719594
-0.16474557 -0.46103233 0.017190726
-0.16489869 -0.46090668 0.017187916
-0.16505407 -0.46077913 0.017182719
-0.16520555 -0.4606545 0.017172959
-0.16536053 -0.46052721 0.017166609
-0.16552323 -0.4603959 0.017212408
-0.16567068 -0.46027377 0.017184142
-0.16581994 -0.46015057 0.017165139
-0.16597688 -0.46002218 0.01717037
-0.16612834 -0.4598977 0.017162943
-0.16628416 -0.45977002 0.017163543
-0.16643338 -0.45964691 0.017145701
-0.16658483 -0.45952249 0.017139444
-0.16673894 -0.45939654 0.017147072
-0.16689371 -0.45926955 0.017144218
-0.16704491 -0.45914534 0.017137956
-0.16720018 -0.45901811 0.017138582
-0.16735256 -0.45889324 0.017139271
-0.16750543 -0.45876744 0.017128315
-0.1676583 -0.45864233 0.017132495
-0.16781107 -0.45851731 0.017136663
-0.16796178 -0.45839348 0.017130425
-0.16811544 -0.45826733 0.01712526
-0.16826706 -0.45814303 0.017124821
-0.16842055 -0.45801699 0.017119659
-0.1685731 -0.45789218 0.017125005
-0.16872427 -0.4577682 0.017123405
-0.16887558 -0.45764419 0.017122963
-0.16902645 -0.45751971 0.01710508
-0.16917843 -0.45739534 0.017109269
-0.16932723 -0.45727277 0.0170961
