# .PCD v0.7 - Point Cloud Data file format
VERSION 0.7
FIELDS x y z
SIZE 4 4 4
TYPE F F F
COUNT 1 1 1
WIDTH 132
HEIGHT 1
VIEWPOINT 0 0 0 1 0 0 0
POINTS 132
DATA ascii
-0.18337454 -0.36257681 0.016648978
-0.1835303 -0.36245009 0.016669374
-0.18368925 -0.36231953 0.016662922
-0.18384992 -0.36218721 0.016649455
-0.18400782 -0.36205778 0.016648844
-0.18416908 -0.36192551 0.016646992
-0.18432084 -0.36180183 0.01666167
-0.18448073 -0.36167103 0.016666837
-0.18464211 -0.36153814 0.016653342
-0.18480226 -0.36140713 0.0166585
-0.18496068 -0.36127731 0.016659044
-0.18511841 -0.36114824 0.016663097
-0.18527544 -0.36101991 0.016670659
-0.18544161 -0.36088282 0.016652387
-0.18559974 -0.36075342 0.016656429
-0.18575881 -0.36062309 0.016656956
-0.18591551 -0.36049518 0.016668025
-0.18606882 -0.36037135 0.016705938
-0.10554008 -0.42641363 0.017610798
-0.10570277 -0.42627993 0.017603047
-0.10586612 -0.42614534 0.017588291
-0.10602438 -0.42601511 0.017577168
-0.10619699 -0.42587438 0.017592434
-0.10636356 -0.42573771 0.017589234
-0.10652814 -0.42560238 0.017580267
-0.10669054 -0.42546949 0.017584156
-0.10685387 -0.4253346 0.01756243
-0.10703552 -0.42518842 0.017619336
-0.10719515 -0.42505649 0.017596545
-0.10734831 -0.42492986 0.017572753
-0.10751535 -0.42479256 0.017564889
-0.10769257 -0.42464948 0.017610271
-0.10784107 -0.42452505 0.017552864
-0.10800134 -0.4243933 0.01754402
-0.10817322 -0.42425334 0.017563945
-0.10833229 -0.4241229 0.01756211
-0.10849719 -0.42398766 0.017560115
-0.10866 -0.42385429 0.017561674
-0.10882308 -0.42371982 0.017544605
-0.10898364 -0.42358848 0.017549705
-0.10915205 -0.42345101 0.017561579
-0.10930809 -0.4233222 0.017542372
-0.10947542 -0.42318505 0.017541483
-0.10963672 -0.42305329 0.017551221
-0.10979807 -0.42292058 0.017541179
-0.10996364 -0.42278513 0.017546147
-0.11012371 -0.42265329 0.017532647
-0.11028703 -0.42251983 0.017541172
-0.11044849 -0.42238715 0.017533455
-0.11060816 -0.42225564 0.017519966
-0.11077103 -0.42212257 0.017528493
-0.11093047 -0.42199177 0.017525481
-0.11109205 -0.42185909 0.017520091
-0.1112486 -0.42173019 0.017507842
-0.11141545 -0.42159411 0.017522089
-0.1115737 -0.42146417 0.017516784
-0.1117309 -0.42133391 0.017487075
-0.11189537 -0.42119947 0.017494403
-0.11206602 -0.42106155 0.017535305
-0.11221895 -0.42093515 0.017512687
-0.11237913 -0.42080355 0.017506165
-0.11253755 -0.42067364 0.017504338
-0.11269686 -0.42054266 0.017495517
-0.11285752 -0.42041132 0.017502945
-0.11301845 -0.42027932 0.01750106
-0.11317738 -0.42014867 0.01749224
-0.11334208 -0.42001429 0.017505383
-0.11349692 -0.41988683 0.017493177
-0.11365581 -0.41975623 0.017485529
-0.11381593 -0.4196254 0.017494138
-0.11398217 -0.41949016 0.01751538
-0.11413869 -0.41936064 0.017489171
-0.11428954 -0.41923529 0.017452646
-0.11445227 -0.41910341 0.017484453
-0.11461371 -0.41897136 0.017489528
-0.11477411 -0.41883996 0.017491151
-0.11493082 -0.41871095 0.017478896
-0.11508779 -0.41858232 0.017479448
-0.11524812 -0.41845107 0.017482221
-0.11540543 -0.41832227 0.017485086
-0.11556724 -0.41819012 0.017494813
-0.11572108 -0.41806355 0.017484963
-0.11587915 -0.41793382 0.017480824
-0.1160371 -0.41780418 0.017476691
-0.11619809 -0.41767263 0.017485268
-0.11635151 -0.41754642 0.017475441
-0.11650855 -0.41741741 0.017469
-0.11666318 -0.41729048 0.017464953
-0.11682118 -0.41716036 0.017451504
-0.11698933 -0.41702503 0.017504111
-0.1171369 -0.4169026 0.017472323
-0.11729163 -0.4167757 0.017470594
-0.11745048 -0.41664571 0.017474586
-0.11760647 -0.4165175 0.017467003
-0.11776181 -0.4163897 0.017457124
-0.11791528 -0.4162637 0.017451935
-0.11807232 -0.41613489 0.017450154
-0.11822641 -0.41600853 0.017448442
-0.11838297 -0.41588008 0.017445514
-0.11853604 -0.41575438 0.017440336
-0.11869477 -0.41562465 0.017447811
-0.11884975 -0.41549781 0.017451897
-0.11900375 -0.41537103 0.017439723
-0.11915951 -0.41524318 0.017435646
-0.11931517 -0.41511542 0.01743157
-0.11946971 -0.41498893 0.017435666
-0.11962723 -0.4148601 0.017440854
-0.11978206 -0.4147335 0.01744727
-0.11993498 -0.41460747 0.017432787
-0.12008883 -0.41448152 0.017435741
-0.1202454 -0.41435334 0.017438622
-0.12040818 -0.41422084 0.017457623
-0.1205532 -0.41409966 0.01740846
-0.12070183 -0.41397753 0.017402239
-0.12085849 -0.41384938 0.017407447
-0.12101445 -0.41372231 0.017423138
-0.12116767 -0.41359627 0.017413305
-0.12131776 -0.41347274 0.017402394
-0.12147205 -0.41334611 0.017398356
-0.12162051 -0.41322356 0.017380506
-0.12178129 -0.41309249 0.01739491
-0.12193897 -0.41296455 0.017422196
-0.12208807 -0.41284108 0.01739502
-0.12223861 -0.4127174 0.017388757
-0.12239233 -0.41259122 0.017384732
-0.1225453 -0.41246617 0.017391199
-0.12269837 -0.4123404 0.017384861
-0.12284903 -0.41221672 0.017380916
-0.1230031 -0.41209045 0.017380372
-0.12315382 -0.41196677 0.017377587
-0.1233061 -0.41184157 0.01736895
-0.12345619 -0.41171831 0.01736385
