# .PCD v0.7 - Point Cloud Data file format
VERSION 0.7
FIELDS x y z
SIZE 4 4 4
TYPE F F F
COUNT 1 1 1
WIDTH 126
HEIGHT 1
VIEWPOINT 0 0 0 1 0 0 0
POINTS 126
DATA ascii
-0.15998024 -0.45812571 0.017042149
-0.16013545 -0.45799816 0.017033489
-0.16028798 -0.45787284 0.017026067
-0.16044304 -0.4577454 0.01701742
-0.16059783 -0.45761874 0.017021572
-0.16075253 -0.45749217 0.017025728
-0.16090375 -0.45736772 0.017013678
-0.16106012 -0.45723957 0.01701314
-0.16121092 -0.45711541 0.016999941
-0.16136667 -0.4569883 0.01701105
-0.16151756 -0.45686412 0.016999021
-0.16167308 -0.45673656 0.016996173
-0.16182569 -0.45661139 0.016993402
-0.16197844 -0.45648617 0.016991785
-0.16212599 -0.45636404 0.016964711
-0.16229093 -0.45623034 0.016996533
-0.16244242 -0.45610657 0.017004263
-0.16259715 -0.45597959 0.017000275
-0.16274808 -0.45585555 0.016991723
-0.1628996 -0.45573115 0.016986649
-0.16305172 -0.45560643 0.016985059
-0.16320814 -0.45547858 0.016991502
-0.16335875 -0.45535478 0.016982958
-0.16351275 -0.45522839 0.01697783
-0.16366364 -0.45510444 0.01697161
-0.163816 -0.45497969 0.016973495
-0.16396892 -0.45485464 0.016978867
-0.16412476 -0.45472726 0.016985321
-0.16427532 -0.45460361 0.016979113
-0.16585043 -0.45342845 0.019526437
-0.16599964 -0.45330569 0.019515611
-0.16614175 -0.45318764 0.019480523
-0.16625123 -0.45308793 0.019258942
-0.16638105 -0.4529767 0.019152023
-0.16651815 -0.452865 0.019165946
-0.166658 -0.45274961 0.019148381
-0.16680755 -0.4526296 0.019203868
-0.16695845 -0.45250741 0.019236045
-0.16711116 -0.45238352 0.019263536
-0.1672581 -0.4522621 0.019241124
-0.16740619 -0.45213935 0.019209377
-0.16755015 -0.45202032 0.019185884
-0.16770014 -0.45189351 0.019099396
-0.16785574 -0.4517636 0.019046508
-0.16802464 -0.45163032 0.019159682
-0.16821355 -0.45148715 0.019415472
-0.16837147 -0.45135999 0.019464931
-0.16851966 -0.45123887 0.019471573
-0.16867183 -0.45111564 0.019503728
-0.16882366 -0.45099264 0.019534722
-0.1689674 -0.45087317 0.019497273
-0.16911004 -0.45075506 0.019470315
-0.16925003 -0.45063758 0.01940853
-0.16935576 -0.450542 0.019211469
-0.1695253 -0.45040661 0.019288551
-0.16964206 -0.45030928 0.019251803
-0.16980316 -0.45017913 0.019293027
-0.16999286 -0.45003101 0.019454541
-0.17015311 -0.44990394 0.019548144
-0.17030154 -0.449788 0.019673493
-0.17048855 -0.44964916 0.019990992
-0.17062327 -0.44953704 0.019952616
-0.17080082 -0.44939736 0.020080689
-0.17094637 -0.44927898 0.020100214
-0.1710877 -0.44916019 0.020033732
-0.17118527 -0.4490605 0.019598335
-0.17132795 -0.44894084 0.019537641
-0.17146258 -0.44882691 0.01945737
-0.17158933 -0.44871679 0.019319115
-0.17173214 -0.44859874 0.019296814
-0.17190215 -0.44846663 0.019455336
-0.17205085 -0.44834584 0.019478271
-0.17217559 -0.44823658 0.019322615
-0.17233302 -0.44811162 0.019411653
-0.17247793 -0.44799176 0.019386966
-0.17262954 -0.44786969 0.019434258
-0.17277905 -0.44774863 0.01946648
-0.17292978 -0.44762993 0.019571975
-0.17309351 -0.44750905 0.019865641
-0.17323953 -0.44739562 0.020002682
-0.17337599 -0.44727898 0.019895591
-0.17352079 -0.44715941 0.019875567
-0.17365885 -0.44704291 0.019801032
-0.17382529 -0.44691858 0.020066705
-0.17396308 -0.44678628 0.019638415
-0.17408749 -0.4466767 0.019469976
-0.17423575 -0.44655553 0.01947662
-0.17437974 -0.44643727 0.01947058
-0.17452329 -0.44631922 0.019461062
-0.17467529 -0.4461965 0.019501362
-0.17481926 -0.4460783 0.019496491
-0.17496362 -0.44595891 0.01947182
-0.17510808 -0.44584054 0.019471589
-0.17525378 -0.44572169 0.019482957
-0.17539696 -0.44560388 0.019472279
-0.17554572 -0.4454827 0.019488227
-0.17569162 -0.44536382 0.019503081
-0.17583798 -0.44524369 0.019498151
-0.17598236 -0.44512549 0.019500243
-0.17612487 -0.44500801 0.01948493
-0.17627223 -0.44488868 0.01951604
-0.17641504 -0.44476998 0.019478615
-0.17655903 -0.44465199 0.019478396
-0.17670457 -0.44453225 0.019467656
-0.1768499 -0.44441378 0.019481365
-0.1769947 -0.44429556 0.019490436
-0.17713852 -0.44417772 0.01949021
-0.1772828 -0.44405848 0.019467872
-0.17742993 -0.44393951 0.019502476
-0.17757006 -0.44382298 0.019465122
-0.1777133 -0.44370538 0.019460261
-0.17785907 -0.44358566 0.019454174
-0.17800194 -0.44346824 0.019445844
-0.1781501 -0.44334778 0.019466452
-0.17829363 -0.44323015 0.019466244
-0.17843527 -0.44311315 0.019445144
-0.17857721 -0.44299605 0.019427514
-0.17872374 -0.44287619 0.019431882
-0.17885505 -0.4427678 0.019414537
-0.17900966 -0.44264141 0.019421022
-0.17915431 -0.44252214 0.019404486
-0.17929679 -0.44240493 0.019393835
-0.1794406 -0.44228733 0.019399431
-0.17958504 -0.44216815 0.019380588
-0.17972842 -0.4420507 0.019381545
-0.17986917 -0.44193396 0.019349985
