# .PCD v0.7 - Point Cloud Data file format
VERSION 0.7
FIELDS x y z
SIZE 4 4 4
TYPE F F F
COUNT 1 1 1
WIDTH 123
HEIGHT 1
VIEWPOINT 0 0 0 1 0 0 0
POINTS 123
DATA ascii
-0.12835166 -0.38010442 0.020377539
-0.12849751 -0.379987 0.020424986
-0.12864573 -0.37986758 0.020471213
-0.13021262 -0.37929556 0.035805359
-0.13033162 -0.37919632 0.03576969
-0.1304547 -0.37909484 0.035758369
-0.13058347 -0.37899092 0.035794616
-0.13070413 -0.37889138 0.035782188
-0.13082677 -0.37879002 0.035765059
-0.13095692 -0.37868449 0.035790801
-0.13108292 -0.37858111 0.035789877
-0.13120706 -0.3784796 0.035795983
-0.13132828 -0.37838003 0.03579285
-0.13145585 -0.37827489 0.035781413
-0.13158235 -0.37817153 0.035789788
-0.13170144 -0.37807214 0.035752956
-0.13182779 -0.37796882 0.035759006
-0.13195299 -0.37786555 0.03574647
-0.13207576 -0.3777642 0.035731658
-0.13219693 -0.37766281 0.035688959
-0.1323258 -0.37755951 0.035740338
-0.13245235 -0.37745631 0.0357522
-0.13257614 -0.37735495 0.035755984
-0.13270061 -0.37725171 0.035730656
-0.13282774 -0.37714857 0.035755314
-0.13295195 -0.37704527 0.035724174
-0.13307649 -0.37694407 0.035744242
-0.13320275 -0.37684098 0.035753779
-0.13332574 -0.37673965 0.035743624
-0.13345127 -0.37663648 0.035739221
-0.13357449 -0.37653518 0.035733707
-0.13369939 -0.37643191 0.035715356
-0.1338286 -0.37632719 0.035742283
-0.13395347 -0.37622389 0.035722766
-0.1340753 -0.37612474 0.035739411
-0.13420361 -0.3760199 0.035747737
-0.13432807 -0.37591645 0.035717748
-0.13444868 -0.37581694 0.035705335
-0.13456886 -0.37571728 0.035681278
-0.13469768 -0.37561268 0.035703551
-0.13482389 -0.37550986 0.035718925
-0.13494751 -0.37540883 0.035726201
-0.13507321 -0.37530586 0.035728786
-0.13519554 -0.37520415 0.035698853
-0.13532272 -0.37510207 0.035746783
-0.13544852 -0.37499925 0.035754018
-0.13557461 -0.37489668 0.035771713
-0.13570248 -0.37479186 0.035773069
-0.13582383 -0.37469301 0.035787396
-0.13594881 -0.37458962 0.035767864
-0.13607194 -0.37448844 0.035763524
-0.13619672 -0.37438476 0.035734698
-0.13632479 -0.37428021 0.03574536
-0.13644779 -0.37417883 0.035734043
-0.13657376 -0.37407646 0.03575407
-0.1366993 -0.37397355 0.035755478
-0.13682474 -0.37387052 0.035752252
-0.13694721 -0.37376827 0.035713002
-0.13706747 -0.37366778 0.03567265
-0.1371932 -0.37356511 0.035682213
-0.13732393 -0.37345958 0.035718411
-0.13744476 -0.37336007 0.035709471
-0.13757044 -0.37325746 0.035719033
-0.13769372 -0.37315646 0.035721671
-0.13782151 -0.37305155 0.035719529
-0.13794261 -0.37295282 0.035731547
-0.13806579 -0.37285149 0.035724871
-0.13819133 -0.37274861 0.035726279
-0.13831687 -0.37264571 0.035727695
-0.13844247 -0.37254316 0.035737265
-0.13856569 -0.37244201 0.035735242
-0.13869128 -0.37233958 0.035747141
-0.13881908 -0.3722347 0.035746168
-0.13894241 -0.37213483 0.035773247
-0.13907017 -0.37202972 0.035766456
-0.13919337 -0.37192735 0.035737671
-0.13931437 -0.37182772 0.035728723
-0.13944221 -0.37172288 0.035728913
-0.13956784 -0.37161872 0.035704724
-0.13969338 -0.37151653 0.035721272
-0.1401713 -0.37041599 0.020481003
-0.14030227 -0.3703084 0.020476459
-0.14043887 -0.37019351 0.020414732
-0.14057757 -0.37007985 0.020416968
-0.14071469 -0.36996302 0.020322641
-0.14085865 -0.369845 0.020323582
-0.14100668 -0.36972776 0.020412879
-0.14116234 -0.36960393 0.020494999
-0.14131585 -0.36947179 0.020360671
-0.14144255 -0.36936572 0.020314332
-0.141583 -0.36925346 0.020377053
-0.14173979 -0.36912507 0.020381151
-0.14186621 -0.36902037 0.020359272
-0.14199375 -0.36891222 0.020282647
-0.14212319 -0.3688044 0.020246718
-0.14226015 -0.3686966 0.020344444
-0.14240244 -0.36858371 0.020425739
-0.14254557 -0.36846307 0.020355701
-0.14268728 -0.36834657 0.020349719
-0.14282937 -0.36823383 0.020431019
-0.14297286 -0.36811721 0.020454085
-0.14310756 -0.36800957 0.020514622
-0.1432471 -0.36789832 0.020583188
-0.14338781 -0.36778805 0.020693619
-0.14353831 -0.36766636 0.020730475
-0.14367539 -0.36755264 0.020702489
-0.14394629 -0.36802447 0.035628952
-0.14406011 -0.36793494 0.035710983
-0.14418413 -0.36783567 0.035763651
-0.14430854 -0.36773297 0.035748802
-0.14443523 -0.36762843 0.03573506
-0.14455944 -0.3675262 0.035727188
-0.14468704 -0.36742246 0.035747178
-0.14481562 -0.36731693 0.035745025
-0.14493778 -0.36721623 0.03573373
-0.14506875 -0.3671087 0.035731506
-0.1451939 -0.36700717 0.035755046
-0.14531346 -0.366909 0.035751957
-0.14543694 -0.36680821 0.035762742
-0.14556742 -0.36669955 0.035726786
-0.14569193 -0.36659706 0.035718918
-0.14581741 -0.36649299 0.035693564
-0.14593904 -0.36639348 0.03569857
