# .PCD v0.7 - Point Cloud Data file format
VERSION 0.7
FIELDS x y z
SIZE 4 4 4
TYPE F F F
COUNT 1 1 1
WIDTH 123
HEIGHT 1
VIEWPOINT 0 0 0 1 0 0 0
POINTS 123
DATA ascii
-0.12555407 -0.38362485 0.034726914
-0.12568371 -0.38351899 0.034735184
-0.12580942 -0.38341567 0.034729585
-0.1259378 -0.38331032 0.034727413
-0.1260654 -0.38320529 0.034718283
-0.12619808 -0.38309425 0.034669444
-0.12627643 -0.38301006 0.034239162
-0.12639719 -0.38291055 0.034227878
-0.12585948 -0.38273525 0.020941749
-0.12601256 -0.3826099 0.020944759
-0.12613919 -0.38250601 0.020942634
-0.12628317 -0.38238877 0.020959832
-0.12645695 -0.38224652 0.020964634
-0.12660205 -0.38212645 0.020939916
-0.12674028 -0.38201374 0.020952612
-0.12686132 -0.38191164 0.020891285
-0.12699902 -0.38180041 0.020927269
-0.12716313 -0.38166791 0.020970726
-0.12730628 -0.38154981 0.020954201
-0.12744465 -0.38143441 0.020912206
-0.12758172 -0.38132218 0.020914461
-0.12772755 -0.38120329 0.02092929
-0.1278688 -0.38108712 0.020920964
-0.12800843 -0.3809728 0.020924324
-0.128148 -0.38085854 0.020927675
-0.12829022 -0.38074216 0.020932127
-0.12843552 -0.38062358 0.020943478
-0.13000637 -0.38004583 0.036254402
-0.13012771 -0.37994772 0.036283832
-0.1302539 -0.37984586 0.036317796
-0.13037555 -0.37974638 0.03632278
-0.13049877 -0.3796466 0.036349829
-0.13062297 -0.37954378 0.036327988
-0.13074672 -0.37944251 0.036331758
-0.13087296 -0.37933934 0.036338944
-0.13099425 -0.37923849 0.036307864
-0.13111308 -0.37913638 0.036207028
-0.13123465 -0.37903696 0.03621202
-0.1313642 -0.3789334 0.036269158
-0.13149004 -0.37883198 0.03630662
-0.13161777 -0.37872881 0.036339384
-0.13174219 -0.37862596 0.036321025
-0.1318672 -0.37852305 0.036311951
-0.13198908 -0.37842208 0.036289006
-0.13211237 -0.37831923 0.036250886
-0.13223849 -0.37821805 0.036298811
-0.13236409 -0.37811518 0.036300205
-0.13248679 -0.37801418 0.036291204
-0.13261333 -0.3779113 0.036310025
-0.13273545 -0.3778103 0.036290556
-0.1328599 -0.37770742 0.036272198
-0.13298468 -0.37760654 0.036302704
-0.1331076 -0.37750557 0.036298349
-0.13322966 -0.37740457 0.036277719
-0.1333538 -0.37730163 0.036252387
-0.13347898 -0.37720093 0.036294516
-0.13360547 -0.37709615 0.036270283
-0.13373128 -0.37699345 0.036279812
-0.13385208 -0.37689444 0.03628017
-0.13397513 -0.37679356 0.036280461
-0.13409965 -0.37669066 0.036262099
-0.13422087 -0.37659177 0.036272906
-0.13434643 -0.37648913 0.036278963
-0.13446906 -0.37638819 0.036269952
-0.1345918 -0.37628725 0.03626328
-0.13471435 -0.37618625 0.03625194
-0.13484116 -0.37608421 0.036292866
-0.13496611 -0.37598142 0.036284968
-0.13508838 -0.37588033 0.036266662
-0.13520887 -0.3757813 0.036261208
-0.13533686 -0.37567702 0.036275342
-0.13546014 -0.37557647 0.036286097
-0.1355847 -0.37547344 0.036266573
-0.13570666 -0.37537202 0.036235478
-0.13582955 -0.3752712 0.03623344
-0.13595329 -0.37517107 0.036261648
-0.13607791 -0.37506795 0.03624095
-0.13620102 -0.37496737 0.036248233
-0.13632408 -0.37486675 0.036254339
-0.13644719 -0.37476623 0.03626278
-0.13657236 -0.37466365 0.036263026
-0.13669482 -0.37456238 0.036244705
-0.13682221 -0.37445787 0.036242563
-0.13694282 -0.37435895 0.036241755
-0.13706559 -0.37425804 0.036236241
-0.13718873 -0.3741577 0.036249332
-0.13731389 -0.37405512 0.036249574
-0.13743706 -0.37395498 0.036267325
-0.13756402 -0.37384957 0.036238417
-0.13768438 -0.37375009 0.036221325
-0.13780731 -0.37364945 0.036223959
-0.13793008 -0.37354833 0.036213785
-0.13805549 -0.3734464 0.036232635
-0.1381785 -0.37334606 0.036243409
-0.13830359 -0.37324324 0.036237821
-0.1384308 -0.37313768 0.036210082
-0.13854915 -0.37304059 0.036208171
-0.13867216 -0.37294033 0.036221266
-0.1387973 -0.37283728 0.036211036
-0.13892022 -0.37273648 0.036210172
-0.13904773 -0.37263232 0.036218494
-0.13917299 -0.37253079 0.03624317
-0.13929588 -0.37242958 0.036232993
-0.1394188 -0.37232813 0.036218166
-0.13954403 -0.37222412 0.036189303
-0.13970585 -0.37208846 0.036124583
-0.14014854 -0.37101638 0.020831181
-0.14027423 -0.37091282 0.02081977
-0.14041768 -0.37079602 0.020836992
-0.14055616 -0.37068233 0.02083339
-0.14069967 -0.37056506 0.020841297
-0.14083324 -0.37045443 0.020816879
-0.14098734 -0.37032726 0.020798909
-0.14110793 -0.37022832 0.020796943
-0.14123809 -0.37011477 0.020649264
-0.14139065 -0.36999485 0.020760503
-0.14154361 -0.36987269 0.020829845
-0.14167728 -0.36976242 0.020814735
-0.14180547 -0.36965767 0.020821873
-0.14194402 -0.36954412 0.020822929
-0.14208259 -0.36943063 0.020825146
-0.14222899 -0.36931038 0.020820187
-0.14237556 -0.36918974 0.020809393
