# .PCD v0.7 - Point Cloud Data file format
VERSION 0.7
FIELDS x y z
SIZE 4 4 4
TYPE F F F
COUNT 1 1 1
WIDTH 104
HEIGHT 1
VIEWPOINT 0 0 0 1 0 0 0
POINTS 104
DATA ascii
-0.15870838 -0.42165849 0.019876149
-0.15885589 -0.42153832 0.019893177
-0.15900049 -0.42141894 0.019876547
-0.15914512 -0.42130107 0.019892491
-0.15928611 -0.42118567 0.019896898
-0.15942781 -0.4210701 0.0199106
-0.15956843 -0.42095482 0.019911528
-0.15970463 -0.42084214 0.019890457
-0.15984358 -0.42072725 0.019870484
-0.15998235 -0.42061237 0.019848187
-0.16010669 -0.42050532 0.019740153
-0.16025436 -0.42039034 0.019870065
-0.16041557 -0.42025957 0.019900708
-0.16056994 -0.42013004 0.019838426
-0.16071996 -0.42000639 0.019825134
-0.16086748 -0.41988665 0.019851483
-0.16101478 -0.41976699 0.019875512
-0.16116512 -0.41964334 0.019868031
-0.16129704 -0.41952935 0.019744668
-0.16141024 -0.41943604 0.019734683
-0.16156606 -0.41930985 0.019768955
-0.16168921 -0.41920796 0.019749397
-0.16182682 -0.41909507 0.019749243
-0.16197225 -0.41897967 0.019831505
-0.16212456 -0.41886002 0.019942675
-0.16226582 -0.41874102 0.019876083
-0.16240767 -0.41862193 0.01981763
-0.16255623 -0.41850689 0.019961491
-0.16270453 -0.41838777 0.020014584
-0.1628298 -0.41826853 0.019664459
-0.16298133 -0.41814491 0.019677894
-0.16312894 -0.41802344 0.019669328
-0.16327046 -0.41790858 0.019694675
-0.16341166 -0.4177914 0.019665321
-0.16355392 -0.41767427 0.019655734
-0.16370295 -0.41755298 0.019675054
-0.16384737 -0.41743615 0.019709636
-0.16398793 -0.41731885 0.019666338
-0.16412792 -0.41720399 0.019664951
-0.16486689 -0.4169291 0.026700085
-0.16509058 -0.41653258 0.022172939
-0.16522808 -0.41641983 0.022173947
-0.16537087 -0.41630289 0.022177149
-0.16551113 -0.41618812 0.022182735
-0.16565418 -0.41607133 0.022194071
-0.16579464 -0.41595674 0.022206644
-0.16593479 -0.41584203 0.022211073
-0.1660791 -0.41572607 0.02226194
-0.16678222 -0.41514698 0.022209547
-0.16691941 -0.41503423 0.022204753
-0.16706388 -0.41491464 0.022181137
-0.16720313 -0.41479921 0.022155335
-0.16734332 -0.41468468 0.022164416
-0.16748005 -0.41457134 0.022138681
-0.16762368 -0.41445571 0.022184916
-0.16776688 -0.41433975 0.022216029
-0.16827068 -0.41413784 0.026704097
-0.16860583 -0.41365084 0.022197273
-0.16874559 -0.41353577 0.022187751
-0.16888548 -0.41342103 0.022187538
-0.16903007 -0.41330069 0.022149956
-0.16916749 -0.41318834 0.022156786
-0.16930754 -0.41307396 0.022167031
-0.16944793 -0.41296095 0.022212189
-0.16959032 -0.41284382 0.022204919
-0.17003766 -0.41268665 0.02665958
-0.17043231 -0.41215339 0.022207037
-0.17057213 -0.41203645 0.022157948
-0.17071465 -0.41191784 0.022121578
-0.17085207 -0.41180563 0.022131901
-0.17099206 -0.41169158 0.022147978
-0.17113194 -0.41157961 0.022205941
-0.17127441 -0.41146407 0.022233585
-0.17141947 -0.41134551 0.022242546
-0.1721172 -0.41077024 0.022177493
-0.17225739 -0.41065454 0.022162139
-0.17239772 -0.41053843 0.022139801
-0.17253524 -0.41042551 0.022137318
-0.17268082 -0.41030511 0.022116002
-0.17282067 -0.41019154 0.022139063
-0.17295806 -0.41007933 0.022149386
-0.17310072 -0.40996253 0.02215375
-0.17343315 -0.40990165 0.026652176
-0.17394465 -0.40927011 0.022146495
-0.17408282 -0.40915579 0.022125384
-0.17422567 -0.40903866 0.022126243
-0.17436665 -0.40892184 0.022100396
-0.17450456 -0.40880847 0.022094412
-0.17464685 -0.40869296 0.022119729
-0.17478958 -0.40857634 0.022128753
-0.1749289 -0.40846384 0.02216579
-0.17520635 -0.40844655 0.026633091
-0.1759062 -0.40754944 0.019766968
-0.17604133 -0.40744182 0.019835539
-0.17615506 -0.40734863 0.01983718
-0.17628701 -0.40723765 0.019777816
-0.17643197 -0.40711638 0.019727422
-0.17657964 -0.4069992 0.019810796
-0.17671798 -0.40688503 0.019795492
-0.17687643 -0.40675566 0.019807583
-0.17705292 -0.40660918 0.019770315
-0.17719421 -0.40649247 0.019752601
-0.17732809 -0.4063895 0.019898016
-0.17744628 -0.40628827 0.019806437
