# .PCD v0.7 - Point Cloud Data file format
VERSION 0.7
FIELDS x y z
SIZE 4 4 4
TYPE F F F
COUNT 1 1 1
WIDTH 132
HEIGHT 1
VIEWPOINT 0 0 0 1 0 0 0
POINTS 132
DATA ascii
-0.22017854 -0.41103333 0.016243609
-0.22033697 -0.41090348 0.016242975
-0.22048905 -0.410779 0.016245997
-0.22064276 -0.4106535 0.016255956
-0.22080426 -0.41052049 0.01624128
-0.22096139 -0.41039145 0.01623486
-0.22111902 -0.41026258 0.01624123
-0.22127545 -0.41013432 0.016239475
-0.22143552 -0.41000226 0.016220186
-0.22159126 -0.40987477 0.016223114
-0.22174832 -0.40974593 0.016220186
-0.22190833 -0.40961403 0.016203219
-0.22205484 -0.40949625 0.01625292
-0.22221944 -0.40935963 0.016214892
-0.22237477 -0.40923208 0.016208528
-0.22253339 -0.40910238 0.016214859
-0.2226904 -0.40897372 0.016215432
-0.22284436 -0.40884829 0.016231198
-0.22300506 -0.4087159 0.016215384
-0.22316144 -0.40858799 0.016220614
-0.22331375 -0.40846369 0.016231772
-0.22347629 -0.40833008 0.01622289
-0.22363275 -0.40820214 0.016229287
-0.22378562 -0.40807733 0.016239271
-0.22395405 -0.40793717 0.016191829
-0.22411679 -0.40780288 0.016171301
-0.22426759 -0.40768087 0.016205771
-0.22443008 -0.40754691 0.016187578
-0.2245878 -0.40741783 0.016191613
-0.22474696 -0.40728733 0.016189791
-0.22490491 -0.40715808 0.016193829
-0.22506219 -0.40702954 0.016201366
-0.22522676 -0.40689358 0.0161773
-0.22538459 -0.40676457 0.016183665
-0.22553954 -0.40663788 0.016190102
-0.22570002 -0.40650678 0.016198717
-0.22586007 -0.40637553 0.01619688
-0.22602516 -0.40623921 0.016173963
-0.22618333 -0.40610993 0.016181476
-0.22634186 -0.40598032 0.016187821
-0.22650027 -0.40585086 0.016195329
-0.22666404 -0.40571597 0.016180594
-0.22683328 -0.4055756 0.016143605
-0.22698623 -0.40545171 0.016175698
-0.22714655 -0.40532044 0.016177336
-0.22730955 -0.40518647 0.016168442
-0.14611745 -0.47176471 0.017175566
-0.14628036 -0.47163022 0.017153844
-0.14644012 -0.47149834 0.0171322
-0.14662442 -0.47134942 0.017178576
-0.1467959 -0.47120965 0.017195027
-0.14695407 -0.47107887 0.017169934
-0.14711505 -0.47094625 0.017154071
-0.14728291 -0.47080854 0.017150845
-0.14745155 -0.47067079 0.017160388
-0.14761388 -0.4705373 0.017150313
-0.14778234 -0.47039929 0.017150547
-0.14794636 -0.47026426 0.017136946
-0.14811289 -0.47012803 0.017141884
-0.14827925 -0.46999192 0.017146837
-0.14844529 -0.46985561 0.017141325
-0.14861014 -0.46972013 0.017132344
-0.14877707 -0.46958372 0.017140772
-0.14894649 -0.4694452 0.017147966
-0.14910683 -0.46931326 0.01713562
-0.14926705 -0.46918142 0.017123278
-0.14943057 -0.46904737 0.017122481
-0.14959593 -0.46891168 0.017118149
-0.1497632 -0.46877474 0.017120745
-0.14993131 -0.46863723 0.017126814
-0.15008785 -0.46850842 0.017114565
-0.15025729 -0.46836963 0.017115947
-0.15041558 -0.46823967 0.017110627
-0.15058644 -0.46810046 0.017128265
-0.15075575 -0.46796232 0.017141283
-0.15090661 -0.46783641 0.017090786
-0.15107033 -0.46770248 0.017095797
-0.15123753 -0.46756625 0.017113527
-0.15139902 -0.46743289 0.017090682
-0.15156394 -0.46729776 0.01709101
-0.15173912 -0.46715638 0.017138779
-0.15189296 -0.46702906 0.01711148
-0.15205254 -0.46689802 0.017104965
-0.15221463 -0.46676484 0.017097227
-0.15237395 -0.46663398 0.017090729
-0.15253675 -0.4665004 0.017086461
-0.1526974 -0.46636871 0.017085738
-0.15286183 -0.46623409 0.017088411
-0.15301654 -0.46610636 0.017066902
-0.15318133 -0.46597153 0.017071893
-0.15334146 -0.46584028 0.017071186
-0.1535016 -0.46570855 0.017060008
-0.15366364 -0.46557611 0.017067401
-0.15382476 -0.46544376 0.017060846
-0.15398546 -0.46531174 0.017053142
-0.15414481 -0.46518061 0.017040823
-0.15430814 -0.46504742 0.017055165
-0.15447029 -0.4649145 0.017054405
-0.15462786 -0.4647851 0.017047953
-0.15479004 -0.46465221 0.017048351
-0.15494858 -0.46452221 0.017046526
-0.1551117 -0.46438876 0.017051561
-0.15526968 -0.46425918 0.017048579
-0.15543045 -0.4641273 0.017045533
-0.15558967 -0.46399695 0.01704834
-0.15575019 -0.46386528 0.017045291
-0.15591206 -0.46373278 0.017048039
-0.15607175 -0.46360165 0.017042693
-0.15623045 -0.46347174 0.017045513
-0.15638527 -0.4633438 0.017021667
-0.1565478 -0.46321094 0.017029051
-0.15671676 -0.46307403 0.017063018
-0.1568701 -0.46294761 0.017046204
-0.1570268 -0.46281853 0.017031623
-0.15717883 -0.46269301 0.017010182
-0.1573412 -0.46256092 0.01703153
-0.15750328 -0.46242794 0.01702844
-0.15766144 -0.46229857 0.017033607
-0.15781641 -0.46217126 0.01702605
-0.15797943 -0.46203834 0.0170404
-0.158135 -0.46191067 0.017036321
-0.15829086 -0.46178228 0.017021772
-0.15844995 -0.46165189 0.01702109
-0.1586089 -0.4615216 0.017020412
-0.15876621 -0.46139294 0.017025599
-0.15892358 -0.46126369 0.017019153
-0.15907691 -0.46113753 0.017008148
-0.15923728 -0.46100646 0.017015576
-0.15939593 -0.46087646 0.017016077
-0.15955605 -0.4607456 0.017023521
-0.15970767 -0.46062058 0.01700674
-0.15986651 -0.46049055 0.017009567
