# .PCD v0.7 - Point Cloud Data file format
VERSION 0.7
FIELDS x y z
SIZE 4 4 4
TYPE F F F
COUNT 1 1 1
WIDTH 132
HEIGHT 1
VIEWPOINT 0 0 0 1 0 0 0
POINTS 132
DATA ascii
-0.22311087 -0.4129045 0.016399441
-0.22327036 -0.41277373 0.016397579
-0.22343573 -0.41263685 0.016366459
-0.22359022 -0.41251072 0.016376358
-0.22374646 -0.41238278 0.016378069
-0.22390233 -0.41225526 0.016382122
-0.22405949 -0.41212642 0.016380321
-0.2242204 -0.41199434 0.01637492
-0.22437516 -0.41186804 0.016385982
-0.22453266 -0.4117389 0.016384171
-0.224691 -0.41160893 0.016378839
-0.22484341 -0.41148514 0.016402764
-0.22500296 -0.41135398 0.016392749
-0.22517198 -0.4112137 0.016352221
-0.22532418 -0.41109014 0.016378485
-0.22548491 -0.41095787 0.016364947
-0.22564402 -0.41082725 0.016359603
-0.22580628 -0.41069347 0.016340205
-0.22596593 -0.41056237 0.016333677
-0.22612217 -0.41043478 0.01634353
-0.22627749 -0.41030818 0.01635807
-0.22643763 -0.41017607 0.016337566
-0.22659342 -0.41004902 0.016350921
-0.22675589 -0.40991578 0.016347822
-0.22691475 -0.40978563 0.016348295
-0.22707514 -0.40965456 0.016355712
-0.22723977 -0.4095186 0.016331602
-0.22739825 -0.40938893 0.016335588
-0.22755444 -0.40926158 0.016350092
-0.22771528 -0.40912959 0.016344706
-0.22787705 -0.40899664 0.016335791
-0.2280398 -0.40886274 0.016323371
-0.2281989 -0.40873256 0.016327331
-0.22835678 -0.40860367 0.016337141
-0.22851804 -0.40847135 0.016332902
-0.2286794 -0.4083395 0.016341463
-0.22884426 -0.40820363 0.016323159
-0.22900622 -0.40807068 0.01631774
-0.22916529 -0.40794069 0.016325191
-0.22932473 -0.40781033 0.016331481
-0.22949472 -0.40766943 0.01629442
-0.2296586 -0.40753523 0.016295934
-0.22981906 -0.40740395 0.016299857
-0.14835069 -0.47419959 0.017361961
-0.14852042 -0.47406045 0.017359853
-0.14868397 -0.47392595 0.017348584
-0.14885363 -0.47378731 0.017356958
-0.14902274 -0.47364908 0.017364167
-0.14918438 -0.47351593 0.017348306
-0.14935386 -0.4733775 0.017357836
-0.14951411 -0.47324532 0.01733852
-0.14968725 -0.47310448 0.017360758
-0.14984828 -0.47297183 0.017344913
-0.15000904 -0.47283983 0.017338376
-0.15017608 -0.47270271 0.017332846
-0.15033317 -0.4725728 0.017305462
-0.15051959 -0.47242311 0.017373912
-0.15067694 -0.4722926 0.017338369
-0.15084067 -0.47215825 0.017334085
-0.15100287 -0.47202498 0.017325193
-0.15117399 -0.47188571 0.01734633
-0.15133449 -0.47175363 0.017332822
-0.15149173 -0.47162372 0.017308913
-0.15166096 -0.47148579 0.01732544
-0.15181977 -0.47135535 0.017317794
-0.1519842 -0.4712207 0.017319314
-0.15214874 -0.47108555 0.017311519
-0.15231287 -0.47095114 0.017313045
-0.15247244 -0.4708198 0.01729957
-0.15263559 -0.47068608 0.017298792
-0.15280464 -0.47054848 0.017318815
-0.15296581 -0.47041613 0.017312268
-0.15312719 -0.47028369 0.017306885
-0.15328842 -0.47015134 0.017301507
-0.15345581 -0.47001493 0.017318083
-0.15361908 -0.46988082 0.017310321
-0.15378419 -0.46974552 0.017309492
-0.15394318 -0.46961522 0.017308833
-0.15410404 -0.46948323 0.017304625
-0.1542697 -0.46934763 0.017307274
-0.15442827 -0.46921766 0.017306622
-0.15459201 -0.46908337 0.0173035
-0.15475264 -0.46895161 0.017300468
-0.15491028 -0.46882188 0.017287031
-0.1550729 -0.46868888 0.017292088
-0.15523325 -0.46855688 0.017278582
-0.1553981 -0.46842247 0.017292902
-0.15556562 -0.46828631 0.017317615
-0.15571699 -0.46816078 0.017283399
-0.1558837 -0.4680247 0.017295331
-0.15604265 -0.46789423 0.017290011
-0.15620209 -0.46776345 0.017286999
-0.15636326 -0.46763161 0.017290935
-0.15652877 -0.46749642 0.017300578
-0.15668629 -0.46736696 0.017291805
-0.15684278 -0.46723822 0.017279558
-0.15700665 -0.46710417 0.017284594
-0.15716623 -0.46697345 0.017285068
-0.15733522 -0.46683615 0.017310914
-0.15748374 -0.46671262 0.017269779
-0.15763615 -0.46658713 0.017255319
-0.15780173 -0.46645209 0.017269621
-0.1579598 -0.46632245 0.017266646
-0.15812245 -0.46618986 0.017282184
-0.15828055 -0.46606025 0.017280376
-0.15844378 -0.46592686 0.017287746
-0.15860222 -0.46579707 0.017288264
-0.15876487 -0.46566406 0.01729448
-0.15892248 -0.46553487 0.017292686
-0.15908258 -0.46540356 0.017289666
-0.15924022 -0.46527436 0.017289033
-0.15939747 -0.46514544 0.017287247
-0.1595529 -0.46501771 0.01727853
-0.15971649 -0.46488428 0.017291714
-0.15987113 -0.46475708 0.017280685
-0.16002829 -0.46462777 0.017268421
-0.16018747 -0.46449775 0.017277069
-0.16034511 -0.46436763 0.017255481
-0.16051283 -0.46423224 0.017301152
-0.16066161 -0.46410939 0.017279796
-0.16081837 -0.46398097 0.017280353
-0.16097435 -0.46385252 0.0172658
-0.16112927 -0.46372533 0.017259426
-0.16129234 -0.46359244 0.017276112
-0.16144703 -0.46346542 0.017269734
-0.16160637 -0.46333495 0.017271385
-0.16176139 -0.46320778 0.017267339
-0.16191891 -0.46307847 0.017262056
-0.16207609 -0.46294996 0.017268416
-0.16223106 -0.46282288 0.01726553
-0.16238697 -0.46269521 0.017267272
-0.16254199 -0.46256757 0.017252743
