# .PCD v0.7 - Point Cloud Data file format
VERSION 0.7
FIELDS x y z
SIZE 4 4 4
TYPE F F F
COUNT 1 1 1
WIDTH 114
HEIGHT 1
VIEWPOINT 0 0 0 1 0 0 0
POINTS 114
DATA ascii
-0.17134547 -0.39979294 0.01987046
-0.17149432 -0.39967039 0.019859593
-0.17163739 -0.39955315 0.019860519
-0.17179373 -0.39942503 0.019861087
-0.17193495 -0.39930859 0.019846931
-0.1720853 -0.39918607 0.019862797
-0.17223215 -0.39906478 0.019843834
-0.1723624 -0.39895779 0.019839276
-0.1725028 -0.3988429 0.019843761
-0.17266794 -0.39870706 0.019833628
-0.17279297 -0.39860436 0.019829206
-0.17294279 -0.39848065 0.019810162
-0.17309044 -0.39836052 0.019829594
-0.17320862 -0.39826474 0.019853283
-0.17334765 -0.39815012 0.019839182
-0.17350866 -0.39801693 0.019814026
-0.17367691 -0.39788049 0.019845717
-0.17383327 -0.39775273 0.019854449
-0.17397895 -0.39763179 0.019822713
-0.17411701 -0.39752468 0.019950656
-0.17426965 -0.39739501 0.01985471
-0.17442016 -0.39726874 0.019793741
-0.17453757 -0.39716867 0.019712679
-0.17465971 -0.39707619 0.019874794
-0.17484096 -0.39692757 0.019873563
-0.17500132 -0.39679402 0.019829798
-0.17514043 -0.39667794 0.019786593
-0.17526072 -0.39657918 0.019783456
-0.1753895 -0.3964749 0.01981036
-0.17553231 -0.39636707 0.02000569
-0.17568137 -0.39624336 0.019973865
-0.17582366 -0.39612123 0.019858394
-0.17597559 -0.39600334 0.019998789
-0.17616339 -0.39584562 0.019919384
-0.17630415 -0.39572445 0.019796975
-0.17646307 -0.39559507 0.019816108
-0.17661148 -0.39547268 0.019800592
-0.17675959 -0.39535075 0.019789744
-0.17690361 -0.39523301 0.019796468
-0.17703104 -0.39512914 0.019809444
-0.17717454 -0.39500776 0.019730028
-0.17733704 -0.39488232 0.019894589
-0.17744009 -0.3948029 0.020001318
-0.17758907 -0.39467138 0.019803032
-0.17778072 -0.39450946 0.019701412
-0.17793944 -0.39437646 0.01964023
-0.17808193 -0.39426509 0.019755248
-0.1781977 -0.39417142 0.019781332
-0.1783247 -0.39406964 0.019830406
-0.17899339 -0.39363012 0.022124864
-0.1791417 -0.39350978 0.022151267
-0.17928964 -0.3933875 0.022129944
-0.1790919 -0.39384106 0.028285053
-0.18032868 -0.39253297 0.022072565
-0.1804572 -0.3924284 0.022089005
-0.18059407 -0.39231908 0.022149462
-0.18073714 -0.39220315 0.022178322
-0.18089949 -0.39206788 0.022132179
-0.181052 -0.39194041 0.02208047
-0.1812073 -0.39181387 0.022097379
-0.18136072 -0.39168435 0.022017702
-0.18332511 -0.389817 0.016590638
-0.18347198 -0.38969791 0.016618241
-0.18362248 -0.3895745 0.016617801
-0.18378004 -0.38944483 0.016606707
-0.18392767 -0.38932586 0.01665058
-0.18408209 -0.38919795 0.016622104
-0.18423274 -0.38907447 0.016622834
-0.18438831 -0.38894624 0.016608302
-0.1845396 -0.38882208 0.016605522
-0.18469363 -0.38869575 0.016603831
-0.18484628 -0.38857102 0.016612645
-0.18500046 -0.38844454 0.016610954
-0.1851519 -0.38832033 0.01660933
-0.18530741 -0.38819239 0.016599458
-0.18546236 -0.3880651 0.016594253
-0.18561772 -0.3879374 0.016586706
-0.18576935 -0.38781306 0.016586239
-0.18592322 -0.38768712 0.016590374
-0.18607767 -0.38756055 0.016591001
-0.18623272 -0.38743329 0.016588124
-0.18638365 -0.38730988 0.016594656
-0.18654062 -0.38718051 0.016580086
-0.18669084 -0.38705793 0.016592469
-0.18684748 -0.38692901 0.016581398
-0.18700317 -0.38680118 0.016577331
-0.18715896 -0.38667327 0.016573265
-0.18731274 -0.38654682 0.0165646
-0.18746653 -0.3864212 0.016574558
-0.18762223 -0.38629347 0.016572822
-0.18778081 -0.38616258 0.016553551
-0.18793315 -0.38603783 0.016556565
-0.18808989 -0.38590902 0.016550152
-0.18824089 -0.38578582 0.016562503
-0.18839841 -0.38565624 0.016552579
-0.18855584 -0.38552675 0.016543809
-0.18871607 -0.38539505 0.016536145
-0.18886952 -0.38526922 0.016535629
-0.18902203 -0.38514528 0.016558422
-0.18918274 -0.38501152 0.016515821
-0.18933719 -0.38488549 0.016528089
-0.18948559 -0.38476452 0.016542839
-0.18964179 -0.38463661 0.016545752
-0.18979724 -0.38450876 0.016537035
-0.18995443 -0.3843798 0.01653526
-0.19011481 -0.3842482 0.016532242
-0.19026875 -0.3841221 0.016534045
-0.19042277 -0.38399592 0.016535856
-0.19058061 -0.3838664 0.016532894
-0.19073859 -0.38373595 0.016513648
-0.19089288 -0.38361034 0.016531734
-0.1910475 -0.38348362 0.016532358
-0.19120833 -0.38335097 0.016515356
-0.19136864 -0.38321891 0.016501859
