# .PCD v0.7 - Point Cloud Data file format
VERSION 0.7
FIELDS x y z
SIZE 4 4 4
TYPE F F F
COUNT 1 1 1
WIDTH 132
HEIGHT 1
VIEWPOINT 0 0 0 1 0 0 0
POINTS 132
DATA ascii
-0.22387853 -0.41414326 0.015864721
-0.22401673 -0.41403013 0.01586926
-0.22415502 -0.41391692 0.015873808
-0.22429952 -0.41379738 0.015851421
-0.22443859 -0.41368341 0.015853619
-0.2245767 -0.41357046 0.015860492
-0.22471571 -0.41345659 0.015863851
-0.22485617 -0.41334128 0.015861362
-0.22499838 -0.41322419 0.015851837
-0.22513883 -0.41310894 0.015850507
-0.22528228 -0.41299117 0.015847929
-0.22542076 -0.41287795 0.015855964
-0.22555602 -0.41276801 0.015878033
-0.22569929 -0.41264948 0.015855689
-0.22584003 -0.41253403 0.015855512
-0.22598073 -0.41241917 0.015866969
-0.22612114 -0.4123041 0.015869131
-0.15504785 -0.47066081 0.017266952
-0.15519145 -0.47054231 0.017251549
-0.15533082 -0.47042713 0.017231606
-0.15548861 -0.47029868 0.017253071
-0.1556444 -0.47017273 0.017294372
-0.15578309 -0.47005767 0.017265134
-0.15592773 -0.46993896 0.017263666
-0.15607709 -0.46981671 0.017269056
-0.15622649 -0.46969485 0.01728376
-0.15637082 -0.46957603 0.017274158
-0.15651685 -0.46945608 0.017270334
-0.15666237 -0.46933651 0.017265353
-0.15680546 -0.46921897 0.017261606
-0.15695707 -0.46909532 0.01727741
-0.15709847 -0.46897897 0.017269045
-0.15724592 -0.46885818 0.017272167
-0.15739091 -0.46873945 0.017276511
-0.15753597 -0.46862033 0.017272713
-0.15768656 -0.46849787 0.017296685
-0.15782821 -0.46838105 0.017282503
-0.15796989 -0.46826464 0.017277621
-0.15811372 -0.46814638 0.017271524
-0.15826526 -0.468023 0.017291991
-0.15841222 -0.46790272 0.017297445
-0.15855438 -0.46778607 0.017296052
-0.15869936 -0.46766713 0.017295737
-0.15884125 -0.46755069 0.017294349
-0.15899099 -0.46742862 0.017311364
-0.15913396 -0.46731153 0.0173146
-0.15927938 -0.46719238 0.017317772
-0.15942074 -0.46707639 0.01731639
-0.15956655 -0.46695703 0.017321873
-0.15971127 -0.46683884 0.017333217
-0.15985779 -0.46671909 0.017342173
-0.15999861 -0.4666031 0.017331501
-0.16013446 -0.46649042 0.017303497
-0.16028155 -0.46637076 0.017325241
-0.16042429 -0.46625355 0.017322663
-0.16057429 -0.4661316 0.017346662
-0.16071355 -0.46601719 0.017341852
-0.16084889 -0.46590534 0.017323174
-0.16099368 -0.46578687 0.017329853
-0.16113229 -0.46567291 0.017323891
-0.1612765 -0.46555489 0.017329415
-0.16141841 -0.46543837 0.017326858
-0.16156018 -0.46532199 0.017324304
-0.16170177 -0.46520615 0.017331067
-0.16184361 -0.46508974 0.017329682
-0.1619834 -0.46497515 0.017330673
-0.16212317 -0.46486014 0.017322348
-0.1622612 -0.46474671 0.017317573
-0.16240503 -0.46462908 0.017325439
-0.16254404 -0.46451506 0.017325286
-0.16268823 -0.46439725 0.017335463
-0.16282715 -0.4642829 0.017326001
-0.16297106 -0.4641653 0.017336195
-0.16310962 -0.46405166 0.017336056
-0.16325268 -0.46393469 0.01734394
-0.16339041 -0.46382159 0.017341491
-0.16353175 -0.46370578 0.017343611
-0.16367161 -0.46359137 0.017350418
-0.16381329 -0.46347535 0.017354848
-0.16395573 -0.46335888 0.017362749
-0.1640943 -0.46324492 0.017355628
-0.16423252 -0.46313164 0.017357819
-0.16437545 -0.46301493 0.017369196
-0.16451287 -0.46290219 0.017369088
-0.16464961 -0.46278948 0.017356193
-0.16478683 -0.46267691 0.017356087
-0.16492845 -0.46256113 0.01736401
-0.16506714 -0.4624472 0.017360376
-0.16520405 -0.46233442 0.017349806
-0.16533838 -0.4622238 0.017339304
-0.1654768 -0.4621101 0.017335678
-0.16562277 -0.46199211 0.017374903
-0.16575438 -0.46188277 0.017343529
-0.16589439 -0.46176815 0.017348003
-0.16603349 -0.4616541 0.017349008
-0.16616215 -0.46154711 0.01731655
-0.16630214 -0.46143255 0.017322183
-0.16643952 -0.46132013 0.017327895
-0.16657689 -0.46120724 0.017323125
-0.16671327 -0.46109548 0.017325373
-0.16685362 -0.46098077 0.017334498
-0.16699046 -0.46086827 0.017328583
-0.16712901 -0.46075472 0.017330762
-0.16726525 -0.46064314 0.017334174
-0.16740103 -0.46053135 0.017324794
-0.16753733 -0.46041977 0.017329374
-0.16767447 -0.46030718 0.017326942
-0.16781102 -0.46019498 0.017322192
-0.16794799 -0.4600825 0.017319774
-0.16808239 -0.45997217 0.017317411
-0.16822195 -0.45985818 0.017327718
-0.16835864 -0.45974594 0.017325295
-0.16849498 -0.45963395 0.017321723
-0.16862878 -0.45952407 0.017318215
-0.16876645 -0.45941129 0.01732159
-0.16890179 -0.45930052 0.017326184
-0.16903828 -0.45918849 0.017324939
-0.16917372 -0.45907715 0.017319057
-0.16931078 -0.45896482 0.017321277
-0.16944501 -0.45885479 0.017322421
-0.16958044 -0.45874348 0.017317701
-0.16971746 -0.45863125 0.017321091
-0.16985297 -0.45851997 0.017317541
-0.1699857 -0.45841089 0.017312901
-0.17012362 -0.45829818 0.017322078
-0.17025618 -0.45818925 0.017317444
-0.17038929 -0.45807946 0.017303484
-0.17052555 -0.45796779 0.017305734
-0.17066494 -0.4578543 0.017324187
-0.1707949 -0.45774695 0.017307976
-0.17093024 -0.45763591 0.01730676
-0.17106371 -0.45752653 0.017309071
