# .PCD v0.7 - Point Cloud Data file format
VERSION 0.7
FIELDS x y z
SIZE 4 4 4
TYPE F F F
COUNT 1 1 1
WIDTH 119
HEIGHT 1
VIEWPOINT 0 0 0 1 0 0 0
POINTS 119
DATA ascii
-0.14219326 -0.35842314 0.035956644
-0.14232446 -0.3583152 0.03594736
-0.1424534 -0.3582091 0.035938136
-0.14257389 -0.35811105 0.035953578
-0.14270033 -0.35800725 0.03594907
-0.1428252 -0.35790578 0.035967886
-0.14295137 -0.35780239 0.03596805
-0.14308061 -0.35769603 0.035957657
-0.14320627 -0.35759342 0.035965983
-0.14332786 -0.35749528 0.035998847
-0.14345686 -0.3573893 0.035993114
-0.14358354 -0.35728529 0.03598861
-0.14370891 -0.35718176 0.035971325
-0.14383578 -0.35707754 0.035965648
-0.14395967 -0.35697618 0.035969358
-0.14408617 -0.35687253 0.035969511
-0.14421789 -0.35676292 0.035933439
-0.14434493 -0.35665727 0.035899822
-0.14446867 -0.35655883 0.035964064
-0.14496182 -0.3561002 0.034773048
-0.14508729 -0.35600245 0.034883805
-0.1451956 -0.35592276 0.035082329
-0.14531946 -0.35582089 0.035074398
-0.14594664 -0.35531422 0.035233602
-0.14625853 -0.35503969 0.034819119
-0.14637095 -0.35494632 0.034791708
-0.1467057 -0.35469851 0.035371855
-0.14700499 -0.35447967 0.035949461
-0.14712952 -0.35437796 0.035956644
-0.14726095 -0.35426962 0.035942692
-0.14738867 -0.35416394 0.035920698
-0.14750764 -0.35406822 0.035959464
-0.14764059 -0.35395905 0.035954788
-0.14776702 -0.35385606 0.035967741
-0.14789981 -0.35374713 0.035965398
-0.15048149 -0.35074061 0.016492944
-0.15061912 -0.35062897 0.016518407
-0.15076421 -0.35051042 0.016526213
-0.1509133 -0.35038814 0.016523443
-0.15106024 -0.35026845 0.01653935
-0.15120861 -0.35014704 0.016543578
-0.15135989 -0.35002321 0.01654656
-0.15151514 -0.34989363 0.016494738
-0.15166032 -0.34977511 0.016504873
-0.1518074 -0.34965536 0.016521936
-0.15195411 -0.34953508 0.016520398
-0.1521039 -0.34941214 0.016516438
-0.15225407 -0.34928879 0.016510148
-0.15240224 -0.34916782 0.016520202
-0.15255152 -0.34904557 0.016522076
-0.15270071 -0.34892344 0.016525123
-0.15284845 -0.34880209 0.016518887
-0.1529987 -0.3486788 0.016514923
-0.1531481 -0.34855649 0.016517956
-0.15329774 -0.34843397 0.01651983
-0.15344933 -0.34830919 0.016507672
-0.15360023 -0.34818524 0.016501363
-0.15375009 -0.34806252 0.016503222
-0.153906 -0.34793374 0.016481649
-0.15404877 -0.34781834 0.016516291
-0.1541992 -0.34769413 0.016496019
-0.15435086 -0.34756947 0.01648736
-0.15450129 -0.3474462 0.016488044
-0.15465164 -0.34732309 0.016489889
-0.15480205 -0.34719992 0.016491733
-0.1549515 -0.34707698 0.016481973
-0.15510124 -0.34695464 0.016489655
-0.15525378 -0.34682912 0.016478643
-0.15540349 -0.34670684 0.016487496
-0.15555537 -0.34658214 0.016482312
-0.15570611 -0.34645876 0.016485319
-0.1558587 -0.34633332 0.016476633
-0.15600996 -0.34620941 0.016477294
-0.15615907 -0.34608707 0.016474523
-0.15631287 -0.34596038 0.016459975
-0.15646477 -0.3458358 0.016458301
-0.15661529 -0.34571281 0.016465964
-0.15676904 -0.34558627 0.016453749
-0.15691936 -0.34546354 0.016463747
-0.15707162 -0.3453387 0.016462054
-0.15722397 -0.34521377 0.016460367
-0.15737598 -0.34509003 0.01647846
-0.15753461 -0.34495825 0.016439352
-0.15768909 -0.34483027 0.016409665
-0.15783629 -0.34471112 0.016441859
-0.15798795 -0.34458709 0.016447172
-0.15814285 -0.34445953 0.016433766
-0.15829432 -0.34433573 0.016441405
-0.15844786 -0.34420973 0.016437346
-0.15860111 -0.34408408 0.016435627
-0.15875626 -0.34395638 0.016423384
-0.1589113 -0.34382957 0.016428597
-0.15905833 -0.34371072 0.016464297
-0.15921426 -0.34358153 0.016433401
-0.15936738 -0.34345612 0.016435174
-0.15952186 -0.34332928 0.016429931
-0.15967476 -0.34320417 0.01643404
-0.15982904 -0.34307763 0.016431134
-0.15998445 -0.34294984 0.016422374
-0.1601426 -0.3428199 0.016414706
-0.16029225 -0.34269768 0.016423561
-0.1604463 -0.34257144 0.01642414
-0.16060154 -0.342444 0.016418876
-0.16075712 -0.34231621 0.016412444
-0.16091323 -0.34218857 0.0164188
-0.16106421 -0.34206504 0.016422961
-0.16121902 -0.34193814 0.016422359
-0.16137771 -0.34180716 0.016401872
-0.16153581 -0.34167752 0.016400024
-0.16168872 -0.34155273 0.016411116
-0.16184226 -0.34142661 0.016404737
-0.16199991 -0.34129685 0.016392419
-0.16215611 -0.34116867 0.016388301
-0.16231056 -0.34104234 0.016393531
-0.16246559 -0.34091541 0.016396426
-0.16262095 -0.34078819 0.016398139
-0.1627849 -0.34065261 0.016371693
-0.16293743 -0.34052774 0.016374644
-0.1630915 -0.34040195 0.016384542
