# .PCD v0.7 - Point Cloud Data file format
VERSION 0.7
FIELDS x y z
SIZE 4 4 4
TYPE F F F
COUNT 1 1 1
WIDTH 132
HEIGHT 1
VIEWPOINT 0 0 0 1 0 0 0
POINTS 132
DATA ascii
-0.21611902 -0.42071021 0.016338747
-0.216241 -0.42061031 0.016340218
-0.21636304 -0.42051032 0.016341679
-0.21648647 -0.4204089 0.016336134
-0.21660802 -0.42030948 0.016341105
-0.21672964 -0.42021 0.016346067
-0.21685407 -0.42010814 0.016348638
-0.2169776 -0.42000669 0.016344246
-0.21710168 -0.41990468 0.016337512
-0.21722585 -0.41980258 0.016330784
-0.21734971 -0.41970137 0.016338019
-0.21747203 -0.41960126 0.016341813
-0.21759647 -0.41949895 0.016335066
-0.21772239 -0.41939512 0.016321305
-0.2178452 -0.41929457 0.016323915
-0.21796741 -0.4191947 0.016330032
-0.21809177 -0.41909254 0.016325621
-0.2182153 -0.4189913 0.016325882
-0.21834262 -0.41888663 0.016319072
-0.21846728 -0.41878423 0.016314654
-0.21858943 -0.41868448 0.016323091
-0.21871234 -0.41858396 0.016328031
-0.21883726 -0.41848135 0.016323604
-0.2189635 -0.4183774 0.016313322
-0.21908876 -0.418275 0.016319361
-0.21921399 -0.41817215 0.016314927
-0.21933687 -0.41807178 0.016322186
-0.21946377 -0.41796723 0.016310729
-0.2195873 -0.41786617 0.016315648
-0.21971168 -0.41776431 0.016317058
-0.21983564 -0.41766286 0.016320799
-0.2199617 -0.41755927 0.016315171
-0.22009197 -0.41745186 0.016301308
-0.22021495 -0.41735148 0.016310893
-0.22034107 -0.41724789 0.016306438
-0.22046575 -0.41714579 0.016308999
-0.22058666 -0.41704759 0.016329112
-0.22071308 -0.41694376 0.016324647
-0.22084194 -0.41683745 0.016309636
-0.22096647 -0.41673559 0.016314531
-0.22109371 -0.41663146 0.016318187
-0.22121897 -0.41652891 0.016320735
-0.22134271 -0.41642788 0.016330302
-0.22147183 -0.4163219 0.016326927
-0.2216022 -0.4162142 0.016308397
-0.22173199 -0.41610667 0.016282899
-0.22185208 -0.41600946 0.016310016
-0.22197384 -0.41591054 0.016330106
-0.22210734 -0.41580021 0.016310334
-0.22223505 -0.41569534 0.016305838
-0.22236259 -0.41559064 0.016302504
-0.22248664 -0.41548949 0.016314384
-0.22261357 -0.41538545 0.016314566
-0.22274451 -0.41527739 0.016298341
-0.22287375 -0.4151715 0.016299624
-0.22300215 -0.41506606 0.016295109
-0.15854301 -0.46794632 0.017232627
-0.1586757 -0.4678376 0.017233798
-0.1588057 -0.46773073 0.017226882
-0.15893668 -0.4676232 0.017223438
-0.15907396 -0.46751109 0.017232634
-0.15920722 -0.46740204 0.017237283
-0.15933889 -0.46729413 0.017237311
-0.15947008 -0.46718654 0.017236184
-0.15960185 -0.4670786 0.017237382
-0.1597378 -0.46696782 0.017252421
-0.1598675 -0.46686131 0.017247854
-0.15999496 -0.46675631 0.017236359
-0.16012728 -0.46664804 0.017241023
-0.1602577 -0.46654108 0.017239925
-0.16039109 -0.4664318 0.01724107
-0.16052055 -0.46632552 0.017237667
-0.1606562 -0.4662151 0.017255047
-0.16078052 -0.46611232 0.017235493
-0.16091172 -0.46600494 0.017239027
-0.16103898 -0.46590021 0.017229861
-0.16116855 -0.46579394 0.017228784
-0.16129765 -0.46568802 0.01722656
-0.16142732 -0.46558136 0.017218487
-0.16155961 -0.46547335 0.017227815
-0.16168836 -0.4653677 0.017225588
-0.16181836 -0.46526125 0.017227992
-0.16194654 -0.46515602 0.017224623
-0.16207528 -0.46505046 0.017223569
-0.16220693 -0.46494296 0.01723291
-0.16233078 -0.46484068 0.01721569
-0.16245984 -0.46473491 0.017216956
-0.16258615 -0.46463102 0.017208984
-0.16272098 -0.46452114 0.017222896
-0.16284937 -0.46441591 0.01722301
-0.16297568 -0.46431205 0.017216198
-0.1631058 -0.46420571 0.017223248
-0.16323189 -0.46410203 0.017216442
-0.16336307 -0.46399504 0.017228127
-0.16348831 -0.46389195 0.017219013
-0.16361892 -0.46378538 0.01722954
-0.16375013 -0.46367803 0.017234242
-0.16387507 -0.46357521 0.017225137
-0.16400529 -0.46346894 0.017235674
-0.16413349 -0.46336401 0.017239295
-0.16426033 -0.46325999 0.01723828
-0.16438673 -0.46315628 0.017236125
-0.16451305 -0.46305263 0.017233975
-0.16464205 -0.46294728 0.017242216
-0.16476814 -0.46284381 0.017240057
-0.16489321 -0.46274102 0.01723445
-0.16502297 -0.46263483 0.017238019
-0.16515121 -0.46253005 0.017245129
-0.16527414 -0.46242869 0.017232584
-0.16539763 -0.462327 0.017222354
-0.16552404 -0.46222347 0.017223692
-0.16565274 -0.46211845 0.01723427
-0.16577773 -0.46201581 0.017230982
-0.16590144 -0.46191406 0.017223077
-0.16602655 -0.46181142 0.017220959
-0.16615009 -0.4617098 0.017213058
-0.16627732 -0.4616054 0.017210871
-0.16640595 -0.46150053 0.017223781
-0.1665231 -0.46140307 0.017191613
-0.16664688 -0.46130136 0.017186036
-0.16677231 -0.4611986 0.017187389
-0.16689822 -0.46109554 0.017191058
-0.16702518 -0.46099186 0.017199364
-0.16714887 -0.46089026 0.017194947
-0.16727391 -0.46078783 0.017196311
-0.16739714 -0.46068656 0.017190749
-0.16752255 -0.46058393 0.017194441
-0.16764618 -0.46048245 0.017191188
-0.16777228 -0.46037897 0.017189033
-0.16789435 -0.46027851 0.017180011
-0.16801745 -0.46017742 0.017175613
-0.16814211 -0.46007535 0.017178154
