# .PCD v0.7 - Point Cloud Data file format
VERSION 0.7
FIELDS x y z
SIZE 4 4 4
TYPE F F F
COUNT 1 1 1
WIDTH 127
HEIGHT 1
VIEWPOINT 0 0 0 1 0 0 0
POINTS 127
DATA ascii
-0.12841959 -0.39187822 0.03458406
-0.12854703 -0.3917737 0.034583092
-0.12867634 -0.39166746 0.034578592
-0.12880325 -0.39156321 0.034574144
-0.12893377 -0.39145651 0.034580074
-0.1290606 -0.39135233 0.034575626
-0.12919016 -0.39124605 0.034574602
-0.12931734 -0.39114174 0.034573637
-0.12944669 -0.39103562 0.034571458
-0.12957378 -0.3909314 0.034570493
-0.12970264 -0.39082548 0.034564838
-0.12982926 -0.39072147 0.034560397
-0.12995911 -0.3906152 0.034564022
-0.13008539 -0.39051136 0.034557261
-0.13021463 -0.39040536 0.034556255
-0.13034201 -0.39030111 0.034559935
-0.13047193 -0.39019489 0.034565881
-0.13059895 -0.39009082 0.034567252
-0.13072777 -0.38998505 0.034563925
-0.13084978 -0.38988185 0.034496766
-0.13097775 -0.38977641 0.03448531
-0.13110517 -0.38967222 0.034491319
-0.13123274 -0.38956696 0.034476385
-0.13136138 -0.38946238 0.034495164
-0.13148725 -0.38935772 0.034463979
-0.131615 -0.38925239 0.034451369
-0.13067316 -0.38937503 0.020709004
-0.13081488 -0.38926074 0.020749558
-0.13096234 -0.3891421 0.020796943
-0.13110392 -0.3890267 0.020810727
-0.13124132 -0.38891262 0.020780414
-0.13137457 -0.38880113 0.020732746
-0.13150875 -0.388688 0.020666441
-0.13165851 -0.38857022 0.020771945
-0.13179873 -0.38845393 0.020743888
-0.13193414 -0.38834041 0.020690354
-0.13207363 -0.38822427 0.020652995
-0.13222052 -0.38810331 0.020641046
-0.13239285 -0.38796407 0.020684306
-0.13254008 -0.3878445 0.020708423
-0.13268752 -0.38772348 0.020704603
-0.13282238 -0.38761297 0.020705769
-0.13296092 -0.38750011 0.020720802
-0.13310309 -0.38738492 0.020749714
-0.13323046 -0.38727924 0.02072314
-0.13337934 -0.38715643 0.02070649
-0.13352278 -0.38703948 0.020720236
-0.13367054 -0.38691849 0.020723397
-0.13384092 -0.38679665 0.021100653
-0.13394353 -0.38670719 0.020987451
-0.13542551 -0.38619983 0.035958592
-0.1355523 -0.38609761 0.035994872
-0.13567756 -0.38599724 0.036043994
-0.13580379 -0.38589361 0.036040734
-0.13592501 -0.38579381 0.036031786
-0.13604951 -0.38569203 0.03603787
-0.13617672 -0.38558838 0.036050867
-0.13630092 -0.38548666 0.036053471
-0.13642977 -0.38538122 0.036057126
-0.1365512 -0.38528147 0.036052819
-0.13667645 -0.385178 0.036035616
-0.13679954 -0.38507637 0.036020793
-0.13692304 -0.38497475 0.036012944
-0.13704886 -0.38487124 0.036005035
-0.13717572 -0.38476774 0.036015719
-0.13729966 -0.38466614 0.036016002
-0.13742542 -0.38456267 0.036008094
-0.13754971 -0.38446113 0.036015354
-0.13767608 -0.38435772 0.036019064
-0.13780102 -0.38425627 0.036040269
-0.13792674 -0.38415286 0.036032364
-0.13804919 -0.38405117 0.036004756
-0.13817516 -0.38394776 0.036001503
-0.13829827 -0.38384613 0.035986684
-0.13842514 -0.3837429 0.03600318
-0.13854696 -0.38364336 0.036010496
-0.13867563 -0.38353822 0.036017645
-0.13879919 -0.38343674 0.036013283
-0.13892514 -0.38333338 0.036011193
-0.13904777 -0.38323161 0.035984755
-0.139174 -0.38312835 0.035989624
-0.13929716 -0.38302669 0.035974801
-0.13942447 -0.38292393 0.036008749
-0.13954739 -0.38282219 0.035988115
-0.13967402 -0.38271919 0.036005788
-0.1397969 -0.38261738 0.035982821
-0.13992327 -0.38251436 0.035994679
-0.14004676 -0.38241285 0.035989158
-0.14017291 -0.38230973 0.035995204
-0.14029646 -0.38220829 0.035992015
-0.14042199 -0.38210475 0.035978291
-0.14054595 -0.38200364 0.03598905
-0.14067391 -0.38189828 0.035979915
-0.14079534 -0.38179889 0.035982594
-0.14092109 -0.38169548 0.035975855
-0.14104447 -0.38159385 0.035965677
-0.14117081 -0.38149109 0.035983358
-0.14129649 -0.38138759 0.03597312
-0.14142022 -0.38128638 0.035978068
-0.1415485 -0.38118142 0.035981737
-0.14167155 -0.38107923 0.035954114
-0.14179586 -0.380979 0.035989299
-0.14192148 -0.38087529 0.035974413
-0.14204487 -0.38077354 0.035961907
-0.14216855 -0.38067234 0.035965696
-0.14229448 -0.38056916 0.035967093
-0.14242071 -0.38046676 0.035989426
-0.14254412 -0.38036492 0.035975758
-0.14266983 -0.38026118 0.035960872
-0.14279838 -0.38015729 0.035992455
-0.14291966 -0.38005772 0.035989314
-0.14304774 -0.37995222 0.035979025
-0.143169 -0.37985244 0.035971235
-0.14329262 -0.37975112 0.035971522
-0.14341843 -0.37964717 0.035954304
-0.1435421 -0.37954593 0.035956919
-0.14366801 -0.37944254 0.035953671
-0.14379169 -0.37934154 0.035962109
-0.14391766 -0.37923917 0.035980955
-0.14404128 -0.3791374 0.035971943
-0.14416724 -0.37903282 0.035944246
-0.14429092 -0.37893113 0.035937555
-0.14441462 -0.37882975 0.035937849
-0.14453822 -0.37872985 0.035968393
-0.14466436 -0.37862453 0.035927892
-0.14479256 -0.37852043 0.035949014
-0.14492345 -0.378411 0.035903737
