# .PCD v0.7 - Point Cloud Data file format
VERSION 0.7
FIELDS x y z
SIZE 4 4 4
TYPE F F F
COUNT 1 1 1
WIDTH 132
HEIGHT 1
VIEWPOINT 0 0 0 1 0 0 0
POINTS 132
DATA ascii
-0.19326417 -0.38099542 0.016696371
-0.19342121 -0.38086659 0.016693434
-0.19357672 -0.38073942 0.016698679
-0.19373779 -0.38060641 0.016677013
-0.19389591 -0.3804765 0.016670547
-0.19405225 -0.38034853 0.016673449
-0.19421066 -0.38021907 0.016680948
-0.19436163 -0.38009679 0.016710764
-0.19452631 -0.37996012 0.016675021
-0.19468139 -0.37983358 0.016686108
-0.19483854 -0.37970489 0.016687818
-0.19499901 -0.37957275 0.01667431
-0.19515809 -0.37944272 0.01668179
-0.19531985 -0.3793093 0.016663598
-0.19547801 -0.37917969 0.016662963
-0.19563374 -0.37905258 0.016674019
-0.19579288 -0.37892199 0.016669858
-0.19595267 -0.37879074 0.016663358
-0.19611453 -0.378658 0.016661454
-0.19626957 -0.37853107 0.01666439
-0.19643013 -0.37839976 0.016669504
-0.19659071 -0.37826779 0.016661812
-0.19675407 -0.378133 0.016642418
-0.19690968 -0.37800622 0.016658129
-0.19707498 -0.37787014 0.016644504
-0.19723077 -0.37774259 0.016647412
-0.19739451 -0.37760818 0.016641969
-0.19755621 -0.37747523 0.016633088
-0.19771619 -0.3773441 0.016632404
-0.19787548 -0.37721372 0.016635219
-0.19803761 -0.37708104 0.016639128
-0.19820018 -0.37694734 0.016629066
-0.19835959 -0.3768169 0.016633049
-0.198515 -0.37669057 0.016654596
-0.19867101 -0.37656361 0.0166738
-0.19885172 -0.37641156 0.016589921
-0.19901639 -0.37627646 0.016586773
-0.19916779 -0.37615433 0.016627062
-0.19932885 -0.37602234 0.016627509
-0.1179251 -0.44277328 0.017535934
-0.11809191 -0.44263655 0.01753509
-0.11825682 -0.44250065 0.017519157
-0.1184163 -0.44236887 0.017496381
-0.11860854 -0.4422147 0.017567042
-0.11876366 -0.44208589 0.017531581
-0.11893269 -0.44194734 0.01753068
-0.11909685 -0.44181207 0.017514765
-0.11926122 -0.44167668 0.017500013
-0.11943362 -0.4415364 0.017521137
-0.11959949 -0.44140005 0.017512167
-0.11976755 -0.44126272 0.017520603
-0.11993204 -0.44112733 0.017508168
-0.12010548 -0.44098648 0.017535087
-0.12027922 -0.44084498 0.017553844
-0.12042147 -0.44072494 0.017480306
-0.12059352 -0.44058463 0.017494457
-0.12076058 -0.44044814 0.017502919
-0.12093154 -0.44030857 0.017514758
-0.12109165 -0.44017676 0.017501289
-0.12125371 -0.44004363 0.01749474
-0.12142105 -0.43990657 0.017496213
-0.12158996 -0.43976849 0.017503457
-0.1217581 -0.43963146 0.017518871
-0.12192255 -0.43949637 0.017512258
-0.12208183 -0.43936521 0.017498812
-0.12224635 -0.43923011 0.017493367
-0.12241416 -0.43909341 0.017509952
-0.12257972 -0.43895769 0.017509131
-0.12273879 -0.43882674 0.01749685
-0.12290274 -0.43869215 0.017491421
-0.12306356 -0.43855959 0.017475603
-0.12322592 -0.43842608 0.017465554
-0.12339342 -0.43828923 0.017474007
-0.12356502 -0.43815023 0.017507952
-0.12371609 -0.43802461 0.017470267
-0.12388052 -0.43788984 0.017469475
-0.12404509 -0.4377555 0.017480332
-0.12420857 -0.43762138 0.017477237
-0.12436997 -0.43748865 0.017467223
-0.12452734 -0.43735906 0.017453816
-0.12469522 -0.43722215 0.017468069
-0.12485911 -0.43708786 0.017468462
-0.12502222 -0.43695411 0.017466545
-0.12518036 -0.43682411 0.017457779
-0.12534226 -0.43669116 0.017452404
-0.12550935 -0.43655494 0.017466687
-0.12566774 -0.43642485 0.017460234
-0.12582925 -0.43629223 0.017454868
-0.12598521 -0.43616372 0.017440338
-0.12614739 -0.43603075 0.017438445
-0.12631314 -0.4358955 0.017450433
-0.12648378 -0.43575659 0.017470432
-0.12663865 -0.43562889 0.0174536
-0.12678939 -0.4355033 0.017410103
-0.12695196 -0.43537071 0.017423332
-0.12711908 -0.43523473 0.017443435
-0.12727712 -0.43510506 0.017440481
-0.12743826 -0.43497291 0.017438617
-0.12759635 -0.43484327 0.017436842
-0.12775606 -0.43471211 0.017430354
-0.12791657 -0.43458098 0.017438987
-0.12807399 -0.43445128 0.017424408
-0.12823103 -0.43432185 0.017408689
-0.12840131 -0.4341841 0.017446162
-0.12855951 -0.43405452 0.017447865
-0.12871706 -0.43392485 0.017435623
-0.12887448 -0.43379581 0.017435014
-0.12903409 -0.43366489 0.01743203
-0.12918927 -0.4335373 0.017423332
-0.12935318 -0.4334037 0.017438859
-0.1295087 -0.43327597 0.017432489
-0.1296673 -0.43314576 0.017427202
-0.12982781 -0.4330138 0.017418362
-0.12998579 -0.43288457 0.017423572
-0.13014282 -0.43275598 0.017425306
-0.1303004 -0.43262649 0.017417714
-0.13045818 -0.43249691 0.017411277
-0.13061213 -0.43237028 0.017401459
-0.13077143 -0.43224037 0.017414765
-0.13092832 -0.43211138 0.017406031
-0.13108172 -0.43198514 0.017395057
-0.13124004 -0.43185532 0.017393269
-0.13139696 -0.43172699 0.017398495
-0.1315524 -0.43159896 0.017385148
-0.1317078 -0.43147162 0.017384596
-0.13186254 -0.43134406 0.017368928
-0.13202085 -0.43121436 0.017369466
-0.13218138 -0.43108332 0.017380418
-0.13233505 -0.43095711 0.0173741
-0.13249329 -0.4308275 0.017375803
-0.13264625 -0.43070173 0.017367162
-0.13280864 -0.43056908 0.017375745
