# .PCD v0.7 - Point Cloud Data file format
VERSION 0.7
FIELDS x y z
SIZE 4 4 4
TYPE F F F
COUNT 1 1 1
WIDTH 124
HEIGHT 1
VIEWPOINT 0 0 0 1 0 0 0
POINTS 124
DATA ascii
-0.13824868 -0.4208855 0.026418515
-0.13833722 -0.42080009 0.026148513
-0.13844886 -0.42070195 0.026009439
-0.13855769 -0.42060599 0.025868107
-0.13871752 -0.4204787 0.025947766
-0.13890639 -0.4203285 0.026046462
-0.13905583 -0.4202106 0.026145006
-0.1391954 -0.42009738 0.026170487
-0.13933244 -0.41998625 0.026197201
-0.1394645 -0.41987708 0.026178641
-0.139603 -0.419763 0.026168063
-0.13974382 -0.41964844 0.02618769
-0.13989106 -0.4195298 0.026231594
-0.14003347 -0.41941372 0.026246529
-0.14017057 -0.41930044 0.026228996
-0.14031412 -0.41918382 0.026252054
-0.14045572 -0.41906825 0.026263509
-0.14059357 -0.41895464 0.026251787
-0.14073353 -0.41884077 0.026270267
-0.14087451 -0.41872558 0.026279418
-0.14102684 -0.41860461 0.026362764
-0.14116518 -0.41849005 0.026339389
-0.14129086 -0.41838434 0.02628375
-0.14142978 -0.41827029 0.026281312
-0.14155996 -0.41816068 0.026220895
-0.14171299 -0.41803959 0.026313534
-0.14184999 -0.41792655 0.026299506
-0.14198919 -0.41781247 0.026300553
-0.14211796 -0.41770437 0.026248332
-0.14226267 -0.41758674 0.026270179
-0.1423997 -0.41747376 0.026257319
-0.14253488 -0.41736171 0.026231697
-0.14267769 -0.41724679 0.026278045
-0.14281273 -0.41713396 0.026233803
-0.14295383 -0.41701907 0.026251093
-0.14309081 -0.41690615 0.026239395
-0.14323561 -0.4167878 0.026247278
-0.14336883 -0.41667852 0.026246149
-0.14349447 -0.41657189 0.026170729
-0.14364111 -0.4164536 0.026212316
-0.14378303 -0.41633847 0.026238896
-0.14387548 -0.41624349 0.025834944
-0.14399143 -0.41614112 0.025681784
-0.1441247 -0.41602892 0.025620136
-0.1442496 -0.4159129 0.025334056
-0.14433452 -0.41583183 0.025093254
-0.14445312 -0.41572976 0.024992403
-0.14458488 -0.4156189 0.024933115
-0.14473405 -0.41549838 0.024971146
-0.14498138 -0.41505226 0.019848077
-0.14509591 -0.41495827 0.019846274
-0.1457269 -0.41444269 0.019885773
-0.14586557 -0.41432682 0.019840278
-0.14600998 -0.41420865 0.019845836
-0.14614058 -0.41409594 0.019727223
-0.14627308 -0.41398469 0.019672576
-0.14638197 -0.41389176 0.01959642
-0.14650799 -0.4137876 0.019579187
-0.14667365 -0.41366258 0.019807676
-0.14684296 -0.41352576 0.019849844
-0.14702198 -0.41338059 0.019884778
-0.14715946 -0.41326517 0.019827671
-0.14729998 -0.41314858 0.019799579
-0.14744364 -0.41302964 0.019776065
-0.14757824 -0.4129189 0.019767921
-0.14768095 -0.41282797 0.019626748
-0.14781526 -0.41272235 0.019722205
-0.14798827 -0.41259357 0.019998219
-0.14810999 -0.41248333 0.019778568
-0.14828198 -0.41235521 0.020051129
-0.14844695 -0.41221508 0.019949082
-0.14859878 -0.41208571 0.019846205
-0.1487395 -0.41196913 0.019821607
-0.14888291 -0.41185173 0.019826036
-0.1490178 -0.41174105 0.019824862
-0.14916164 -0.4116236 0.0198351
-0.14929691 -0.41151428 0.019868843
-0.14945877 -0.41138327 0.019905385
-0.14959952 -0.41126385 0.01982142
-0.14974512 -0.41114455 0.019823458
-0.14988697 -0.41102773 0.019812796
-0.15002812 -0.41091108 0.019794008
-0.1501112 -0.41082537 0.019424044
-0.15030383 -0.41067779 0.019642528
-0.15044273 -0.41056314 0.019627281
-0.15059358 -0.41044268 0.019695533
-0.15074298 -0.41032425 0.019781284
-0.15088798 -0.41020522 0.019778691
-0.15103033 -0.41008836 0.019776154
-0.15117204 -0.40997329 0.019800419
-0.15130684 -0.40986291 0.01980391
-0.15142089 -0.4097698 0.019812591
-0.15156533 -0.40965787 0.01994968
-0.1517109 -0.4095372 0.019922627
-0.1518345 -0.40942684 0.019733183
-0.15200327 -0.40929204 0.019809119
-0.1521441 -0.40918285 0.019941652
-0.15227698 -0.40906736 0.019804355
-0.15243538 -0.40893772 0.019809552
-0.1525857 -0.40881458 0.01981264
-0.15272449 -0.40870214 0.01984163
-0.15285668 -0.40859812 0.01993365
-0.15302193 -0.40846625 0.02001084
-0.15318809 -0.40833047 0.020020494
-0.15332046 -0.40821853 0.019949548
-0.15345252 -0.40811074 0.019960092
-0.15357067 -0.40801376 0.019958198
-0.15371194 -0.40789741 0.019947547
-0.15386887 -0.40776366 0.019841049
-0.15401179 -0.40764502 0.019810572
-0.15415676 -0.40752643 0.019817289
-0.15431814 -0.40739501 0.019836381
-0.15446328 -0.40727654 0.019847745
-0.15459251 -0.40716857 0.019805985
-0.15472965 -0.40705654 0.019815236
-0.15486759 -0.40694469 0.019841917
-0.15501334 -0.40682381 0.01981369
-0.15515989 -0.40670308 0.019801743
-0.1552982 -0.4065887 0.01978186
-0.15544069 -0.4064725 0.019795634
-0.15558009 -0.40635839 0.019800164
-0.1557212 -0.40624189 0.019783698
-0.15586574 -0.40612349 0.019785766
-0.1560106 -0.40600517 0.019795977
