# .PCD v0.7 - Point Cloud Data file format
VERSION 0.7
FIELDS x y z
SIZE 4 4 4
TYPE F F F
COUNT 1 1 1
WIDTH 125
HEIGHT 1
VIEWPOINT 0 0 0 1 0 0 0
POINTS 125
DATA ascii
-0.14659128 -0.37700292 0.020432031
-0.14672855 -0.37688974 0.020417918
-0.1476098 -0.37613139 0.019657973
-0.14773878 -0.37603301 0.019813962
-0.14789262 -0.3759158 0.020003036
-0.14804365 -0.37579119 0.019986231
-0.14818434 -0.37567499 0.019968526
-0.14832121 -0.37556416 0.019997479
-0.14846589 -0.3754468 0.020023888
-0.14860463 -0.37533134 0.019987622
-0.14873961 -0.37522089 0.019992191
-0.14887443 -0.37511081 0.020001415
-0.14900725 -0.37500152 0.019993231
-0.14913137 -0.37489703 0.019935247
-0.14926153 -0.37479016 0.019931789
-0.14940564 -0.37467062 0.019902375
-0.14954533 -0.3745572 0.019925423
-0.14968276 -0.37444511 0.01993807
-0.14982474 -0.37433013 0.019968038
-0.14998998 -0.3741962 0.020000888
-0.15014865 -0.3740662 0.020002495
-0.15028174 -0.37395668 0.019994313
-0.15040749 -0.37385273 0.01997585
-0.15052988 -0.37375239 0.019976091
-0.1506635 -0.37364477 0.02001676
-0.15080573 -0.37353188 0.0200956
-0.15095998 -0.37341002 0.020192739
-0.15112165 -0.37327206 0.020077908
-0.15127251 -0.37314609 0.020029685
-0.15142244 -0.3730219 0.020002436
-0.15156417 -0.37290487 0.019984705
-0.15166822 -0.37281981 0.019990096
-0.15178767 -0.37274325 0.020443048
-0.15191452 -0.37264431 0.020550227
-0.15207027 -0.37251681 0.020554231
-0.15225321 -0.37235296 0.020260807
-0.1523672 -0.37226224 0.020318285
-0.15247159 -0.37218711 0.020540088
-0.1526071 -0.37207794 0.020580711
-0.15274601 -0.37196529 0.02060728
-0.15290143 -0.37183642 0.020576388
-0.15310845 -0.37164602 0.02013804
-0.15325782 -0.37151739 0.020007243
-0.15340027 -0.3713997 0.019988332
-0.15354152 -0.37128395 0.019989248
-0.1536852 -0.3711645 0.019954013
-0.15381961 -0.3710537 0.019941134
-0.15394445 -0.37095559 0.020030912
-0.15408911 -0.37083834 0.020059651
-0.15425344 -0.37069881 0.019957544
-0.15439418 -0.37058395 0.019968944
-0.15453698 -0.37046608 0.019952344
-0.15466757 -0.3703661 0.02010248
-0.15481584 -0.3702403 0.020012436
-0.15494962 -0.37013394 0.020082187
-0.15508661 -0.37001964 0.020040158
-0.15521738 -0.3699111 0.020012252
-0.15537027 -0.3697854 0.020004701
-0.15550821 -0.36967307 0.020020824
-0.15566714 -0.36954048 0.019972388
-0.15580279 -0.36943144 0.020017654
-0.15594709 -0.36931628 0.02008481
-0.15609717 -0.36918867 0.019987736
-0.1562407 -0.3690702 0.019971129
-0.15637615 -0.36896282 0.020048985
-0.15652187 -0.36884141 0.020007877
-0.1566685 -0.36872026 0.019987697
-0.15681134 -0.36860287 0.019981578
-0.15695497 -0.36848444 0.019967299
-0.15709624 -0.36836922 0.019979835
-0.15723515 -0.36825445 0.019961026
-0.15736598 -0.36814642 0.019944752
-0.15751885 -0.36802122 0.01994767
-0.15765731 -0.36790848 0.01996378
-0.15781464 -0.36777747 0.019921206
-0.15795146 -0.36766946 0.020009499
-0.15808424 -0.36756536 0.0201107
-0.15820611 -0.36746532 0.020107463
-0.15833943 -0.36735547 0.020095784
-0.15848243 -0.36723688 0.020067548
-0.15862665 -0.36711803 0.020054413
-0.15877347 -0.3669959 0.020016775
-0.15891533 -0.36688012 0.020028135
-0.15905766 -0.36676496 0.020060426
-0.15919919 -0.36664963 0.020075284
-0.15934217 -0.3665348 0.020126181
-0.1594874 -0.36641717 0.020156074
-0.15965633 -0.36627901 0.020163223
-0.15980799 -0.36615106 0.020087052
-0.15997124 -0.36600885 0.019909345
-0.16011266 -0.36589381 0.019928865
-0.16025253 -0.36578074 0.019962391
-0.16039452 -0.36566502 0.019977238
-0.16054328 -0.36554211 0.019956993
-0.16069138 -0.36541897 0.019920481
-0.16082942 -0.36530814 0.019970346
-0.16097772 -0.36518484 0.019933831
-0.16111942 -0.3650696 0.019953348
-0.16197687 -0.36419013 0.016211757
-0.162109 -0.36408266 0.016230363
-0.16225377 -0.36396423 0.016235827
-0.16240297 -0.36384156 0.01622837
-0.16255063 -0.36372077 0.016233768
-0.16269715 -0.36360136 0.016248494
-0.16285025 -0.36347514 0.016233956
-0.16299744 -0.36335397 0.016223073
-0.16314444 -0.36323401 0.016235458
-0.16329259 -0.36311278 0.016239673
-0.16344389 -0.36298782 0.016220529
-0.16359405 -0.36286426 0.016210729
-0.16374272 -0.36274245 0.016212597
-0.16389227 -0.36261967 0.016208624
-0.16404046 -0.36249846 0.016215168
-0.16418888 -0.36237705 0.016220536
-0.16433994 -0.36225256 0.016207218
-0.16448933 -0.36213008 0.016206739
-0.16463879 -0.36200753 0.016206268
-0.16478816 -0.3618851 0.016206959
-0.16493744 -0.36176279 0.016208813
-0.16508833 -0.3616387 0.016200153
-0.16523828 -0.36151567 0.016198499
-0.16538814 -0.3613928 0.016198017
-0.1655374 -0.36127061 0.0162022
-0.16568743 -0.36114758 0.016201705
-0.1658358 -0.3610256 0.01619428
