# .PCD v0.7 - Point Cloud Data file format
VERSION 0.7
FIELDS x y z
SIZE 4 4 4
TYPE F F F
COUNT 1 1 1
WIDTH 132
HEIGHT 1
VIEWPOINT 0 0 0 1 0 0 0
POINTS 132
DATA ascii
-0.22084178 -0.41645604 0.017480494
-0.22098547 -0.41633669 0.017445339
-0.2211158 -0.41623068 0.017464081
-0.22125259 -0.41611856 0.017464021
-0.22138993 -0.41600585 0.017461626
-0.22152692 -0.41589358 0.017461572
-0.22166352 -0.41578171 0.017463848
-0.22180192 -0.41566798 0.017457934
-0.22194192 -0.41555268 0.017444989
-0.22207761 -0.41544181 0.01745311
-0.22221585 -0.41532832 0.017449532
-0.2223527 -0.4152163 0.017452961
-0.22249444 -0.41509929 0.017434159
-0.22263253 -0.41498604 0.017432906
-0.22276996 -0.41487348 0.01743516
-0.22290775 -0.41476059 0.017436244
-0.22304565 -0.41464761 0.017437326
-0.22318777 -0.41453031 0.017419674
-0.22332747 -0.41441554 0.017413728
-0.22346546 -0.41430253 0.017415967
-0.22360249 -0.41419053 0.017422892
-0.22374226 -0.41407573 0.017418105
-0.2238856 -0.41395736 0.017398091
-0.22402188 -0.41384614 0.017409686
-0.22416176 -0.41373134 0.017406056
-0.22430012 -0.41361809 0.017409455
-0.22444509 -0.41349813 0.017384749
-0.22458506 -0.41338331 0.017382286
-0.22472325 -0.41327029 0.01738801
-0.22486289 -0.41315579 0.017387887
-0.22500157 -0.41304234 0.017392438
-0.22514421 -0.41292489 0.017380584
-0.2252845 -0.41280982 0.017379284
-0.22543088 -0.41268915 0.017363843
-0.2255661 -0.41257924 0.017384786
-0.22570357 -0.41246662 0.01738587
-0.22584829 -0.4123472 0.017368151
-0.1547468 -0.47065672 0.017994791
-0.15489241 -0.4705373 0.017993351
-0.15503798 -0.47041756 0.017983761
-0.15518773 -0.47029537 0.017996188
-0.15533264 -0.4701761 0.017985454
-0.15547186 -0.47006109 0.017965559
-0.15562974 -0.46993271 0.017988242
-0.15577364 -0.46981496 0.01799267
-0.15592091 -0.46969417 0.017991187
-0.15606321 -0.46957713 0.017982842
-0.15620914 -0.4694573 0.017977905
-0.15635155 -0.46934023 0.017970726
-0.1565036 -0.46921632 0.017986583
-0.15664469 -0.46910021 0.017975949
-0.1567885 -0.46898228 0.017974557
-0.15692969 -0.46886611 0.01796508
-0.15707271 -0.46874833 0.017953226
-0.15722275 -0.46862626 0.017973796
-0.15736495 -0.4685095 0.017968955
-0.15750565 -0.46839374 0.017959492
-0.15764956 -0.46827546 0.017952275
-0.15779313 -0.46815783 0.017953221
-0.157941 -0.46803731 0.017969174
-0.15808223 -0.46792129 0.017963197
-0.15822868 -0.46780139 0.017966388
-0.15836798 -0.46768668 0.01795464
-0.15850884 -0.46757093 0.017948665
-0.15865733 -0.46745014 0.017969264
-0.15880188 -0.46733159 0.017967852
-0.15894105 -0.46721706 0.017957268
-0.15908208 -0.46710128 0.017953617
-0.15922995 -0.46698099 0.017974233
-0.15937172 -0.46686479 0.017974064
-0.15951794 -0.46674564 0.017990062
-0.15965746 -0.46663013 0.017964337
-0.15979302 -0.46651849 0.017952688
-0.15993917 -0.46639946 0.017969858
-0.16008256 -0.46628228 0.017977785
-0.16022585 -0.46616477 0.017976407
-0.16036259 -0.466052 0.017961226
-0.16049764 -0.46594036 0.017940268
-0.16065076 -0.46581644 0.01797588
-0.16078681 -0.46570462 0.017968869
-0.16092376 -0.46559176 0.017956013
-0.16106384 -0.46547648 0.017945405
-0.16120498 -0.46536094 0.017948743
-0.16134693 -0.46524489 0.017955542
-0.16148503 -0.46513137 0.017948475
-0.16162622 -0.46501541 0.01794366
-0.1617635 -0.46490246 0.017934285
-0.16190529 -0.46478662 0.017942257
-0.16204175 -0.46467423 0.017930584
-0.16218145 -0.46455976 0.01793162
-0.16232045 -0.46444577 0.017930351
-0.16246159 -0.46432996 0.017927868
-0.16260366 -0.46421403 0.017939324
-0.16274053 -0.46410146 0.01793112
-0.16288085 -0.46398669 0.017936811
-0.16301948 -0.46387261 0.017926231
-0.16315839 -0.46375877 0.017927296
-0.16329573 -0.46364599 0.01792258
-0.16343327 -0.46353307 0.017919021
-0.16357557 -0.4634167 0.01792465
-0.16371146 -0.46330491 0.017915312
-0.16385099 -0.46319076 0.017921012
-0.1639864 -0.46307933 0.017910525
-0.16412458 -0.46296611 0.017911609
-0.16426121 -0.46285388 0.017906914
-0.16440114 -0.46273914 0.017905612
-0.16454069 -0.46262509 0.017913643
-0.16467732 -0.46251294 0.017910106
-0.16481245 -0.46240178 0.017900798
-0.16494834 -0.46228963 0.017884469
-0.16508415 -0.46217808 0.017878633
-0.16522096 -0.46206588 0.017877422
-0.16535549 -0.46195513 0.01786695
-0.16549271 -0.46184224 0.017857589
-0.16563089 -0.46172923 0.017863322
-0.16576408 -0.46161938 0.017848235
-0.16589828 -0.4615089 0.017837781
-0.16604 -0.46139324 0.017849244
-0.16617537 -0.46128207 0.01784458
-0.1663093 -0.46117184 0.017834123
-0.16644581 -0.46105999 0.017835252
-0.16658223 -0.46094823 0.017836381
-0.16671801 -0.46083686 0.017835189
-0.16685517 -0.46072417 0.017829318
-0.16699052 -0.46061313 0.017826974
-0.16712579 -0.46050215 0.017824646
-0.16726224 -0.46039045 0.017828096
-0.16739853 -0.46027836 0.017819917
-0.167532 -0.46016854 0.017810643
-0.16766565 -0.46005863 0.017802523
-0.16780148 -0.45994738 0.017804828
-0.16793697 -0.45983586 0.017794341
