# .PCD v0.7 - Point Cloud Data file format
VERSION 0.7
FIELDS x y z
SIZE 4 4 4
TYPE F F F
COUNT 1 1 1
WIDTH 123
HEIGHT 1
VIEWPOINT 0 0 0 1 0 0 0
POINTS 123
DATA ascii
-0.12145437 -0.38434976 0.034195602
-0.12159012 -0.38424039 0.034236304
-0.1217209 -0.3841342 0.034258522
-0.12183926 -0.38403639 0.034241498
-0.12196858 -0.38393012 0.034235816
-0.12209641 -0.38382539 0.034237158
-0.12222283 -0.38372135 0.034228072
-0.12235161 -0.38361621 0.03423753
-0.12247854 -0.38351196 0.034233086
-0.12260662 -0.38340721 0.034237918
-0.12273699 -0.38330054 0.034242682
-0.12286422 -0.3831962 0.034241717
-0.12299185 -0.38309172 0.034244224
-0.12311927 -0.38298732 0.034245588
-0.12324581 -0.38288334 0.034239978
-0.12337356 -0.38277882 0.034244813
-0.12350334 -0.38267258 0.034247272
-0.12363002 -0.38256857 0.034243993
-0.12375736 -0.38246432 0.034246515
-0.12388397 -0.38236037 0.034243237
-0.12401028 -0.38225657 0.034237638
-0.12413722 -0.38215253 0.034237839
-0.12426385 -0.38204864 0.034235723
-0.12438979 -0.38194501 0.034227811
-0.12451276 -0.38184163 0.034172259
-0.12464152 -0.3817369 0.03418988
-0.1247669 -0.38163352 0.034177322
-0.12489241 -0.38153014 0.034165919
-0.12501951 -0.38142613 0.034169611
-0.12514606 -0.38132232 0.034168664
-0.12527123 -0.38121909 0.034154952
-0.12498108 -0.38081592 0.020406106
-0.12511757 -0.38070476 0.020421194
-0.12524618 -0.38059872 0.020408552
-0.12538517 -0.3804855 0.020423573
-0.12555298 -0.38034752 0.020414568
-0.12570603 -0.38022074 0.020386165
-0.12584113 -0.38011011 0.020388486
-0.12597029 -0.38000396 0.020382822
-0.12611359 -0.37988687 0.020390738
-0.12624978 -0.37978011 0.020495435
-0.12640135 -0.37965241 0.020421695
-0.12654588 -0.37953508 0.020445872
-0.12668034 -0.37942332 0.020413304
-0.12681821 -0.37930924 0.020389948
-0.1269559 -0.37919664 0.020395692
-0.12709777 -0.37908006 0.020389695
-0.12722871 -0.37897512 0.020440992
-0.12735547 -0.37887424 0.02050636
-0.12747853 -0.37876818 0.020394959
-0.12761456 -0.37865451 0.020348389
-0.12919073 -0.37807831 0.035702311
-0.12931477 -0.37797806 0.035732843
-0.12943506 -0.37788001 0.035744853
-0.12955967 -0.37777826 0.035753269
-0.12968668 -0.37767464 0.035763942
-0.12981094 -0.37757301 0.035768867
-0.12993455 -0.37747148 0.035764508
-0.13006397 -0.37736604 0.035778604
-0.13018644 -0.37726468 0.035757974
-0.13030992 -0.3771632 0.035752457
-0.13043196 -0.37706187 0.035724852
-0.13055597 -0.37696204 0.035763539
-0.13067998 -0.37686056 0.035767313
-0.13080254 -0.37675917 0.035747845
-0.13093074 -0.376654 0.035745688
-0.13105269 -0.37655443 0.035754163
-0.13118194 -0.37644926 0.035770599
-0.13130045 -0.37635162 0.035760552
-0.13142656 -0.37624836 0.035763107
-0.13154821 -0.37614697 0.035727371
-0.13167222 -0.37604561 0.035733461
-0.13179687 -0.37594432 0.035752349
-0.13192192 -0.37584105 0.035736308
-0.13204542 -0.37573972 0.035734273
-0.13217306 -0.37563461 0.035723988
-0.13229604 -0.37553322 0.035711493
-0.13242014 -0.37543198 0.035722241
-0.13254143 -0.37533259 0.035722595
-0.13266723 -0.37522942 0.035721667
-0.13279109 -0.37512824 0.035728931
-0.1329197 -0.37502337 0.035740722
-0.13304304 -0.3749221 0.035737529
-0.1331645 -0.37482283 0.035743698
-0.13328692 -0.37472129 0.035718419
-0.13341241 -0.37461811 0.035711676
-0.13353293 -0.37451851 0.035694595
-0.13366103 -0.37441358 0.035695929
-0.13378473 -0.37431246 0.035702039
-0.13391164 -0.37420997 0.035734817
-0.13403673 -0.37410662 0.035717618
-0.13416016 -0.37400547 0.035717912
-0.13428624 -0.37390265 0.035729781
-0.13440676 -0.37380302 0.035711527
-0.13453047 -0.37370205 0.035721131
-0.13465618 -0.37359908 0.035722524
-0.13477924 -0.37349772 0.035712358
-0.13490257 -0.37339652 0.035710327
-0.13502631 -0.37329572 0.035723414
-0.13515055 -0.37319139 0.035670161
-0.13527457 -0.37309086 0.035694875
-0.13540122 -0.37298897 0.035735812
-0.13552885 -0.3728838 0.035724364
-0.13565199 -0.37278244 0.035715356
-0.13577758 -0.37267941 0.035713267
-0.13590136 -0.37257898 0.035735667
-0.13602673 -0.37247562 0.035723109
-0.136145 -0.3723774 0.035695605
-0.13626818 -0.37227595 0.035685435
-0.13639671 -0.37217233 0.035722833
-0.1365224 -0.3720696 0.03572889
-0.13664608 -0.37196946 0.035755944
-0.13677122 -0.37186527 0.03572128
-0.13689232 -0.37176621 0.035726294
-0.13701551 -0.37166467 0.035713796
-0.13714114 -0.3715618 0.035716355
-0.13726911 -0.37145722 0.035723511
-0.13739008 -0.37135759 0.035713397
-0.13751799 -0.37125275 0.035713576
-0.13764139 -0.37115216 0.035725515
-0.13776252 -0.37105355 0.035739832
-0.13788585 -0.37095273 0.035745941
-0.13800918 -0.37085158 0.035745081
