# .PCD v0.7 - Point Cloud Data file format
VERSION 0.7
FIELDS x y z
SIZE 4 4 4
TYPE F F F
COUNT 1 1 1
WIDTH 113
HEIGHT 1
VIEWPOINT 0 0 0 1 0 0 0
POINTS 113
DATA ascii
-0.13774122 -0.36047998 0.035991315
-0.13786127 -0.36038211 0.036003284
-0.1379815 -0.36028382 0.036009423
-0.13810562 -0.36018327 0.036035247
-0.13823038 -0.36008126 0.036041267
-0.13835551 -0.35997853 0.036037967
-0.13847768 -0.35987908 0.03605336
-0.13859713 -0.3597824 0.036080472
-0.13872257 -0.3596791 0.036070183
-0.13884751 -0.35957676 0.036072712
-0.13897075 -0.35947528 0.036062479
-0.1390962 -0.35937208 0.036054511
-0.13921902 -0.35927147 0.036055934
-0.13934444 -0.35916838 0.036050297
-0.13948727 -0.35905185 0.036062829
-0.14085548 -0.35792592 0.035968564
-0.14096001 -0.35784245 0.036017012
-0.14108121 -0.35774466 0.03605222
-0.14120665 -0.35764197 0.036054734
-0.14133224 -0.357539 0.036054917
-0.14145441 -0.35743973 0.036073804
-0.14158227 -0.35733333 0.03603901
-0.14170733 -0.35722965 0.036013611
-0.1418318 -0.3571285 0.036033601
-0.14195506 -0.35702765 0.036037333
-0.14207897 -0.35692734 0.036065489
-0.1422074 -0.35682184 0.036060937
-0.14233533 -0.35671413 0.035998214
-0.14246151 -0.35661051 0.035994887
-0.14258353 -0.35651156 0.036018435
-0.14270861 -0.35640961 0.036031429
-0.14283431 -0.35630536 0.036004841
-0.14295995 -0.35620263 0.036010839
-0.14308324 -0.3561019 0.036018062
-0.14321348 -0.35599408 0.035994846
-0.14333656 -0.35589364 0.036005571
-0.14346272 -0.35579029 0.036006898
-0.14358494 -0.35568979 0.036000185
-0.14371195 -0.35558656 0.036020108
-0.14383714 -0.35548332 0.036006339
-0.14481649 -0.35465038 0.035345096
-0.14494093 -0.35454869 0.035352286
-0.14506857 -0.35444394 0.035350084
-0.14519517 -0.35434058 0.035359547
-0.14531571 -0.35424519 0.035434343
-0.14541171 -0.35418049 0.03574254
-0.14549947 -0.35411635 0.035913635
-0.14560226 -0.35403481 0.035973769
-0.1457244 -0.35393697 0.036024086
-0.14584914 -0.35383579 0.036047559
-0.14597955 -0.35372734 0.036013857
-0.14610288 -0.35362589 0.036005955
-0.14623274 -0.35351926 0.036002532
-0.14635706 -0.35341763 0.036008567
-0.14648166 -0.35331565 0.036012262
-0.14660937 -0.35321081 0.036008898
-0.14674003 -0.35310426 0.036021747
-0.14687003 -0.3529976 0.036019482
-0.14699601 -0.35289496 0.036033612
-0.14713952 -0.35277647 0.036014706
-0.14967567 -0.34981096 0.016538311
-0.14982077 -0.3496922 0.016542625
-0.14997011 -0.34956938 0.016534034
-0.15011778 -0.34944862 0.01654062
-0.15026292 -0.34932989 0.0165461
-0.1504133 -0.34920591 0.016530503
-0.15056004 -0.34908634 0.016546413
-0.1507096 -0.34896338 0.016538978
-0.15085527 -0.34884411 0.016542125
-0.15100385 -0.3487224 0.016544025
-0.15115164 -0.34860063 0.016530816
-0.15130007 -0.34847915 0.016535051
-0.15144815 -0.34835809 0.016542787
-0.15159802 -0.34823495 0.016536502
-0.15174407 -0.34811535 0.016539641
-0.15189336 -0.34799296 0.016539192
-0.15204182 -0.34787154 0.016545758
-0.15219292 -0.34774709 0.01653246
-0.15234062 -0.34762567 0.016525071
-0.15249038 -0.34750283 0.016523452
-0.15263747 -0.34738216 0.016521901
-0.15278737 -0.34725919 0.016520279
-0.1529372 -0.34713635 0.016519826
-0.15308678 -0.3470138 0.016521702
-0.15323514 -0.34689179 0.016513128
-0.15338506 -0.34676895 0.016513832
-0.15353033 -0.34665051 0.016528621
-0.15368202 -0.34652567 0.016517639
-0.15383099 -0.34640396 0.016526524
-0.15398219 -0.34627971 0.016520204
-0.15412973 -0.3461588 0.016520973
-0.15428194 -0.34603345 0.016508806
-0.15443291 -0.34590957 0.016505994
-0.15458398 -0.34578645 0.016521793
-0.1547322 -0.34566402 0.016501591
-0.15488116 -0.34554246 0.016513962
-0.15502882 -0.34542155 0.016517049
-0.15518039 -0.3452971 0.016513051
-0.15533204 -0.34517261 0.016509052
-0.15548219 -0.34504983 0.016515572
-0.15563108 -0.34492764 0.016512815
-0.15578373 -0.34480208 0.016504128
-0.15593429 -0.34467891 0.01650947
-0.15608732 -0.34455299 0.016499622
-0.15623641 -0.34443071 0.01649802
-0.15638703 -0.34430754 0.016504519
-0.15653741 -0.34418386 0.016495902
-0.15669067 -0.34405783 0.016487209
-0.1568429 -0.34393296 0.016485514
-0.15699619 -0.34380695 0.016477982
-0.15714467 -0.34368548 0.016483385
-0.15729699 -0.34356058 0.01648286
-0.15745077 -0.34343413 0.016474143
