# .PCD v0.7 - Point Cloud Data file format
VERSION 0.7
FIELDS x y z
SIZE 4 4 4
TYPE F F F
COUNT 1 1 1
WIDTH 101
HEIGHT 1
VIEWPOINT 0 0 0 1 0 0 0
POINTS 101
DATA ascii
-0.18940471 -0.42343956 0.019573245
-0.18954489 -0.42332458 0.019571912
-0.18967703 -0.42321637 0.019574277
-0.18983293 -0.42308873 0.019578353
-0.18997602 -0.4229711 0.019571129
-0.19012073 -0.42285353 0.019594122
-0.19026178 -0.42273679 0.019570649
-0.19039547 -0.42262551 0.019533399
-0.19053029 -0.42251524 0.019539196
-0.19066453 -0.42240617 0.019560132
-0.19080356 -0.42229372 0.019593744
-0.19096604 -0.4221594 0.01956971
-0.19109082 -0.42205682 0.019562969
-0.19121872 -0.42195407 0.019608514
-0.19136791 -0.42182806 0.019527791
-0.19173503 -0.42159128 0.020930102
-0.19187874 -0.42147422 0.020946138
-0.19202428 -0.42135388 0.020923719
-0.19216676 -0.42123652 0.020911854
-0.19230817 -0.42112106 0.020922119
-0.19245319 -0.42100179 0.020913675
-0.19259512 -0.42088547 0.020914625
-0.19274011 -0.42076632 0.020908516
-0.19288123 -0.42065144 0.020925779
-0.19302326 -0.42053506 0.020926725
-0.19316545 -0.42041841 0.020925339
-0.19331084 -0.42029873 0.020914566
-0.1934536 -0.42018127 0.020905012
-0.19359757 -0.42006391 0.020919882
-0.19374005 -0.41994694 0.020916156
-0.19388436 -0.4198291 0.020926356
-0.19402677 -0.41971231 0.020924963
-0.19416928 -0.41959533 0.020922408
-0.19431238 -0.41947755 0.020911684
-0.19445756 -0.41935846 0.02091023
-0.19459866 -0.41924372 0.020930983
-0.19473833 -0.41913116 0.020972729
-0.19488019 -0.41901526 0.020981833
-0.19502856 -0.41889152 0.020936057
-0.19517326 -0.41877156 0.020906668
-0.19532013 -0.41865018 0.020885367
-0.19545846 -0.41853788 0.020909693
-0.19601621 -0.41802526 0.019699734
-0.19618008 -0.41789031 0.019686136
-0.19630772 -0.41779375 0.01986322
-0.19641465 -0.41770753 0.019894181
-0.19660316 -0.41755044 0.019839212
-0.19676365 -0.41741124 0.019672059
-0.19691317 -0.41728583 0.019609958
-0.19706428 -0.4171598 0.019562948
-0.19720931 -0.41704068 0.019557998
-0.19735529 -0.4169203 0.019542538
-0.19751085 -0.41678703 0.019417427
-0.19763082 -0.4166877 0.019395672
-0.19776949 -0.41657448 0.019406017
-0.19791253 -0.41645822 0.019427884
-0.19805768 -0.41633916 0.019426428
-0.19820881 -0.41621491 0.019418985
-0.19834945 -0.41610053 0.019438593
-0.19850102 -0.41597575 0.019427648
-0.19864093 -0.41586232 0.019455425
-0.19878814 -0.41574201 0.019463219
-0.19893718 -0.41561806 0.019424405
-0.19908622 -0.41549543 0.019414697
-0.1992331 -0.41537437 0.019400384
-0.19938055 -0.41525385 0.019408172
-0.19952734 -0.41513294 0.019396191
-0.19967644 -0.41501039 0.019388812
-0.19982074 -0.4148927 0.019402504
-0.19996971 -0.41477036 0.019397449
-0.20011544 -0.41465092 0.019398298
-0.20026344 -0.41452986 0.019403739
-0.20040865 -0.4144111 0.019410424
-0.2005551 -0.41429198 0.019431049
-0.20070782 -0.41416511 0.019394459
-0.20085192 -0.41404784 0.019412816
-0.20099992 -0.41392684 0.019420588
-0.20113923 -0.41381547 0.019482136
-0.20127812 -0.41370344 0.019522743
-0.2014544 -0.41356209 0.019591466
-0.20160364 -0.41343856 0.019565457
-0.20235649 -0.41268447 0.016575335
-0.2025024 -0.41256416 0.016559888
-0.20265381 -0.41243935 0.016545456
-0.20280792 -0.41231346 0.016555399
-0.2029523 -0.41219613 0.01657724
-0.2031076 -0.4120678 0.016555723
-0.20325762 -0.41194481 0.016555293
-0.20341079 -0.4118191 0.016552456
-0.20355961 -0.41169757 0.016562538
-0.20371248 -0.41157228 0.016563199
-0.20386443 -0.41144711 0.016549926
-0.20401587 -0.41132256 0.016541315
-0.20416556 -0.41120008 0.016546711
-0.20431858 -0.41107473 0.01654854
-0.20446903 -0.41095144 0.016549269
-0.20462471 -0.41082302 0.016532395
-0.20477517 -0.41069978 0.016534291
-0.20492913 -0.41057342 0.016531426
-0.20507926 -0.41045061 0.016536823
-0.20523387 -0.41032356 0.016530458
