# .PCD v0.7 - Point Cloud Data file format
VERSION 0.7
FIELDS x y z
SIZE 4 4 4
TYPE F F F
COUNT 1 1 1
WIDTH 132
HEIGHT 1
VIEWPOINT 0 0 0 1 0 0 0
POINTS 132
DATA ascii
-0.22357091 -0.4078702 0.016226236
-0.22372359 -0.40774626 0.016253721
-0.22387619 -0.40762183 0.016268395
-0.22404251 -0.40748453 0.016247798
-0.22420591 -0.40735027 0.016241251
-0.22436363 -0.40722126 0.016247641
-0.22452146 -0.40709215 0.016254039
-0.22468019 -0.40696213 0.016256925
-0.22484508 -0.40682584 0.016232874
-0.22500436 -0.40669534 0.016234573
-0.22515944 -0.40656853 0.016242202
-0.22532247 -0.40643483 0.016241483
-0.22548348 -0.40630323 0.01625012
-0.22564837 -0.40616709 0.016229561
-0.22580749 -0.40603688 0.016234767
-0.22596833 -0.40590492 0.016232934
-0.22612852 -0.40577367 0.01623461
-0.22629598 -0.40563509 0.016205832
-0.22645614 -0.40550449 0.016221482
-0.22661868 -0.40537092 0.016214956
-0.22678332 -0.40523529 0.016200211
-0.22693914 -0.40510854 0.016222965
-0.2271007 -0.40497607 0.016222274
-0.22726439 -0.40484145 0.016213387
-0.22743039 -0.40470511 0.016207932
-0.14576611 -0.47170624 0.017253954
-0.14593108 -0.47157064 0.017246213
-0.14610019 -0.47143137 0.017232545
-0.14626536 -0.47129524 0.01721666
-0.14643244 -0.47115827 0.017217016
-0.14659476 -0.4710241 0.017193053
-0.14678901 -0.47086835 0.017270699
-0.14693901 -0.47074258 0.017208638
-0.14710703 -0.4706046 0.017204311
-0.14727691 -0.47046587 0.017216235
-0.14744426 -0.47032842 0.017210765
-0.1476102 -0.47019237 0.01721115
-0.14777581 -0.47005615 0.017201073
-0.14794058 -0.46992052 0.017188679
-0.14811616 -0.46977761 0.0172121
-0.14827771 -0.46964508 0.017210271
-0.14844751 -0.46950567 0.017205907
-0.14860828 -0.46937326 0.017192453
-0.14877929 -0.46923354 0.017203182
-0.14894117 -0.46910042 0.017194362
-0.14910723 -0.46896359 0.017179612
-0.14927301 -0.4688279 0.017184664
-0.1494392 -0.46869153 0.017181544
-0.14960225 -0.46855772 0.017178515
-0.14977252 -0.46841815 0.017179959
-0.14993057 -0.46828818 0.01717123
-0.1501002 -0.46814913 0.017171521
-0.15027037 -0.46801022 0.0171846
-0.15042596 -0.46788099 0.017148007
-0.15058681 -0.46774924 0.017150857
-0.15075651 -0.46761072 0.017163947
-0.1509214 -0.46747491 0.017150391
-0.15108974 -0.46733779 0.017170507
-0.15125364 -0.46720365 0.017175598
-0.15141545 -0.46707043 0.017163288
-0.15157489 -0.46693832 0.017132409
-0.15175629 -0.46679223 0.017190594
-0.1519118 -0.46666372 0.017167967
-0.15207534 -0.46652943 0.017163765
-0.15223192 -0.46640024 0.017145772
-0.15239361 -0.46626723 0.017135788
-0.15255094 -0.46613759 0.017121267
-0.15271714 -0.46600166 0.017128626
-0.15287909 -0.46586853 0.017120965
-0.153045 -0.46573284 0.017128333
-0.1532073 -0.46559954 0.017122991
-0.15337135 -0.4654651 0.017124597
-0.1535323 -0.46533322 0.017126275
-0.15369514 -0.46519962 0.017124411
-0.15385599 -0.46506736 0.017115619
-0.15401825 -0.46493417 0.0171126
-0.1541799 -0.46480194 0.01711892
-0.15434009 -0.46467015 0.017108984
-0.15450227 -0.46453711 0.017107137
-0.15466222 -0.46440554 0.017097197
-0.15482415 -0.46427268 0.017095357
-0.15498865 -0.46413821 0.017103933
-0.1551515 -0.46400481 0.017106719
-0.15531011 -0.4638747 0.017104965
-0.15546918 -0.46374428 0.017105531
-0.1556334 -0.46361011 0.017115273
-0.15579367 -0.46347848 0.017109986
-0.15595381 -0.46334693 0.017104702
-0.15611151 -0.4632175 0.017101813
-0.15627173 -0.46308598 0.017097685
-0.15643123 -0.46295491 0.017091248
-0.1565924 -0.46282226 0.017080117
-0.15675442 -0.46269071 0.017108541
-0.15691045 -0.46256191 0.0170894
-0.15706977 -0.46243104 0.017084127
-0.15723266 -0.46229795 0.017093906
-0.15738688 -0.4621709 0.017080633
-0.15754811 -0.4620389 0.017084632
-0.15770604 -0.46190956 0.017087547
-0.15786618 -0.46177828 0.017088085
-0.15802345 -0.46164885 0.017077055
-0.15818335 -0.46151778 0.017077597
-0.158337 -0.46139121 0.017064329
-0.15849775 -0.46125963 0.017069502
-0.15865526 -0.46113071 0.017073598
-0.15881658 -0.46099883 0.017082246
-0.15897349 -0.46086973 0.017072394
-0.15913217 -0.46073955 0.01707064
-0.15928628 -0.46061283 0.017062012
-0.15944423 -0.46048313 0.017057955
-0.15960023 -0.46035525 0.017058589
-0.15975849 -0.46022543 0.017056845
-0.1599161 -0.46009603 0.017052796
-0.16007209 -0.45996764 0.017041799
-0.16022845 -0.45983964 0.017045924
-0.16038783 -0.4597092 0.017051132
-0.16054294 -0.45958203 0.017050629
-0.16069598 -0.45945552 0.017028067
-0.16085444 -0.4593263 0.017043781
-0.16101061 -0.45919794 0.017036268
-0.16116357 -0.45907214 0.01702768
-0.16131854 -0.45894453 0.017015539
-0.16147247 -0.45881757 0.016998775
-0.16164587 -0.45867822 0.017060658
-0.16178973 -0.45855862 0.017024372
-0.16194151 -0.45843363 0.017012313
-0.16209847 -0.45830491 0.017011773
-0.16225252 -0.45817861 0.017011298
-0.16240832 -0.45805064 0.017006125
-0.16256621 -0.45792204 0.017025335
-0.16272466 -0.45779192 0.017020095
-0.16286553 -0.45767421 0.016971074
