# .PCD v0.7 - Point Cloud Data file format
VERSION 0.7
FIELDS x y z
SIZE 4 4 4
TYPE F F F
COUNT 1 1 1
WIDTH 115
HEIGHT 1
VIEWPOINT 0 0 0 1 0 0 0
POINTS 115
DATA ascii
-0.18032493 -0.43632293 0.025354728
-0.1810033 -0.4357622 0.025246471
-0.18114217 -0.43564796 0.025235904
-0.18169087 -0.43519482 0.025157761
-0.18182456 -0.43508467 0.025143838
-0.18196376 -0.43497041 0.025139084
-0.18210097 -0.43485838 0.025147183
-0.18224058 -0.43474427 0.02515289
-0.18237753 -0.43463221 0.025156345
-0.18251687 -0.43451804 0.025156239
-0.18265246 -0.4344056 0.025125984
-0.18279111 -0.43429118 0.025108444
-0.18292819 -0.43417919 0.025115376
-0.18306476 -0.43406704 0.025109529
-0.18320094 -0.43395469 0.025092052
-0.18333656 -0.433842 0.025058307
-0.1834754 -0.43372756 0.025043091
-0.1836122 -0.43361545 0.025041889
-0.18375151 -0.43350124 0.025040623
-0.18388882 -0.43338948 0.025056861
-0.18402725 -0.43327469 0.025026534
-0.18416442 -0.4331629 0.025039285
-0.18430103 -0.43305066 0.025032267
-0.18443763 -0.43293843 0.02502526
-0.18457738 -0.43282467 0.025041437
-0.18471393 -0.43271238 0.025032099
-0.18485406 -0.43259916 0.025066888
-0.18499056 -0.43248683 0.025056385
-0.18512987 -0.43237278 0.025057448
-0.18526611 -0.43226004 0.025032988
-0.18540284 -0.43214795 0.025031788
-0.18553956 -0.43203583 0.025029428
-0.18567874 -0.43192148 0.025022356
-0.18581577 -0.43180996 0.0250386
-0.18595253 -0.43169791 0.02503857
-0.18608917 -0.43158564 0.025031552
-0.18622868 -0.43147209 0.025047734
-0.18636537 -0.43135989 0.025043055
-0.18650448 -0.43124527 0.025028992
-0.18664099 -0.43113232 0.025004525
-0.18677776 -0.43102017 0.025002165
-0.18691459 -0.43090823 0.025005613
-0.18705393 -0.43079415 0.025007837
-0.1871907 -0.43068194 0.025004316
-0.18732992 -0.43056694 0.024983268
-0.18746662 -0.4304536 0.024954146
-0.1876035 -0.43034166 0.024958763
-0.18774039 -0.43023032 0.024976173
-0.18787977 -0.43011618 0.024977235
-0.18801662 -0.43000361 0.024967892
-0.18815351 -0.42989036 0.024943415
-0.18829043 -0.42977771 0.024932899
-0.1884298 -0.42966473 0.024959566
-0.18856663 -0.4295536 0.024980476
-0.18870351 -0.42944157 0.024982765
-0.18884048 -0.42932871 0.024968756
-0.18898031 -0.42921153 0.024911629
-0.18911725 -0.42909959 0.024917405
-0.18925384 -0.42898977 0.024962757
-0.18939063 -0.4288784 0.024977848
-0.18952979 -0.42876577 0.02500801
-0.18966663 -0.42865396 0.025014959
-0.1898167 -0.42851144 0.02458749
-0.18997008 -0.4283917 0.0247162
-0.19012438 -0.42827517 0.024932161
-0.19023111 -0.42819455 0.025081858
-0.19036257 -0.42808795 0.02510524
-0.19050038 -0.42797273 0.025055135
-0.19063707 -0.42786145 0.025070228
-0.19077562 -0.42775011 0.025117859
-0.19091287 -0.42763695 0.025102684
-0.19105029 -0.42752349 0.025082855
-0.19118772 -0.42741004 0.025064174
-0.19132717 -0.42729604 0.025069896
-0.1914639 -0.42718461 0.025082659
-0.19160439 -0.42706797 0.025048777
-0.19174135 -0.42695603 0.025054563
-0.19187757 -0.42684585 0.025085961
-0.19248977 -0.4260959 0.019657724
-0.19262502 -0.42598435 0.01964144
-0.19277608 -0.42585999 0.019628238
-0.19291821 -0.42574432 0.019645512
-0.19306624 -0.42562303 0.019645192
-0.19321769 -0.42549467 0.019551678
-0.19336025 -0.42538148 0.01963063
-0.19350007 -0.42526737 0.019639824
-0.19364427 -0.42515069 0.019672185
-0.1937864 -0.42503506 0.019689459
-0.19392502 -0.42492029 0.019663777
-0.19407232 -0.42480057 0.019684419
-0.19422394 -0.4246783 0.019727061
-0.19436023 -0.42456797 0.019756127
-0.19451024 -0.42444059 0.019658001
-0.1946387 -0.42433664 0.01968611
-0.19480227 -0.42420065 0.019643489
-0.19493973 -0.42408586 0.019595725
-0.19506501 -0.42398259 0.019582018
-0.19521861 -0.42386174 0.019690942
-0.19537996 -0.42372751 0.01964605
-0.19552559 -0.42360839 0.019650443
-0.19566701 -0.42349407 0.019684026
-0.19581078 -0.42337361 0.019625627
-0.19595504 -0.42325246 0.019561391
-0.19609872 -0.42313027 0.019463431
-0.19623186 -0.42302313 0.01950538
-0.19636101 -0.42291817 0.019524168
-0.19649698 -0.42281055 0.019606773
-0.19663982 -0.42269602 0.019661274
-0.19676965 -0.42259386 0.019753356
-0.19690806 -0.42248416 0.019833576
-0.19705157 -0.42237028 0.019914825
-0.19719259 -0.42225826 0.019991485
-0.19733854 -0.42214054 0.020031944
-0.19750209 -0.4220036 0.019967213
-0.1976358 -0.42188984 0.019875327
