# .PCD v0.7 - Point Cloud Data file format
VERSION 0.7
FIELDS x y z
SIZE 4 4 4
TYPE F F F
COUNT 1 1 1
WIDTH 132
HEIGHT 1
VIEWPOINT 0 0 0 1 0 0 0
POINTS 132
DATA ascii
-0.22535087 -0.41209519 0.01667502
-0.22549421 -0.41197953 0.016719004
-0.22564866 -0.41185188 0.016699862
-0.22580191 -0.41172606 0.016699374
-0.22595459 -0.41160029 0.016689599
-0.22610575 -0.41147667 0.016699625
-0.22626936 -0.41134033 0.016654661
-0.22642371 -0.41121352 0.016651815
-0.22657326 -0.41109106 0.016658403
-0.22672211 -0.41096932 0.016668499
-0.22687478 -0.4108437 0.016662205
-0.22703058 -0.41071606 0.016667472
-0.22718447 -0.41058981 0.016669286
-0.22734474 -0.41045713 0.016644184
-0.22749308 -0.41033605 0.016658943
-0.22764708 -0.41020975 0.016661927
-0.22779638 -0.4100872 0.01666154
-0.22794896 -0.40996239 0.01667154
-0.22811174 -0.40982783 0.016651023
-0.22826572 -0.40970168 0.016656335
-0.2284195 -0.40957522 0.016651172
-0.22857116 -0.40945092 0.016655378
-0.22872664 -0.4093233 0.016656
-0.1514647 -0.47278219 0.017491667
-0.1516238 -0.47265169 0.017493328
-0.15178086 -0.47252214 0.01747991
-0.15194182 -0.47239 0.017479191
-0.15210225 -0.47225821 0.017477326
-0.15226507 -0.47212443 0.017474242
-0.15242083 -0.47199628 0.017467836
-0.15258333 -0.47186315 0.01747407
-0.15274817 -0.4717285 0.017488375
-0.1528942 -0.47160658 0.017442664
-0.15305512 -0.47147503 0.017454751
-0.15321559 -0.47134295 0.017447064
-0.15337405 -0.4712131 0.017452233
-0.15353411 -0.47108221 0.017463179
-0.15369159 -0.47095266 0.01745674
-0.15385 -0.47082248 0.01745376
-0.15400617 -0.47069386 0.017443864
-0.15416844 -0.47056115 0.017454743
-0.15432467 -0.47043252 0.017446008
-0.15448318 -0.47030237 0.017445352
-0.15463638 -0.4701758 0.017427392
-0.15479347 -0.47004709 0.017432597
-0.15495564 -0.46991456 0.01744581
-0.15511185 -0.46978605 0.017439393
-0.15526389 -0.46966034 0.017419133
-0.15542001 -0.46953148 0.017403418
-0.15559128 -0.46939299 0.017450141
-0.15573992 -0.4692705 0.01743927
-0.15589811 -0.46914077 0.017442124
-0.15605119 -0.46901447 0.017427647
-0.15620846 -0.46888539 0.017428186
-0.1563639 -0.46875754 0.017422959
-0.15652253 -0.46862763 0.017429294
-0.15667228 -0.46850404 0.017414903
-0.15683061 -0.46837437 0.017421234
-0.15698458 -0.46824759 0.017412556
-0.15714456 -0.46811685 0.017425835
-0.1572957 -0.46799201 0.01740792
-0.15745409 -0.46786237 0.017416582
-0.15761015 -0.46773475 0.017427631
-0.15776189 -0.46760955 0.01741319
-0.15791826 -0.46748132 0.01741608
-0.15807198 -0.46735486 0.017409738
-0.15822621 -0.46722808 0.017405715
-0.15838186 -0.46710038 0.017407464
-0.15853551 -0.4669745 0.017412756
-0.15869679 -0.46684319 0.017436465
-0.1588579 -0.46671152 0.017449705
-0.15899639 -0.46659511 0.017389068
-0.15915258 -0.46646768 0.017405936
-0.15931538 -0.46633548 0.017437747
-0.15946516 -0.46621224 0.017431507
-0.15962034 -0.46608505 0.017435599
-0.15977387 -0.46595892 0.017433913
-0.159927 -0.4658331 0.017431078
-0.16008238 -0.46570584 0.017437486
-0.16023199 -0.46558234 0.017421938
-0.16038239 -0.46545833 0.017409861
-0.16054712 -0.46532512 0.017454434
-0.16069479 -0.4652034 0.017443588
-0.16084369 -0.46508044 0.017426899
-0.16099437 -0.46495685 0.017428778
-0.16114479 -0.46483293 0.017419029
-0.16129915 -0.46470651 0.017425464
-0.16145138 -0.46458149 0.017423812
-0.16160187 -0.46445808 0.017426865
-0.16175273 -0.46433398 0.017420597
-0.16190489 -0.46420905 0.017420107
-0.16205609 -0.46408474 0.017416151
-0.16220832 -0.46395984 0.017416829
-0.16235845 -0.46383625 0.017409422
-0.16250715 -0.46371412 0.017407859
-0.16265735 -0.46359053 0.017401608
-0.16281134 -0.46346459 0.017411543
-0.16296078 -0.46334153 0.01740298
-0.16311151 -0.46321768 0.017400207
-0.16325751 -0.46309683 0.017377773
-0.16340612 -0.46297488 0.017378544
-0.16355896 -0.46284974 0.017386187
-0.16370901 -0.46272641 0.01738226
-0.16385868 -0.46260333 0.017377185
-0.16400605 -0.46248221 0.017374497
-0.16415685 -0.46235847 0.017375212
-0.16430597 -0.46223578 0.017368989
-0.16445734 -0.46211171 0.01737318
-0.16460547 -0.4619897 0.017363492
-0.16475818 -0.46186483 0.01737462
-0.16491386 -0.46173817 0.017399643
-0.16505039 -0.46162337 0.017339056
-0.16519649 -0.46150321 0.017334081
-0.16534318 -0.46138215 0.017319771
-0.16549468 -0.46125874 0.01734025
-0.16564773 -0.46113381 0.017356031
-0.16579439 -0.46101284 0.01734289
-0.16593897 -0.46089312 0.017320491
-0.16608797 -0.46077076 0.017318923
-0.16623762 -0.460648 0.017320829
-0.16638446 -0.46052757 0.017322816
-0.16653316 -0.46040541 0.017321253
-0.16668129 -0.46028367 0.017317377
-0.16682787 -0.46016285 0.01730657
-0.16697505 -0.46004227 0.017312028
-0.1671222 -0.45992115 0.017304696
-0.16727021 -0.45979953 0.017301993
-0.16741742 -0.45967841 0.017295819
-0.16756235 -0.45955929 0.017292026
-0.16771127 -0.45943719 0.017295118
-0.16785777 -0.45931655 0.017286634
-0.16800511 -0.45919544 0.017282777
