# .PCD v0.7 - Point Cloud Data file format
VERSION 0.7
FIELDS x y z
SIZE 4 4 4
TYPE F F F
COUNT 1 1 1
WIDTH 112
HEIGHT 1
VIEWPOINT 0 0 0 1 0 0 0
POINTS 112
DATA ascii
-0.12801994 -0.42829868 0.016947705
-0.12817486 -0.4281714 0.016942538
-0.12833494 -0.42804033 0.016947713
-0.12849204 -0.42791176 0.016952962
-0.12865373 -0.42777976 0.016966239
-0.12881318 -0.4276492 0.016970268
-0.12896073 -0.42752588 0.016922228
-0.12911922 -0.42739716 0.016948394
-0.12927781 -0.42726713 0.016950112
-0.12943318 -0.42713976 0.016950756
-0.12959285 -0.42700917 0.01695827
-0.12974799 -0.42688194 0.016958918
-0.12990385 -0.4267537 0.016950227
-0.13005906 -0.4266265 0.016952034
-0.13021749 -0.42649674 0.016956087
-0.13037199 -0.42637002 0.016955595
-0.13053021 -0.42624044 0.016959656
-0.13068646 -0.42611271 0.016968416
-0.13084371 -0.42598376 0.01696901
-0.13099654 -0.42585811 0.016962729
-0.13115311 -0.42572963 0.01696101
-0.13130648 -0.42560369 0.016958214
-0.13146503 -0.42547408 0.016966917
-0.13161606 -0.42534959 0.016953703
-0.13176888 -0.42522338 0.016935788
-0.1319233 -0.42509627 0.016925976
-0.1320895 -0.42496225 0.016974052
-0.13223547 -0.42484146 0.016951658
-0.13239008 -0.4247143 0.01694417
-0.13254017 -0.42459047 0.016928658
-0.13269788 -0.42446154 0.016937383
-0.1328522 -0.42433527 0.016943874
-0.13300434 -0.42421031 0.01693994
-0.13315777 -0.4240846 0.016942956
-0.13331166 -0.423958 0.016934326
-0.1334631 -0.42383349 0.01692808
-0.13575283 -0.42240477 0.026346847
-0.13588943 -0.42229131 0.026316546
-0.13602978 -0.42217767 0.026347835
-0.13616017 -0.42206907 0.026313035
-0.13631466 -0.42194551 0.026378879
-0.13645992 -0.42182654 0.026382117
-0.1365827 -0.42172089 0.026278844
-0.1367303 -0.42159995 0.026280839
-0.13686295 -0.42148942 0.02624483
-0.13701518 -0.4213666 0.026287451
-0.13715865 -0.4212501 0.026311677
-0.13730095 -0.42113426 0.026330113
-0.13734815 -0.42097953 0.023897432
-0.13889763 -0.41985995 0.027068684
-0.13904148 -0.41974309 0.02709174
-0.13919148 -0.41962221 0.027136749
-0.13932639 -0.41951016 0.027107652
-0.13946772 -0.41939399 0.027101681
-0.13960735 -0.41927943 0.027101563
-0.13975251 -0.41916126 0.027119923
-0.13989274 -0.41904646 0.027124442
-0.1400239 -0.41893569 0.027057037
-0.14017351 -0.41881603 0.02712068
-0.14043975 -0.41859394 0.027042804
-0.14052761 -0.41850546 0.02669833
-0.14060761 -0.41842157 0.026315656
-0.1408295 -0.41823533 0.026226114
-0.14097457 -0.41811717 0.026243318
-0.14110674 -0.41800639 0.026193349
-0.14124477 -0.41789344 0.026199095
-0.14138392 -0.41777915 0.0261955
-0.14152612 -0.41766337 0.026212769
-0.14166874 -0.41754737 0.026233528
-0.14181194 -0.41743031 0.026241468
-0.14194709 -0.41731808 0.026212364
-0.14207907 -0.41720739 0.02616124
-0.14221825 -0.41709319 0.026159965
-0.14235729 -0.41697818 0.026140081
-0.14250369 -0.41685966 0.026172381
-0.14264366 -0.41674513 0.026178066
-0.14278728 -0.4166289 0.02621044
-0.14292115 -0.41651732 0.026173228
-0.14306332 -0.41640091 0.026177697
-0.14320818 -0.41628239 0.026183264
-0.14334786 -0.4161672 0.026170343
-0.1434806 -0.41605616 0.02612501
-0.14361738 -0.41594511 0.026148252
-0.14375335 -0.41583258 0.026127277
-0.14401576 -0.41560149 0.025794599
-0.14410613 -0.41550845 0.025397681
-0.14423835 -0.41539928 0.025382627
-0.14395714 -0.41536686 0.019867022
-0.14413731 -0.41522965 0.020088166
-0.14424522 -0.41513318 0.019921254
-0.14439996 -0.41501024 0.020004556
-0.14454243 -0.4148905 0.019943837
-0.14463298 -0.41479367 0.019471265
-0.14479287 -0.41466856 0.019597499
-0.145016 -0.41449785 0.01985478
-0.14515682 -0.41438416 0.019893046
-0.14529029 -0.41428125 0.02003043
-0.14538798 -0.41418403 0.019671738
-0.14587693 -0.41380572 0.020147955
-0.1463521 -0.41343528 0.020552371
-0.14649975 -0.41331497 0.020568337
-0.14664558 -0.41319534 0.02056806
-0.14677757 -0.41308442 0.020512275
-0.14690766 -0.41297174 0.0203867
-0.14703472 -0.41284901 0.019998148
-0.14728995 -0.41263464 0.019892618
-0.14744592 -0.41251257 0.020015461
-0.14758477 -0.41239393 0.01991526
-0.14771496 -0.41228065 0.019779213
-0.14785965 -0.4121612 0.019762672
-0.14805318 -0.41200879 0.01989501
-0.14818247 -0.41190365 0.019913783
