# .PCD v0.7 - Point Cloud Data file format
VERSION 0.7
FIELDS x y z
SIZE 4 4 4
TYPE F F F
COUNT 1 1 1
WIDTH 123
HEIGHT 1
VIEWPOINT 0 0 0 1 0 0 0
POINTS 123
DATA ascii
-0.17919694 -0.43268839 0.019761723
-0.17931975 -0.43257877 0.019567726
-0.17948554 -0.43247017 0.020157933
-0.17975193 -0.43223038 0.019693773
-0.17990601 -0.43210274 0.019664161
-0.18004444 -0.43198803 0.019637294
-0.18017977 -0.43188146 0.019731507
-0.18047681 -0.43165082 0.020008821
-0.18061602 -0.43152341 0.019720156
-0.18076697 -0.43139756 0.019674342
-0.18089415 -0.43129098 0.019623334
-0.18104906 -0.43119645 0.020325519
-0.18118984 -0.43108016 0.020305563
-0.18132436 -0.43093634 0.019579554
-0.18147634 -0.43081477 0.019644251
-0.18160498 -0.43070891 0.019635091
-0.18175748 -0.43059677 0.019912675
-0.18203303 -0.43036139 0.019706555
-0.18219912 -0.43022126 0.019619623
-0.18233073 -0.43011355 0.019623188
-0.18245769 -0.43001086 0.019652456
-0.18260635 -0.4299193 0.020308267
-0.18275204 -0.42979795 0.020266091
-0.18289058 -0.4296537 0.019601637
-0.18304886 -0.42952502 0.019624274
-0.18317546 -0.42942217 0.019644253
-0.18331937 -0.42931649 0.019909268
-0.18360025 -0.42907831 0.019736752
-0.18375695 -0.42894658 0.019665197
-0.18388791 -0.42883748 0.019626884
-0.18403034 -0.42872229 0.019660402
-0.18416978 -0.42864117 0.02037812
-0.18431102 -0.42852524 0.020374445
-0.18446627 -0.4283756 0.019889906
-0.18460932 -0.42825061 0.019722128
-0.18488607 -0.42802948 0.019845236
-0.18502788 -0.42793739 0.020367432
-0.18518507 -0.42777959 0.019740893
-0.18546881 -0.42754325 0.019659048
-0.18560573 -0.42743921 0.01983582
-0.18605734 -0.42707461 0.019955542
-0.18618174 -0.42695794 0.019637015
-0.18632641 -0.42683992 0.019649534
-0.18644972 -0.4267661 0.02023853
-0.18658252 -0.42666376 0.020379344
-0.18677008 -0.42649943 0.020149916
-0.18690476 -0.42636922 0.019720588
-0.18702798 -0.42627034 0.019766245
-0.18715912 -0.42616451 0.019802388
-0.18730198 -0.42604387 0.019725369
-0.1874436 -0.42592958 0.01976357
-0.18758781 -0.42581302 0.019799374
-0.18773021 -0.42569512 0.019773565
-0.1878752 -0.42557546 0.01975584
-0.18801971 -0.42545015 0.019606639
-0.18816276 -0.42533788 0.019714613
-0.1883049 -0.42522147 0.019716736
-0.18844712 -0.42510486 0.019715354
-0.18858714 -0.42498907 0.019693097
-0.18873233 -0.42486942 0.01967885
-0.18887517 -0.42475113 0.01965303
-0.18902095 -0.42463005 0.019617822
-0.18916339 -0.42451319 0.019615285
-0.18930916 -0.42439234 0.019585898
-0.18945161 -0.42427558 0.019585682
-0.18959379 -0.42415953 0.019595943
-0.18973407 -0.42404386 0.019580651
-0.18988056 -0.42392582 0.019624546
-0.190034 -0.42380348 0.019698508
-0.19016922 -0.4236955 0.019760137
-0.19030114 -0.42358729 0.019757874
-0.19046046 -0.42345521 0.019725807
-0.19063957 -0.4233053 0.019658322
-0.19078398 -0.42318457 0.019606858
-0.19092688 -0.42307043 0.019671788
-0.1910601 -0.4229598 0.019640397
-0.19119331 -0.42284611 0.019542694
-0.19133362 -0.42272782 0.019471563
-0.19147006 -0.42261127 0.019369118
-0.19161654 -0.42248732 0.019285023
-0.1917457 -0.42239955 0.01967608
-0.19189186 -0.42228171 0.019718815
-0.19204049 -0.42215931 0.019705636
-0.19217414 -0.42205632 0.019847598
-0.19232097 -0.42193711 0.019871693
-0.19246532 -0.42181459 0.019780684
-0.19259726 -0.4217042 0.019731872
-0.19275159 -0.42157686 0.019713897
-0.1929321 -0.42142844 0.019703384
-0.19308317 -0.42130214 0.019649426
-0.19322135 -0.42119083 0.019691207
-0.1933635 -0.42107278 0.019658422
-0.19351523 -0.42094788 0.019646324
-0.1936584 -0.42083052 0.01964609
-0.19379839 -0.42072052 0.019748323
-0.19394788 -0.4205929 0.019638557
-0.1940911 -0.42047557 0.019639492
-0.19422062 -0.4203698 0.019647751
-0.19436274 -0.42025423 0.019667327
-0.1945204 -0.42012423 0.019650424
-0.19466758 -0.42000279 0.019632632
-0.19481504 -0.41988093 0.019611344
-0.19492012 -0.41980135 0.019752886
-0.19506414 -0.41968289 0.019743316
-0.19522326 -0.41954899 0.019668208
-0.19538845 -0.41941336 0.019662742
-0.19553192 -0.41929409 0.019626435
-0.19566762 -0.41918287 0.019626394
-0.19580787 -0.41906846 0.019637875
-0.19597153 -0.41893181 0.019583583
-0.1961119 -0.41881895 0.019631127
-0.19624661 -0.41871092 0.019682299
-0.19639634 -0.41858786 0.019674914
-0.19654407 -0.41846606 0.019659437
-0.19668804 -0.41834804 0.01965918
-0.19683214 -0.41822988 0.019657763
-0.19696319 -0.41812381 0.019686926
-0.19712354 -0.41799071 0.01965018
-0.1972632 -0.41787574 0.019639567
-0.19741017 -0.41775674 0.019670647
-0.19755353 -0.4176397 0.01968088
-0.19770224 -0.41751683 0.019659556
-0.19784878 -0.41739553 0.01963364
