# .PCD v0.7 - Point Cloud Data file format
VERSION 0.7
FIELDS x y z
SIZE 4 4 4
TYPE F F F
COUNT 1 1 1
WIDTH 115
HEIGHT 1
VIEWPOINT 0 0 0 1 0 0 0
POINTS 115
DATA ascii
-0.19193256 -0.41333249 0.019819517
-0.19207032 -0.41321731 0.019770514
-0.19219212 -0.4131183 0.019788284
-0.19244114 -0.41293392 0.020212498
-0.19264141 -0.41274324 0.019640332
-0.19293527 -0.41251048 0.019814251
-0.19310609 -0.41237098 0.019824911
-0.19372538 -0.41197655 0.022262683
-0.19386451 -0.411863 0.022273015
-0.19401273 -0.41174015 0.02224352
-0.19415832 -0.41161951 0.022215266
-0.19429544 -0.41151121 0.022302484
-0.19444437 -0.41138881 0.022295095
-0.19459313 -0.41126788 0.022316815
-0.19450952 -0.41162804 0.0286041
-0.19463924 -0.4115226 0.028622821
-0.19477233 -0.41141516 0.028657755
-0.19590688 -0.41018867 0.0222615
-0.19604783 -0.41007316 0.022261303
-0.19618551 -0.40996057 0.022267021
-0.19633543 -0.40983623 0.022235153
-0.19647987 -0.40971979 0.022276781
-0.1963564 -0.41010287 0.028354399
-0.19647646 -0.41000542 0.028374542
-0.1966126 -0.4098945 0.028388442
-0.19675438 -0.40977678 0.028355628
-0.19689646 -0.40966073 0.028363552
-0.19877744 -0.40757447 0.016619585
-0.19892924 -0.40745059 0.016630754
-0.19908006 -0.40732682 0.016627967
-0.19923468 -0.40719968 0.01661811
-0.19938818 -0.40707386 0.016617581
-0.19954205 -0.40694761 0.016614724
-0.19969396 -0.40682271 0.016606089
-0.19984663 -0.40669796 0.016613733
-0.19999731 -0.40657455 0.016615622
-0.20015134 -0.40644825 0.016613919
-0.2003053 -0.40632203 0.016613379
-0.20045903 -0.40619615 0.01661519
-0.20061001 -0.4060725 0.016617056
-0.2007634 -0.40594703 0.016622353
-0.20091914 -0.40581888 0.016611297
-0.20107202 -0.40569407 0.016621266
-0.20122464 -0.40556863 0.016613781
-0.20137966 -0.4054414 0.016609725
-0.20153213 -0.4053162 0.016604574
-0.20168999 -0.40518671 0.016601611
-0.20183684 -0.40506795 0.016636185
-0.20199005 -0.40494198 0.016627524
-0.20214602 -0.40481383 0.016619951
-0.20230335 -0.40468502 0.016622823
-0.20245299 -0.40456232 0.016621239
-0.20260677 -0.40443668 0.016630016
-0.20276169 -0.40430894 0.016613157
-0.20291671 -0.40418199 0.016614933
-0.20307057 -0.40405634 0.016624866
-0.20322467 -0.40393046 0.016633645
-0.20337763 -0.40380502 0.016631972
-0.2035341 -0.40367657 0.016626716
-0.20368189 -0.40355694 0.016658945
-0.2038393 -0.40342829 0.016666465
-0.20400728 -0.40328711 0.016591057
-0.20415565 -0.40316689 0.01662094
-0.20431015 -0.40303993 0.016613405
-0.20446797 -0.40291095 0.016620915
-0.20462096 -0.40278488 0.016606439
-0.20477553 -0.40265876 0.016617525
-0.20493139 -0.40253037 0.016604135
-0.20508711 -0.40240303 0.01660938
-0.20524025 -0.40227771 0.016613524
-0.20539793 -0.40214825 0.016608236
-0.20555145 -0.40202257 0.0166112
-0.20570995 -0.40189224 0.016602401
-0.20586509 -0.40176487 0.01659718
-0.20602177 -0.4016366 0.016600069
-0.20617588 -0.40151039 0.016601857
-0.20633709 -0.40137801 0.016596476
-0.20649515 -0.40124759 0.016577207
-0.20665765 -0.4011139 0.016565971
-0.20680377 -0.40099639 0.016614534
-0.20696071 -0.40086725 0.016603447
-0.20712128 -0.40073499 0.016588772
-0.20727825 -0.40060589 0.016578842
-0.20742966 -0.40048206 0.016584191
-0.20758586 -0.40035456 0.016595244
-0.20774344 -0.40022561 0.016599271
-0.20790261 -0.40009427 0.016579973
-0.20805775 -0.39996725 0.016582903
-0.20821498 -0.39983875 0.016590429
-0.20837367 -0.399708 0.016575804
-0.20852844 -0.39958146 0.016582234
-0.20868851 -0.39944935 0.016561741
-0.20884123 -0.39932501 0.016579866
-0.20899837 -0.39919606 0.016575754
-0.20916167 -0.39906198 0.016570318
-0.20931745 -0.39893451 0.016574394
-0.20948018 -0.3988004 0.016558502
-0.20963664 -0.39867225 0.016560227
-0.20979437 -0.39854279 0.016556099
-0.20994586 -0.39841992 0.016583569
-0.21011198 -0.39828241 0.016553618
-0.21028012 -0.39814213 0.016500326
-0.21043071 -0.39802024 0.016533641
-0.21058401 -0.39789554 0.016554072
-0.21074398 -0.39776459 0.016556878
-0.21090916 -0.39762756 0.016521126
-0.2110689 -0.39749688 0.016526258
-0.21122852 -0.39736572 0.016518589
-0.21138281 -0.3972401 0.016536674
-0.2115474 -0.39710385 0.016506761
-0.21170312 -0.39697745 0.01653295
-0.21185997 -0.39684924 0.016540496
-0.21201929 -0.39671788 0.016523514
-0.21218114 -0.39658523 0.016522776
-0.21234564 -0.39644983 0.01651033
