# .PCD v0.7 - Point Cloud Data file format
VERSION 0.7
FIELDS x y z
SIZE 4 4 4
TYPE F F F
COUNT 1 1 1
WIDTH 106
HEIGHT 1
VIEWPOINT 0 0 0 1 0 0 0
POINTS 106
DATA ascii
-0.16877897 -0.41478115 0.026892077
-0.16911499 -0.41428742 0.022278115
-0.16925727 -0.41417018 0.022265086
-0.16939977 -0.41405338 0.022264853
-0.16953959 -0.41393846 0.02225887
-0.16967949 -0.41382378 0.022258718
-0.16981953 -0.41370958 0.02227135
-0.16996238 -0.41359413 0.022306046
-0.17010221 -0.41347939 0.022303551
-0.17055449 -0.4133237 0.026850371
-0.17094927 -0.41278517 0.022307048
-0.17109421 -0.41266304 0.022236902
-0.17123155 -0.41254863 0.0221984
-0.17137675 -0.41243234 0.022256305
-0.17151409 -0.41232076 0.022277161
-0.17165661 -0.4122045 0.02228974
-0.17179914 -0.41208783 0.022293007
-0.17219406 -0.41197613 0.026774969
-0.17264681 -0.41139275 0.022288326
-0.17279252 -0.41127092 0.022237962
-0.17293274 -0.41115534 0.022224989
-0.17307551 -0.4110381 0.022220097
-0.17321566 -0.41092309 0.022217598
-0.17335552 -0.41080937 0.022237228
-0.17349534 -0.41069573 0.022258028
-0.1736377 -0.41058001 0.022278752
-0.17397697 -0.41051245 0.026729576
-0.17449062 -0.40987754 0.022208754
-0.1746332 -0.40976125 0.022221332
-0.17477673 -0.40964237 0.02219547
-0.17491764 -0.40952581 0.022173155
-0.17505778 -0.40941134 0.022182306
-0.17519772 -0.40929741 0.022198442
-0.17534234 -0.40918049 0.022233082
-0.17548494 -0.4090642 0.022245659
-0.17576495 -0.40904653 0.026724799
-0.17646186 -0.40814856 0.019818604
-0.17660215 -0.40803361 0.019819589
-0.17675066 -0.40791163 0.019814549
-0.17688841 -0.40779871 0.019814452
-0.17702474 -0.40768865 0.019850466
-0.17718235 -0.40755793 0.019818414
-0.177342 -0.40742639 0.01980377
-0.17747571 -0.40731549 0.019776992
-0.17760593 -0.40721983 0.020011067
-0.17772046 -0.40712523 0.019996436
-0.17787743 -0.40697953 0.019636124
-0.17806144 -0.40683061 0.019676719
-0.17818098 -0.40673524 0.019731807
-0.17831211 -0.40662673 0.019710919
-0.17847316 -0.40649569 0.019731155
-0.17862377 -0.40637296 0.019747011
-0.17875507 -0.40626192 0.019674903
-0.17889142 -0.40615422 0.019760985
-0.17902391 -0.40605295 0.019915836
-0.1791746 -0.40592316 0.019783851
-0.17932525 -0.40579596 0.019705415
-0.17947002 -0.4056786 0.019733068
-0.17961209 -0.40556344 0.019760789
-0.17975934 -0.40544415 0.019790707
-0.17990747 -0.40532553 0.019849695
-0.18005204 -0.40520838 0.019878514
-0.18018335 -0.40510207 0.019906519
-0.18034016 -0.40496373 0.019699872
-0.18047267 -0.40486547 0.019918753
-0.1806353 -0.40472046 0.019671209
-0.18078065 -0.40460226 0.019691864
-0.18091923 -0.40449253 0.019773226
-0.18106411 -0.40437502 0.019799706
-0.18121313 -0.40425313 0.019805124
-0.18135598 -0.40413684 0.019822355
-0.1814986 -0.40402266 0.019880328
-0.18164864 -0.4039062 0.020018429
-0.18182914 -0.40375024 0.019849576
-0.18194672 -0.40365717 0.019919846
-0.18208455 -0.40353984 0.019827776
-0.18223409 -0.4034124 0.019724924
-0.18239452 -0.40327606 0.019622946
-0.18257025 -0.40313101 0.01960206
-0.18269116 -0.40303963 0.01976537
-0.18287212 -0.4028888 0.019712912
-0.18300599 -0.40277758 0.01968148
-0.18312331 -0.40268177 0.019688899
-0.18325689 -0.40257704 0.019790174
-0.18343756 -0.40243131 0.019840172
-0.1835797 -0.4023118 0.019777089
-0.18372646 -0.40219194 0.019786065
-0.18389329 -0.40205348 0.019750282
-0.18404299 -0.40192971 0.019727748
-0.18478264 -0.40144312 0.02225898
-0.1849308 -0.4013229 0.022285383
-0.18508208 -0.40119612 0.022226714
-0.18522586 -0.40107787 0.022218306
-0.18536785 -0.40096197 0.022228569
-0.18551193 -0.4008446 0.022244599
-0.18565361 -0.40072912 0.02225836
-0.1858079 -0.4006024 0.022253167
-0.18596083 -0.40047625 0.02223637
-0.18610774 -0.40035421 0.022202268
-0.1862492 -0.40023676 0.022170627
-0.18640687 -0.40010476 0.022112969
-0.1865468 -0.3999905 0.022122117
-0.18669753 -0.39986846 0.022154273
-0.18682699 -0.39976496 0.022210261
-0.18697318 -0.39964408 0.022187818
-0.18711255 -0.39952943 0.022179518
