# .PCD v0.7 - Point Cloud Data file format
VERSION 0.7
FIELDS x y z
SIZE 4 4 4
TYPE F F F
COUNT 1 1 1
WIDTH 132
HEIGHT 1
VIEWPOINT 0 0 0 1 0 0 0
POINTS 132
DATA ascii
-0.22931007 -0.40826732 0.016360575
-0.22947171 -0.40813467 0.016356401
-0.22964127 -0.40799463 0.016332248
-0.22980325 -0.40786171 0.016328067
-0.2299647 -0.40772989 0.016339019
-0.23012808 -0.4075956 0.016330149
-0.1488719 -0.47422749 0.01731349
-0.1490449 -0.47408661 0.017333467
-0.14921117 -0.47394991 0.017323362
-0.14937863 -0.47381285 0.017327188
-0.14954227 -0.47367841 0.017319471
-0.14971197 -0.47353989 0.017331392
-0.14987688 -0.47340417 0.01731899
-0.15004079 -0.47326961 0.0173136
-0.15020275 -0.4731364 0.017302446
-0.15035634 -0.47300884 0.017264731
-0.15054965 -0.47285405 0.017345864
-0.15070829 -0.47272313 0.017325476
-0.1508693 -0.47259066 0.017313175
-0.15103053 -0.47245803 0.01730204
-0.15119429 -0.47232327 0.01728967
-0.15136611 -0.47218359 0.017314328
-0.15152796 -0.47205061 0.017306667
-0.15169939 -0.47191122 0.017331336
-0.1518473 -0.47178718 0.017268166
-0.15200669 -0.47165591 0.017253587
-0.15218177 -0.47151417 0.017292123
-0.15234223 -0.47138223 0.017282167
-0.15250385 -0.47124907 0.017266363
-0.15266949 -0.47111371 0.017274886
-0.15283632 -0.47097757 0.01728804
-0.15299927 -0.47084409 0.017288495
-0.15315902 -0.47071272 0.017278558
-0.15332203 -0.47057921 0.017280169
-0.15348651 -0.47044429 0.017277092
-0.15365319 -0.47030839 0.017292581
-0.15381935 -0.47017193 0.017285969
-0.15398009 -0.47004002 0.017281819
-0.15413935 -0.46990958 0.017283525
-0.15429884 -0.46977854 0.017275926
-0.15446772 -0.46964037 0.017280877
-0.1546243 -0.46951178 0.017274514
-0.15478732 -0.46937799 0.017270314
-0.15494725 -0.46924675 0.017266184
-0.15510896 -0.46911436 0.017268997
-0.15526742 -0.46898362 0.017249782
-0.15543565 -0.46884653 0.017266393
-0.15560076 -0.46871197 0.017283071
-0.15575758 -0.46858239 0.017259248
-0.15592048 -0.46844932 0.017269015
-0.15607822 -0.46831965 0.017260291
-0.15624034 -0.46818668 0.017257273
-0.15640157 -0.46805477 0.017262422
-0.15656081 -0.46792421 0.017260639
-0.15672284 -0.46779135 0.017258795
-0.15688504 -0.4676584 0.017258096
-0.1570456 -0.46752653 0.017251629
-0.1572037 -0.4673968 0.017247558
-0.15736613 -0.46726376 0.017249184
-0.15752408 -0.46713465 0.017256746
-0.15768592 -0.46700206 0.017257228
-0.15785542 -0.46686453 0.017287767
-0.1580006 -0.46674272 0.017224668
-0.15816036 -0.46661204 0.017229863
-0.15832238 -0.46648043 0.017255936
-0.15847979 -0.4663513 0.017253039
-0.15863794 -0.46622121 0.017241985
-0.15880269 -0.46608689 0.017257512
-0.15896118 -0.46595716 0.01726041
-0.15911868 -0.46582806 0.017259832
-0.15928039 -0.46569577 0.017264981
-0.15943564 -0.46556816 0.01725632
-0.15959682 -0.46543625 0.017260309
-0.15975609 -0.46530613 0.017268997
-0.15991072 -0.46517897 0.017259192
-0.1600675 -0.46505046 0.017258644
-0.16022313 -0.46492219 0.017241824
-0.16038507 -0.4647899 0.017251614
-0.16055521 -0.46465248 0.017296098
-0.16070059 -0.46453181 0.017262097
-0.16085801 -0.46440247 0.017254543
-0.16101629 -0.46427315 0.017263267
-0.16117403 -0.46414366 0.017258033
-0.16132906 -0.46401644 0.01725403
-0.16148958 -0.46388525 0.017261527
-0.16164277 -0.46375921 0.017250599
-0.16179696 -0.46363255 0.017244287
-0.1619579 -0.46350116 0.017255263
-0.16211267 -0.4633742 0.017252438
-0.16226444 -0.46324915 0.017236885
-0.16242394 -0.46311814 0.017230447
-0.16257764 -0.46299249 0.017236959
-0.16273487 -0.4628635 0.017234068
-0.16288964 -0.46273667 0.017233562
-0.16304432 -0.46260989 0.017233068
-0.16320045 -0.46248165 0.017226715
-0.16335671 -0.46235394 0.017234322
-0.16351238 -0.46222603 0.017226811
-0.16366512 -0.46210054 0.017219376
-0.16382162 -0.46197215 0.017216504
-0.16398302 -0.46184081 0.01723678
-0.16412735 -0.4617199 0.017178364
-0.16428065 -0.46159473 0.017188378
-0.16443948 -0.461465 0.01719825
-0.16459095 -0.4613404 0.017187357
-0.16474566 -0.46121323 0.017178711
-0.16490158 -0.46108595 0.017189816
-0.16505876 -0.46095732 0.017193908
-0.16520965 -0.46083313 0.01718187
-0.16536514 -0.46070495 0.017165061
-0.16552801 -0.46057358 0.017212065
-0.16567673 -0.46045077 0.017190771
-0.1658268 -0.46032715 0.017176423
-0.16597986 -0.46020111 0.017163169
-0.16613424 -0.46007496 0.017170824
-0.16628784 -0.45994866 0.017161047
-0.16644205 -0.459822 0.017154744
-0.1665971 -0.45969486 0.017153069
-0.1667472 -0.45957133 0.017141053
-0.16690297 -0.45944381 0.017144011
-0.16705495 -0.45931917 0.017142426
-0.1672112 -0.45919141 0.017148864
-0.16736211 -0.45906746 0.017142646
-0.16751486 -0.45894182 0.01713172
-0.16766495 -0.45881838 0.017122034
-0.16782062 -0.45869106 0.017127335
-0.16797361 -0.45856598 0.017133854
-0.16812757 -0.45843968 0.017131049
-0.16827777 -0.45831627 0.017123692
-0.16843306 -0.45818925 0.017128991
-0.1685842 -0.45806533 0.017127419
-0.16873696 -0.4579398 0.017119983
