# .PCD v0.7 - Point Cloud Data file format
VERSION 0.7
FIELDS x y z
SIZE 4 4 4
TYPE F F F
COUNT 1 1 1
WIDTH 132
HEIGHT 1
VIEWPOINT 0 0 0 1 0 0 0
POINTS 132
DATA ascii
-0.19949383 -0.38952294 0.016581628
-0.19964905 -0.38939586 0.016585698
-0.19981325 -0.38926002 0.016559277
-0.19996758 -0.38913396 0.01656918
-0.20012651 -0.38900375 0.016570821
-0.20028174 -0.3888768 0.01657721
-0.20043984 -0.3887468 0.016569562
-0.20059904 -0.38861573 0.016557235
-0.20075822 -0.38848537 0.016560029
-0.20091143 -0.38835996 0.016564142
-0.2010747 -0.388226 0.016562179
-0.20123322 -0.38809577 0.01655568
-0.20139551 -0.38796222 0.016545601
-0.20155066 -0.38783556 0.016556643
-0.2017076 -0.38770702 0.016559508
-0.20186539 -0.38757765 0.016558848
-0.20202944 -0.38744241 0.016542893
-0.20219024 -0.38730994 0.016529363
-0.20234811 -0.38718119 0.016543824
-0.20250691 -0.38705087 0.016540818
-0.20266728 -0.38691959 0.016544743
-0.20282505 -0.38679036 0.016547574
-0.2029793 -0.38666549 0.016580753
-0.2031447 -0.38652843 0.016549651
-0.20331326 -0.38638878 0.016518453
-0.20346716 -0.38626367 0.016541168
-0.20363036 -0.38612962 0.016535718
-0.20379098 -0.38599765 0.016529165
-0.20395155 -0.38586634 0.016536582
-0.20411061 -0.38573605 0.01653821
-0.20427434 -0.38560155 0.016532745
-0.20443551 -0.38546911 0.016526187
-0.20459364 -0.38534042 0.016546462
-0.20475294 -0.38520998 0.016549254
-0.20492019 -0.38507199 0.016530894
-0.20508683 -0.3849341 0.016503237
-0.20524462 -0.38480586 0.016527023
-0.2054061 -0.38467327 0.016522776
-0.20557182 -0.38453698 0.016513767
-0.2057322 -0.38440558 0.016515361
-0.20589711 -0.38427019 0.016511023
-0.20605946 -0.38413683 0.016505595
-0.20621821 -0.38400775 0.016528185
-0.20637996 -0.38387504 0.016526259
-0.12489934 -0.45071742 0.017468954
-0.12507463 -0.45057452 0.017485298
-0.12524477 -0.45043552 0.017495956
-0.1254092 -0.4503004 0.01748931
-0.12557459 -0.45016468 0.017486133
-0.12574176 -0.45002732 0.017479416
-0.12591085 -0.44988915 0.017488942
-0.12607539 -0.44975406 0.017484613
-0.12623832 -0.44962007 0.01747568
-0.12640147 -0.44948596 0.017467909
-0.1265659 -0.44935098 0.017464753
-0.12673666 -0.44921184 0.017482378
-0.12690309 -0.44907513 0.01747684
-0.12706475 -0.44894257 0.017476089
-0.12722714 -0.44880906 0.01746833
-0.12739332 -0.44867215 0.017453495
-0.12756002 -0.4485358 0.017460756
-0.12772655 -0.44839963 0.017468017
-0.12788837 -0.44826663 0.017460272
-0.12804958 -0.44813353 0.017440911
-0.12821563 -0.44799775 0.017448185
-0.12837841 -0.44786417 0.017445074
-0.12853383 -0.44773546 0.017417725
-0.12871306 -0.44759056 0.017460726
-0.12887128 -0.44746006 0.017443765
-0.12903647 -0.44732448 0.017440591
-0.12919411 -0.4471944 0.017422494
-0.12935102 -0.44706526 0.017412547
-0.12951517 -0.44693094 0.01741755
-0.12967947 -0.44679606 0.017413231
-0.12984765 -0.44665912 0.017433252
-0.13000965 -0.44652578 0.017422009
-0.13017285 -0.44639218 0.017425871
-0.13033292 -0.44626063 0.017419338
-0.13049585 -0.44612676 0.017412733
-0.13066648 -0.44598788 0.017433852
-0.13083559 -0.44585049 0.017460838
-0.13097987 -0.44572887 0.017389543
-0.13113832 -0.44559848 0.017379567
-0.13130596 -0.44546267 0.017413564
-0.13147096 -0.44532758 0.017417375
-0.13162997 -0.44519693 0.017410874
-0.13179117 -0.44506434 0.017401984
-0.13195184 -0.44493264 0.01740242
-0.13211942 -0.444796 0.017417805
-0.1322754 -0.44466737 0.017402072
-0.13243577 -0.44453543 0.017392043
-0.13259965 -0.44440174 0.017406357
-0.13276009 -0.44426981 0.017397488
-0.13291994 -0.44413877 0.017397944
-0.1330823 -0.44400564 0.017397165
-0.13324574 -0.44387186 0.017401017
-0.1334008 -0.44374344 0.017373677
-0.13356885 -0.4436067 0.017396033
-0.13372986 -0.44347507 0.017403441
-0.13388318 -0.44334838 0.017381955
-0.13404544 -0.44321597 0.01739515
-0.13419917 -0.44308904 0.017375976
-0.13436294 -0.44295573 0.017396115
-0.13452381 -0.44282377 0.017394222
-0.13468106 -0.44269466 0.017390087
-0.13483962 -0.44256419 0.017380107
-0.13499695 -0.44243509 0.01737714
-0.13515733 -0.44230348 0.017375253
-0.13531557 -0.44217384 0.017376911
-0.1354737 -0.44204375 0.017366944
-0.13563259 -0.44191319 0.017360445
-0.13579047 -0.44178385 0.017362114
-0.1359517 -0.44165185 0.017366026
-0.13610876 -0.44152305 0.017365396
-0.1362635 -0.44139519 0.017343873
-0.13641924 -0.44126725 0.017338619
-0.13657998 -0.44113567 0.017342541
-0.13673893 -0.44100523 0.017339531
-0.1368982 -0.44087517 0.017350476
-0.13706227 -0.440741 0.017357804
-0.13721384 -0.44061577 0.017337535
-0.13736288 -0.44049215 0.017306849
-0.13752277 -0.44036183 0.01732244
-0.13768241 -0.44023108 0.017325222
-0.13783501 -0.44010529 0.017310748
-0.13799199 -0.43997625 0.017303128
-0.1381495 -0.43984747 0.017310629
-0.13830389 -0.43972003 0.017292608
-0.13846749 -0.439587 0.017315079
-0.13862854 -0.43945554 0.017327135
-0.13877743 -0.43933272 0.017311588
-0.13893354 -0.43920434 0.017302833
