# .PCD v0.7 - Point Cloud Data file format
VERSION 0.7
FIELDS x y z
SIZE 4 4 4
TYPE F F F
COUNT 1 1 1
WIDTH 104
HEIGHT 1
VIEWPOINT 0 0 0 1 0 0 0
POINTS 104
DATA ascii
-0.16142936 -0.42389402 0.019901711
-0.16158751 -0.42376691 0.019955687
-0.16172037 -0.4236567 0.019927721
-0.16185674 -0.4235394 0.019810073
-0.16202492 -0.42340699 0.019926611
-0.16215056 -0.42330471 0.019941894
-0.16229682 -0.42318198 0.019880995
-0.16246228 -0.42305043 0.019968521
-0.16261421 -0.42292494 0.019948186
-0.1627591 -0.42280579 0.01993968
-0.16290173 -0.42268872 0.019937063
-0.16304231 -0.42257378 0.019942632
-0.16317955 -0.42246109 0.019938987
-0.16333228 -0.42233726 0.01996867
-0.16347633 -0.42221832 0.019949712
-0.16361901 -0.42210135 0.019949414
-0.16376686 -0.42198008 0.019947808
-0.16389999 -0.42186978 0.019923329
-0.16404518 -0.42175069 0.019921806
-0.16419138 -0.42163154 0.019936536
-0.16433452 -0.42151463 0.019945528
-0.16447443 -0.42139992 0.019945305
-0.16460918 -0.42128959 0.019947533
-0.16473636 -0.42118573 0.019955795
-0.16488726 -0.42106456 0.020009968
-0.16501582 -0.42095646 0.019951863
-0.16516919 -0.42082885 0.019911708
-0.165297 -0.42072061 0.01983734
-0.16543569 -0.42060587 0.019815033
-0.16559282 -0.42048064 0.019891147
-0.16573887 -0.42036414 0.019960573
-0.16587314 -0.42025152 0.019905807
-0.16601866 -0.42013514 0.019968264
-0.16616856 -0.420017 0.020069003
-0.166309 -0.41990274 0.020087387
-0.16704139 -0.41961652 0.026807472
-0.16726293 -0.41922441 0.022304283
-0.16739859 -0.4191114 0.022265773
-0.16753867 -0.41899684 0.022271356
-0.16768157 -0.41888022 0.022282684
-0.16782135 -0.41876557 0.022281302
-0.16796689 -0.41864696 0.022296051
-0.16810769 -0.41853285 0.022323728
-0.16867892 -0.41827625 0.026851226
-0.16895042 -0.41784072 0.022295516
-0.16908902 -0.41772524 0.02225576
-0.16923204 -0.41760913 0.022279887
-0.16937408 -0.41749218 0.022269124
-0.16951282 -0.41737667 0.022230534
-0.16965634 -0.41726118 0.022276752
-0.16979414 -0.41714951 0.022304505
-0.16993697 -0.41703355 0.022328638
-0.17044799 -0.41682515 0.026830984
-0.17078222 -0.41633943 0.022301521
-0.17092083 -0.41622263 0.02223384
-0.17106326 -0.41610619 0.022240529
-0.17120577 -0.41599 0.022254199
-0.17134787 -0.41587269 0.022236463
-0.17148779 -0.41575873 0.022252521
-0.1716252 -0.41564721 0.022275634
-0.17177033 -0.41552952 0.022303196
-0.17221953 -0.4153713 0.026795544
-0.17261098 -0.41483933 0.022279691
-0.17275572 -0.41471782 0.022218831
-0.17289287 -0.41460338 0.022175621
-0.17303275 -0.41449186 0.022242887
-0.17317513 -0.41437569 0.022254229
-0.17331749 -0.41425857 0.022245787
-0.17345978 -0.41414383 0.022286227
-0.17385982 -0.41402483 0.026755443
-0.17430402 -0.41344979 0.022244014
-0.17444657 -0.41333258 0.022235569
-0.17458661 -0.41321707 0.022220217
-0.17472914 -0.41310009 0.022217594
-0.17486899 -0.41298571 0.02222318
-0.17500894 -0.41287094 0.022221794
-0.17514853 -0.41275764 0.022246011
-0.17529313 -0.41264066 0.022279399
-0.17563207 -0.41257215 0.02675722
-0.17613947 -0.41194376 0.022212697
-0.1762768 -0.41183153 0.02221952
-0.17642225 -0.41171196 0.022212159
-0.1765628 -0.41159591 0.022194464
-0.17670394 -0.4114784 0.022155801
-0.17684323 -0.41136587 0.022190498
-0.17698823 -0.41124761 0.022204101
-0.17712733 -0.41113538 0.022242293
-0.17740873 -0.41111675 0.026777497
-0.17809322 -0.41022971 0.019805655
-0.17820653 -0.41014418 0.019963222
-0.17835875 -0.41000733 0.019704353
-0.1785164 -0.40987298 0.019595437
-0.17864016 -0.40978515 0.01988654
-0.17877439 -0.40968204 0.020034239
-0.17891186 -0.4095692 0.020031746
-0.17906168 -0.40945023 0.020113874
-0.17921042 -0.40932742 0.020094793
-0.17935073 -0.40921211 0.020088736
-0.17948891 -0.40909809 0.020072265
-0.17964815 -0.40896425 0.020001711
-0.17983641 -0.4088017 0.01982566
-0.17998707 -0.40867347 0.019723915
-0.18013203 -0.40855548 0.01974217
-0.18027109 -0.40844533 0.019824579
