# .PCD v0.7 - Point Cloud Data file format
VERSION 0.7
FIELDS x y z
SIZE 4 4 4
TYPE F F F
COUNT 1 1 1
WIDTH 126
HEIGHT 1
VIEWPOINT 0 0 0 1 0 0 0
POINTS 126
DATA ascii
-0.14229706 -0.44032329 0.017310239
-0.14245498 -0.44019526 0.017340988
-0.14260368 -0.44007221 0.017316127
-0.14275774 -0.43994591 0.017316721
-0.14291555 -0.4398168 0.017321879
-0.14306697 -0.43969214 0.01731091
-0.1432205 -0.43956625 0.017310359
-0.14337152 -0.43944189 0.017298229
-0.14352578 -0.43931496 0.017288357
-0.14368072 -0.43918827 0.017295908
-0.14383411 -0.43906254 0.017296521
-0.143986 -0.43893772 0.017290201
-0.14413545 -0.43881437 0.017272294
-0.14429608 -0.43868378 0.017295988
-0.14445122 -0.43855646 0.017293064
-0.14459018 -0.43843997 0.017238215
-0.14474677 -0.4383125 0.017257355
-0.14490466 -0.43818364 0.017269492
-0.14505573 -0.43805942 0.017262023
-0.14520739 -0.43793491 0.017258029
-0.14535898 -0.43781042 0.017254036
-0.14551668 -0.43768176 0.017267337
-0.14566764 -0.43755773 0.017261032
-0.14581898 -0.43743345 0.017257046
-0.14597045 -0.43730915 0.017254218
-0.14612442 -0.43718272 0.017250163
-0.1462777 -0.43705744 0.017257757
-0.14643149 -0.43693116 0.01725371
-0.14658414 -0.43680626 0.017259002
-0.14673562 -0.43668205 0.017258503
-0.14688382 -0.43655971 0.017240638
-0.14703707 -0.43643382 0.017235432
-0.14718896 -0.43630943 0.017238412
-0.14734402 -0.43618184 0.01722851
-0.14750306 -0.43605351 0.017272029
-0.1484936 -0.43536946 0.020006835
-0.14865051 -0.4352425 0.020042259
-0.1488021 -0.43511921 0.020063862
-0.1489435 -0.43500307 0.020058976
-0.14906596 -0.43489882 0.019976636
-0.14920391 -0.43478459 0.019952059
-0.14935377 -0.4346616 0.01994928
-0.14952025 -0.4345243 0.019932099
-0.14967057 -0.43440187 0.019949082
-0.1505329 -0.43373334 0.020769875
-0.15068325 -0.43360972 0.020762425
-0.15083587 -0.43348414 0.020752586
-0.15096028 -0.43337584 0.020617835
-0.15103815 -0.43329197 0.020189961
-0.15115593 -0.43318692 0.020008847
-0.15130337 -0.43306631 0.020014277
-0.15144965 -0.43294629 0.020012755
-0.15157858 -0.43284023 0.020004705
-0.15171558 -0.43272671 0.019978981
-0.15183489 -0.4326289 0.019979335
-0.15197629 -0.43250984 0.019911623
-0.15213734 -0.43237063 0.019758452
-0.15231472 -0.43223232 0.019910846
-0.1524674 -0.43210921 0.019954532
-0.1525926 -0.43200254 0.019868631
-0.15271547 -0.43190387 0.019913098
-0.1529007 -0.43176287 0.020144401
-0.15299025 -0.43167311 0.019795332
-0.15316726 -0.43153894 0.02002918
-0.15334991 -0.43138719 0.019985968
-0.1534889 -0.43127102 0.019939259
-0.15358597 -0.43117532 0.019594645
-0.15375389 -0.43104503 0.019751951
-0.15391497 -0.43091816 0.019862887
-0.15406573 -0.43079636 0.019900803
-0.15421237 -0.43067655 0.019909732
-0.15435547 -0.43055844 0.019893171
-0.15450807 -0.43043587 0.01994732
-0.15464936 -0.43031868 0.019918006
-0.15480039 -0.43019596 0.019941952
-0.15493643 -0.43008122 0.019873219
-0.15508391 -0.42996117 0.019891437
-0.15524063 -0.4298369 0.019981556
-0.15535234 -0.42974496 0.019973958
-0.15548125 -0.42963934 0.019975211
-0.15565802 -0.42950225 0.020142745
-0.15581138 -0.42937481 0.020106133
-0.1559563 -0.42925215 0.020023204
-0.15611446 -0.42912254 0.020024851
-0.15626189 -0.42900178 0.020026788
-0.15639548 -0.4288891 0.019959278
-0.15654188 -0.4287698 0.019975204
-0.15667155 -0.42866296 0.019963646
-0.15678842 -0.42856684 0.019957073
-0.15692899 -0.4284533 0.019992925
-0.15711519 -0.42830139 0.02000897
-0.15726091 -0.42818037 0.019976038
-0.15738788 -0.428078 0.020012259
-0.15750156 -0.42798105 0.019932479
-0.15765761 -0.42785361 0.019943491
-0.15779771 -0.42773822 0.019931659
-0.1579289 -0.42762974 0.019911909
-0.15807872 -0.42750826 0.019940538
-0.15822975 -0.42738172 0.019883044
-0.15839984 -0.42724672 0.019977462
-0.15849575 -0.42715758 0.019752715
-0.15865436 -0.42703637 0.019941669
-0.15882805 -0.42689666 0.019998757
-0.15898535 -0.42676544 0.019950408
-0.15914388 -0.42663985 0.02004396
-0.15931676 -0.42651537 0.020412877
-0.15945762 -0.42640257 0.020469666
-0.15960416 -0.4262816 0.020451844
-0.15974551 -0.42616618 0.020462081
-0.15989451 -0.4260444 0.0204698
-0.16003102 -0.42593324 0.020485975
-0.16016918 -0.42581376 0.020353198
-0.16024883 -0.42572886 0.019934576
-0.1604066 -0.42559877 0.019918792
-0.16055171 -0.42548072 0.019938242
-0.16068414 -0.42537206 0.019935913
-0.16083694 -0.42524761 0.019953992
-0.16096862 -0.42514059 0.019973796
-0.16110203 -0.42503029 0.019953998
-0.16126505 -0.42489597 0.019939234
-0.16140115 -0.42478204 0.019889101
-0.161552 -0.42466119 0.01994912
-0.16167511 -0.4245595 0.019933082
-0.16181996 -0.42444327 0.019987445
-0.16197966 -0.42430836 0.019901797
-0.16213757 -0.42417988 0.019923234
