# .PCD v0.7 - Point Cloud Data file format
VERSION 0.7
FIELDS x y z
SIZE 4 4 4
TYPE F F F
COUNT 1 1 1
WIDTH 130
HEIGHT 1
VIEWPOINT 0 0 0 1 0 0 0
POINTS 130
DATA ascii
-0.16344026 -0.37814018 0.02083189
-0.1636014 -0.37800646 0.020797469
-0.16374451 -0.37788877 0.020789109
-0.16388725 -0.37777159 0.020785429
-0.16401362 -0.37766951 0.020817081
-0.16414483 -0.37756097 0.020796228
-0.164296 -0.37743673 0.02078883
-0.16444549 -0.37731075 0.020716295
-0.16460717 -0.3771767 0.02068419
-0.16474243 -0.37706953 0.020762166
-0.16487335 -0.37696797 0.020883331
-0.16500753 -0.37686208 0.020969486
-0.16512944 -0.37676072 0.020939564
-0.16526821 -0.37664637 0.020926666
-0.16541187 -0.37652701 0.020892689
-0.16555397 -0.37640971 0.020875055
-0.16569711 -0.37629232 0.020873684
-0.16583982 -0.37617549 0.020876987
-0.16598259 -0.37606102 0.020930326
-0.16612679 -0.37594467 0.020969663
-0.16629222 -0.3758086 0.020959573
-0.16644502 -0.37568036 0.020896263
-0.16660617 -0.37554061 0.020734975
-0.16675459 -0.37541693 0.020691562
-0.16689263 -0.37530613 0.020741533
-0.16703369 -0.37519163 0.02076466
-0.16717729 -0.37507397 0.02076561
-0.16732676 -0.3749491 0.02071636
-0.1674632 -0.37484032 0.020780344
-0.16761082 -0.3747178 0.020748593
-0.16775359 -0.37460127 0.020758864
-0.16789766 -0.37448317 0.02075864
-0.16874255 -0.37361261 0.017000601
-0.1688863 -0.37349546 0.017014349
-0.16903545 -0.37337285 0.017007003
-0.16918193 -0.37325245 0.016999725
-0.16933066 -0.37313041 0.01699705
-0.16947931 -0.37300852 0.016995538
-0.16962734 -0.37288836 0.017020814
-0.16977972 -0.37276107 0.01697032
-0.16992724 -0.37264058 0.016979307
-0.1700722 -0.37252313 0.017008154
-0.17022276 -0.37239909 0.016994949
-0.17037311 -0.37227535 0.016984083
-0.17052183 -0.37215355 0.016986068
-0.17067093 -0.37203133 0.016985703
-0.17081946 -0.3719098 0.016990017
-0.17096952 -0.3717865 0.016983805
-0.17111933 -0.37166351 0.01697994
-0.17126876 -0.37154102 0.01697957
-0.17141874 -0.37141791 0.016975693
-0.17156965 -0.37129375 0.01696598
-0.17171964 -0.37117067 0.016963262
-0.17186838 -0.37104908 0.016969897
-0.17201804 -0.37092644 0.01697069
-0.17216724 -0.37080437 0.016974984
-0.17231791 -0.37068063 0.016969927
-0.17246936 -0.37055603 0.016960192
-0.17262004 -0.37043235 0.016956296
-0.17276958 -0.37030998 0.01696058
-0.17292008 -0.37018654 0.016959019
-0.17307013 -0.37006363 0.016960971
-0.17322171 -0.36993906 0.016953561
-0.17337392 -0.36981377 0.016942644
-0.17352296 -0.36969209 0.016952764
-0.17367318 -0.36956912 0.01695586
-0.17382623 -0.36944297 0.016941432
-0.17397699 -0.36931944 0.016942196
-0.17412916 -0.36919436 0.016934771
-0.17428479 -0.36906627 0.016923767
-0.17443489 -0.36894357 0.016930366
-0.17458372 -0.36882228 0.01694514
-0.17473575 -0.36869663 0.016923757
-0.17488822 -0.36857137 0.016917495
-0.17503944 -0.36844751 0.016919404
-0.17518996 -0.36832446 0.016925985
-0.17534193 -0.36819983 0.016924385
-0.17549679 -0.36807203 0.01690642
-0.17564598 -0.3679505 0.016922355
-0.17579606 -0.36782882 0.016949911
-0.17595506 -0.36769658 0.016909713
-0.17611527 -0.36756307 0.016863674
-0.17625789 -0.36744803 0.016903054
-0.17640935 -0.36732414 0.016908459
-0.17656046 -0.36720067 0.016916193
-0.17671603 -0.36707234 0.01689937
-0.17686839 -0.36694756 0.016901251
-0.17702538 -0.36681852 0.0168937
-0.17717794 -0.36669359 0.016895588
-0.17732623 -0.3665725 0.016905714
-0.17748329 -0.36644274 0.0168842
-0.17763814 -0.36631614 0.016890679
-0.17779569 -0.36618665 0.016883112
-0.17794657 -0.36606291 0.016881544
-0.17810149 -0.36593628 0.016889177
-0.1782583 -0.36580694 0.016872332
-0.1784106 -0.36568177 0.016864903
-0.17856474 -0.36555606 0.016878381
-0.17871591 -0.36543214 0.016877962
-0.17887473 -0.36530149 0.016868044
-0.17903197 -0.36517185 0.016852336
-0.17918763 -0.36504462 0.016859952
-0.17934144 -0.36491871 0.016862966
-0.17948633 -0.36480224 0.016911598
-0.17964487 -0.36467069 0.016877245
-0.17980132 -0.36454204 0.016868548
-0.1799584 -0.36441341 0.016871475
-0.18011659 -0.36428368 0.016869716
-0.18027103 -0.36415723 0.016872704
-0.18043132 -0.36402464 0.016847614
-0.18058434 -0.36389977 0.01685879
-0.18074179 -0.3637709 0.016862869
-0.18090008 -0.36364052 0.016849477
-0.1810568 -0.36351249 0.016858224
-0.18121076 -0.36338606 0.016853083
-0.18136939 -0.36325604 0.016853642
-0.18152353 -0.36313012 0.016862467
-0.18168317 -0.36299914 0.0168595
-0.18184178 -0.36286861 0.016848417
-0.18199512 -0.36274421 0.016875885
-0.1821484 -0.36261928 0.016890544
-0.18232098 -0.36247495 0.016830225
-0.18247402 -0.36235034 0.016847219
-0.18262869 -0.36222404 0.016857192
-0.18278655 -0.36209443 0.016853109
-0.18294619 -0.36196369 0.016854811
-0.18310407 -0.36183414 0.016851889
-0.18325838 -0.36170828 0.016865361
-0.18342125 -0.36157364 0.016841374
-0.18357956 -0.36144435 0.016851243
