# .PCD v0.7 - Point Cloud Data file format
VERSION 0.7
FIELDS x y z
SIZE 4 4 4
TYPE F F F
COUNT 1 1 1
WIDTH 104
HEIGHT 1
VIEWPOINT 0 0 0 1 0 0 0
POINTS 104
DATA ascii
-0.17609704 -0.41567835 0.019776868
-0.17624454 -0.41555876 0.019804489
-0.17639801 -0.41543025 0.019747015
-0.17653754 -0.41531745 0.019780654
-0.17668058 -0.41519761 0.01972577
-0.17682067 -0.41508207 0.01971053
-0.17696825 -0.41496199 0.019729998
-0.17712377 -0.41483539 0.019748099
-0.1778094 -0.41427553 0.019794453
-0.17795226 -0.41415143 0.019645322
-0.17810053 -0.41403541 0.019762516
-0.17824447 -0.41392028 0.019823976
-0.17838833 -0.41379979 0.019769071
-0.17853118 -0.41367704 0.019649033
-0.17867878 -0.41356206 0.019776717
-0.17882363 -0.41344425 0.019796265
-0.17955974 -0.41284704 0.01992741
-0.17968741 -0.41274112 0.019900849
-0.17983037 -0.41262361 0.019893683
-0.1799815 -0.41249543 0.019802516
-0.18013078 -0.41237158 0.019770753
-0.18027566 -0.41225374 0.019790292
-0.18041834 -0.41213709 0.019797087
-0.18056713 -0.41201445 0.019782789
-0.18071058 -0.41189629 0.01977095
-0.18085401 -0.4117783 0.019761432
-0.18099757 -0.41166008 0.019749591
-0.18113452 -0.41154575 0.019706506
-0.18128382 -0.41142541 0.019749206
-0.18143626 -0.41130185 0.019779028
-0.18157943 -0.41118449 0.019778829
-0.18172885 -0.41106105 0.019758694
-0.18187697 -0.41094005 0.019767677
-0.18201719 -0.41082549 0.019775705
-0.18216492 -0.41070268 0.019739313
-0.18229529 -0.41059554 0.019733636
-0.1824394 -0.41047674 0.019719448
-0.18258768 -0.41035563 0.019728428
-0.18274236 -0.41022596 0.019667432
-0.18288352 -0.41010544 0.019564889
-0.18302822 -0.40999049 0.019642621
-0.18315846 -0.40989491 0.019880131
-0.18331067 -0.40976292 0.019727275
-0.18345773 -0.40964177 0.019714173
-0.1836025 -0.40953064 0.019874515
-0.18377602 -0.4093858 0.01981885
-0.18392278 -0.40926313 0.019768529
-0.18409266 -0.40912223 0.019733902
-0.18423575 -0.40900549 0.019745335
-0.18437588 -0.40889329 0.019802243
-0.18452516 -0.40876895 0.019759998
-0.18467355 -0.40864605 0.0197329
-0.18481092 -0.40853429 0.019751474
-0.18493614 -0.40842992 0.019714504
-0.18508607 -0.40830487 0.019668754
-0.18524462 -0.40818304 0.019841539
-0.18534993 -0.40811154 0.020156495
-0.18547942 -0.40800086 0.02006007
-0.18567878 -0.40782592 0.019815236
-0.18581706 -0.4077079 0.019716259
-0.18594156 -0.40760487 0.019695602
-0.18609783 -0.40747768 0.019714845
-0.18626808 -0.40734029 0.019760499
-0.1864149 -0.40722167 0.019797448
-0.18657653 -0.40707913 0.019583831
-0.18670806 -0.40696961 0.019547869
-0.18683682 -0.4068625 0.0195143
-0.18698813 -0.4067333 0.019404512
-0.18710993 -0.40665087 0.019774899
-0.18724696 -0.4065398 0.019801624
-0.18740645 -0.40640247 0.019661371
-0.18755057 -0.40628618 0.019700712
-0.1877103 -0.40615737 0.019745469
-0.18786688 -0.40602571 0.019675121
-0.18799831 -0.40591666 0.019647293
-0.18814194 -0.40579969 0.019663382
-0.1882859 -0.40568501 0.019734144
-0.18850026 -0.40562704 0.022236204
-0.18864198 -0.40551135 0.022246514
-0.18878676 -0.40538916 0.02217181
-0.18892884 -0.40527308 0.022179781
-0.18907395 -0.4051556 0.022210956
-0.19053483 -0.40395713 0.0221908
-0.19067739 -0.40383849 0.022152221
-0.19081722 -0.40372434 0.022162581
-0.19095907 -0.40360773 0.022155434
-0.19110073 -0.40349358 0.02219717
-0.19183172 -0.40290558 0.022435501
-0.19196315 -0.40279439 0.022362307
-0.19324499 -0.40147325 0.016615976
-0.19339427 -0.40135127 0.016623769
-0.19354317 -0.40122974 0.016635062
-0.19369535 -0.40110534 0.016642779
-0.19384071 -0.40098804 0.016682088
-0.19399709 -0.40085873 0.01665828
-0.19415417 -0.40072766 0.016608853
-0.19430244 -0.40060696 0.016627144
-0.19445607 -0.40048102 0.016626682
-0.19460458 -0.40036109 0.016664751
-0.19475429 -0.4002378 0.016652748
-0.19490828 -0.4001115 0.016651109
-0.19506082 -0.39998594 0.016640205
-0.19521482 -0.39985967 0.016639724
-0.19536707 -0.39973453 0.016632317
