# .PCD v0.7 - Point Cloud Data file format
VERSION 0.7
FIELDS x y z
SIZE 4 4 4
TYPE F F F
COUNT 1 1 1
WIDTH 132
HEIGHT 1
VIEWPOINT 0 0 0 1 0 0 0
POINTS 132
DATA ascii
-0.14795884 -0.41107374 0.019781705
-0.14809103 -0.4109554 0.019573437
-0.14824797 -0.41083649 0.019778887
-0.14841042 -0.41070354 0.019785168
-0.14853127 -0.41060093 0.01971221
-0.14867109 -0.4104858 0.019702779
-0.14881425 -0.41036832 0.01970141
-0.14895254 -0.41025066 0.019612867
-0.14910087 -0.41013181 0.019671883
-0.14923939 -0.41001403 0.019584507
-0.14938986 -0.40989476 0.01967141
-0.14953554 -0.4097752 0.019669965
-0.14968111 -0.40965569 0.019667376
-0.14984244 -0.40952477 0.019696958
-0.15000631 -0.40939018 0.019692719
-0.15015286 -0.40926889 0.019670311
-0.15030323 -0.40914521 0.019662935
-0.15045041 -0.40902382 0.01964866
-0.15059555 -0.40890449 0.01964258
-0.15071833 -0.40879929 0.019548621
-0.15082788 -0.40870485 0.019452676
-0.15099704 -0.40857467 0.019632205
-0.15116127 -0.40844551 0.019747853
-0.15131536 -0.40831602 0.019683342
-0.15144336 -0.40820628 0.019583426
-0.15159282 -0.40808839 0.019681998
-0.15172946 -0.40797576 0.019670319
-0.15188254 -0.40785009 0.019667523
-0.15202893 -0.40773275 0.019725438
-0.15215416 -0.40763885 0.01990959
-0.1522983 -0.40751994 0.019895397
-0.15242505 -0.40740794 0.019726845
-0.15257943 -0.40728652 0.01983575
-0.15272506 -0.40716755 0.019845959
-0.15284872 -0.40705732 0.019661184
-0.15300614 -0.40692961 0.019690879
-0.15316691 -0.40679759 0.019687884
-0.15330821 -0.4066807 0.01966678
-0.15345329 -0.4065617 0.019666523
-0.15358701 -0.40645602 0.019750362
-0.15371934 -0.40635037 0.019810952
-0.15387356 -0.40622029 0.01973597
-0.15401313 -0.4061107 0.019838288
-0.15414812 -0.40599811 0.019798717
-0.15429358 -0.40587941 0.019811252
-0.15445335 -0.40574482 0.019737292
-0.15459792 -0.40562317 0.019673027
-0.15474795 -0.40549994 0.019669151
-0.15488745 -0.40538535 0.019665547
-0.1550345 -0.40526417 0.019653598
-0.15517525 -0.40514997 0.019680226
-0.15531965 -0.405031 0.019668344
-0.15545626 -0.40491849 0.019658996
-0.15560333 -0.40479735 0.019648217
-0.15575373 -0.40467429 0.01965481
-0.15589009 -0.40456167 0.019638477
-0.15604287 -0.40443641 0.01963919
-0.1561819 -0.40432158 0.019622799
-0.15632993 -0.40420094 0.019638754
-0.1564799 -0.40407774 0.01963488
-0.15661697 -0.40396553 0.01963949
-0.15675876 -0.40384862 0.019626517
-0.15689766 -0.40373364 0.019604297
-0.15704922 -0.40361175 0.019655088
-0.15718347 -0.40350163 0.019655112
-0.15733325 -0.40337831 0.019645419
-0.15746902 -0.40326491 0.01960234
-0.15760903 -0.40315601 0.019726761
-0.15776287 -0.40302709 0.019669246
-0.15790656 -0.40290701 0.01962246
-0.15804559 -0.40279189 0.019600246
-0.15818803 -0.40267569 0.019612869
-0.15833268 -0.40255669 0.019605633
-0.15847492 -0.40244025 0.019610109
-0.15861475 -0.40232638 0.019627448
-0.15876479 -0.40220335 0.019628223
-0.15890664 -0.40208611 0.019609427
-0.15905911 -0.40196031 0.019593854
-0.15919378 -0.4018513 0.019624121
-0.15933372 -0.40173817 0.019658923
-0.15948643 -0.40161318 0.019664288
-0.15963836 -0.40148538 0.019597512
-0.1597563 -0.40138593 0.019540913
-0.15988244 -0.40128094 0.019508567
-0.1600194 -0.40116826 0.01950153
-0.16016717 -0.40104869 0.019536125
-0.16033082 -0.40091729 0.019594751
-0.16047817 -0.40079525 0.019569993
-0.16063622 -0.40066582 0.019574057
-0.16077591 -0.40055338 0.019619334
-0.16091546 -0.40043849 0.01960991
-0.16103925 -0.40033957 0.019664904
-0.16117355 -0.40022555 0.019583447
-0.16133435 -0.40009004 0.019508298
-0.16147636 -0.39997956 0.01963383
-0.16162403 -0.399856 0.019582286
-0.16175491 -0.39975756 0.019768622
-0.1619138 -0.39961874 0.019591093
-0.16205782 -0.39950699 0.019724719
-0.1621917 -0.39939946 0.01977247
-0.16234958 -0.39927024 0.01977771
-0.16250205 -0.39913329 0.019529335
-0.16262986 -0.399023 0.019414304
-0.16274777 -0.3989189 0.019259945
-0.16292049 -0.39879331 0.01959651
-0.16303521 -0.39870369 0.019690156
-0.16318187 -0.39857772 0.01957114
-0.16333257 -0.39845297 0.019547455
-0.16348983 -0.3983269 0.019608576
-0.16363288 -0.39820784 0.019572288
-0.16377561 -0.39809009 0.019558128
-0.16393329 -0.3979623 0.019590136
-0.16406992 -0.39785159 0.019618034
-0.16418658 -0.39776036 0.019711617
-0.16432543 -0.39764285 0.019635871
-0.16450325 -0.39749494 0.019592866
-0.1646235 -0.39739856 0.019639812
-0.16475186 -0.39729017 0.019574801
-0.16491897 -0.39714712 0.019449433
-0.16505589 -0.39704478 0.019657735
-0.1651812 -0.39693993 0.019614927
-0.16533341 -0.39680824 0.019471325
-0.16544965 -0.39673761 0.019988596
-0.1656297 -0.39657688 0.019715071
-0.1657728 -0.39645877 0.019699745
-0.16591629 -0.39633983 0.019673914
-0.16606356 -0.39621282 0.019543242
-0.16617714 -0.39613041 0.019768436
-0.16631821 -0.39601329 0.019739188
-0.16648799 -0.39586654 0.019582326
-0.16665335 -0.39572933 0.019548956
-0.16678908 -0.3956171 0.019530319
