# .PCD v0.7 - Point Cloud Data file format
VERSION 0.7
FIELDS x y z
SIZE 4 4 4
TYPE F F F
COUNT 1 1 1
WIDTH 132
HEIGHT 1
VIEWPOINT 0 0 0 1 0 0 0
POINTS 132
DATA ascii
-0.22060168 -0.41620281 0.01649062
-0.22074436 -0.41608554 0.016485833
-0.22088528 -0.41597012 0.016490411
-0.22102886 -0.41585192 0.016482111
-0.22116904 -0.41573733 0.016491359
-0.2213112 -0.41562068 0.016491245
-0.2214563 -0.41550097 0.016477095
-0.22159845 -0.41538438 0.016478142
-0.22174165 -0.41526672 0.016474511
-0.22188619 -0.41514769 0.016465034
-0.22202386 -0.41503525 0.016476668
-0.22217008 -0.41491455 0.016460158
-0.22231106 -0.41479927 0.016469385
-0.22245385 -0.41468215 0.016470427
-0.2225965 -0.41456521 0.016472621
-0.22274274 -0.41444457 0.016458441
-0.22288436 -0.41432875 0.016466493
-0.22302759 -0.41421127 0.016467512
-0.22317033 -0.41409376 0.016459243
-0.22331455 -0.4139753 0.016456746
-0.22346042 -0.4138552 0.016447227
-0.22360258 -0.41373891 0.016455263
-0.22374639 -0.41362098 0.016456269
-0.22388951 -0.41350374 0.016460791
-0.22403459 -0.41338453 0.016457113
-0.22418346 -0.41326147 0.016437044
-0.22432378 -0.41314664 0.01644396
-0.22447082 -0.4130255 0.01643325
-0.22461347 -0.41290888 0.016442435
-0.22475971 -0.4127886 0.016436396
-0.224905 -0.41266933 0.016435042
-0.22504908 -0.41255131 0.016439531
-0.22519195 -0.41243404 0.016438238
-0.22534163 -0.41231087 0.016430952
-0.22548577 -0.41219285 0.016436609
-0.22563225 -0.41207251 0.016432894
-0.22577856 -0.41195235 0.016430344
-0.22592068 -0.41183594 0.016434893
-0.22606668 -0.41171613 0.016434681
-0.22621915 -0.41159034 0.016419182
-0.22635797 -0.41147733 0.016438937
-0.22650889 -0.41135263 0.016419977
-0.22666311 -0.41122463 0.016388129
-0.15409112 -0.47081378 0.017320126
-0.15423833 -0.47069278 0.017315235
-0.15439256 -0.47056663 0.017324135
-0.15454058 -0.47044513 0.01732271
-0.15469263 -0.47032049 0.017325833
-0.15483817 -0.47020069 0.017317493
-0.15498668 -0.47007853 0.017310247
-0.15513737 -0.46995527 0.017319225
-0.15528269 -0.46983528 0.017302748
-0.15543115 -0.46971321 0.017296664
-0.15559518 -0.46958062 0.017341377
-0.15573576 -0.46946472 0.017328503
-0.15588304 -0.46934348 0.017320126
-0.15602915 -0.46922305 0.017308282
-0.15617654 -0.46910179 0.017301053
-0.15632391 -0.46898097 0.017303135
-0.15647557 -0.46885687 0.01731093
-0.15662092 -0.46873745 0.017307255
-0.15676847 -0.46861616 0.017302355
-0.15691423 -0.4684965 0.017300989
-0.15705979 -0.46837658 0.017290317
-0.1572108 -0.46825343 0.01730744
-0.15735951 -0.46813145 0.017308328
-0.15750571 -0.46801117 0.017301131
-0.15765312 -0.46789011 0.017298562
-0.15780148 -0.46776885 0.017308762
-0.15794761 -0.46764866 0.017302737
-0.1580933 -0.46752921 0.017304864
-0.1582402 -0.46740857 0.017302308
-0.15838462 -0.46729001 0.017300976
-0.15853757 -0.46716538 0.01732038
-0.15868306 -0.46704575 0.01731436
-0.15882908 -0.46692577 0.017310668
-0.15897757 -0.46680459 0.017325524
-0.1591289 -0.46668071 0.017332157
-0.15926702 -0.46656644 0.017311215
-0.1594128 -0.46644711 0.01731799
-0.15955974 -0.46632707 0.017329395
-0.15970597 -0.46620709 0.017329179
-0.15985206 -0.46608722 0.017328974
-0.15999642 -0.46596849 0.017322993
-0.16014028 -0.46585056 0.017325167
-0.16028313 -0.46573284 0.017314564
-0.16042779 -0.46561399 0.017310895
-0.1605835 -0.46548837 0.017358154
-0.16072211 -0.46537393 0.017343009
-0.16086544 -0.46525601 0.017335884
-0.16100544 -0.46514073 0.017326524
-0.16114856 -0.46502298 0.017319405
-0.16129388 -0.46490425 0.017330853
-0.16143738 -0.46478629 0.017326053
-0.16157694 -0.46467134 0.017316706
-0.16172145 -0.46455276 0.017316531
-0.16186564 -0.46443486 0.017325679
-0.16200989 -0.46431649 0.017325521
-0.16215083 -0.46420074 0.017323108
-0.16229218 -0.4640843 0.017312555
-0.16243462 -0.46396714 0.017306613
-0.16258109 -0.46384743 0.01731687
-0.16272217 -0.46373168 0.017316785
-0.16286634 -0.46361348 0.017318949
-0.16300458 -0.46349958 0.017308466
-0.16314939 -0.46338102 0.017314116
-0.16328974 -0.46326578 0.017312888
-0.16343027 -0.46314999 0.017302344
-0.16356871 -0.46303606 0.017294185
-0.16371106 -0.46291915 0.017291736
-0.16385242 -0.46280333 0.017296303
-0.1639957 -0.46268588 0.017298492
-0.16413744 -0.46256942 0.017294899
-0.16427881 -0.46245322 0.017290154
-0.16441666 -0.46233973 0.017282009
-0.16456088 -0.46222174 0.017289994
-0.16469882 -0.46210825 0.017283008
-0.16483924 -0.46199271 0.017275957
-0.16497919 -0.46187797 0.017278232
-0.16512242 -0.46176073 0.017283922
-0.16526134 -0.46164668 0.01728273
-0.1653949 -0.46153551 0.017247923
-0.16554186 -0.46141598 0.017270969
-0.16568197 -0.46130073 0.017265087
-0.16581759 -0.46118885 0.017251179
-0.16595754 -0.46107373 0.017245311
-0.16609564 -0.46096033 0.017242981
-0.16623619 -0.46084487 0.017240578
-0.16637535 -0.46073031 0.017232399
-0.16651781 -0.46061376 0.017239269
-0.16665502 -0.46050096 0.017234622
-0.16679597 -0.46038535 0.017235709
