# .PCD v0.7 - Point Cloud Data file format
VERSION 0.7
FIELDS x y z
SIZE 4 4 4
TYPE F F F
COUNT 1 1 1
WIDTH 116
HEIGHT 1
VIEWPOINT 0 0 0 1 0 0 0
POINTS 116
DATA ascii
-0.14316724 -0.40566403 0.025265489
-0.14330749 -0.40554911 0.025266478
-0.14344856 -0.40543395 0.025276758
-0.14358839 -0.40531921 0.025274279
-0.14372608 -0.40520644 0.025276495
-0.14386638 -0.40509161 0.025279826
-0.14400302 -0.4049792 0.025271598
-0.1441423 -0.40486467 0.025264472
-0.1442818 -0.40475145 0.025288764
-0.14442213 -0.40463668 0.025294403
-0.14455846 -0.40452445 0.025283864
-0.14469673 -0.40441024 0.025266303
-0.14483246 -0.40429816 0.025248799
-0.14497159 -0.40418375 0.025241677
-0.14510953 -0.40407112 0.025250878
-0.14524958 -0.40395653 0.025255363
-0.1453861 -0.4038443 0.02524831
-0.14552663 -0.40372962 0.025259774
-0.14566356 -0.40361732 0.025258521
-0.14580345 -0.40350285 0.025263021
-0.14594015 -0.40339062 0.025259452
-0.14626861 -0.40306172 0.024001276
-0.14646584 -0.40290862 0.024182284
-0.14720185 -0.40233284 0.024764616
-0.14733891 -0.40221858 0.024723805
-0.14747348 -0.40210631 0.024683068
-0.14761414 -0.40199167 0.024696847
-0.14776692 -0.40187815 0.024944175
-0.14790976 -0.40176362 0.024998626
-0.14804094 -0.40164971 0.024863724
-0.1481743 -0.40153551 0.024761349
-0.14831012 -0.40119687 0.019966479
-0.14843895 -0.40109137 0.019968938
-0.14856276 -0.40099022 0.019976178
-0.14871454 -0.40086997 0.020064138
-0.14887068 -0.40073848 0.019990254
-0.14901775 -0.40061799 0.019992236
-0.14916171 -0.40049964 0.019984988
-0.14929979 -0.4003855 0.019965092
-0.14943583 -0.40027359 0.01995689
-0.14959067 -0.40014666 0.0199575
-0.14973496 -0.40002838 0.019957224
-0.14987725 -0.39991239 0.019970972
-0.15002374 -0.3997919 0.019962488
-0.15016793 -0.39967364 0.019961055
-0.1503119 -0.39955533 0.019954978
-0.15045045 -0.39944124 0.019944381
-0.15059461 -0.39932299 0.019942937
-0.15073955 -0.39920506 0.019961268
-0.15088062 -0.3990888 0.019948274
-0.1510216 -0.39897248 0.019932963
-0.15116617 -0.39885446 0.019943152
-0.15131108 -0.39873666 0.019963803
-0.15145719 -0.39861599 0.019944867
-0.15158382 -0.39850965 0.019891534
-0.15171368 -0.39840522 0.019934682
-0.15185882 -0.39828771 0.019965798
-0.15202899 -0.398148 0.019961366
-0.15215993 -0.39803636 0.019870687
-0.15229914 -0.39792705 0.019971769
-0.15247412 -0.39778268 0.019952079
-0.15261023 -0.39767087 0.019947357
-0.15276398 -0.39754331 0.019915419
-0.15289739 -0.39743352 0.019906126
-0.1530346 -0.39731762 0.019833896
-0.15316015 -0.39721966 0.019938823
-0.15329772 -0.39711559 0.02012256
-0.15345609 -0.39697072 0.019805452
-0.15358585 -0.39686105 0.019735746
-0.15402171 -0.39653531 0.020401534
-0.15461305 -0.39602491 0.019860197
-0.15490082 -0.39577407 0.019545523
-0.15503965 -0.39565822 0.019502344
-0.15521333 -0.39553317 0.019867802
-0.15535784 -0.39541721 0.019921048
-0.15550178 -0.39529783 0.019891687
-0.15564568 -0.39517748 0.019841395
-0.15578492 -0.39506698 0.019918041
-0.15593155 -0.39494482 0.019876989
-0.15607311 -0.39482877 0.019876786
-0.15621205 -0.39471519 0.019883631
-0.15635613 -0.39461499 0.020261502
-0.15646844 -0.3945277 0.020362126
-0.15674782 -0.3943018 0.020428134
-0.15690137 -0.39415213 0.019926146
-0.15718815 -0.39392921 0.020182777
-0.15733421 -0.39381278 0.020252267
-0.15747535 -0.39369771 0.020266034
-0.15761942 -0.39357856 0.020243661
-0.15776595 -0.39345837 0.020242168
-0.15790737 -0.39334199 0.020232655
-0.1580518 -0.39322168 0.020192821
-0.15821888 -0.39306802 0.019840572
-0.15837593 -0.39295766 0.020228576
-0.15847899 -0.39287829 0.020336423
-0.15861538 -0.39277306 0.020474812
-0.158766 -0.39264515 0.020381287
-0.15894401 -0.39247897 0.019954294
-0.159106 -0.39234161 0.019858154
-0.15924317 -0.3922278 0.019828968
-0.15938453 -0.392113 0.019852042
-0.1594986 -0.39202273 0.019920046
-0.15964799 -0.39190084 0.019932428
-0.15979096 -0.39178142 0.019885652
-0.15996216 -0.39164031 0.019869551
-0.16011646 -0.39151055 0.019800365
-0.16024636 -0.39139336 0.019574743
-0.1604014 -0.39127982 0.019860417
-0.16054673 -0.39115953 0.019836839
-0.16069029 -0.39104357 0.01987266
-0.16083325 -0.39092496 0.019843334
-0.16096759 -0.39081463 0.019838657
-0.16112623 -0.39068356 0.019817065
-0.1612702 -0.39056662 0.019840071
-0.16140816 -0.39045557 0.019883016
-0.16155109 -0.39034078 0.019932803
