# .PCD v0.7 - Point Cloud Data file format
VERSION 0.7
FIELDS x y z
SIZE 4 4 4
TYPE F F F
COUNT 1 1 1
WIDTH 130
HEIGHT 1
VIEWPOINT 0 0 0 1 0 0 0
POINTS 130
DATA ascii
-0.15094942 -0.35960084 0.036368519
-0.15107845 -0.35949352 0.03633602
-0.15120351 -0.35939026 0.036319926
-0.15133032 -0.3592878 0.036352664
-0.15145731 -0.35918218 0.036320217
-0.1515961 -0.35906979 0.036350321
-0.15417139 -0.35605645 0.016902916
-0.15431313 -0.35594094 0.016917801
-0.15445748 -0.35582334 0.016933788
-0.15460311 -0.35570419 0.016939269
-0.15475219 -0.35558194 0.01693883
-0.15489931 -0.35546103 0.016932633
-0.1550488 -0.35533834 0.016929861
-0.15519552 -0.35521796 0.016928323
-0.15534259 -0.3550972 0.016924446
-0.15548772 -0.3549788 0.016936922
-0.15563662 -0.35485691 0.016941149
-0.15578273 -0.35473737 0.016946619
-0.1559336 -0.3546142 0.016957775
-0.15608726 -0.35448575 0.016904838
-0.15623328 -0.35436639 0.016912639
-0.15637907 -0.35424733 0.016922768
-0.15652871 -0.35412377 0.016903691
-0.15667509 -0.35400406 0.016910315
-0.15682808 -0.35387856 0.016908612
-0.15697177 -0.35376203 0.016936259
-0.15712082 -0.35363925 0.016924189
-0.15726808 -0.35351861 0.016926128
-0.15741828 -0.35339457 0.016907036
-0.15756617 -0.35327324 0.016905479
-0.15771788 -0.35314846 0.01689682
-0.15786611 -0.35302681 0.016894082
-0.15801652 -0.35290357 0.016895948
-0.15816423 -0.35278255 0.016897876
-0.15831579 -0.35265806 0.01689272
-0.15846622 -0.352534 0.016877115
-0.15861334 -0.35241374 0.016884888
-0.15876207 -0.35229167 0.016882127
-0.15891209 -0.35216904 0.016889825
-0.15906169 -0.35204604 0.01688239
-0.15921308 -0.35192189 0.016881891
-0.15936251 -0.35179913 0.016876791
-0.15951301 -0.35167605 0.016883306
-0.15966119 -0.35155475 0.016887553
-0.1598116 -0.35143098 0.016877778
-0.15996192 -0.35130733 0.016869165
-0.1601133 -0.35118335 0.016872156
-0.16026309 -0.35106036 0.016868217
-0.16041557 -0.35093522 0.016865358
-0.16056666 -0.35081083 0.016854394
-0.16071896 -0.35068595 0.016853882
-0.16087085 -0.35056075 0.016839407
-0.16102372 -0.35043529 0.016836539
-0.16117257 -0.35031348 0.016841937
-0.16132092 -0.35019225 0.016850837
-0.16147284 -0.35006714 0.016838683
-0.16162747 -0.34993985 0.016827628
-0.16178063 -0.34981421 0.016825922
-0.16192678 -0.3496955 0.016850013
-0.1620793 -0.34957057 0.016852982
-0.16223755 -0.34943944 0.016823201
-0.16239336 -0.34931028 0.016792331
-0.16253898 -0.34919223 0.016821086
-0.16269036 -0.34906793 0.016817097
-0.16284505 -0.34894079 0.0168107
-0.16299662 -0.34881634 0.016806705
-0.16314664 -0.34869358 0.016812071
-0.16329686 -0.34857139 0.016832557
-0.16345447 -0.34844121 0.016812112
-0.16360691 -0.34831592 0.016805774
-0.16376033 -0.34819034 0.016809881
-0.16390823 -0.34806928 0.016814135
-0.16406249 -0.34794283 0.016814731
-0.16421553 -0.347817 0.016807206
-0.16437264 -0.34768757 0.016793754
-0.1645242 -0.34756339 0.016795581
-0.16467932 -0.34743613 0.016793825
-0.16483241 -0.34731036 0.016788628
-0.16498935 -0.34718123 0.016778674
-0.16514066 -0.34705743 0.016784007
-0.16529885 -0.3469277 0.016783329
-0.16545103 -0.34680301 0.016785149
-0.16560835 -0.34667292 0.01676121
-0.16576146 -0.34654731 0.016759507
-0.16591561 -0.34642065 0.016753122
-0.16606638 -0.34629753 0.016764283
-0.16622414 -0.34616843 0.016769446
-0.1663819 -0.34603801 0.016746666
-0.16653679 -0.34591132 0.016753057
-0.16669296 -0.34578267 0.01673964
-0.16684234 -0.34566179 0.016774118
-0.16699803 -0.34553367 0.016764196
-0.1671584 -0.34540138 0.016746009
-0.16730857 -0.34527841 0.016750202
-0.16746557 -0.34514967 0.016749555
-0.16762049 -0.34502313 0.016759444
-0.16778068 -0.3448911 0.016744753
-0.1679332 -0.34476647 0.016753536
-0.16809143 -0.34463653 0.016749376
-0.1682429 -0.34451303 0.016764008
-0.16840036 -0.34438396 0.01676452
-0.16857402 -0.34423754 0.016677305
-0.16872624 -0.34411395 0.016703557
-0.16888098 -0.34398714 0.016705301
-0.16903797 -0.34385869 0.016710475
-0.16919115 -0.34373355 0.01672041
-0.16935408 -0.34359902 0.016699824
-0.16950959 -0.34347156 0.016700389
-0.16966498 -0.34334481 0.016714917
-0.16982202 -0.34321582 0.016709618
-0.16998556 -0.34308076 0.016689017
-0.17014104 -0.34295341 0.016691912
-0.17029877 -0.3428244 0.016698228
-0.17045665 -0.34269467 0.016691748
-0.17061569 -0.34256434 0.01669338
-0.17077602 -0.34243214 0.016677514
-0.1709348 -0.34230214 0.016681481
-0.17109078 -0.34217447 0.016685523
-0.17125174 -0.3420423 0.01668128
-0.1714077 -0.34191465 0.016686492
-0.17157589 -0.34177521 0.016652958
-0.17173019 -0.34164932 0.016666356
-0.1718864 -0.3415221 0.016684363
-0.17204683 -0.34139004 0.016673155
-0.1722163 -0.34124944 0.016637258
-0.092477337 -0.40667084 0.017603258
-0.092646033 -0.40653279 0.017609335
-0.092811219 -0.40639716 0.017605025
-0.092974029 -0.40626317 0.017593795
-0.093139999 -0.40612704 0.017592955
