# .PCD v0.7 - Point Cloud Data file format
VERSION 0.7
FIELDS x y z
SIZE 4 4 4
TYPE F F F
COUNT 1 1 1
WIDTH 123
HEIGHT 1
VIEWPOINT 0 0 0 1 0 0 0
POINTS 123
DATA ascii
-0.12834999 -0.4222506 0.017271537
-0.12850574 -0.42212343 0.01728259
-0.12866057 -0.42199618 0.017276216
-0.12881321 -0.42187092 0.017273389
-0.12896529 -0.42174599 0.017268246
-0.12911847 -0.42162043 0.017268887
-0.12927459 -0.42149252 0.017270628
-0.1294264 -0.42136779 0.017265493
-0.12958023 -0.42124128 0.017256804
-0.1297335 -0.42111576 0.01725978
-0.12989226 -0.42098638 0.017276578
-0.13004692 -0.42086011 0.01728766
-0.13021213 -0.42072639 0.017324083
-0.13036904 -0.42059886 0.017347906
-0.13052702 -0.42047009 0.017363563
-0.13067645 -0.42034695 0.017350338
-0.1308313 -0.42022002 0.017350946
-0.13098235 -0.42009598 0.017346989
-0.13113658 -0.41996947 0.017345291
-0.13128573 -0.41984656 0.017332071
-0.13143913 -0.41972053 0.017326895
-0.13158661 -0.41959861 0.017305579
-0.13174462 -0.4194693 0.017310753
-0.13191494 -0.41932881 0.017292324
-0.13340387 -0.41825181 0.020320466
-0.13356088 -0.4181256 0.020373393
-0.13371384 -0.41800094 0.020389179
-0.13385662 -0.41788265 0.020363325
-0.13397866 -0.41778165 0.020343831
-0.13410284 -0.41768026 0.020352226
-0.13425496 -0.41755688 0.020380836
-0.13444275 -0.41740215 0.020364285
-0.1345997 -0.41727322 0.020359013
-0.13470754 -0.41718301 0.020321276
-0.13483278 -0.41707808 0.020273766
-0.13502163 -0.41692665 0.020345647
-0.13516675 -0.4168103 0.020401213
-0.13529111 -0.41670433 0.02031648
-0.1354498 -0.4165746 0.020323968
-0.13559499 -0.41645753 0.020365559
-0.13579009 -0.41629753 0.020365108
-0.13593709 -0.41617721 0.020369418
-0.13608429 -0.41605604 0.020358583
-0.13623235 -0.41593441 0.020353545
-0.13638036 -0.41581282 0.020348508
-0.1365079 -0.41570592 0.020299776
-0.13662556 -0.4156107 0.020325791
-0.13681513 -0.41546118 0.020450031
-0.13696456 -0.41534227 0.020526439
-0.1370952 -0.41522887 0.020393817
-0.13722561 -0.41512141 0.020382255
-0.13741291 -0.41496742 0.020372696
-0.13755327 -0.41485581 0.02044585
-0.13767768 -0.41475397 0.020449575
-0.13782841 -0.41463125 0.020467751
-0.13794887 -0.4145245 0.020299319
-0.1381506 -0.41436782 0.0204826
-0.13830195 -0.4142493 0.020599693
-0.13844684 -0.41412961 0.020580776
-0.13859063 -0.41401312 0.020610761
-0.13873526 -0.41389361 0.020590682
-0.1388676 -0.41378272 0.020540666
-0.13902056 -0.41365829 0.020561103
-0.13916357 -0.41354048 0.020549215
-0.13931093 -0.41341877 0.020530222
-0.13944708 -0.41330513 0.020488249
-0.13956657 -0.41319934 0.020323332
-0.13972634 -0.41306424 0.020236507
-0.13990527 -0.41292018 0.020292355
-0.1400501 -0.41280153 0.020294381
-0.14019899 -0.41267911 0.020287002
-0.14033893 -0.41256371 0.020272862
-0.14048035 -0.41245157 0.020352967
-0.14064516 -0.41231614 0.020346325
-0.14078714 -0.41219789 0.02030769
-0.14092636 -0.41208187 0.020267965
-0.1410726 -0.41196173 0.020262975
-0.14121357 -0.41184494 0.020237168
-0.14136289 -0.41172349 0.02025771
-0.14150943 -0.41160327 0.020256203
-0.14165214 -0.41148472 0.02022337
-0.14179526 -0.41136703 0.020216128
-0.14194018 -0.41124755 0.02020186
-0.14208637 -0.41112861 0.020221313
-0.14223054 -0.41100946 0.020201243
-0.14236286 -0.41089952 0.020171011
-0.14248346 -0.41079107 0.019968821
-0.14257866 -0.41070715 0.01984527
-0.14280704 -0.41053522 0.020167539
-0.14295104 -0.41041729 0.020170756
-0.14324857 -0.41017669 0.020240953
-0.14373592 -0.40980023 0.020727552
-0.14401984 -0.40956548 0.020686369
-0.14415395 -0.40945154 0.020602543
-0.14431149 -0.40932924 0.020746248
-0.14445719 -0.40922478 0.021062534
-0.14461476 -0.40910032 0.021162003
-0.14474805 -0.40898556 0.021046773
-0.14487962 -0.40885985 0.020670854
-0.14503072 -0.40874013 0.020758858
-0.1451695 -0.40863624 0.02096707
-0.14530739 -0.40852368 0.020977428
-0.14545016 -0.40840828 0.021012101
-0.14559036 -0.40827498 0.020625487
-0.14573322 -0.40815672 0.020601962
-0.14585182 -0.40805948 0.020601189
-0.14598678 -0.40795323 0.020694263
-0.14612855 -0.40783817 0.020718493
-0.14627045 -0.40772027 0.02068568
-0.14641364 -0.4075934 0.020486383
-0.14654845 -0.40748453 0.020521265
-0.14667884 -0.40737835 0.020536479
-0.14682046 -0.40726191 0.020529287
-0.14696486 -0.40714476 0.020555768
-0.14710291 -0.40702772 0.020474169
-0.14725558 -0.40690252 0.020473661
-0.14738265 -0.40679565 0.020416802
-0.14752139 -0.40667984 0.02037359
-0.14766559 -0.40656281 0.020398917
-0.14780566 -0.40644509 0.020338219
-0.14796326 -0.40631729 0.020367846
-0.14812165 -0.40618441 0.020304341
-0.14826244 -0.40606642 0.020250605
