# .PCD v0.7 - Point Cloud Data file format
VERSION 0.7
FIELDS x y z
SIZE 4 4 4
TYPE F F F
COUNT 1 1 1
WIDTH 132
HEIGHT 1
VIEWPOINT 0 0 0 1 0 0 0
POINTS 132
DATA ascii
-0.22504961 -0.41214785 0.015851391
-0.22520766 -0.4120177 0.015836766
-0.22535793 -0.41189495 0.015845627
-0.22550602 -0.41177449 0.015865017
-0.22566211 -0.4116458 0.015848123
-0.22581245 -0.41152364 0.015870932
-0.22597115 -0.41139236 0.015843509
-0.22613494 -0.4112559 0.015793838
-0.22628355 -0.41113555 0.015826005
-0.22643514 -0.41101164 0.015832502
-0.22658631 -0.41088817 0.015841329
-0.22673863 -0.41076353 0.015845487
-0.22689641 -0.41063336 0.015826218
-0.22705212 -0.41050589 0.015829116
-0.22720823 -0.41037807 0.015830833
-0.22735927 -0.41025427 0.015830362
-0.22751887 -0.41012293 0.015818037
-0.22767265 -0.40999752 0.015831457
-0.22782338 -0.40987468 0.015846118
-0.22797915 -0.40974674 0.015839703
-0.22813714 -0.40961713 0.015836721
-0.22829458 -0.40948758 0.015824452
-0.22845116 -0.40935943 0.015828487
-0.2286061 -0.40923244 0.015827915
-0.22876211 -0.40910494 0.015835457
-0.22891732 -0.40897775 0.015834877
-0.15056378 -0.4732351 0.016957585
-0.15071979 -0.47310662 0.016942993
-0.15087381 -0.47297946 0.01692263
-0.15103363 -0.472848 0.016911428
-0.15119949 -0.47271287 0.016929165
-0.15136263 -0.47257921 0.016929509
-0.15151682 -0.47245246 0.016920784
-0.15167965 -0.47231907 0.016921148
-0.15184408 -0.47218502 0.016936589
-0.15200076 -0.47205621 0.016927801
-0.15216233 -0.47192416 0.016935168
-0.15232956 -0.47178745 0.016942386
-0.15247232 -0.47166809 0.016889753
-0.15263918 -0.47153211 0.016906291
-0.15279825 -0.47140223 0.016917225
-0.15295887 -0.47127005 0.016904831
-0.15311565 -0.47114137 0.01689953
-0.15327552 -0.47101015 0.016895309
-0.15343639 -0.4708792 0.016914334
-0.15359148 -0.47075123 0.016895115
-0.15375011 -0.47062138 0.016897919
-0.1539048 -0.47049418 0.016888011
-0.15406415 -0.47036389 0.016894275
-0.15422623 -0.47023135 0.016900478
-0.15438254 -0.47010311 0.016897509
-0.15454194 -0.4699724 0.016895629
-0.1546963 -0.46984553 0.016886901
-0.15485911 -0.46971259 0.016897736
-0.15501353 -0.46958572 0.016890166
-0.15516904 -0.46945769 0.016876757
-0.15532708 -0.46932799 0.016872583
-0.15549468 -0.46919245 0.016912378
-0.15564436 -0.46906924 0.01690028
-0.15580526 -0.46893772 0.016907666
-0.15595692 -0.46881279 0.016893195
-0.15611231 -0.46868497 0.01688211
-0.15627055 -0.46855572 0.016891893
-0.15643084 -0.46842471 0.016899303
-0.15658526 -0.46829805 0.016896393
-0.15674078 -0.46817023 0.016887635
-0.15689525 -0.46804357 0.016885884
-0.15705404 -0.4679141 0.016900305
-0.15720791 -0.46778786 0.01689741
-0.1573645 -0.46765941 0.016894445
-0.15751624 -0.46753463 0.016884614
-0.15767321 -0.46740597 0.016883969
-0.15783064 -0.4672775 0.016896103
-0.15798734 -0.46714908 0.016895456
-0.1581386 -0.46702468 0.016885648
-0.15829714 -0.46689558 0.016903564
-0.15845986 -0.46676332 0.016927203
-0.15860532 -0.46664223 0.016886123
-0.15875302 -0.46652073 0.016875247
-0.15891621 -0.46638823 0.016902354
-0.15907069 -0.46626186 0.016907584
-0.15922844 -0.46613294 0.016915061
-0.15938324 -0.46600643 0.016922614
-0.15953523 -0.46588176 0.016919758
-0.15968768 -0.4657568 0.016919231
-0.15984254 -0.46562982 0.016917471
-0.1599977 -0.46550319 0.016928505
-0.160152 -0.46537662 0.016925588
-0.16029759 -0.46525612 0.016899636
-0.16046229 -0.46512243 0.016927874
-0.16061239 -0.46499965 0.016932059
-0.16076314 -0.46487594 0.016928075
-0.16091521 -0.46475139 0.016929878
-0.16106881 -0.46462539 0.016926989
-0.16121896 -0.46450213 0.016921863
-0.16137233 -0.4643763 0.01691898
-0.16152479 -0.46425161 0.016924264
-0.16167879 -0.46412545 0.016924856
-0.16183099 -0.46400097 0.016930146
-0.16198058 -0.46387815 0.016925033
-0.16213146 -0.46375453 0.016925707
-0.16228361 -0.46362963 0.016920527
-0.16243236 -0.46350741 0.016913116
-0.16258594 -0.46338162 0.016914878
-0.16273449 -0.46325958 0.016907463
-0.1628857 -0.46313533 0.016899986
-0.16303512 -0.46301275 0.016897198
-0.16318668 -0.46288833 0.016892033
-0.16333298 -0.46276775 0.016876543
-0.16348647 -0.46264216 0.01688063
-0.16363709 -0.46251893 0.016884802
-0.16378784 -0.46239561 0.016890129
-0.16393535 -0.46227437 0.016881589
-0.16408709 -0.46214995 0.016879911
-0.16423649 -0.46202755 0.016880624
-0.16438904 -0.46190268 0.016883574
-0.16454284 -0.46177763 0.016905114
-0.16469282 -0.4616538 0.016884869
-0.16483197 -0.46153834 0.016853264
-0.16498461 -0.4614135 0.01685854
-0.16513394 -0.46129128 0.016861588
-0.1652779 -0.46117234 0.016840328
-0.16543125 -0.46104714 0.016850248
-0.16558149 -0.46092442 0.016859081
-0.16572991 -0.46080282 0.016859818
-0.16587827 -0.46068072 0.016847756
-0.16602381 -0.46056092 0.016835768
-0.16617614 -0.46043643 0.016843384
-0.16632298 -0.46031588 0.016838342
-0.16647364 -0.46019244 0.016839022
-0.16662103 -0.46007159 0.016837467
-0.16676913 -0.45994973 0.016826572
