# .PCD v0.7 - Point Cloud Data file format
VERSION 0.7
FIELDS x y z
SIZE 4 4 4
TYPE F F F
COUNT 1 1 1
WIDTH 132
HEIGHT 1
VIEWPOINT 0 0 0 1 0 0 0
POINTS 132
DATA ascii
-0.18924172 -0.3800436 0.016353728
-0.18939781 -0.37991613 0.016364783
-0.18955505 -0.37978673 0.016354863
-0.18971092 -0.37965956 0.016368253
-0.18987104 -0.37952712 0.016344287
-0.1900242 -0.37940219 0.016357746
-0.19018035 -0.37927407 0.016355999
-0.1903429 -0.37913987 0.01633662
-0.19049548 -0.37901488 0.016339622
-0.19065376 -0.3788853 0.016343638
-0.19080944 -0.37875777 0.016346551
-0.19097115 -0.37862462 0.016334185
-0.19113162 -0.37849277 0.016328834
-0.19128813 -0.37836447 0.016329404
-0.19144779 -0.37823287 0.01631476
-0.19159803 -0.3781119 0.016362052
-0.19175982 -0.37797812 0.016338043
-0.19192067 -0.37784603 0.016333841
-0.19207822 -0.37771675 0.016332055
-0.19223493 -0.37758839 0.016334951
-0.19238932 -0.37746251 0.016349539
-0.19254968 -0.37733105 0.01635001
-0.19272092 -0.37718755 0.016285006
-0.19287492 -0.3770628 0.016317077
-0.19303223 -0.37693393 0.016319949
-0.19318867 -0.37680602 0.016327513
-0.19335094 -0.37667203 0.01630814
-0.19351056 -0.37654153 0.016315611
-0.19366834 -0.37641227 0.016318481
-0.19383073 -0.37627894 0.016314238
-0.19399132 -0.37614685 0.016305391
-0.19415101 -0.37601569 0.016301218
-0.19430879 -0.37588659 0.016306417
-0.19446965 -0.37575492 0.016311524
-0.19462895 -0.37562427 0.016310863
-0.19479345 -0.37548891 0.016300745
-0.19495566 -0.3753553 0.016288364
-0.19511645 -0.37522322 0.016283002
-0.19527258 -0.37509596 0.016298715
-0.19543608 -0.37496173 0.016295604
-0.19559914 -0.37482738 0.016282042
-0.19576426 -0.37469158 0.016273066
-0.19592007 -0.37456474 0.01629228
-0.19607514 -0.37443805 0.016302209
-0.19624397 -0.37429851 0.016279174
-0.19640777 -0.37416416 0.016278386
-0.19656788 -0.37403303 0.016281193
-0.19672528 -0.37390524 0.016308514
-0.19689122 -0.37376821 0.016287886
-0.19705454 -0.37363389 0.016278958
-0.19721378 -0.37350374 0.01628761
-0.19737785 -0.37336928 0.016289143
-0.11577507 -0.44032663 0.017275089
-0.11594114 -0.44018981 0.017261468
-0.11610575 -0.44005489 0.017263006
-0.11626967 -0.43991959 0.017243613
-0.11644378 -0.43977743 0.017256554
-0.11661403 -0.4396379 0.017257947
-0.11677738 -0.43950349 0.017247878
-0.11694327 -0.43936694 0.017236583
-0.1171056 -0.43923324 0.017224219
-0.11728172 -0.43908989 0.01724642
-0.11743993 -0.43895853 0.017212041
-0.11762321 -0.43881044 0.017258488
-0.11778063 -0.43868011 0.017232282
-0.11794098 -0.4385474 0.017206009
-0.11811703 -0.43840471 0.017241003
-0.1182856 -0.43826655 0.017242439
-0.11844373 -0.43813631 0.017230187
-0.11861291 -0.43799734 0.017224625
-0.11877483 -0.43786412 0.017215764
-0.11894767 -0.43772325 0.01723339
-0.1191093 -0.4375903 0.017224526
-0.11927623 -0.43745339 0.017223686
-0.11943181 -0.43732497 0.017205678
-0.11960703 -0.43718264 0.017233713
-0.11977077 -0.4370479 0.017223634
-0.1199353 -0.43691218 0.017206563
-0.12009718 -0.43677968 0.017211664
-0.12026151 -0.43664461 0.017205071
-0.1204264 -0.4365097 0.017211251
-0.12059246 -0.43637356 0.017211594
-0.12075403 -0.43624088 0.017207403
-0.12091745 -0.43610653 0.017199662
-0.12107809 -0.43597451 0.017193154
-0.12124655 -0.43583688 0.017203914
-0.12140723 -0.43570489 0.017198576
-0.12157044 -0.43557075 0.017191999
-0.12173615 -0.43543449 0.017184209
-0.12189974 -0.43530017 0.017179955
-0.12206307 -0.43516701 0.017196659
-0.12222251 -0.43503544 0.017178552
-0.12238015 -0.43490553 0.017165143
-0.12254168 -0.43477213 0.01714465
-0.12272302 -0.43462691 0.017217919
-0.12287739 -0.4344992 0.017194126
-0.12303916 -0.43436569 0.017175954
-0.12319649 -0.43423611 0.017163714
-0.12335874 -0.43410337 0.017169975
-0.1235244 -0.43396795 0.01717848
-0.12369505 -0.4338288 0.017194994
-0.12384057 -0.43370637 0.017129522
-0.12400211 -0.43357471 0.017146274
-0.12417059 -0.43343759 0.017167505
-0.124328 -0.43330809 0.017158762
-0.12448672 -0.43317726 0.017144151
-0.1246517 -0.43304244 0.017153833
-0.12481381 -0.43290949 0.017153118
-0.12497376 -0.43277848 0.01715594
-0.12513351 -0.43264705 0.017147135
-0.12529379 -0.43251586 0.01715228
-0.12545241 -0.43238524 0.017140012
-0.12560773 -0.43225726 0.017126665
-0.12577409 -0.43212175 0.017145619
-0.12593356 -0.43199116 0.017149623
-0.12609084 -0.43186146 0.017133903
-0.12624949 -0.4317309 0.017123956
-0.1264144 -0.43159586 0.017127819
-0.12656845 -0.43146935 0.017123815
-0.12672734 -0.43133873 0.017116191
-0.12688607 -0.43120876 0.017120216
-0.12704161 -0.43108025 0.01709988
-0.12720011 -0.43095049 0.01710391
-0.12735997 -0.43081933 0.017102083
-0.12751859 -0.43068895 0.017095638
-0.12767553 -0.4305591 0.017070604
-0.12783967 -0.43042588 0.01710009
-0.12799673 -0.43029714 0.017100668
-0.1281476 -0.43017223 0.017075803
-0.12830487 -0.43004283 0.017065894
-0.12846407 -0.42991281 0.017076887
-0.12862411 -0.42978173 0.017079715
