# .PCD v0.7 - Point Cloud Data file format
VERSION 0.7
FIELDS x y z
SIZE 4 4 4
TYPE F F F
COUNT 1 1 1
WIDTH 112
HEIGHT 1
VIEWPOINT 0 0 0 1 0 0 0
POINTS 112
DATA ascii
-0.15753251 -0.45169091 0.016965922
-0.15768631 -0.45156506 0.016968923
-0.15783913 -0.45143911 0.016953334
-0.1580002 -0.45130771 0.016965458
-0.15815777 -0.45117974 0.016989304
-0.15963362 -0.4502134 0.022249779
-0.15976685 -0.45010027 0.022163717
-0.15990347 -0.44998518 0.02209503
-0.16004914 -0.44986486 0.022073807
-0.16019858 -0.44974303 0.022087391
-0.16034381 -0.44962233 0.022049887
-0.16073623 -0.44927454 0.021480083
-0.16099359 -0.44905296 0.0212477
-0.16199118 -0.44827688 0.022141062
-0.16213857 -0.44815585 0.022134926
-0.16228501 -0.44803607 0.022139275
-0.16243206 -0.44791526 0.022131979
-0.16258162 -0.4477931 0.022139749
-0.16271205 -0.44768214 0.022051429
-0.16284972 -0.44756576 0.021973405
-0.16297452 -0.44745412 0.021770045
-0.16311952 -0.44733593 0.021782583
-0.16327094 -0.44721201 0.021785645
-0.16343533 -0.4470751 0.021737183
-0.16392019 -0.44657233 0.019451112
-0.16407701 -0.44644743 0.019528504
-0.16424139 -0.44631702 0.019620823
-0.16439885 -0.4461903 0.019670265
-0.16455647 -0.44605866 0.019616157
-0.1647405 -0.44590843 0.019627687
-0.16488375 -0.44578999 0.019604195
-0.16502716 -0.44567147 0.019581869
-0.16516748 -0.44555536 0.019557294
-0.16532362 -0.44542786 0.019566054
-0.16543272 -0.44533607 0.019514363
-0.1656114 -0.44518954 0.019510897
-0.16575114 -0.44507289 0.019464232
-0.16591558 -0.44494301 0.019569354
-0.16606638 -0.44482091 0.019600354
-0.16621099 -0.44470102 0.019569848
-0.16636144 -0.44457915 0.019599698
-0.16650909 -0.4444578 0.019591223
-0.16664052 -0.44434974 0.019583171
-0.16680621 -0.44421515 0.019607965
-0.16695322 -0.44409505 0.019615803
-0.16709732 -0.4439764 0.019602761
-0.16724248 -0.44385725 0.019597843
-0.16737825 -0.44374257 0.019523358
-0.16753057 -0.4436191 0.019551991
-0.16768521 -0.44349459 0.019599184
-0.16782758 -0.44337681 0.019574556
-0.16797224 -0.44325894 0.019588264
-0.16811113 -0.44314471 0.019578848
-0.16825849 -0.44302368 0.019572712
-0.16838337 -0.44291881 0.019517122
-0.16849239 -0.44282603 0.01944216
-0.16863671 -0.44270837 0.019454714
-0.16882151 -0.4425706 0.019750126
-0.16897197 -0.44244635 0.01972878
-0.1696151 -0.44193989 0.020171719
-0.17005485 -0.44158131 0.020208042
-0.17020044 -0.44146261 0.020220567
-0.17034358 -0.44134495 0.020212209
-0.17048866 -0.44122651 0.020221256
-0.17063819 -0.44110408 0.020223204
-0.17078023 -0.44098803 0.020230001
-0.17092499 -0.44086981 0.020237885
-0.17106931 -0.44075063 0.020217866
-0.17120935 -0.44063428 0.020182826
-0.17135642 -0.44051635 0.020238359
-0.17150287 -0.4403964 0.020239217
-0.17164409 -0.44027963 0.020215789
-0.17179385 -0.44015849 0.020249147
-0.17193532 -0.44002727 0.019917365
-0.17205735 -0.4399198 0.019754814
-0.1721901 -0.43981197 0.019775812
-0.17233469 -0.43969384 0.019782539
-0.17247902 -0.43957457 0.019760191
-0.172644 -0.43943426 0.019648874
-0.17276612 -0.43932375 0.019422319
-0.17289571 -0.43921056 0.019270033
-0.17303936 -0.43909258 0.019263994
-0.17319597 -0.43897307 0.019454239
-0.17334877 -0.43885097 0.019521262
-0.1735028 -0.43872589 0.019545201
-0.17364773 -0.43860772 0.019557741
-0.17379466 -0.43848899 0.019593492
-0.1739419 -0.43837023 0.019633899
-0.17408964 -0.43824998 0.019651016
-0.17423667 -0.43813139 0.019691426
-0.17438632 -0.43801069 0.01973293
-0.17452805 -0.43789366 0.019712977
-0.17467171 -0.43777612 0.01971624
-0.17481183 -0.43766251 0.019741699
-0.17494498 -0.43755215 0.019714989
-0.17508477 -0.43743715 0.019704388
-0.17522903 -0.43731955 0.019716945
-0.17536259 -0.43720913 0.019694865
-0.17550075 -0.43709606 0.019698281
-0.17564303 -0.43697736 0.01965154
-0.17579067 -0.4368591 0.019710559
-0.175937 -0.43673792 0.019682337
-0.17608745 -0.43661261 0.019637715
-0.17622109 -0.43650043 0.019579567
-0.17636301 -0.43638337 0.019561943
-0.17650402 -0.43626991 0.01960716
-0.17663805 -0.43616468 0.019706074
-0.17676798 -0.43605119 0.019553788
-0.17690973 -0.43593416 0.019533828
-0.17705175 -0.43581519 0.019477792
-0.17719939 -0.43569744 0.019547272
-0.17734474 -0.43557814 0.01954235
