# .PCD v0.7 - Point Cloud Data file format
VERSION 0.7
FIELDS x y z
SIZE 4 4 4
TYPE F F F
COUNT 1 1 1
WIDTH 123
HEIGHT 1
VIEWPOINT 0 0 0 1 0 0 0
POINTS 123
DATA ascii
-0.15181544 -0.43549016 0.020240303
-0.15194172 -0.43538067 0.020112529
-0.15209411 -0.43525732 0.020144658
-0.1522668 -0.4351241 0.020320557
-0.15253922 -0.43489382 0.020170391
-0.15268713 -0.43477297 0.020177033
-0.15281202 -0.43466407 0.020037664
-0.15293877 -0.43455416 0.019908719
-0.15308706 -0.43443307 0.019917682
-0.15322012 -0.43431982 0.019828137
-0.15336551 -0.43420026 0.019818554
-0.15351313 -0.43407956 0.019824052
-0.15365894 -0.43395981 0.019817948
-0.15380123 -0.43384185 0.019788671
-0.15395005 -0.43372062 0.019803442
-0.15409964 -0.43359903 0.019824013
-0.15425049 -0.43347684 0.019853851
-0.1543975 -0.43336183 0.019969903
-0.15453926 -0.43324688 0.019995328
-0.15468712 -0.43311831 0.019837908
-0.15483665 -0.43300137 0.019956224
-0.15497082 -0.43289649 0.0200633
-0.15511219 -0.43277103 0.01985833
-0.15523686 -0.43266532 0.019782968
-0.15535952 -0.43256423 0.019770488
-0.15550262 -0.43244693 0.019769114
-0.15563978 -0.4323315 0.019705057
-0.15580598 -0.43220237 0.019854361
-0.15596707 -0.43207294 0.019908376
-0.15612888 -0.43193847 0.019868121
-0.1562914 -0.43180269 0.019812711
-0.15643679 -0.43168351 0.019811289
-0.15656881 -0.43157434 0.019790411
-0.15669546 -0.43146864 0.019748744
-0.1568318 -0.43135753 0.019761506
-0.15697354 -0.43124402 0.019817187
-0.1571058 -0.43113378 0.019777693
-0.1572499 -0.43101528 0.019768149
-0.1574059 -0.4308905 0.019832769
-0.15757382 -0.4307524 0.019821446
-0.15773821 -0.43061891 0.019847453
-0.1578722 -0.43050903 0.019845147
-0.15799068 -0.43041104 0.019825794
-0.1581324 -0.43029684 0.019866351
-0.15827018 -0.43018007 0.019783655
-0.15843131 -0.43004704 0.019762039
-0.1585591 -0.42993975 0.019707538
-0.15869939 -0.4298273 0.019760925
-0.15886967 -0.42968726 0.019749541
-0.15901887 -0.42956579 0.019765461
-0.1591408 -0.42946196 0.019682018
-0.15927652 -0.42934921 0.019649424
-0.15945402 -0.4292075 0.019728616
-0.15961963 -0.42907283 0.019749928
-0.15976907 -0.42895254 0.019796103
-0.15990937 -0.42883578 0.019757569
-0.16006231 -0.42871431 0.019838551
-0.16019115 -0.4286066 0.019793332
-0.16032523 -0.42849696 0.019798016
-0.16047634 -0.42837265 0.019787122
-0.16060975 -0.42826328 0.019786
-0.16075388 -0.4281452 0.019785762
-0.16089518 -0.42803061 0.019811198
-0.16103831 -0.42791289 0.019801684
-0.16118637 -0.42779094 0.019788541
-0.1613151 -0.42768714 0.019823615
-0.16144902 -0.42757642 0.019802699
-0.16159236 -0.4274587 0.019796669
-0.1617603 -0.42732248 0.019826062
-0.16192976 -0.42718178 0.019786775
-0.16204475 -0.42708918 0.01982104
-0.16217496 -0.42698377 0.019847926
-0.16231294 -0.42686912 0.019814104
-0.16246824 -0.4267424 0.019825213
-0.16263177 -0.42660627 0.019779099
-0.16276887 -0.42649326 0.019765081
-0.16289479 -0.42639059 0.019775789
-0.16302754 -0.42628023 0.019742101
-0.16316958 -0.4261615 0.019691888
-0.16332185 -0.42604017 0.019764744
-0.16346447 -0.42592281 0.019754073
-0.16359843 -0.42580906 0.019669157
-0.16374777 -0.42568541 0.019642027
-0.16390277 -0.42556372 0.01975438
-0.16403508 -0.42545503 0.019748626
-0.16417946 -0.4253341 0.019692533
-0.16435544 -0.4251937 0.019772923
-0.16450517 -0.42507008 0.019752763
-0.16464865 -0.42495266 0.01975603
-0.16479036 -0.42483556 0.019734919
-0.16493331 -0.42471826 0.01973122
-0.16506624 -0.42460957 0.019735932
-0.1652178 -0.42448571 0.019742481
-0.1653648 -0.42436427 0.019721223
-0.16551164 -0.42424285 0.019697648
-0.16565801 -0.42412335 0.019706661
-0.16579634 -0.4240104 0.019714724
-0.16594586 -0.42388874 0.019732965
-0.16608813 -0.42377359 0.019763026
-0.1662347 -0.42365623 0.019820914
-0.16636135 -0.42355829 0.019944478
-0.16649632 -0.4234437 0.019859523
-0.166621 -0.42333975 0.019821394
-0.16676734 -0.42322266 0.019881606
-0.16691704 -0.42309704 0.019818392
-0.16707729 -0.42296708 0.019846834
-0.1671962 -0.42286736 0.019798376
-0.16734852 -0.42274398 0.019828185
-0.16749674 -0.42262039 0.019782463
-0.16762802 -0.42250246 0.019562636
-0.16777639 -0.42239076 0.019771736
-0.16790551 -0.42228213 0.019711379
-0.16804813 -0.42215753 0.019547116
-0.16879912 -0.42187595 0.026631553
-0.16901143 -0.42148674 0.022062372
-0.16914938 -0.42137399 0.022068115
-0.16929586 -0.42125511 0.022092257
-0.1694321 -0.42114183 0.022057317
-0.16957819 -0.42102289 0.022073319
-0.16971673 -0.42091048 0.022096498
-0.16986053 -0.42079392 0.022123041
-0.17000182 -0.42067963 0.02215429
-0.17057449 -0.42042357 0.026678734
