# .PCD v0.7 - Point Cloud Data file format
VERSION 0.7
FIELDS x y z
SIZE 4 4 4
TYPE F F F
COUNT 1 1 1
WIDTH 122
HEIGHT 1
VIEWPOINT 0 0 0 1 0 0 0
POINTS 122
DATA ascii
-0.13157977 -0.38321757 0.020388709
-0.13308907 -0.38269046 0.035594981
-0.13320501 -0.38259575 0.035602432
-0.13332735 -0.38249543 0.035602733
-0.13345172 -0.38239488 0.035633244
-0.13357507 -0.38229451 0.035649814
-0.13370061 -0.38219064 0.035630248
-0.13382292 -0.38209042 0.035631716
-0.13395329 -0.38198447 0.035651594
-0.13407624 -0.38188252 0.035627447
-0.13419625 -0.38178423 0.035630144
-0.1343251 -0.3816784 0.035626788
-0.13444915 -0.38157821 0.03565963
-0.13457435 -0.38147438 0.035634257
-0.13469768 -0.38137239 0.035615921
-0.13482103 -0.38127041 0.035597585
-0.13494645 -0.38116843 0.035616424
-0.13507304 -0.38106459 0.035615459
-0.13519725 -0.38096264 0.035613392
-0.13532448 -0.38085887 0.035625201
-0.13545379 -0.38075322 0.035633463
-0.135573 -0.38065505 0.035624549
-0.13569613 -0.38055301 0.035601556
-0.13582365 -0.38044935 0.035621509
-0.13594756 -0.38034746 0.035614792
-0.13607393 -0.38024366 0.035611503
-0.13619837 -0.38014185 0.035616413
-0.13632447 -0.38003805 0.035607308
-0.13645385 -0.37993261 0.03562139
-0.13657749 -0.37983066 0.035608869
-0.13670123 -0.3797287 0.035598665
-0.13682844 -0.37962526 0.035617452
-0.13695182 -0.37952319 0.035597958
-0.13707782 -0.37941933 0.035586525
-0.13720214 -0.37931761 0.035591438
-0.1373295 -0.37921438 0.035617206
-0.13745561 -0.3791106 0.035609271
-0.13758138 -0.37900662 0.035590872
-0.13770618 -0.37890527 0.035612054
-0.13783263 -0.3788017 0.035614584
-0.13795651 -0.37869987 0.035609026
-0.13808285 -0.37859622 0.035608064
-0.13820671 -0.37849435 0.035601348
-0.1383331 -0.37839076 0.035602707
-0.1384593 -0.37828702 0.035597101
-0.13858576 -0.37818354 0.035601947
-0.13870947 -0.37808147 0.035588253
-0.13883586 -0.37797794 0.035590783
-0.13895981 -0.3778761 0.035586394
-0.13908616 -0.37777251 0.035586596
-0.13921273 -0.37766927 0.03559842
-0.13933913 -0.3775658 0.035602119
-0.13946304 -0.37746394 0.035596561
-0.13958918 -0.37736005 0.035586294
-0.13971555 -0.37725657 0.035589986
-0.13984197 -0.37715319 0.035596002
-0.13997056 -0.37704766 0.035593815
-0.1400923 -0.37694791 0.035595305
-0.14021653 -0.37684685 0.035613012
-0.14034279 -0.37674317 0.035609722
-0.14046918 -0.37663993 0.035618063
-0.14059761 -0.37653381 0.035600767
-0.14072394 -0.37643036 0.035604455
-0.14084792 -0.37632847 0.035598896
-0.14097209 -0.37622774 0.035622425
-0.14109831 -0.37612349 0.035606336
-0.1412247 -0.37602058 0.035621665
-0.141351 -0.37591711 0.035624187
-0.14147501 -0.37581506 0.035616308
-0.14160132 -0.37571156 0.035617679
-0.14173223 -0.37560356 0.035603799
-0.14185397 -0.37550494 0.035629712
-0.14198029 -0.37540144 0.035631083
-0.14210665 -0.3752971 0.035616148
-0.14223066 -0.37519604 0.035629213
-0.14235936 -0.37508997 0.035617717
-0.14248824 -0.37498257 0.035580616
-0.14261703 -0.37487641 0.03556912
-0.14314803 -0.37373003 0.020352775
-0.14328235 -0.37361988 0.020352777
-0.14342265 -0.37350169 0.020285124
-0.14356279 -0.37338468 0.020240758
-0.14370224 -0.37327093 0.020253409
-0.14384739 -0.37315083 0.020229856
-0.143994 -0.37303299 0.020280724
-0.14415702 -0.372899 0.020274147
-0.14430474 -0.3727771 0.02025751
-0.14445196 -0.37265691 0.020268796
-0.14459179 -0.3725419 0.020261664
-0.14472407 -0.37243274 0.020246588
-0.1448577 -0.37231967 0.020172136
-0.14498469 -0.37221533 0.020167658
-0.1451229 -0.37210521 0.0202362
-0.14526597 -0.37198663 0.02020921
-0.14540982 -0.37187079 0.020254329
-0.14555103 -0.37175706 0.020298358
-0.14569287 -0.37164167 0.020317929
-0.14583673 -0.37152547 0.020356078
-0.14597653 -0.37141481 0.02044086
-0.14611886 -0.37130189 0.020522095
-0.14637592 -0.37131059 0.0252195
-0.14651395 -0.37119669 0.025204264
-0.14716372 -0.37043336 0.020270327
-0.14690956 -0.37135407 0.035515528
-0.1470308 -0.37125847 0.035597313
-0.14715728 -0.37115532 0.035609141
-0.14728215 -0.37105271 0.035604727
-0.14740923 -0.37094846 0.035603747
-0.14753594 -0.3708449 0.035610918
-0.14766178 -0.37074292 0.035636727
-0.14778715 -0.37063953 0.035624161
-0.14791878 -0.37052953 0.035580005
-0.14804672 -0.37042606 0.035610419
-0.14817376 -0.37032199 0.03561293
-0.14829808 -0.37022054 0.035623655
-0.14842354 -0.37011719 0.035613403
-0.14854912 -0.37001368 0.035601992
-0.14867641 -0.36990932 0.035602167
-0.14880526 -0.36980242 0.035575539
-0.14893202 -0.36969897 0.035586201
-0.14905559 -0.36959887 0.035612077
-0.14918482 -0.36949328 0.035620339
