# .PCD v0.7 - Point Cloud Data file format
VERSION 0.7
FIELDS x y z
SIZE 4 4 4
TYPE F F F
COUNT 1 1 1
WIDTH 124
HEIGHT 1
VIEWPOINT 0 0 0 1 0 0 0
POINTS 124
DATA ascii
-0.14768951 -0.38036209 0.020934349
-0.14782619 -0.38024974 0.020928498
-0.14796303 -0.38013676 0.020912174
-0.14810127 -0.3800272 0.020992385
-0.148242 -0.37991551 0.021070212
-0.14838789 -0.37979895 0.021135103
-0.14855081 -0.37966335 0.021092508
-0.14869323 -0.37954456 0.021049276
-0.14884081 -0.37942177 0.021011718
-0.14898293 -0.37930453 0.020996427
-0.14912733 -0.37918615 0.020997358
-0.14926372 -0.37907505 0.021012459
-0.14940026 -0.3789635 0.021020574
-0.1495215 -0.37886411 0.021020936
-0.14964721 -0.37876242 0.021050274
-0.14978832 -0.37864324 0.020976823
-0.14992878 -0.37852609 0.0209348
-0.15007213 -0.37841082 0.020982303
-0.15021297 -0.37829292 0.02093097
-0.15035304 -0.37818134 0.021000663
-0.15049247 -0.37807116 0.021087833
-0.15063295 -0.37795827 0.021136574
-0.15076925 -0.37785101 0.021231968
-0.15091184 -0.37774047 0.021366753
-0.15105473 -0.37762171 0.021332819
-0.15143487 -0.3780126 0.036203288
-0.15154697 -0.37792155 0.036221337
-0.15167095 -0.37782288 0.036284473
-0.15179051 -0.37772751 0.036340736
-0.15191559 -0.37762412 0.036323544
-0.15204234 -0.37752011 0.036321443
-0.15216738 -0.37741694 0.036307745
-0.15229297 -0.37731507 0.036331266
-0.15242222 -0.37720889 0.036326777
-0.1525414 -0.37711179 0.036339995
-0.15266603 -0.37700948 0.036336776
-0.15279269 -0.37690574 0.036339328
-0.15291777 -0.37680271 0.036329128
-0.15304512 -0.37669787 0.036320031
-0.15316983 -0.3765955 0.036317971
-0.15329656 -0.37649179 0.036321688
-0.15342112 -0.37638971 0.036323134
-0.1535483 -0.37628528 0.036319852
-0.15367286 -0.37618327 0.036322456
-0.15379956 -0.37607786 0.036290102
-0.15392427 -0.37597567 0.03629154
-0.15405054 -0.37587282 0.036305744
-0.15417589 -0.37576967 0.036297847
-0.15430287 -0.37566575 0.036301561
-0.15442775 -0.37556335 0.036301829
-0.1545544 -0.37545997 0.036311369
-0.15467912 -0.3753579 0.036315128
-0.15480442 -0.37525493 0.036310736
-0.15493515 -0.37514704 0.036295727
-0.15505791 -0.3750464 0.036296062
-0.15518169 -0.37494582 0.036314979
-0.15531066 -0.3748391 0.036294196
-0.15543438 -0.3747386 0.036314286
-0.1555613 -0.37463492 0.03632265
-0.15569006 -0.37452716 0.03627627
-0.15581699 -0.37442356 0.036285795
-0.15594243 -0.37432066 0.036284897
-0.15607311 -0.37421313 0.036276873
-0.15619546 -0.37411189 0.03625742
-0.15632194 -0.37400895 0.036273949
-0.15644583 -0.37390834 0.036294024
-0.15657671 -0.37380067 0.036285996
-0.15670423 -0.37369633 0.036290854
-0.15682983 -0.37359336 0.0362911
-0.15695854 -0.37348747 0.036283135
-0.15708435 -0.37338427 0.036282219
-0.15720907 -0.37328258 0.036294132
-0.15733577 -0.37317818 0.03628388
-0.15746734 -0.37306979 0.036272343
-0.15759099 -0.37296835 0.036271479
-0.1577183 -0.37286448 0.036282167
-0.15784454 -0.37276202 0.036304511
-0.15797462 -0.3726545 0.03628603
-0.15810168 -0.37254983 0.036275767
-0.15822867 -0.37244645 0.036291111
-0.15835448 -0.37234348 0.036294855
-0.15847997 -0.3722409 0.036302086
-0.15860911 -0.37213477 0.036296431
-0.15873504 -0.37203169 0.036300171
-0.15885949 -0.37192944 0.036295798
-0.1589864 -0.3718262 0.036313467
-0.15911075 -0.3717252 0.036333539
-0.15924717 -0.37161204 0.036305584
-0.15937196 -0.37151051 0.036322143
-0.15949765 -0.37140679 0.036308438
-0.15962219 -0.37130356 0.036284279
-0.15974386 -0.37120497 0.036309071
-0.15987502 -0.37109753 0.036311507
-0.16001105 -0.37098509 0.036291711
-0.1601443 -0.37087512 0.036276639
-0.16027094 -0.37077141 0.036279194
-0.16039327 -0.37067205 0.036299307
-0.16051455 -0.370574 0.036328763
-0.16064858 -0.37046316 0.036309019
-0.16078515 -0.37034833 0.036248483
-0.16091955 -0.37023622 0.03620778
-0.16362377 -0.36711407 0.017053669
-0.16375713 -0.36700699 0.017101433
-0.16390353 -0.3668873 0.017109293
-0.16405885 -0.36675802 0.017068056
-0.16420561 -0.36663696 0.017052636
-0.16435206 -0.36651835 0.017083768
-0.16449933 -0.36639774 0.017086953
-0.16465062 -0.3662734 0.017080726
-0.16479833 -0.36615235 0.017081572
-0.16494521 -0.36603227 0.017089419
-0.16509306 -0.3659111 0.017090263
-0.16524498 -0.36578614 0.017081687
-0.16539423 -0.36566335 0.017073192
-0.1655457 -0.36553898 0.017069288
-0.16569245 -0.36541921 0.017080631
-0.1658439 -0.3652949 0.017077889
-0.1659943 -0.3651709 0.017063534
-0.16614334 -0.36504853 0.017059695
-0.16629165 -0.36492699 0.017061694
-0.1664423 -0.36480373 0.017067114
-0.16659209 -0.36468059 0.017059766
-0.1667439 -0.36455604 0.017058175
-0.16689336 -0.36443332 0.017054323
