# .PCD v0.7 - Point Cloud Data file format
VERSION 0.7
FIELDS x y z
SIZE 4 4 4
TYPE F F F
COUNT 1 1 1
WIDTH 109
HEIGHT 1
VIEWPOINT 0 0 0 1 0 0 0
POINTS 109
DATA ascii
-0.1977194 -0.42034286 0.019563138
-0.19786866 -0.42021918 0.019532517
-0.19801198 -0.42010236 0.019546263
-0.19816123 -0.4199788 0.019517971
-0.198314 -0.41984871 0.019411637
-0.19843557 -0.41974065 0.019228145
-0.19859834 -0.41962013 0.019506682
-0.19873354 -0.41951165 0.019556705
-0.1988893 -0.41938227 0.019518944
-0.19903071 -0.41926822 0.019558333
-0.19917959 -0.41914544 0.019540522
-0.19931881 -0.4190329 0.019574158
-0.19942726 -0.41895628 0.019840125
-0.19955532 -0.41885158 0.019844966
-0.19971582 -0.41871738 0.019786129
-0.19985162 -0.41860932 0.01985592
-0.20004089 -0.41844791 0.019718386
-0.20019786 -0.41831321 0.019586349
-0.20034447 -0.41819367 0.019598842
-0.20356873 -0.41555405 0.019645829
-0.20372991 -0.41541719 0.019541606
-0.20387891 -0.41529518 0.019543573
-0.20403008 -0.41516954 0.019504761
-0.20479667 -0.41439915 0.016412094
-0.20494208 -0.41428176 0.016450221
-0.20509164 -0.41415939 0.016454495
-0.2052432 -0.41403574 0.016465709
-0.2053948 -0.41391104 0.016454808
-0.20554486 -0.41378817 0.016456751
-0.20569602 -0.41366401 0.016450513
-0.20584917 -0.41353858 0.016451204
-0.20600066 -0.41341412 0.016443808
-0.2061501 -0.41329208 0.016452737
-0.20630299 -0.41316605 0.016435992
-0.20645568 -0.41304123 0.016442515
-0.2066053 -0.41291904 0.01645145
-0.20675799 -0.41279334 0.016438192
-0.20691061 -0.41266772 0.016426105
-0.20706263 -0.4125438 0.016439628
-0.20721431 -0.41241932 0.016435705
-0.20736493 -0.41229612 0.016439963
-0.20751743 -0.41217077 0.016431361
-0.20767069 -0.41204458 0.016418098
-0.20782138 -0.41192138 0.016423512
-0.2079758 -0.41179481 0.016423011
-0.20813166 -0.41166666 0.016413162
-0.20827715 -0.41154942 0.016455948
-0.2084294 -0.41142365 0.016433388
-0.20858167 -0.41129875 0.016430622
-0.20873368 -0.41117418 0.016430182
-0.20888701 -0.41104901 0.016440181
-0.20904078 -0.41092253 0.016429225
-0.20919374 -0.41079697 0.01642411
-0.20934731 -0.41067159 0.016434103
-0.20949692 -0.41054901 0.016433725
-0.20964961 -0.41042382 0.016432108
-0.20980167 -0.41029936 0.016435158
-0.20995453 -0.41017404 0.016433537
-0.21010751 -0.41004863 0.016431913
-0.21026111 -0.40992254 0.016426781
-0.21041505 -0.40979692 0.016437925
-0.2105681 -0.40967229 0.016454911
-0.2107197 -0.40954849 0.016463794
-0.21088341 -0.40941137 0.016399061
-0.21103123 -0.409291 0.016415024
-0.21118596 -0.40916464 0.016423814
-0.21134065 -0.40903753 0.016416326
-0.21149299 -0.40891227 0.016406577
-0.21164818 -0.40878546 0.016414195
-0.2118018 -0.40865964 0.016414884
-0.21195938 -0.40853029 0.016409652
-0.21211071 -0.4084062 0.01640806
-0.21226628 -0.40827909 0.016415682
-0.21242109 -0.40815207 0.016411679
-0.21257456 -0.40802652 0.016415851
-0.21273348 -0.40789583 0.016405933
-0.21288717 -0.40777013 0.016410101
-0.21304756 -0.40763792 0.016393162
-0.21319598 -0.40751791 0.016427722
-0.21334705 -0.40739432 0.016431957
-0.21350597 -0.40726307 0.016409237
-0.21365926 -0.40713787 0.016418075
-0.21381725 -0.40700838 0.016417481
-0.21397224 -0.40688142 0.016418135
-0.21412936 -0.40675294 0.016423374
-0.21428894 -0.40662116 0.016400635
-0.21444249 -0.40649578 0.01641063
-0.21459681 -0.40636966 0.016417112
-0.21475567 -0.40623942 0.016415335
-0.21491376 -0.4061093 0.016403107
-0.21506861 -0.40598267 0.016408414
-0.21522155 -0.40585741 0.01640911
-0.21537682 -0.40573037 0.016413249
-0.21553579 -0.40560016 0.016413789
-0.21569556 -0.40546909 0.016410831
-0.21585138 -0.40534157 0.016413782
-0.21600755 -0.40521368 0.016415566
-0.21616429 -0.40508524 0.016415004
-0.2163209 -0.40495697 0.016415607
-0.21647786 -0.40482831 0.016415041
-0.21663351 -0.40470108 0.016421489
-0.21678543 -0.40457776 0.016446654
-0.21694997 -0.40444195 0.016424946
-0.21711875 -0.40430111 0.016369388
-0.21727052 -0.40417802 0.016396888
-0.21742675 -0.40405032 0.016403321
-0.21758845 -0.40391758 0.01639797
-0.21774441 -0.40379021 0.016406741
-0.21790592 -0.40365708 0.016389772
