# .PCD v0.7 - Point Cloud Data file format
VERSION 0.7
FIELDS x y z
SIZE 4 4 4
TYPE F F F
COUNT 1 1 1
WIDTH 132
HEIGHT 1
VIEWPOINT 0 0 0 1 0 0 0
POINTS 132
DATA ascii
-0.22614962 -0.41164994 0.016443491
-0.22629081 -0.41153443 0.016450321
-0.22643194 -0.41141945 0.016468788
-0.15409443 -0.47081038 0.017329326
-0.15424202 -0.47068915 0.017326662
-0.15438852 -0.4705683 0.017312394
-0.15453693 -0.47044659 0.017313201
-0.15469232 -0.47031975 0.017327789
-0.15484005 -0.47019851 0.017327443
-0.15498547 -0.47007886 0.017320182
-0.15513149 -0.46995884 0.017315229
-0.15528007 -0.46983671 0.01731021
-0.15542565 -0.46971661 0.017295966
-0.15559079 -0.46958336 0.017345201
-0.15572959 -0.46946868 0.01732764
-0.15587404 -0.46934938 0.017311094
-0.15602455 -0.46922648 0.017323477
-0.15616946 -0.46910694 0.01730925
-0.15631545 -0.46898708 0.017307788
-0.15646023 -0.46886808 0.017302867
-0.15660688 -0.46874741 0.017295575
-0.15675837 -0.46862394 0.017313756
-0.15690137 -0.46850619 0.017304229
-0.15704866 -0.46838516 0.017300401
-0.15719382 -0.46826598 0.01729897
-0.1573412 -0.46814495 0.017296312
-0.15749052 -0.46802303 0.017309885
-0.15763563 -0.46790397 0.017309617
-0.1577819 -0.46778375 0.017304655
-0.15792438 -0.46766645 0.017296303
-0.15807712 -0.46754196 0.017314449
-0.15822168 -0.46742335 0.017314194
-0.15836777 -0.46730331 0.017310409
-0.15851074 -0.46718577 0.017305532
-0.15865856 -0.46706462 0.017308684
-0.15880558 -0.46694449 0.017318828
-0.15895377 -0.46682313 0.017324289
-0.1591047 -0.46670043 0.017349463
-0.1592422 -0.4665862 0.017317975
-0.1593779 -0.466474 0.017299334
-0.15953137 -0.46634927 0.017325602
-0.15967754 -0.4662298 0.017335767
-0.15981978 -0.46611249 0.017322769
-0.15996248 -0.46599537 0.0173214
-0.16010706 -0.46587658 0.017317655
-0.16025332 -0.46575713 0.017330147
-0.16039512 -0.46564019 0.017317161
-0.1605453 -0.46551779 0.017335374
-0.16069332 -0.4653973 0.017355971
-0.16083184 -0.46528301 0.017341899
-0.16097535 -0.46516502 0.017337019
-0.16111462 -0.46505028 0.017326418
-0.16125624 -0.46493402 0.017325077
-0.16139805 -0.46481764 0.017324891
-0.16154358 -0.46469846 0.017329263
-0.16168302 -0.46458367 0.017320985
-0.16182891 -0.46446428 0.017327677
-0.16196814 -0.46434966 0.017319407
-0.16211198 -0.46423164 0.017319169
-0.16225579 -0.4641141 0.017329395
-0.16239552 -0.46399876 0.01731414
-0.16253524 -0.46388391 0.017309347
-0.16267951 -0.46376568 0.01731259
-0.16282342 -0.46364817 0.017325144
-0.16296397 -0.46353284 0.01732499
-0.16310123 -0.46341965 0.017312121
-0.16324444 -0.46330217 0.017313059
-0.16338497 -0.46318692 0.017314076
-0.16352539 -0.46307129 0.017304616
-0.16366513 -0.46295658 0.017303314
-0.16380478 -0.46284145 0.017291542
-0.16394688 -0.46272528 0.01730066
-0.16408719 -0.46260977 0.017292362
-0.1642285 -0.46249413 0.017299172
-0.16436943 -0.46237829 0.017294357
-0.16450773 -0.4622646 0.017289601
-0.16464877 -0.46214873 0.017285945
-0.16478604 -0.46203572 0.017277725
-0.16492772 -0.46191946 0.017277543
-0.16506809 -0.46180454 0.017283216
-0.16521172 -0.46168712 0.017292285
-0.16534428 -0.46157715 0.017265573
-0.16548258 -0.46146306 0.017252676
-0.16562712 -0.46134564 0.017278016
-0.16576363 -0.46123272 0.017258191
-0.16590126 -0.46111965 0.017254613
-0.16603976 -0.46100554 0.017244041
-0.16617958 -0.46089113 0.017250888
-0.16631895 -0.46077651 0.017244944
-0.16645595 -0.46066388 0.017240232
-0.16659619 -0.46054876 0.017238919
-0.16673353 -0.46043596 0.017236516
-0.16687486 -0.4603202 0.017240994
-0.16701125 -0.46020803 0.017235138
-0.16715086 -0.46009338 0.017232679
-0.16728631 -0.45998183 0.017223343
-0.16742624 -0.459867 0.017223207
-0.16756506 -0.45975342 0.017230079
-0.16770156 -0.45964074 0.017214898
-0.16783769 -0.4595288 0.017210208
-0.16797704 -0.45941445 0.017208915
-0.16811448 -0.45930177 0.017211173
-0.16825314 -0.45918784 0.017207567
-0.16838846 -0.45907649 0.017200567
-0.16852841 -0.45896181 0.01720392
-0.16866285 -0.45885104 0.017193453
-0.1688019 -0.45873696 0.017193338
-0.16893762 -0.45862541 0.017189819
-0.16907603 -0.45851177 0.01718739
-0.16921254 -0.4583998 0.017188501
-0.16934983 -0.45828682 0.017181451
-0.16948664 -0.45817474 0.017184883
-0.16962472 -0.45806134 0.017182466
-0.16975881 -0.45795089 0.017173165
-0.16989718 -0.45783734 0.017173069
-0.17003365 -0.45772552 0.017176511
-0.17017026 -0.45761308 0.017168317
-0.17030543 -0.45750207 0.017165972
-0.17044011 -0.45739079 0.017148517
-0.17057693 -0.45727885 0.017155441
-0.17071749 -0.45716414 0.017169248
-0.17085081 -0.45705426 0.01715881
-0.170987 -0.45694217 0.017150618
-0.17112149 -0.45683163 0.017147129
-0.17126147 -0.45671737 0.017159794
-0.17139776 -0.45660585 0.01716673
-0.17152721 -0.45649773 0.017123807
-0.17166187 -0.45638716 0.017122643
-0.17179902 -0.45627522 0.017135371
-0.17193684 -0.45616227 0.017138777
-0.17207044 -0.45605242 0.017132992
-0.17220375 -0.45594272 0.017126042
