# .PCD v0.7 - Point Cloud Data file format
VERSION 0.7
FIELDS x y z
SIZE 4 4 4
TYPE F F F
COUNT 1 1 1
WIDTH 132
HEIGHT 1
VIEWPOINT 0 0 0 1 0 0 0
POINTS 132
DATA ascii
-0.22746916 -0.41015533 0.015707877
-0.22762591 -0.41002727 0.015716629
-0.22778539 -0.40989646 0.015713688
-0.2279509 -0.40976012 0.015697777
-0.2281096 -0.40963015 0.015699498
-0.22826684 -0.4095017 0.015708247
-0.22842686 -0.40937042 0.015705282
-0.22858866 -0.40923741 0.015695289
-0.22875033 -0.40910453 0.015686471
-0.22891103 -0.40897322 0.015695119
-0.22907217 -0.40884095 0.015689794
-0.22923097 -0.40871105 0.015695013
-0.22939321 -0.40857768 0.015686167
-0.22955227 -0.40844759 0.015691379
-0.22971371 -0.40831512 0.015687216
-0.22987406 -0.40818432 0.015700534
-0.23004085 -0.40804651 0.01567528
-0.23020983 -0.40790656 0.015641836
-0.1490387 -0.47447357 0.016802195
-0.14920568 -0.47433642 0.016794357
-0.14936981 -0.47420162 0.016787766
-0.14953525 -0.47406596 0.016785789
-0.14970517 -0.47392642 0.016779035
-0.14987795 -0.47378582 0.016801303
-0.15004107 -0.4736518 0.016793566
-0.15020144 -0.47351882 0.016757976
-0.15038538 -0.47337031 0.016807877
-0.15055269 -0.47323352 0.016815156
-0.15071391 -0.47310045 0.016793516
-0.15087269 -0.47296947 0.016774248
-0.15104043 -0.47283202 0.016774543
-0.15120979 -0.47269353 0.016780607
-0.15138108 -0.47255376 0.016793601
-0.15154423 -0.47241992 0.016790524
-0.15170549 -0.47228739 0.016781665
-0.15186836 -0.47215378 0.016778596
-0.15203303 -0.47201854 0.01677198
-0.15221131 -0.47187376 0.016801085
-0.15237325 -0.47174039 0.016786397
-0.1525214 -0.47161674 0.016736003
-0.15269203 -0.4714776 0.016751345
-0.15285949 -0.47134107 0.016766768
-0.15302227 -0.47120723 0.01675671
-0.15318492 -0.47107351 0.016746655
-0.1533495 -0.47093898 0.016754013
-0.15351327 -0.47080499 0.016759062
-0.15368152 -0.47066763 0.016769804
-0.15384424 -0.47053391 0.016762078
-0.15400918 -0.47039878 0.016762447
-0.15416867 -0.47026774 0.016754804
-0.15433463 -0.47013196 0.016759796
-0.15449879 -0.46999744 0.016759012
-0.15466182 -0.46986365 0.016754769
-0.15482371 -0.46973112 0.016757537
-0.15498549 -0.4695982 0.016749835
-0.15514584 -0.46946624 0.016737519
-0.15531418 -0.46932858 0.016743608
-0.15548311 -0.46919197 0.01678459
-0.15564024 -0.46906173 0.016751412
-0.15580198 -0.46892893 0.016746044
-0.15596382 -0.46879661 0.016752303
-0.15612173 -0.46866688 0.016744703
-0.15628371 -0.46853402 0.016741656
-0.15644649 -0.46840066 0.016742069
-0.15660881 -0.46826759 0.016741335
-0.15677056 -0.46813545 0.016749926
-0.15693013 -0.46800423 0.016739961
-0.15709022 -0.46787271 0.016732303
-0.1572572 -0.46773672 0.01675122
-0.15741533 -0.46760702 0.016748276
-0.15757471 -0.46747601 0.016739476
-0.15773882 -0.46734196 0.016749166
-0.15789977 -0.46720999 0.016747307
-0.15805677 -0.4670811 0.016742051
-0.15822016 -0.46694762 0.0167506
-0.15839164 -0.46680841 0.016779881
-0.15854701 -0.46668011 0.016758382
-0.15869407 -0.46655771 0.016716158
-0.15886135 -0.46642232 0.016753692
-0.15902609 -0.46628809 0.016770355
-0.15918393 -0.46615827 0.016760426
-0.15934257 -0.46602851 0.016765609
-0.1595028 -0.46589723 0.016766086
-0.15966493 -0.46576479 0.016774669
-0.15982491 -0.46563372 0.016775167
-0.15998389 -0.46550331 0.016772188
-0.16014509 -0.46537095 0.016766831
-0.1602959 -0.46524632 0.016743124
-0.16046971 -0.46510655 0.0168026
-0.16062142 -0.46498138 0.016783528
-0.16078046 -0.46485052 0.016771236
-0.16093355 -0.46472505 0.016770743
-0.16109256 -0.46459475 0.016771264
-0.16125171 -0.46446443 0.016772941
-0.1614102 -0.46433452 0.016772307
-0.16156653 -0.46420655 0.016775219
-0.16172315 -0.46407786 0.016767651
-0.16188534 -0.46394572 0.016784374
-0.16204201 -0.46381706 0.016777974
-0.16219492 -0.46369129 0.016768172
-0.1623514 -0.46356279 0.01676178
-0.16251016 -0.46343288 0.016765788
-0.16266669 -0.46330437 0.016760554
-0.16282053 -0.46317813 0.016756549
-0.16297425 -0.46305141 0.016739745
-0.16312999 -0.46292347 0.01673221
-0.16328613 -0.46279529 0.016726976
-0.1634437 -0.46266681 0.016741497
-0.16360116 -0.46253785 0.01674322
-0.16375877 -0.46240884 0.016746098
-0.16391447 -0.46228099 0.016740885
-0.16406602 -0.46215633 0.016729958
-0.16422206 -0.46202835 0.016727056
-0.16437998 -0.46189922 0.016733419
-0.1645426 -0.46176666 0.016748969
-0.16468833 -0.4616456 0.016712599
-0.16483748 -0.46152249 0.016692424
-0.16499743 -0.46139222 0.016710375
-0.16515192 -0.4612653 0.016702862
-0.16530438 -0.46113959 0.016686091
-0.16546904 -0.46100658 0.016728353
-0.16561849 -0.46088335 0.01671166
-0.16577236 -0.46075687 0.016703006
-0.16592452 -0.46063206 0.016700204
-0.16607964 -0.46050489 0.016698496
-0.1662349 -0.46037763 0.016697947
-0.16638866 -0.4602513 0.016690452
-0.16654114 -0.46012637 0.016691145
-0.16669682 -0.45999894 0.016694073
-0.16684729 -0.45987526 0.016685504
-0.16700116 -0.45974892 0.016680339
-0.16715541 -0.45962241 0.016677484
