# .PCD v0.7 - Point Cloud Data file format
VERSION 0.7
FIELDS x y z
SIZE 4 4 4
TYPE F F F
COUNT 1 1 1
WIDTH 116
HEIGHT 1
VIEWPOINT 0 0 0 1 0 0 0
POINTS 116
DATA ascii
-0.18586734 -0.4218986 0.01974288
-0.186004 -0.4217878 0.01976951
-0.18613678 -0.42167744 0.019735733
-0.18629023 -0.42155108 0.019723516
-0.18644854 -0.42142162 0.019729784
-0.18659145 -0.42130405 0.019720174
-0.18672548 -0.42119104 0.019651458
-0.18685734 -0.42107925 0.019571157
-0.18702415 -0.42094636 0.019654006
-0.18715526 -0.42085224 0.019943753
-0.1872842 -0.42073956 0.019791398
-0.18743363 -0.42062604 0.01998641
-0.18758328 -0.42048663 0.019622874
-0.18769971 -0.42040867 0.020001452
-0.18785229 -0.42027751 0.01986941
-0.18800339 -0.42015311 0.019857254
-0.18817478 -0.42000681 0.019730529
-0.18832076 -0.41988665 0.019719668
-0.18846726 -0.41976553 0.019697161
-0.18860096 -0.41965452 0.019665688
-0.18874171 -0.41953877 0.019657306
-0.18886901 -0.41942865 0.019531747
-0.1890364 -0.41929665 0.019644825
-0.18917888 -0.41917789 0.019601481
-0.18930447 -0.41907135 0.019523684
-0.18941469 -0.41900039 0.019944312
-0.189568 -0.41886991 0.019839004
-0.18974331 -0.41872332 0.019776177
-0.18990506 -0.41858828 0.019723015
-0.19005033 -0.41846979 0.019735446
-0.19019011 -0.41835597 0.019751523
-0.19034261 -0.41822764 0.01967882
-0.19048563 -0.41811073 0.019685501
-0.1906281 -0.41799474 0.019702666
-0.19077115 -0.41787779 0.019709345
-0.19091237 -0.41776171 0.019702103
-0.19105643 -0.41764319 0.01969246
-0.19119874 -0.41752547 0.019668905
-0.19135936 -0.41738492 0.01947614
-0.19149013 -0.41728753 0.019687936
-0.19163571 -0.41716677 0.01965731
-0.19178087 -0.41704872 0.019676728
-0.19192636 -0.4169282 0.019649597
-0.19206889 -0.41681227 0.019669093
-0.19220787 -0.41669804 0.019661905
-0.1923594 -0.41657227 0.019627634
-0.19249752 -0.41646296 0.019712407
-0.19262923 -0.41635427 0.019696109
-0.19277947 -0.41623053 0.019682817
-0.19289452 -0.41613597 0.019677438
-0.19302548 -0.41602847 0.019673962
-0.19320369 -0.4158828 0.019682029
-0.19336165 -0.41575301 0.019675516
-0.19350909 -0.41563344 0.019703012
-0.19365619 -0.41551113 0.019665368
-0.19380142 -0.41539153 0.019653367
-0.19394293 -0.41527721 0.019689184
-0.19408983 -0.41515532 0.019657355
-0.19421104 -0.4150601 0.01974606
-0.19432646 -0.41496974 0.019838417
-0.19446492 -0.41486397 0.020005792
-0.19464874 -0.41470918 0.019915966
-0.1948133 -0.41456336 0.019678883
-0.19495937 -0.41444287 0.019662209
-0.19510697 -0.41432038 0.019629203
-0.19524664 -0.41420856 0.019687168
-0.19539137 -0.41408861 0.019657727
-0.19551247 -0.41398913 0.01965335
-0.19570681 -0.41394615 0.022176705
-0.19584247 -0.41383699 0.022220813
-0.19598377 -0.41372177 0.02223336
-0.19612782 -0.4136017 0.022189975
-0.19626564 -0.41348973 0.022211913
-0.1964135 -0.41336858 0.022212645
-0.19654055 -0.41327292 0.022396613
-0.1977118 -0.412305 0.022223575
-0.19786163 -0.41217825 0.02213815
-0.19800502 -0.41205958 0.022113396
-0.19814713 -0.41194475 0.022149194
-0.19828671 -0.41182974 0.022136182
-0.1984276 -0.41171861 0.022230182
-0.19928844 -0.41102061 0.022394679
-0.199443 -0.41089183 0.022348689
-0.20057003 -0.40969792 0.01648679
-0.2007013 -0.40959215 0.016526364
-0.20084736 -0.40947288 0.016536454
-0.20099759 -0.40934974 0.016535953
-0.20114699 -0.40922761 0.016542466
-0.20129764 -0.40910399 0.016539633
-0.20144778 -0.40898103 0.016541466
-0.20159782 -0.40885818 0.016544461
-0.20174764 -0.40873563 0.016549803
-0.20189983 -0.40861034 0.016537618
-0.20204806 -0.40848869 0.01653485
-0.20219904 -0.40836489 0.01653317
-0.20234928 -0.40824193 0.016537331
-0.20249929 -0.40811929 0.016543819
-0.20265031 -0.40799549 0.016543297
-0.20280109 -0.40787199 0.016545122
-0.20295292 -0.4077473 0.016539928
-0.20310418 -0.40762329 0.016539402
-0.20325536 -0.40749943 0.016540047
-0.20341177 -0.40737051 0.016524263
-0.2035574 -0.407253 0.016564608
-0.20370851 -0.40712836 0.016547803
-0.20385821 -0.40700537 0.016541507
-0.20401064 -0.4068802 0.016536295
-0.20416126 -0.40675712 0.016543936
-0.20431212 -0.40663376 0.016550401
-0.20446479 -0.40650839 0.016545195
-0.2046174 -0.40638313 0.016541142
-0.20476903 -0.40625897 0.016544096
-0.20492092 -0.40613458 0.016545892
-0.20507005 -0.40601242 0.016547751
-0.20522228 -0.40588766 0.016548358
-0.20537423 -0.40576327 0.016551314
