# .PCD v0.7 - Point Cloud Data file format
VERSION 0.7
FIELDS x y z
SIZE 4 4 4
TYPE F F F
COUNT 1 1 1
WIDTH 106
HEIGHT 1
VIEWPOINT 0 0 0 1 0 0 0
POINTS 106
DATA ascii
-0.16371034 -0.40522185 0.026858231
-0.16411576 -0.40467551 0.022339802
-0.16425246 -0.40456176 0.022303658
-0.16439444 -0.40444183 0.022227813
-0.16453633 -0.40432894 0.022299789
-0.1646781 -0.40421578 0.022363618
-0.16481736 -0.40410227 0.022376295
-0.16496435 -0.40398225 0.022385288
-0.16534525 -0.40388194 0.026855377
-0.16580625 -0.40328896 0.022314556
-0.16594586 -0.40317389 0.02230045
-0.16608812 -0.40305647 0.022282794
-0.1662301 -0.40294051 0.022290749
-0.16637245 -0.402823 0.022273092
-0.16650978 -0.40270931 0.022248574
-0.16665088 -0.40259665 0.022311259
-0.16679268 -0.40248126 0.022328531
-0.16711998 -0.40242565 0.026815141
-0.16763647 -0.40178731 0.02227637
-0.16777888 -0.40167031 0.022270342
-0.16792142 -0.40155306 0.02226082
-0.16806409 -0.40143552 0.022247804
-0.16820121 -0.40132326 0.022250067
-0.1683425 -0.40120924 0.022287145
-0.16848443 -0.40109357 0.022300921
-0.16862582 -0.40097919 0.022332165
-0.16889536 -0.40096977 0.02679467
-0.16961245 -0.40005621 0.019917008
-0.16974631 -0.39994723 0.019932156
-0.16986093 -0.39985812 0.020033941
-0.16999519 -0.39974204 0.019905906
-0.17017567 -0.39958078 0.019624207
-0.17031467 -0.3994799 0.019898787
-0.17046429 -0.39935815 0.019917015
-0.17060919 -0.39923966 0.019922564
-0.17075162 -0.39912304 0.019924685
-0.17090604 -0.39899784 0.01995327
-0.17104797 -0.39887956 0.019911181
-0.17118773 -0.39876524 0.019915704
-0.17133909 -0.39864045 0.01990013
-0.17148216 -0.39852285 0.019892925
-0.1716281 -0.39840275 0.019882154
-0.17176881 -0.39828694 0.01987152
-0.17190756 -0.39817452 0.019898184
-0.17205822 -0.39805114 0.019900091
-0.17219871 -0.39793578 0.019895282
-0.1723474 -0.39781353 0.019886771
-0.17248607 -0.39769906 0.019869208
-0.17261051 -0.39759707 0.019869471
-0.17273939 -0.3974922 0.01988475
-0.17290239 -0.39735958 0.019904958
-0.1730478 -0.39723659 0.019824361
-0.1731724 -0.39713448 0.01982462
-0.17330901 -0.39703336 0.020052694
-0.17345183 -0.39691648 0.020055978
-0.17360453 -0.39678249 0.019869275
-0.17376339 -0.39665255 0.019874461
-0.17390761 -0.39653376 0.019861415
-0.1740502 -0.39641744 0.019872844
-0.17418683 -0.39630646 0.019893743
-0.17437503 -0.3961525 0.019899331
-0.17451987 -0.39603293 0.019880438
-0.17466022 -0.39591652 0.019851189
-0.17479725 -0.39581347 0.02004667
-0.17490606 -0.39572605 0.020083416
-0.17504002 -0.39561886 0.020138137
-0.17523426 -0.39545301 0.019996919
-0.17539027 -0.39531767 0.019839235
-0.17553543 -0.39519793 0.019822663
-0.17568116 -0.39507899 0.01983284
-0.17582265 -0.39496446 0.019862931
-0.17597257 -0.3948397 0.019822953
-0.17610542 -0.39473414 0.019892836
-0.17625937 -0.39460692 0.019870214
-0.17640527 -0.39448637 0.019848973
-0.17651163 -0.39440674 0.020008
-0.17664264 -0.39429343 0.019882383
-0.17680678 -0.39414823 0.019656977
-0.17698365 -0.39401162 0.019832794
-0.17710021 -0.39391804 0.019873999
-0.17723531 -0.39381075 0.019946152
-0.17737719 -0.39368892 0.019828403
-0.17749782 -0.39360484 0.020140698
-0.17766243 -0.39345574 0.01984079
-0.17780127 -0.39334747 0.019957073
-0.17800578 -0.39329743 0.022437919
-0.17815684 -0.39316568 0.022269893
-0.17831157 -0.39304051 0.02230428
-0.17845769 -0.39291903 0.0222679
-0.17859925 -0.39280227 0.022251423
-0.17872617 -0.39270058 0.022300508
-0.17887667 -0.39257845 0.022325702
-0.17902286 -0.39245939 0.022341689
-0.17974612 -0.39186609 0.02232874
-0.17987382 -0.39176115 0.022323105
-0.18001623 -0.39164582 0.022351993
-0.18016252 -0.39152461 0.022323761
-0.180309 -0.3914054 0.022340911
-0.18045118 -0.39128819 0.022326738
-0.18059596 -0.39117107 0.022359062
-0.18073463 -0.39105612 0.02233102
-0.18088184 -0.39093608 0.022343498
-0.18103132 -0.39081642 0.022403635
-0.18181171 -0.39005345 0.019798286
-0.18195871 -0.38993275 0.019793309
-0.18274969 -0.3891362 0.016662758
