# .PCD v0.7 - Point Cloud Data file format
VERSION 0.7
FIELDS x y z
SIZE 4 4 4
TYPE F F F
COUNT 1 1 1
WIDTH 104
HEIGHT 1
VIEWPOINT 0 0 0 1 0 0 0
POINTS 104
DATA ascii
-0.15530071 -0.41868982 0.019866196
-0.15544517 -0.41857198 0.019878687
-0.15555972 -0.41847396 0.019791864
-0.15568574 -0.41837427 0.019867687
-0.1558301 -0.41825801 0.019911613
-0.15597427 -0.41813889 0.019891515
-0.15613997 -0.41800991 0.020034969
-0.15631387 -0.41786221 0.01992679
-0.15645686 -0.41774338 0.019892761
-0.15660192 -0.41762409 0.019884285
-0.15672953 -0.41751492 0.019788958
-0.15685134 -0.41741824 0.019855589
-0.15700282 -0.41729438 0.019862074
-0.157131 -0.41718999 0.019876149
-0.15729813 -0.41705826 0.01998698
-0.15746073 -0.41692069 0.019896559
-0.15759952 -0.41680598 0.019876614
-0.1577432 -0.41668874 0.019887954
-0.15786089 -0.4165878 0.01979406
-0.1580001 -0.4164784 0.019892819
-0.15814102 -0.41635793 0.019789005
-0.15828902 -0.41624209 0.019903826
-0.15845148 -0.41611171 0.0199624
-0.15860823 -0.41598004 0.019895418
-0.15875314 -0.41586095 0.019889273
-0.15891407 -0.41573682 0.020052642
-0.15902674 -0.41564387 0.020040361
-0.15915704 -0.41553989 0.020099778
-0.15929733 -0.41542533 0.020108886
-0.15944009 -0.41530234 0.0199829
-0.15959521 -0.41517475 0.019974157
-0.15974838 -0.41504496 0.019885145
-0.15989317 -0.41492599 0.019879006
-0.16002795 -0.41481569 0.019882437
-0.1601706 -0.41470581 0.020031162
-0.16031751 -0.41458246 0.019969087
-0.1604639 -0.41445896 0.019895384
-0.16060139 -0.41434413 0.019851029
-0.16074872 -0.41422302 0.019843651
-0.16089085 -0.41410622 0.019837579
-0.16103937 -0.41398531 0.019854613
-0.1611774 -0.41387311 0.019874252
-0.16188803 -0.41361704 0.0267347
-0.16201974 -0.41351053 0.026764987
-0.16224492 -0.41310698 0.022163622
-0.16238569 -0.4129926 0.02218435
-0.16252778 -0.41287559 0.022173617
-0.1626699 -0.41275859 0.022162896
-0.16281061 -0.4126443 0.022184795
-0.16295502 -0.41252851 0.022239182
-0.1630957 -0.4124144 0.022264572
-0.16365458 -0.41216853 0.026724219
-0.16393946 -0.41172272 0.022263292
-0.16408035 -0.41160473 0.022210686
-0.16422224 -0.41148752 0.022191819
-0.16435817 -0.41137367 0.022140503
-0.16450077 -0.41125709 0.02214722
-0.1646419 -0.41114405 0.022202872
-0.16478722 -0.4110257 0.02221882
-0.16529493 -0.41082346 0.026714733
-0.16563375 -0.4103325 0.022233758
-0.16577026 -0.41021857 0.022190589
-0.16591236 -0.41010115 0.022170547
-0.16605495 -0.40998501 0.022186575
-0.16619724 -0.40986803 0.02217933
-0.16633438 -0.40975535 0.022173388
-0.16647723 -0.40964043 0.022219675
-0.16661993 -0.40952531 0.022257814
-0.16706802 -0.40937006 0.026714562
-0.16746335 -0.40883151 0.022206485
-0.16760832 -0.4087126 0.02220499
-0.16774811 -0.40859658 0.022174535
-0.16789055 -0.40847912 0.022160305
-0.1680304 -0.40836492 0.022169424
-0.16817285 -0.40824848 0.022176147
-0.16831253 -0.40813646 0.022228336
-0.16845755 -0.40801746 0.022225669
-0.16884688 -0.40791154 0.026706079
-0.16930754 -0.40731862 0.02218115
-0.1694476 -0.40720329 0.02217048
-0.16959041 -0.40708527 0.02215042
-0.16973278 -0.4069694 0.022167616
-0.1698734 -0.40685207 0.022124337
-0.17001297 -0.40673918 0.022155577
-0.17015779 -0.40662161 0.022179689
-0.1704931 -0.40655941 0.026648723
-0.17100662 -0.40592447 0.022151502
-0.17114601 -0.40581176 0.022183908
-0.17129236 -0.40568984 0.022142801
-0.17143582 -0.40557101 0.022116901
-0.17157635 -0.40545532 0.022106221
-0.17171599 -0.40534195 0.022129308
-0.17186132 -0.40522301 0.022133622
-0.17200339 -0.40510789 0.022161309
-0.17227861 -0.4050971 0.02667499
-0.17298634 -0.40418887 0.019780653
-0.17311154 -0.40408856 0.019828562
-0.17323026 -0.40399492 0.019905753
-0.17341806 -0.40383762 0.019835617
-0.17356853 -0.40371156 0.01977811
-0.1737088 -0.40359661 0.019779067
-0.17384872 -0.40348235 0.019788176
-0.17398769 -0.40336707 0.019758914
-0.17414176 -0.40324029 0.019749029
