# .PCD v0.7 - Point Cloud Data file format
VERSION 0.7
FIELDS x y z
SIZE 4 4 4
TYPE F F F
COUNT 1 1 1
WIDTH 115
HEIGHT 1
VIEWPOINT 0 0 0 1 0 0 0
POINTS 115
DATA ascii
-0.1192871 -0.40889478 0.01699787
-0.1194434 -0.40876684 0.017003061
-0.11959419 -0.4086428 0.016995596
-0.11974911 -0.40851569 0.016995015
-0.11989902 -0.40839222 0.016984081
-0.12005446 -0.40826488 0.016986966
-0.12020607 -0.40814042 0.016985301
-0.12036061 -0.40801364 0.016984727
-0.12051068 -0.40789014 0.016976122
-0.12066732 -0.4077622 0.016987126
-0.12081654 -0.40763924 0.016975053
-0.12096982 -0.40751326 0.016969852
-0.12112001 -0.40738976 0.016963564
-0.12127402 -0.40726343 0.016963003
-0.12142605 -0.40713891 0.016967148
-0.12158011 -0.40701258 0.01696774
-0.12173304 -0.40688762 0.016977679
-0.12188517 -0.40676242 0.016969021
-0.12203486 -0.40663934 0.016962754
-0.12218749 -0.4065139 0.01695757
-0.12233704 -0.40639094 0.016951298
-0.12343717 -0.40564188 0.020200143
-0.12358342 -0.40552104 0.020181155
-0.12373523 -0.4053978 0.020208588
-0.12388418 -0.40527835 0.020266362
-0.12403592 -0.40515453 0.020279825
-0.12416978 -0.40504062 0.020192491
-0.12432659 -0.40491548 0.02026635
-0.12447856 -0.40478867 0.020220438
-0.1245691 -0.40470213 0.019960811
-0.12467487 -0.40460718 0.01978692
-0.12482192 -0.40448892 0.019836592
-0.1249769 -0.40436414 0.019886054
-0.12512666 -0.40424299 0.019921694
-0.1252822 -0.40411645 0.019944368
-0.12543148 -0.40399563 0.019978849
-0.12558119 -0.40387312 0.019984214
-0.12572794 -0.40375295 0.019988496
-0.12587367 -0.40363258 0.019970691
-0.12602329 -0.40351093 0.019993521
-0.12616348 -0.40339351 0.019942107
-0.12631071 -0.40327317 0.019951038
-0.12645359 -0.40315354 0.019899553
-0.12658855 -0.40303966 0.019831972
-0.12673864 -0.40291625 0.019825697
-0.12691702 -0.40277088 0.019845445
-0.12711488 -0.40262365 0.020164985
-0.12727031 -0.40249932 0.020231899
-0.12741473 -0.40237987 0.020210627
-0.1275561 -0.40226281 0.020187117
-0.12771168 -0.4021377 0.020240055
-0.1278545 -0.40201992 0.020226989
-0.12891635 -0.40122569 0.02185306
-0.12905818 -0.40110907 0.021847
-0.12920588 -0.40098786 0.021845436
-0.12934628 -0.40087286 0.021848723
-0.12949204 -0.4007535 0.021853032
-0.13017553 -0.40011409 0.020183323
-0.13029775 -0.40001374 0.020181267
-0.13092855 -0.39957577 0.02186409
-0.13106433 -0.39946502 0.021877971
-0.13120946 -0.39934626 0.021883465
-0.13135116 -0.39922905 0.021862276
-0.13149355 -0.39911151 0.021846879
-0.13163592 -0.39899498 0.021852447
-0.13177824 -0.39887854 0.021858016
-0.13191892 -0.39876279 0.021850815
-0.13206232 -0.39864489 0.021844713
-0.13220292 -0.39852923 0.021837514
-0.13234666 -0.39841121 0.021834895
-0.13248789 -0.39829528 0.0218335
-0.13263029 -0.39817894 0.021842558
-0.13277316 -0.39806238 0.021856252
-0.13291283 -0.39794827 0.021865381
-0.13305344 -0.39783269 0.021860512
-0.13345368 -0.397432 0.020326301
-0.13358778 -0.39731839 0.020249443
-0.13376977 -0.39716905 0.020248143
-0.13390577 -0.39705464 0.020187527
-0.13402718 -0.39695507 0.020187821
-0.13415684 -0.39684889 0.02019139
-0.13431163 -0.39672038 0.020158207
-0.1344277 -0.39662278 0.020107433
-0.13458776 -0.39649963 0.020280141
-0.13471772 -0.39638487 0.020106778
-0.13486861 -0.39626762 0.020244811
-0.13500209 -0.39615273 0.020130713
-0.13514763 -0.39603114 0.02008382
-0.13528715 -0.39591539 0.020055696
-0.13547975 -0.39576277 0.020169355
-0.1356262 -0.39565268 0.020381995
-0.13574301 -0.39555618 0.020367278
-0.13587023 -0.39544842 0.02029526
-0.13604829 -0.39529803 0.02020327
-0.1361952 -0.39517879 0.02022966
-0.13634345 -0.39506057 0.020301413
-0.13648506 -0.39494714 0.020359378
-0.13661657 -0.39483383 0.020244172
-0.13675587 -0.39471543 0.020155536
-0.13689999 -0.39459848 0.02018317
-0.13705635 -0.3944872 0.020542212
-0.13717681 -0.39439285 0.020636816
-0.13731913 -0.39427677 0.020650534
-0.13746342 -0.39415267 0.020529173
-0.13759947 -0.39402428 0.020172894
-0.13774905 -0.39390168 0.020174772
-0.13788125 -0.39379239 0.02015616
-0.13802002 -0.39367849 0.020154841
-0.13816571 -0.39355996 0.020175442
-0.13830668 -0.39344403 0.020169403
-0.1384386 -0.39333481 0.020147301
-0.13858807 -0.39321235 0.020150352
-0.1387269 -0.3930985 0.020151351
-0.13886882 -0.39298248 0.020159259
-0.13900889 -0.39286852 0.020178849
