# .PCD v0.7 - Point Cloud Data file format
VERSION 0.7
FIELDS x y z
SIZE 4 4 4
TYPE F F F
COUNT 1 1 1
WIDTH 116
HEIGHT 1
VIEWPOINT 0 0 0 1 0 0 0
POINTS 116
DATA ascii
-0.1312497 -0.4097665 0.025945632
-0.13140465 -0.40963778 0.025908956
-0.13156375 -0.4095152 0.02607239
-0.13169353 -0.40940893 0.026073629
-0.1318332 -0.4092944 0.026072279
-0.13196796 -0.40918249 0.026040802
-0.13212062 -0.40906048 0.026105462
-0.13226373 -0.40894347 0.026111001
-0.13240275 -0.40882859 0.026091047
-0.13254018 -0.40871692 0.026110716
-0.13268186 -0.40859994 0.026091851
-0.13282374 -0.40848446 0.026107905
-0.13296266 -0.40837049 0.026105413
-0.13310677 -0.40825149 0.026086494
-0.13325202 -0.40813357 0.026109442
-0.13339388 -0.4080182 0.026127826
-0.1335279 -0.40790677 0.026094031
-0.13366979 -0.40779063 0.026096122
-0.13380446 -0.40767887 0.026066968
-0.1339445 -0.40756536 0.026092382
-0.1340799 -0.4074541 0.026086491
-0.13422844 -0.40733391 0.026118664
-0.13436297 -0.4072223 0.026089523
-0.13450663 -0.40710542 0.026106691
-0.13464627 -0.40699047 0.026096031
-0.13478461 -0.40687704 0.026094725
-0.1349272 -0.40675986 0.026087478
-0.13506179 -0.40664914 0.026078118
-0.13520077 -0.40653548 0.026082607
-0.13534334 -0.40641925 0.026095152
-0.13547902 -0.40630805 0.026095076
-0.13561657 -0.40619513 0.02609029
-0.13574918 -0.40608448 0.026048388
-0.13588911 -0.40597045 0.026062163
-0.13603331 -0.40585268 0.026070006
-0.13616905 -0.40574062 0.026052475
-0.13630834 -0.40562698 0.026062777
-0.13644859 -0.40551293 0.026081204
-0.13658895 -0.40539789 0.026080996
-0.13672556 -0.40528551 0.026071584
-0.1368677 -0.40516976 0.02608647
-0.137012 -0.4050521 0.026098961
-0.13715103 -0.40493873 0.026110439
-0.1372804 -0.4048315 0.026084915
-0.13741893 -0.40471739 0.026071962
-0.13755742 -0.40460327 0.026059
-0.13731366 -0.4045279 0.020282734
-0.13742083 -0.40443066 0.020084366
-0.13755068 -0.40432194 0.020035556
-0.13770124 -0.40420046 0.020075824
-0.13784808 -0.40407714 0.020012598
-0.13798675 -0.40396494 0.020042699
-0.1381616 -0.40383309 0.020282542
-0.13830489 -0.40371469 0.020261304
-0.1384206 -0.40361133 0.020082496
-0.13856073 -0.40349284 0.020005483
-0.13908838 -0.40308395 0.020497929
-0.13966969 -0.40263218 0.021013416
-0.14006312 -0.40228239 0.020438526
-0.14029624 -0.40207613 0.020118119
-0.14044106 -0.40195999 0.020171341
-0.14057226 -0.40184942 0.020107362
-0.14072447 -0.40173116 0.020243034
-0.14086932 -0.40161386 0.020271812
-0.14100982 -0.40149781 0.020252988
-0.14115907 -0.40137649 0.020273499
-0.14131175 -0.40124854 0.020213611
-0.14145343 -0.40112346 0.020024812
-0.14160624 -0.40099528 0.01996259
-0.14206916 -0.40063539 0.020370606
-0.1422037 -0.4005363 0.020604523
-0.1426311 -0.40020058 0.020908713
-0.14291552 -0.39995414 0.020627692
-0.1430603 -0.39982265 0.020358492
-0.14327526 -0.39963111 0.020035069
-0.14340879 -0.39951444 0.019882567
-0.14353928 -0.39940509 0.019831412
-0.1436839 -0.39929011 0.019905591
-0.14384231 -0.39916623 0.020029457
-0.1439814 -0.39905035 0.019989718
-0.14414696 -0.39891663 0.020030756
-0.14428608 -0.39880073 0.019991014
-0.14443435 -0.39868018 0.020010391
-0.14458066 -0.39856175 0.020041462
-0.1447186 -0.3984479 0.020023864
-0.14486235 -0.3983297 0.020015426
-0.14499989 -0.39821583 0.019990848
-0.14513691 -0.39810404 0.02000122
-0.14528038 -0.39798588 0.019988127
-0.14541821 -0.39787415 0.020013599
-0.14557205 -0.3977474 0.019999076
-0.14571443 -0.39763144 0.020013956
-0.14585544 -0.39751545 0.02000442
-0.14598754 -0.39740813 0.020024231
-0.14612547 -0.39729428 0.020006632
-0.14626656 -0.39717832 0.019999424
-0.14640999 -0.39706016 0.019986333
-0.14655092 -0.3969442 0.019975649
-0.14669316 -0.39682838 0.019991694
-0.14683223 -0.39671469 0.01999734
-0.14697362 -0.39659885 0.019997114
-0.14711703 -0.39648071 0.019984035
-0.14725548 -0.39636692 0.019976895
-0.14739665 -0.39625099 0.019972015
-0.14755002 -0.39612705 0.020007551
-0.14767395 -0.39602655 0.020029906
-0.14781171 -0.39590955 0.019943632
-0.1479378 -0.39580673 0.019954279
-0.14807038 -0.395697 0.019931011
-0.14820619 -0.39558533 0.01992278
-0.14834748 -0.39546946 0.019921387
-0.14848946 -0.39535394 0.019938599
-0.14863089 -0.39523822 0.019941863
-0.14877208 -0.39512235 0.019938152
-0.14891352 -0.39500669 0.019942576
-0.14905204 -0.39489293 0.019937765
