# .PCD v0.7 - Point Cloud Data file format
VERSION 0.7
FIELDS x y z
SIZE 4 4 4
TYPE F F F
COUNT 1 1 1
WIDTH 132
HEIGHT 1
VIEWPOINT 0 0 0 1 0 0 0
POINTS 132
DATA ascii
-0.22080635 -0.4167484 0.016205668
-0.22094078 -0.41663787 0.016198685
-0.22107461 -0.41652805 0.01619521
-0.2212036 -0.4164232 0.016215142
-0.22134355 -0.41630757 0.016195213
-0.22148119 -0.41619334 0.016163703
-0.22161044 -0.41608828 0.01618363
-0.22174528 -0.41597751 0.016177807
-0.22187951 -0.41586739 0.01617549
-0.22201031 -0.41576025 0.016177913
-0.22214699 -0.41564819 0.016176693
-0.22227874 -0.41554013 0.016175602
-0.22241674 -0.41542622 0.016158052
-0.22255176 -0.41531539 0.016154546
-0.22268561 -0.41520578 0.016156901
-0.22282164 -0.41509396 0.016149875
-0.22295752 -0.41498232 0.016144015
-0.223093 -0.4148711 0.016140506
-0.22322993 -0.41475844 0.016131129
-0.22336233 -0.41464993 0.016131189
-0.22349826 -0.41453883 0.016138129
-0.22363654 -0.41442436 0.016113594
-0.22377153 -0.41431376 0.016114749
-0.2239069 -0.41420281 0.016114723
-0.22404212 -0.41409203 0.01611587
-0.22417882 -0.41397977 0.016111158
-0.22431895 -0.41386405 0.016092395
-0.22445258 -0.41375494 0.016101727
-0.22458991 -0.41364208 0.016095838
-0.22472712 -0.41352943 0.016091114
-0.22486132 -0.41341931 0.016088799
-0.22500189 -0.41330329 0.016071184
-0.15591432 -0.46994883 0.016405202
-0.15605712 -0.46983153 0.016399173
-0.15619865 -0.46971545 0.016397838
-0.15634374 -0.46959662 0.016399898
-0.15648499 -0.46948078 0.016398568
-0.15662396 -0.46936613 0.016382165
-0.15676458 -0.46925074 0.016379682
-0.15690622 -0.46913433 0.016372532
-0.1570527 -0.46901503 0.016389679
-0.15719406 -0.46889883 0.016382527
-0.15733272 -0.46878487 0.016375452
-0.15747632 -0.46866718 0.016376384
-0.15762146 -0.46854889 0.016391244
-0.157763 -0.46843266 0.016386418
-0.15790008 -0.4683198 0.016375884
-0.15803634 -0.46820754 0.016363043
-0.15817633 -0.46809277 0.016362906
-0.15832332 -0.46797299 0.016377732
-0.15846096 -0.46785983 0.016370676
-0.15859985 -0.46774587 0.016368236
-0.1587376 -0.46763268 0.016362347
-0.15887986 -0.46751612 0.016363312
-0.15902078 -0.46740088 0.016368974
-0.1591614 -0.46728545 0.016365331
-0.15930104 -0.46717107 0.016367543
-0.15943784 -0.46705863 0.016360499
-0.15957958 -0.46694294 0.016370799
-0.15972069 -0.46682724 0.016370632
-0.15985847 -0.4667142 0.016368233
-0.15999877 -0.46659949 0.01637508
-0.16013321 -0.4664883 0.016352966
-0.16026965 -0.46637622 0.01634711
-0.1604085 -0.46626213 0.016341183
-0.16054809 -0.46614838 0.016356189
-0.1606832 -0.46603721 0.016346879
-0.16081722 -0.46592677 0.016334094
-0.16095634 -0.46581298 0.016339801
-0.16109431 -0.46569958 0.016332738
-0.16123156 -0.46558708 0.016332671
-0.16136582 -0.46547654 0.016322214
-0.16150256 -0.46536443 0.016321002
-0.16163947 -0.46525219 0.016320946
-0.1617731 -0.46514213 0.016309332
-0.16191168 -0.46502843 0.016306914
-0.16204514 -0.46491852 0.016295305
-0.16218287 -0.46480584 0.016299888
-0.16231705 -0.46469548 0.016291752
-0.16245642 -0.46458131 0.016293962
-0.1625898 -0.46447152 0.016283527
-0.16272645 -0.46435961 0.016285807
-0.16286206 -0.46424842 0.016284626
-0.16299941 -0.46413609 0.016290378
-0.16313389 -0.46402565 0.016285736
-0.16326676 -0.46391627 0.016275313
-0.16340224 -0.4638052 0.016275292
-0.16354162 -0.46369123 0.016280994
-0.16367778 -0.46357977 0.016284447
-0.16381085 -0.46347031 0.01627635
-0.16394679 -0.46335906 0.016279809
-0.16408351 -0.4632473 0.016286749
-0.16421716 -0.46313754 0.016282119
-0.16435014 -0.46302822 0.016275184
-0.16448447 -0.46291804 0.016274035
-0.16461727 -0.46280891 0.016267104
-0.16475286 -0.46269795 0.016271744
-0.16488677 -0.46258768 0.016260123
-0.1650207 -0.46247783 0.016258985
-0.1651537 -0.46236861 0.016254369
-0.16528517 -0.46226037 0.016243983
-0.1654177 -0.46215147 0.01623822
-0.16555324 -0.46204069 0.01624519
-0.16568775 -0.46193013 0.016238216
-0.16581807 -0.46182269 0.01622436
-0.16595189 -0.46171305 0.016225554
-0.16608728 -0.46160242 0.016233688
-0.16621266 -0.46149814 0.016200177
-0.16633885 -0.46139336 0.016170137
-0.1664737 -0.46128315 0.016177125
-0.16661008 -0.46117198 0.016191045
-0.16674446 -0.46106163 0.016186405
-0.16687521 -0.46095401 0.016177196
-0.16700804 -0.46084514 0.016177246
-0.16714026 -0.46073666 0.016174993
-0.16727184 -0.4606286 0.016170414
-0.16740228 -0.46052128 0.016161215
-0.16753694 -0.46041083 0.016160058
-0.16766852 -0.46030283 0.016156649
-0.1677977 -0.46019632 0.016142834
-0.1679312 -0.46008715 0.016148686
-0.16806203 -0.45997965 0.016142968
-0.16819228 -0.45987254 0.016134944
-0.16832194 -0.45976579 0.016124595
-0.16845228 -0.45965862 0.016117729
-0.16858558 -0.4595497 0.016124755
-0.16871703 -0.4594419 0.016123673
-0.1688493 -0.45933309 0.016115595
-0.1689786 -0.45922667 0.016105268
-0.16911104 -0.45911831 0.016109977
-0.16924092 -0.45901152 0.016103122
-0.16937122 -0.45890453 0.016098589
