# .PCD v0.7 - Point Cloud Data file format
VERSION 0.7
FIELDS x y z
SIZE 4 4 4
TYPE F F F
COUNT 1 1 1
WIDTH 121
HEIGHT 1
VIEWPOINT 0 0 0 1 0 0 0
POINTS 121
DATA ascii
-0.12723848 -0.41513336 0.016979605
-0.12739134 -0.41500777 0.016973276
-0.12754311 -0.41488349 0.016976286
-0.1276962 -0.4147571 0.016957149
-0.12784627 -0.41463384 0.016952064
-0.12801084 -0.41449887 0.016950082
-0.12951231 -0.41341287 0.020000912
-0.1296654 -0.41328895 0.020034133
-0.12982187 -0.4131625 0.020071927
-0.12996754 -0.41304201 0.020049503
-0.13009749 -0.41293535 0.020046102
-0.13021807 -0.41283602 0.020035962
-0.13037661 -0.4127093 0.020103956
-0.1305576 -0.41255847 0.020051518
-0.13071267 -0.41243219 0.020069567
-0.13083261 -0.41233331 0.020057123
-0.13094854 -0.4122358 0.020005219
-0.13113643 -0.41208509 0.02007477
-0.13128434 -0.41196281 0.020052278
-0.13140178 -0.41186604 0.020042229
-0.13154659 -0.41174465 0.019984925
-0.13170913 -0.41161692 0.02010167
-0.1319056 -0.41145802 0.020146554
-0.13206893 -0.4113293 0.020255139
-0.13220581 -0.41121373 0.020184077
-0.1323462 -0.41109708 0.020151321
-0.1325001 -0.41097263 0.020186849
-0.13263786 -0.41085738 0.020137869
-0.13275543 -0.41076237 0.020166213
-0.13293919 -0.41061276 0.020188164
-0.13311122 -0.41047916 0.020344218
-0.13324466 -0.41036621 0.020268586
-0.13336076 -0.41027123 0.020272534
-0.1335004 -0.41015255 0.020183949
-0.13366497 -0.41001537 0.020135431
-0.1337973 -0.40990457 0.0200866
-0.13391918 -0.40980673 0.020129945
-0.13412108 -0.40964839 0.020280562
-0.13425514 -0.40953419 0.020189801
-0.13439775 -0.40941662 0.020175599
-0.13454184 -0.40929744 0.020153215
-0.13468654 -0.40917888 0.020154079
-0.13483402 -0.40905809 0.020156043
-0.13498154 -0.4089382 0.020177776
-0.13512702 -0.40881932 0.020185601
-0.13527371 -0.4086999 0.020202707
-0.13541433 -0.40858245 0.020157142
-0.13555978 -0.40846366 0.020166138
-0.13571033 -0.40834156 0.020193614
-0.13586248 -0.4082197 0.020253623
-0.13598719 -0.40811065 0.020109579
-0.13611381 -0.40800062 0.019978296
-0.13626544 -0.40787807 0.020015046
-0.13642305 -0.40775383 0.020119118
-0.13655557 -0.40764007 0.020010944
-0.13669454 -0.40752432 0.019972403
-0.13683398 -0.40740737 0.019916408
-0.13698092 -0.40728807 0.019940486
-0.1371381 -0.40716428 0.020046901
-0.13728534 -0.40704495 0.020075623
-0.13742582 -0.40692759 0.0200289
-0.13758683 -0.40680236 0.020171281
-0.13771339 -0.40670034 0.020207522
-0.13786778 -0.40657294 0.020189522
-0.13801128 -0.40645751 0.020235805
-0.13816552 -0.40633231 0.020262014
-0.13830814 -0.40621093 0.02016753
-0.13840465 -0.40612254 0.019971883
-0.13853541 -0.40601239 0.019909121
-0.1386988 -0.40587357 0.019805957
-0.13880461 -0.40578333 0.019732213
-0.13891977 -0.40568599 0.019669868
-0.13910216 -0.40555418 0.020043213
-0.13925575 -0.40542942 0.020067118
-0.13943444 -0.40528125 0.020031035
-0.1395835 -0.40515712 0.0199899
-0.13972315 -0.40504119 0.019959491
-0.13986388 -0.40492606 0.01996395
-0.14001429 -0.40480378 0.019985618
-0.14033797 -0.40455607 0.020356426
-0.14093231 -0.40409863 0.020983106
-0.1410712 -0.4039835 0.020956196
-0.14130439 -0.40376645 0.020410255
-0.14143398 -0.40365797 0.020362657
-0.14168864 -0.40343428 0.020047687
-0.14181881 -0.40332136 0.019916302
-0.14194931 -0.4032082 0.019786069
-0.14208643 -0.40309161 0.019697549
-0.14224517 -0.4029631 0.019731794
-0.1424149 -0.40283018 0.019862313
-0.14256723 -0.40270793 0.019917658
-0.14271322 -0.40258893 0.01993129
-0.14283471 -0.40248957 0.01993626
-0.14296824 -0.40238124 0.019959528
-0.14311457 -0.40226525 0.020042961
-0.14325278 -0.40214676 0.01993347
-0.14339784 -0.40202501 0.019873828
-0.14353617 -0.40191412 0.019926054
-0.14368212 -0.40179691 0.019976914
-0.14384593 -0.40166318 0.019988922
-0.14398929 -0.40154499 0.019974699
-0.14413823 -0.4014208 0.01993008
-0.14427735 -0.40130505 0.019893862
-0.14442353 -0.40118805 0.019952867
-0.14456111 -0.40107426 0.019931814
-0.14470071 -0.40096015 0.019938633
-0.14484552 -0.40084177 0.019945316
-0.14497019 -0.40073693 0.019889703
-0.14512515 -0.40061182 0.019929856
-0.14527541 -0.40048918 0.019941047
-0.1454234 -0.40036869 0.01995812
-0.14556333 -0.40025282 0.019933514
-0.14571033 -0.40013248 0.019936649
-0.14584289 -0.40002298 0.019919228
-0.14598784 -0.39990479 0.019931719
-0.14612691 -0.39979094 0.01993506
-0.1462743 -0.39967066 0.019946337
-0.14641289 -0.39955688 0.019942708
-0.14654976 -0.39944527 0.019954249
-0.14670368 -0.39931864 0.019944403
-0.14684092 -0.39920485 0.019917548
