# .PCD v0.7 - Point Cloud Data file format
VERSION 0.7
FIELDS x y z
SIZE 4 4 4
TYPE F F F
COUNT 1 1 1
WIDTH 132
HEIGHT 1
VIEWPOINT 0 0 0 1 0 0 0
POINTS 132
DATA ascii
-0.22197533 -0.41360623 0.016380353
-0.22212979 -0.41347897 0.01636707
-0.22228529 -0.4133513 0.016364243
-0.22243778 -0.41322619 0.016362641
-0.22259393 -0.41309789 0.016357467
-0.2227475 -0.41297233 0.01636631
-0.22290321 -0.41284457 0.016364638
-0.22306268 -0.41271284 0.016344234
-0.22321992 -0.41258419 0.016350664
-0.22336924 -0.41246188 0.016353805
-0.223524 -0.41233519 0.016359137
-0.22368051 -0.41220671 0.016356274
-0.22384214 -0.41207352 0.016342806
-0.22399653 -0.41194731 0.016351638
-0.22414929 -0.41182217 0.016354684
-0.22430202 -0.41169837 0.016386833
-0.22447273 -0.41155523 0.016317278
-0.22462995 -0.41142553 0.016300436
-0.22478151 -0.41130236 0.016325623
-0.22493972 -0.41117233 0.016319226
-0.22509781 -0.41104245 0.016314
-0.22525775 -0.41091067 0.016300576
-0.22541609 -0.41078055 0.016295334
-0.22556022 -0.41066456 0.016343988
-0.22571978 -0.41053325 0.016334064
-0.22587897 -0.41040236 0.01632648
-0.22603814 -0.4102709 0.016306095
-0.226197 -0.41014099 0.016314812
-0.22635406 -0.41001239 0.016318915
-0.22651085 -0.40988347 0.016311392
-0.22666687 -0.40975598 0.016321344
-0.22682971 -0.40962148 0.016300865
-0.22698647 -0.40949327 0.016308464
-0.22714065 -0.40936711 0.016314972
-0.22729816 -0.40923819 0.016320232
-0.22745526 -0.40910968 0.016327826
-0.22762176 -0.40897164 0.01629445
-0.22777292 -0.40884805 0.016303364
-0.22793174 -0.40871787 0.016305093
-0.22809094 -0.40858734 0.016305648
-0.22825894 -0.40844849 0.016281545
-0.22841409 -0.40832153 0.016288027
-0.2285718 -0.40819257 0.016296774
-0.22873263 -0.40806049 0.016292639
-0.22889389 -0.40792799 0.016287323
-0.22905919 -0.40779147 0.016265618
-0.22921517 -0.40766436 0.01628371
-0.22937827 -0.4075301 0.016272534
-0.22953926 -0.40739799 0.016270727
-0.22969714 -0.40726846 0.016270157
-0.1486851 -0.47375491 0.017311458
-0.14884779 -0.47362098 0.01730025
-0.14901146 -0.47348639 0.017292511
-0.14918414 -0.47334573 0.017313622
-0.14934638 -0.47321218 0.017302431
-0.14951067 -0.47307724 0.017298155
-0.1496748 -0.47294244 0.017293893
-0.14983591 -0.4728097 0.0172804
-0.15001032 -0.47266757 0.017300304
-0.15017328 -0.47253364 0.017293746
-0.15032929 -0.47240439 0.01726526
-0.15050194 -0.47226396 0.017291022
-0.15066727 -0.47212848 0.017293712
-0.15083668 -0.47199029 0.017310247
-0.15100203 -0.47185487 0.017314095
-0.15114689 -0.47173321 0.017251004
-0.15131107 -0.47159904 0.017261863
-0.15148456 -0.47145778 0.017284114
-0.15164343 -0.47132677 0.01726836
-0.15180723 -0.47119203 0.017259445
-0.15197033 -0.47105825 0.017258702
-0.15212819 -0.47092843 0.017251112
-0.15229501 -0.47079176 0.017253753
-0.15245703 -0.4706592 0.017261177
-0.15261815 -0.47052681 0.017255835
-0.1527805 -0.47039366 0.017255109
-0.15294135 -0.47026151 0.017249763
-0.1531104 -0.47012344 0.017262828
-0.15327296 -0.46999019 0.017264418
-0.15343039 -0.46986037 0.017248698
-0.15359201 -0.46972778 0.017247992
-0.15375447 -0.46959469 0.017250745
-0.1539214 -0.46945864 0.017269686
-0.15408224 -0.46932665 0.017267831
-0.15424 -0.46919671 0.017255591
-0.15440387 -0.46906227 0.017254828
-0.15456659 -0.46892914 0.017261066
-0.15472822 -0.46879622 0.017253378
-0.15488286 -0.46866888 0.017242381
-0.15504515 -0.46853608 0.017248638
-0.15520185 -0.46840695 0.017235257
-0.15536468 -0.46827286 0.017222879
-0.15553948 -0.46813193 0.017276512
-0.15569286 -0.46800554 0.017263228
-0.15584596 -0.46787888 0.017238308
-0.15600626 -0.467747 0.017229486
-0.15616848 -0.46761438 0.017239235
-0.15632622 -0.46748474 0.017232809
-0.15648508 -0.46735439 0.017231014
-0.15664488 -0.46722293 0.017222203
-0.1568041 -0.46709237 0.017222721
-0.15697481 -0.46695337 0.017245054
-0.15713434 -0.46682265 0.017247884
-0.15727806 -0.46670222 0.017190631
-0.15743837 -0.46657154 0.017208582
-0.15760437 -0.46643624 0.017226368
-0.15776011 -0.46630806 0.017216511
-0.15791813 -0.46617842 0.017215898
-0.15807721 -0.46604815 0.017219909
-0.15823759 -0.46591651 0.017218065
-0.15840051 -0.46578383 0.01723827
-0.15855449 -0.46565688 0.017223798
-0.15871161 -0.46552795 0.017222039
-0.15887438 -0.46539491 0.017231775
-0.1590298 -0.46526709 0.017224248
-0.15918711 -0.46513811 0.017224815
-0.15934402 -0.46500939 0.017224232
-0.15950398 -0.46487823 0.017224729
-0.15965952 -0.46475044 0.017219529
-0.15982002 -0.46461952 0.017235134
-0.15997532 -0.46449193 0.017229941
-0.16013424 -0.46436152 0.017228136
-0.1602871 -0.46423548 0.017213695
-0.16044387 -0.46410647 0.017203802
-0.16061087 -0.46397159 0.017249495
-0.16075985 -0.46384805 0.017220031
-0.16091751 -0.4637191 0.01722757
-0.16107124 -0.46359265 0.017218927
-0.16122839 -0.46346405 0.017225318
-0.16138433 -0.46333623 0.01722708
-0.16154034 -0.46320784 0.017217206
-0.16169579 -0.46308038 0.01721783
