# .PCD v0.7 - Point Cloud Data file format
VERSION 0.7
FIELDS x y z
SIZE 4 4 4
TYPE F F F
COUNT 1 1 1
WIDTH 111
HEIGHT 1
VIEWPOINT 0 0 0 1 0 0 0
POINTS 111
DATA ascii
-0.17873891 -0.41824111 0.019577891
-0.17892174 -0.41810247 0.01981529
-0.17903742 -0.41802225 0.020124281
-0.17920248 -0.41787913 0.019957036
-0.17932606 -0.41777915 0.019984102
-0.17948236 -0.4176386 0.019719299
-0.179634 -0.4175106 0.019639714
-0.17975719 -0.41742119 0.01988448
-0.17990901 -0.41728482 0.019630276
-0.18003866 -0.41717821 0.019622261
-0.18018211 -0.4170658 0.019731462
-0.18033011 -0.41693783 0.019589113
-0.18048017 -0.4168103 0.019492095
-0.18061492 -0.41670641 0.019630637
-0.18075785 -0.41658908 0.019625768
-0.1809043 -0.41647252 0.019698817
-0.1810495 -0.41634881 0.019598436
-0.1811918 -0.41623834 0.019728633
-0.18134338 -0.4161078 0.01959433
-0.18150993 -0.41597176 0.01960283
-0.18165913 -0.41584796 0.019569863
-0.18180765 -0.41572589 0.019562528
-0.18194979 -0.41561085 0.019592613
-0.18208939 -0.41549766 0.019618105
-0.18224367 -0.41537029 0.01959781
-0.18238874 -0.41524118 0.019379864
-0.1825376 -0.41512251 0.019450512
-0.18267331 -0.41501784 0.019589029
-0.18282768 -0.41489056 0.01957223
-0.18296172 -0.41477892 0.019533837
-0.18308966 -0.41467664 0.019587565
-0.18322122 -0.41457009 0.019614436
-0.18338385 -0.41443586 0.019593921
-0.18356407 -0.41428545 0.019535717
-0.18370426 -0.41417119 0.019548381
-0.18384622 -0.41405639 0.019580802
-0.18398874 -0.41394055 0.019600395
-0.18413799 -0.41381767 0.019588381
-0.1842887 -0.41369489 0.019603113
-0.18443644 -0.41357222 0.019569024
-0.18457885 -0.41345403 0.019537404
-0.18471566 -0.41334331 0.019566458
-0.18486463 -0.41322115 0.019564932
-0.18501873 -0.41309503 0.019567925
-0.18516201 -0.41297796 0.019574696
-0.18530677 -0.4128584 0.019554658
-0.18545577 -0.41273636 0.019555461
-0.18559648 -0.41262138 0.019562291
-0.18574461 -0.4125008 0.019579418
-0.1858917 -0.41237977 0.019568631
-0.18603706 -0.41226158 0.01958815
-0.18618235 -0.41214141 0.019564599
-0.18632953 -0.41202036 0.019554969
-0.18647671 -0.41189939 0.019546509
-0.18662363 -0.41177881 0.019542705
-0.18676719 -0.41166157 0.019550631
-0.18690999 -0.41154355 0.019529482
-0.18702716 -0.41144395 0.019453112
-0.18716012 -0.41133732 0.019502059
-0.18731506 -0.41120666 0.019423546
-0.1874834 -0.41107059 0.019463424
-0.18761453 -0.41095948 0.01938553
-0.18775137 -0.41085064 0.019455329
-0.1879144 -0.41071367 0.019383589
-0.18806274 -0.41059315 0.019405361
-0.18819647 -0.41048199 0.019371636
-0.18833926 -0.41036448 0.01936096
-0.18851446 -0.41023019 0.019557822
-0.18866883 -0.41010264 0.019535203
-0.1888158 -0.40998083 0.019505784
-0.18896268 -0.40986079 0.019512463
-0.18908253 -0.40975994 0.019455817
-0.18920748 -0.40965974 0.01950264
-0.18938106 -0.40951794 0.019512117
-0.18953308 -0.40938789 0.019395266
-0.18968301 -0.40926832 0.019464724
-0.18983814 -0.40914306 0.019503785
-0.18996036 -0.40904364 0.019519247
-0.1901181 -0.40891337 0.019497709
-0.19027376 -0.40878597 0.01950066
-0.19039422 -0.40868753 0.019506857
-0.19054341 -0.4085702 0.019611258
-0.19107483 -0.40824568 0.021967612
-0.19122504 -0.40812173 0.021948593
-0.19136429 -0.40801075 0.02201484
-0.19253185 -0.40704945 0.021917118
-0.19268404 -0.40692335 0.021887565
-0.19283661 -0.40679568 0.021831237
-0.19297989 -0.40667856 0.021836841
-0.19311549 -0.4065721 0.021935776
-0.19326662 -0.40644524 0.021871336
-0.19549622 -0.40436235 0.0164332
-0.19564551 -0.40424147 0.016464259
-0.19580524 -0.40410814 0.016412396
-0.19595568 -0.4039849 0.016413163
-0.19610366 -0.40386462 0.016433775
-0.19625869 -0.40373701 0.016421622
-0.19640875 -0.40361434 0.016427048
-0.19656335 -0.40348729 0.016419556
-0.19671291 -0.40336522 0.016429657
-0.19686644 -0.40323952 0.016431512
-0.19702034 -0.40311339 0.016431019
-0.19717559 -0.40298572 0.01642118
-0.1973251 -0.4028638 0.016433612
-0.19748005 -0.40273651 0.016427279
-0.19763227 -0.40261149 0.016421009
-0.19778988 -0.40248215 0.01641693
-0.1979354 -0.40236494 0.016459728
-0.19808982 -0.40223745 0.016439438
-0.19824687 -0.40210792 0.016421411
-0.19839916 -0.40198389 0.01643726
