# .PCD v0.7 - Point Cloud Data file format
VERSION 0.7
FIELDS x y z
SIZE 4 4 4
TYPE F F F
COUNT 1 1 1
WIDTH 121
HEIGHT 1
VIEWPOINT 0 0 0 1 0 0 0
POINTS 121
DATA ascii
-0.14097291 -0.35742766 0.035868496
-0.14109354 -0.35733101 0.035916593
-0.14121783 -0.35722855 0.03590405
-0.14134647 -0.35712275 0.035896048
-0.1414656 -0.35702667 0.035930209
-0.14159231 -0.35692224 0.035917595
-0.14172122 -0.35681608 0.035907265
-0.1418418 -0.3567178 0.035919264
-0.1419712 -0.35661101 0.0359031
-0.14209582 -0.35650828 0.035890549
-0.14222035 -0.35640723 0.035912931
-0.14234422 -0.35630566 0.035912033
-0.14247103 -0.35620132 0.035902925
-0.14259465 -0.35609871 0.035875261
-0.14272267 -0.35599411 0.035882417
-0.1428462 -0.35589314 0.035888519
-0.14297171 -0.35579076 0.035899229
-0.14309482 -0.35569039 0.035911161
-0.143222 -0.35558569 0.035900876
-0.14334628 -0.35548371 0.035898808
-0.14347267 -0.35537887 0.035871081
-0.14360073 -0.35527432 0.035880558
-0.14372198 -0.35517535 0.035889048
-0.14421919 -0.35471123 0.034651473
-0.14455837 -0.3545121 0.036377214
-0.14468902 -0.35440516 0.036380798
-0.14481451 -0.35430163 0.036365896
-0.14537275 -0.35376579 0.034652933
-0.14561827 -0.35361895 0.035843279
-0.14574002 -0.35352066 0.035876203
-0.14586428 -0.3534202 0.03590674
-0.1459952 -0.35331231 0.035894025
-0.14612283 -0.35320762 0.035891868
-0.14625037 -0.35310301 0.035890885
-0.14637259 -0.35300311 0.035897024
-0.14650023 -0.35289946 0.03591815
-0.14663224 -0.35278934 0.035876311
-0.14676084 -0.35268453 0.035889264
-0.14688607 -0.35258195 0.035890672
-0.14701796 -0.35247406 0.035895396
-0.14957865 -0.34948501 0.016417077
-0.149721 -0.34936866 0.016423849
-0.14986895 -0.34924763 0.016429324
-0.15001573 -0.34912699 0.016422018
-0.15016434 -0.34900522 0.016422808
-0.15031357 -0.34888273 0.016418938
-0.15046203 -0.34876117 0.016422059
-0.15060814 -0.34864146 0.016422924
-0.15075743 -0.34851897 0.016420212
-0.15090352 -0.34839931 0.016422234
-0.15105355 -0.34827602 0.016414845
-0.15120006 -0.34815592 0.016414527
-0.15134937 -0.34803352 0.016414147
-0.15149292 -0.34791696 0.01643835
-0.15164353 -0.34779307 0.016428623
-0.15179333 -0.34767014 0.016425891
-0.15194337 -0.34754699 0.016422
-0.15209061 -0.34742621 0.016419332
-0.15224048 -0.34730327 0.016417768
-0.15238756 -0.34718269 0.016417446
-0.15253854 -0.34705856 0.016408861
-0.1526864 -0.34693715 0.016403856
-0.15283534 -0.34681541 0.016411627
-0.15298611 -0.34669161 0.016406547
-0.15313727 -0.34656736 0.016399126
-0.15328465 -0.3464466 0.016399957
-0.15343355 -0.34632504 0.01641006
-0.15358174 -0.34620339 0.016406208
-0.15373275 -0.34607944 0.016402282
-0.15388143 -0.34595728 0.016396098
-0.15403365 -0.34583202 0.016385159
-0.15418309 -0.34571078 0.016412709
-0.15433203 -0.34558842 0.016406506
-0.15448175 -0.34546518 0.016395632
-0.15463069 -0.34534374 0.016409226
-0.1547785 -0.34522274 0.016412374
-0.15493032 -0.34509891 0.016425889
-0.15509006 -0.3449654 0.016369348
-0.15524109 -0.34484169 0.016371254
-0.15538362 -0.34472588 0.016393155
-0.15553696 -0.34459963 0.016381025
-0.15568383 -0.34447983 0.016393512
-0.15583572 -0.34435526 0.016391892
-0.15598992 -0.34422815 0.016376242
-0.15614164 -0.34410381 0.016376959
-0.15629178 -0.34398046 0.016370725
-0.15644388 -0.3438558 0.016370272
-0.15659291 -0.34373373 0.016372219
-0.15674709 -0.3436068 0.016360071
-0.1568961 -0.34348479 0.016363177
-0.15704799 -0.34336042 0.016366221
-0.15719815 -0.34323722 0.016363477
-0.1573512 -0.34311166 0.01636067
-0.15750214 -0.34298766 0.016354425
-0.1576536 -0.34286386 0.016362131
-0.15780735 -0.34273762 0.016356973
-0.15796 -0.34261259 0.016358826
-0.15811338 -0.34248605 0.016340867
-0.15826541 -0.34236172 0.016347397
-0.15841493 -0.34223941 0.01635283
-0.15856755 -0.34211451 0.016357014
-0.15872014 -0.34198895 0.016346067
-0.15887526 -0.3418614 0.016337372
-0.1590309 -0.34173334 0.016326346
-0.15918159 -0.34161058 0.016343381
-0.15932675 -0.34149238 0.016360573
-0.15948506 -0.34136155 0.016336665
-0.15963748 -0.34123632 0.01633038
-0.1597909 -0.34111077 0.016334545
-0.1599431 -0.34098652 0.016345721
-0.16009629 -0.34086058 0.016337087
-0.16025308 -0.3407315 0.016324859
-0.16040409 -0.34060791 0.016329085
-0.16055191 -0.34048706 0.016335726
-0.16070591 -0.340361 0.016339872
-0.16085202 -0.34024268 0.016371001
-0.16101651 -0.34010628 0.01633646
-0.16118123 -0.33996835 0.016272817
-0.16132578 -0.33985174 0.016313296
-0.1614759 -0.33972925 0.016325697
-0.16163495 -0.33959806 0.016307589
