# .PCD v0.7 - Point Cloud Data file format
VERSION 0.7
FIELDS x y z
SIZE 4 4 4
TYPE F F F
COUNT 1 1 1
WIDTH 125
HEIGHT 1
VIEWPOINT 0 0 0 1 0 0 0
POINTS 125
DATA ascii
-0.13711499 -0.36885327 0.035510045
-0.13723607 -0.36875355 0.035499915
-0.13736401 -0.36864889 0.035504747
-0.13749436 -0.36853987 0.035458311
-0.13794731 -0.36745599 0.020106437
-0.13808179 -0.36734053 0.01999473
-0.13822001 -0.36723226 0.02010286
-0.13835867 -0.36712018 0.020136498
-0.13850129 -0.36701021 0.0202864
-0.13866356 -0.36687553 0.020250767
-0.13880815 -0.36675456 0.020198146
-0.13895522 -0.36663225 0.020160591
-0.13909958 -0.36651298 0.020140551
-0.1392411 -0.36639708 0.020142697
-0.13938026 -0.36628243 0.020130944
-0.13951357 -0.36617467 0.020163562
-0.13964745 -0.36606482 0.020161256
-0.13979122 -0.36594793 0.020181959
-0.13992319 -0.36583814 0.020147121
-0.14004326 -0.36574182 0.020192875
-0.14017898 -0.36562663 0.020107901
-0.14032087 -0.36550993 0.020099565
-0.14046365 -0.36539084 0.020055134
-0.1406011 -0.36528143 0.020126048
-0.14074287 -0.36516052 0.020024622
-0.14088702 -0.36504281 0.020034852
-0.14102624 -0.36492878 0.020037059
-0.14116606 -0.36481753 0.020109061
-0.14131041 -0.3646993 0.020111134
-0.14144397 -0.36459452 0.020212404
-0.14163631 -0.36443081 0.020082902
-0.14161624 -0.36515334 0.035294384
-0.1417298 -0.36506477 0.03539151
-0.14185174 -0.36496732 0.035445366
-0.14197227 -0.36486983 0.035473656
-0.14209481 -0.36477101 0.035508875
-0.14222053 -0.36466849 0.035520747
-0.14234954 -0.36456221 0.035509251
-0.14247324 -0.36446109 0.035515353
-0.14259982 -0.36435699 0.035508581
-0.14272393 -0.36425519 0.035506524
-0.14285037 -0.36415142 0.035504404
-0.14297645 -0.36404836 0.035510447
-0.14310238 -0.36394557 0.03551998
-0.14322934 -0.36384097 0.035508536
-0.14335218 -0.36374146 0.035534449
-0.1434788 -0.36363751 0.035531163
-0.14360368 -0.36353451 0.035517454
-0.14372925 -0.36343038 0.035492085
-0.14385462 -0.36332867 0.035514437
-0.14398035 -0.36322436 0.035487901
-0.14410514 -0.36312172 0.035480008
-0.14423233 -0.36301702 0.035470888
-0.14436282 -0.36291069 0.035484962
-0.14448352 -0.36281285 0.035508588
-0.14460628 -0.36271176 0.035498425
-0.14473166 -0.36260828 0.035483543
-0.14486404 -0.36249906 0.035468467
-0.14498717 -0.36239916 0.035490878
-0.14511487 -0.3622939 0.035478253
-0.14523807 -0.36219227 0.035464589
-0.14536101 -0.36209267 0.035490483
-0.14548486 -0.3619917 0.035502404
-0.14561409 -0.36188585 0.035503704
-0.14573921 -0.361783 0.035498127
-0.1458652 -0.36168045 0.035513483
-0.14599295 -0.36157531 0.035504349
-0.1461146 -0.36147612 0.035516322
-0.14624099 -0.36137155 0.03549559
-0.14637262 -0.36126235 0.03546774
-0.1464958 -0.36116248 0.03549131
-0.14662148 -0.36106044 0.035512485
-0.1467482 -0.36095554 0.035490587
-0.14687584 -0.36085075 0.035487276
-0.14699797 -0.36074969 0.035466645
-0.14712691 -0.36064446 0.035477262
-0.14725627 -0.36053872 0.035483219
-0.14738342 -0.36043471 0.035488062
-0.14750838 -0.36033246 0.035491813
-0.1476364 -0.36022729 0.035487324
-0.14776042 -0.36012635 0.035502732
-0.14788406 -0.36002469 0.035496023
-0.14801279 -0.35991988 0.035511307
-0.14813894 -0.35981607 0.035503387
-0.14826411 -0.35971364 0.03550712
-0.14839493 -0.35960728 0.035525829
-0.14851463 -0.35950977 0.03553902
-0.14864385 -0.35940319 0.035525195
-0.14876948 -0.35929909 0.035500985
-0.14889854 -0.35919282 0.035490658
-0.14902784 -0.35908735 0.035502434
-0.14915228 -0.35898602 0.035516661
-0.1492788 -0.35888198 0.035509888
-0.14940727 -0.35877657 0.035507716
-0.14953591 -0.35866988 0.035481106
-0.14966494 -0.35856485 0.035497542
-0.14978877 -0.35846332 0.035496663
-0.14991365 -0.35836148 0.035508547
-0.15004386 -0.35825503 0.035514481
-0.15017411 -0.3581475 0.035498299
-0.15030345 -0.35804117 0.035491452
-0.15043211 -0.3579357 0.035491608
-0.15055872 -0.35783181 0.035489492
-0.15068802 -0.35772657 0.035505921
-0.15081175 -0.35762632 0.035530642
-0.15093717 -0.35752395 0.03554019
-0.15106711 -0.35741699 0.035530999
-0.15120517 -0.35730392 0.035533234
-0.15384525 -0.35424095 0.016170625
-0.15398411 -0.35412812 0.016192622
-0.15412569 -0.35401419 0.016237827
-0.15427595 -0.35388973 0.016210649
-0.15442921 -0.35376278 0.016182244
-0.15457399 -0.35364503 0.016201759
-0.15472299 -0.35352322 0.016209532
-0.15487032 -0.35340244 0.016209196
-0.155018 -0.35328126 0.016206531
-0.15516341 -0.3531628 0.01622254
-0.15531516 -0.35303783 0.016210467
-0.15546277 -0.35291684 0.016210124
-0.1556135 -0.35279313 0.016207378
-0.15576155 -0.35267165 0.016204704
-0.15591244 -0.35254782 0.016201956
-0.15606067 -0.3524262 0.016199267
-0.15620787 -0.35230577 0.016204765
