# .PCD v0.7 - Point Cloud Data file format
VERSION 0.7
FIELDS x y z
SIZE 4 4 4
TYPE F F F
COUNT 1 1 1
WIDTH 132
HEIGHT 1
VIEWPOINT 0 0 0 1 0 0 0
POINTS 132
DATA ascii
-0.2184974 -0.40367967 0.016459715
-0.2186603 -0.40354517 0.016438052
-0.21882127 -0.40341336 0.016439714
-0.21898282 -0.40327972 0.016412275
-0.21913777 -0.40315357 0.016429216
-0.21930015 -0.40302038 0.01642618
-0.21946241 -0.40288734 0.016424317
-0.21962106 -0.40275744 0.016426038
-0.21978348 -0.40262368 0.01641137
-0.2199437 -0.4024922 0.016407229
-0.22010466 -0.40236062 0.016413543
-0.22026595 -0.40222812 0.016405884
-0.22042978 -0.40209305 0.016387697
-0.22058734 -0.4019644 0.016397588
-0.22075124 -0.40182993 0.016393354
-0.22090471 -0.40170491 0.016409172
-0.22107132 -0.40156829 0.016407186
-0.22123481 -0.40143371 0.01639366
-0.22139299 -0.40130457 0.016403535
-0.22155625 -0.40117028 0.016392335
-0.22172016 -0.40103596 0.01639159
-0.22187927 -0.40090594 0.016399123
-0.2220455 -0.40076873 0.016377375
-0.22220433 -0.40063906 0.016387232
-0.22236682 -0.40050626 0.016394664
-0.22252816 -0.40037408 0.016395157
-0.14100689 -0.46721444 0.017400509
-0.14117315 -0.46707812 0.017398544
-0.14134146 -0.46694046 0.017403506
-0.14150885 -0.46680343 0.017406169
-0.14167473 -0.466667 0.017394904
-0.14183888 -0.4665322 0.017388342
-0.14201611 -0.46638817 0.017414026
-0.14218317 -0.46625146 0.017417861
-0.14234248 -0.46612 0.017397452
-0.14250708 -0.465985 0.017394369
-0.14266631 -0.46585315 0.01736466
-0.14283812 -0.46571335 0.017385826
-0.14301829 -0.46556798 0.017434709
-0.14317299 -0.46543971 0.017401626
-0.14333664 -0.465305 0.017388096
-0.14349961 -0.46517122 0.017382724
-0.14366782 -0.46503443 0.017405141
-0.14382872 -0.46490207 0.017394014
-0.14399727 -0.46476373 0.017388498
-0.14416172 -0.46462908 0.017390069
-0.14433189 -0.46449062 0.017411288
-0.14448014 -0.46436676 0.017359748
-0.14464717 -0.46423 0.017361253
-0.14481035 -0.46409625 0.017360538
-0.14497569 -0.46396065 0.017357426
-0.14514095 -0.46382558 0.017364807
-0.1453097 -0.46368775 0.017374409
-0.14547062 -0.46355608 0.017378401
-0.14562801 -0.46342632 0.017360372
-0.14579462 -0.46328998 0.01736423
-0.14595875 -0.46315578 0.017370459
-0.14612339 -0.46302128 0.017379018
-0.1462872 -0.46288684 0.017374784
-0.14644858 -0.46275407 0.017362474
-0.14661475 -0.46261814 0.017367501
-0.14677714 -0.46248522 0.017370287
-0.14693382 -0.46235654 0.017363917
-0.14709301 -0.46222576 0.017356323
-0.14725538 -0.46209243 0.017349798
-0.14741881 -0.46195891 0.017358387
-0.14758545 -0.46182236 0.017357571
-0.14773968 -0.4616949 0.017333813
-0.14791673 -0.46155208 0.017382775
-0.14806585 -0.46142849 0.017352158
-0.14823413 -0.46129096 0.017359452
-0.14838965 -0.46116322 0.017353114
-0.14855063 -0.46103096 0.017345462
-0.14870948 -0.46090063 0.017341368
-0.14887302 -0.46076676 0.017344134
-0.14903547 -0.46063364 0.017343428
-0.14919625 -0.46050161 0.017336953
-0.14935613 -0.46037069 0.017338641
-0.14951636 -0.46023905 0.017331021
-0.14967749 -0.46010739 0.017338499
-0.14983656 -0.45997652 0.017327409
-0.14999531 -0.45984644 0.017326806
-0.15015507 -0.45971519 0.017319188
-0.15031266 -0.45958588 0.017315125
-0.15048668 -0.459445 0.017352525
-0.15063986 -0.45931855 0.017332286
-0.15079089 -0.45919299 0.017292306
-0.15095538 -0.45905989 0.017328791
-0.15111294 -0.45893016 0.017315421
-0.15127391 -0.45879886 0.017327553
-0.15143269 -0.45866841 0.01731997
-0.15158819 -0.45854059 0.017311301
-0.15174791 -0.45840961 0.017308343
-0.15190634 -0.45827997 0.017312402
-0.15206525 -0.45814952 0.017307134
-0.15222292 -0.45801988 0.017297242
-0.15237927 -0.45789164 0.01729437
-0.15253478 -0.4577634 0.017276399
-0.15269755 -0.45763007 0.017276853
-0.15286265 -0.45749694 0.017323796
-0.15301561 -0.45737037 0.017296571
-0.15316591 -0.45724604 0.017270584
-0.1533245 -0.45711595 0.017267656
-0.15348202 -0.45698714 0.017272897
-0.153642 -0.45685625 0.017276915
-0.15379412 -0.45673081 0.01726019
-0.15395147 -0.45660162 0.017253794
-0.15410504 -0.45647532 0.017244015
-0.15426272 -0.45634595 0.017239951
-0.15442003 -0.45621681 0.017234728
-0.15457778 -0.45608744 0.017231822
-0.15473096 -0.45596147 0.017222043
-0.15488929 -0.4558318 0.017222611
-0.15504567 -0.45570388 0.017227892
-0.15520272 -0.45557502 0.017223835
-0.15535605 -0.45544904 0.017216392
-0.15551265 -0.45532051 0.017211184
-0.15566707 -0.45519391 0.017209524
-0.15582448 -0.45506489 0.017208949
-0.15598078 -0.45493659 0.017203759
-0.1561375 -0.45480806 0.01720088
-0.15629075 -0.45468226 0.017195759
-0.15644777 -0.45455357 0.017195193
-0.15660185 -0.45442733 0.017194713
-0.15676357 -0.45429584 0.017217297
-0.15691228 -0.45417163 0.017165747
-0.15706536 -0.45404604 0.017161803
-0.15722342 -0.45391744 0.017182162
-0.1573808 -0.4537887 0.017186247
-0.1575311 -0.45366418 0.017156769
-0.15769184 -0.45353284 0.017164256
-0.15784565 -0.45340756 0.017180067
