# .PCD v0.7 - Point Cloud Data file format
VERSION 0.7
FIELDS x y z
SIZE 4 4 4
TYPE F F F
COUNT 1 1 1
WIDTH 132
HEIGHT 1
VIEWPOINT 0 0 0 1 0 0 0
POINTS 132
DATA ascii
-0.16158569 -0.34007862 0.0168439
-0.16173881 -0.33995292 0.016838787
-0.16189179 -0.33982673 0.016820887
-0.1620435 -0.33970255 0.016823962
-0.16220078 -0.3395732 0.016814081
-0.16235651 -0.3394455 0.016812399
-0.16250643 -0.3393226 0.016812021
-0.16266029 -0.33919629 0.016806899
-0.16281132 -0.33907357 0.016829764
-0.16296411 -0.33894902 0.016844444
-0.16313218 -0.338808 0.016772622
-0.16327992 -0.33868814 0.016799074
-0.16343799 -0.3385582 0.016790342
-0.16359332 -0.33843049 0.01678168
-0.16374606 -0.3383055 0.01678589
-0.16389692 -0.33818251 0.016799459
-0.16405725 -0.33805034 0.016782526
-0.1642126 -0.33792272 0.016776197
-0.16436732 -0.33779579 0.016773371
-0.1645191 -0.33767194 0.016784586
-0.16467693 -0.33754244 0.01678168
-0.16483384 -0.33741337 0.01677065
-0.16498829 -0.3372868 0.016771324
-0.16514157 -0.33716151 0.016777847
-0.16529913 -0.33703241 0.016778441
-0.16545448 -0.336905 0.01677677
-0.16561468 -0.33677328 0.016766824
-0.16577083 -0.33664513 0.016762791
-0.16592363 -0.3365204 0.01677398
-0.16608164 -0.33639041 0.016762929
-0.16624269 -0.3362579 0.0167518
-0.16639613 -0.33613265 0.0167618
-0.16655402 -0.33600283 0.016753083
-0.16670933 -0.33587569 0.016756054
-0.16686739 -0.33574635 0.016760126
-0.16702986 -0.335612 0.016733836
-0.16718808 -0.33548197 0.016726259
-0.16734031 -0.33535805 0.016744444
-0.16750003 -0.33522713 0.01674382
-0.16765697 -0.33509851 0.016743269
-0.16782123 -0.33496305 0.016725074
-0.088677511 -0.39986283 0.01759587
-0.088843606 -0.39972678 0.017597372
-0.08900547 -0.39959359 0.017586181
-0.089165673 -0.39946201 0.017579693
-0.089338601 -0.39932144 0.01760428
-0.089497022 -0.39919108 0.017593179
-0.089659736 -0.39905745 0.017586626
-0.089827359 -0.39892051 0.01759623
-0.08998543 -0.39879003 0.017575823
-0.090140782 -0.39866185 0.017556662
-0.09031105 -0.39852363 0.017585978
-0.090471931 -0.39839134 0.017575972
-0.090631604 -0.39825988 0.017562518
-0.090796813 -0.39812469 0.017567534
-0.090958677 -0.39799181 0.017562153
-0.091114998 -0.39786309 0.017548785
-0.091292679 -0.39771968 0.01759652
-0.091442406 -0.39759541 0.017562382
-0.091604717 -0.39746228 0.017560482
-0.091767915 -0.39732862 0.017562058
-0.091923721 -0.3971999 0.017539393
-0.092088699 -0.3970651 0.017547904
-0.092247143 -0.39693511 0.017544944
-0.092405111 -0.39680544 0.017540835
-0.092564516 -0.39667442 0.017532038
-0.092725813 -0.39654213 0.017530173
-0.092887968 -0.39640933 0.017531775
-0.093049653 -0.39627683 0.017532222
-0.093207821 -0.39614671 0.017521126
-0.093368307 -0.39601552 0.017528594
-0.093526557 -0.39588538 0.017518656
-0.093683101 -0.39575687 0.017513426
-0.093842417 -0.39562607 0.017508121
-0.094002634 -0.39549515 0.017516756
-0.094161674 -0.39536458 0.01751145
-0.094319269 -0.39523494 0.017501539
-0.094480649 -0.39510289 0.017505484
-0.094642833 -0.39497033 0.017512906
-0.094801009 -0.39484039 0.017506462
-0.094955534 -0.39471334 0.017497793
-0.095114738 -0.39458281 0.017495982
-0.095273487 -0.39445257 0.017493013
-0.095432416 -0.39432225 0.01749121
-0.095584884 -0.39419663 0.017476773
-0.095745444 -0.39406529 0.017481908
-0.095898062 -0.39393914 0.017458156
-0.096057497 -0.39380807 0.017449357
-0.096215114 -0.39367917 0.017455731
-0.096368268 -0.39355323 0.017445937
-0.096529394 -0.39342162 0.017455706
-0.096689448 -0.39329073 0.017462015
-0.09684559 -0.39316291 0.017464936
-0.097001716 -0.39303461 0.017457385
-0.097161658 -0.39290389 0.017464867
-0.097314239 -0.39277792 0.017444605
-0.097472429 -0.39264837 0.017446311
-0.097628981 -0.39251986 0.017442239
-0.097783178 -0.39239341 0.017440559
-0.097938024 -0.39226606 0.017430712
-0.098094828 -0.3921375 0.017428964
-0.098255605 -0.3920064 0.017443405
-0.098412149 -0.39187801 0.017441653
-0.098566815 -0.39175087 0.01743298
-0.098718554 -0.39162612 0.017424382
-0.098875903 -0.39149731 0.017427271
-0.099033982 -0.39136803 0.017433632
-0.099189356 -0.39124054 0.01742959
-0.099344335 -0.39111328 0.017424399
-0.099499211 -0.39098611 0.01741921
-0.0996534 -0.39085996 0.017423341
-0.099809438 -0.39073211 0.017423943
-0.09996593 -0.39060399 0.017426854
-0.10012034 -0.39047721 0.017421678
-0.10027355 -0.39035121 0.017411873
-0.10043133 -0.39022234 0.01742173
-0.10058343 -0.39009762 0.017420106
-0.10073796 -0.38997084 0.017417256
-0.10089158 -0.38984469 0.01741093
-0.10104102 -0.38972113 0.01738726
-0.10120638 -0.3895871 0.017420195
-0.10135499 -0.38946465 0.017405858
-0.10150512 -0.38934129 0.017398462
-0.10165901 -0.38921505 0.01739563
-0.10181386 -0.38908821 0.017397424
-0.10196728 -0.3889623 0.017393433
-0.1021219 -0.38883567 0.017395234
-0.10227927 -0.38870737 0.017409753
-0.10243313 -0.38858125 0.017409241
-0.1025753 -0.38846233 0.017356675
-0.10272854 -0.38833722 0.017366651
-0.10288647 -0.38820866 0.017385818
