# .PCD v0.7 - Point Cloud Data file format
VERSION 0.7
FIELDS x y z
SIZE 4 4 4
TYPE F F F
COUNT 1 1 1
WIDTH 117
HEIGHT 1
VIEWPOINT 0 0 0 1 0 0 0
POINTS 117
DATA ascii
-0.19007023 -0.43012059 0.019435052
-0.19022518 -0.43000004 0.019576466
-0.19037004 -0.42988357 0.019626219
-0.19049776 -0.42978716 0.019807898
-0.19065487 -0.42965171 0.019660698
-0.19082703 -0.42950854 0.019614335
-0.19096249 -0.42939475 0.019553803
-0.19108959 -0.42928979 0.019535374
-0.19123189 -0.42917451 0.019565418
-0.19139883 -0.42903644 0.019537805
-0.19154787 -0.4289116 0.019478079
-0.19170405 -0.42878333 0.019471698
-0.19184549 -0.42867088 0.019548304
-0.19199415 -0.42854777 0.019520003
-0.19213897 -0.42843056 0.019552303
-0.19227405 -0.42831948 0.01954414
-0.19242506 -0.4281953 0.019534402
-0.19257346 -0.42807323 0.019524723
-0.19271356 -0.42795873 0.019531552
-0.19286132 -0.42783847 0.019549822
-0.1930043 -0.42772117 0.019547265
-0.19315556 -0.42759663 0.019534029
-0.19329329 -0.42748371 0.01953277
-0.19345841 -0.42734697 0.01950172
-0.19360703 -0.42722479 0.019493204
-0.19375189 -0.42710733 0.019520853
-0.19389175 -0.42699349 0.01953816
-0.19403286 -0.42687693 0.019518197
-0.19416094 -0.4267709 0.019493923
-0.19432704 -0.42663592 0.019519858
-0.19448102 -0.4265095 0.019514695
-0.19462897 -0.42638895 0.01952946
-0.19477494 -0.42626917 0.019526836
-0.1949138 -0.42615733 0.019569762
-0.19583522 -0.42546028 0.020850137
-0.19597763 -0.42534581 0.020898793
-0.19612342 -0.42522535 0.020877549
-0.19626546 -0.42511141 0.020932034
-0.19641605 -0.4249852 0.020869948
-0.1965583 -0.42486861 0.020869739
-0.19670419 -0.42474818 0.020850824
-0.19684948 -0.42462885 0.020844717
-0.19699377 -0.42451116 0.020857256
-0.19713919 -0.42439169 0.020849984
-0.19728538 -0.42427096 0.02082989
-0.19743016 -0.42415255 0.020835437
-0.19757719 -0.4240306 0.020803688
-0.19772492 -0.42390963 0.020805668
-0.19787076 -0.42378968 0.020796055
-0.19801666 -0.4236697 0.020786449
-0.19816129 -0.42354977 0.020755924
-0.19830936 -0.42342842 0.020755565
-0.19845232 -0.42331114 0.020753017
-0.19860189 -0.42318761 0.020731675
-0.1987492 -0.42306569 0.020705741
-0.19889741 -0.42294428 0.020706538
-0.19903778 -0.42282924 0.020706378
-0.1991854 -0.42270702 0.020679276
-0.19933581 -0.42258084 0.020614855
-0.19985986 -0.42209938 0.01946795
-0.20004366 -0.42195243 0.019549273
-0.20019531 -0.42182866 0.019560453
-0.200341 -0.42171013 0.019579938
-0.20049188 -0.42158443 0.019534128
-0.20064047 -0.42146194 0.019518632
-0.20078512 -0.42134494 0.019552108
-0.20093207 -0.42122474 0.019557595
-0.20108072 -0.42110229 0.01954326
-0.20122766 -0.42098215 0.01954991
-0.20137566 -0.42086065 0.019544901
-0.20152369 -0.42073908 0.019539881
-0.20167026 -0.42061955 0.019552363
-0.2018178 -0.42049873 0.019554347
-0.20196488 -0.42037717 0.019531909
-0.20211455 -0.4202536 0.019511724
-0.20226087 -0.42013445 0.019528862
-0.20240733 -0.42001519 0.01954484
-0.20255347 -0.4198963 0.019564312
-0.20270485 -0.41977063 0.019528961
-0.20285928 -0.41964108 0.019463275
-0.20300584 -0.41952178 0.019480407
-0.20316142 -0.41938964 0.019378625
-0.20331964 -0.41925552 0.019280264
-0.20346063 -0.41914338 0.019355722
-0.20360413 -0.41902804 0.019405518
-0.20374173 -0.41892016 0.019512478
-0.20388737 -0.41880202 0.019540107
-0.20403536 -0.41868103 0.01954557
-0.20418227 -0.41856134 0.019561522
-0.20433061 -0.41843876 0.019539053
-0.20448996 -0.4183037 0.019440662
-0.20596716 -0.41696072 0.016521342
-0.20611867 -0.41683584 0.01650577
-0.20626809 -0.41671354 0.016508866
-0.20642158 -0.41658741 0.016501386
-0.20657504 -0.41646138 0.016495064
-0.20672815 -0.41633576 0.016492251
-0.20687798 -0.41621307 0.016494177
-0.20703122 -0.41608736 0.016491354
-0.20718412 -0.41596207 0.016492039
-0.20733607 -0.41583794 0.016500879
-0.2074869 -0.41571417 0.016496956
-0.2076384 -0.41558963 0.016488366
-0.20779158 -0.41546413 0.016489044
-0.20794144 -0.41534156 0.016494449
-0.20809537 -0.41521522 0.016490456
-0.20824583 -0.41509202 0.016492354
-0.20839775 -0.41496712 0.016483754
-0.20855162 -0.41484094 0.016482081
-0.20870356 -0.41471609 0.01647464
-0.20885666 -0.41459087 0.016479973
-0.20900844 -0.41446626 0.016474864
-0.20916183 -0.41434073 0.016479015
-0.20931363 -0.41421616 0.016475068
-0.20946848 -0.41408902 0.016469881
-0.20962095 -0.41396374 0.016462427
-0.20977533 -0.41383719 0.016461903
