# .PCD v0.7 - Point Cloud Data file format
VERSION 0.7
FIELDS x y z
SIZE 4 4 4
TYPE F F F
COUNT 1 1 1
WIDTH 132
HEIGHT 1
VIEWPOINT 0 0 0 1 0 0 0
POINTS 132
DATA ascii
-0.14522527 -0.40848652 0.019825846
-0.14536604 -0.40837121 0.019828001
-0.14551546 -0.40824917 0.01983808
-0.14566004 -0.40813002 0.019825004
-0.14580671 -0.40801024 0.019835155
-0.14594701 -0.40789515 0.019833835
-0.14609241 -0.40777436 0.019800965
-0.14623562 -0.40765706 0.019803055
-0.14638305 -0.40753716 0.019823648
-0.14651425 -0.40743041 0.019841187
-0.14664891 -0.40731984 0.019837683
-0.14679497 -0.4072004 0.019844349
-0.14695556 -0.40706831 0.019835524
-0.147102 -0.40694731 0.019815417
-0.147249 -0.40682769 0.019834872
-0.14738494 -0.40671536 0.019816201
-0.14753574 -0.4065918 0.019818105
-0.14767431 -0.40647891 0.019833108
-0.14782564 -0.40635532 0.019843139
-0.14796506 -0.406239 0.019801114
-0.14811176 -0.40611964 0.019820565
-0.14824921 -0.40600705 0.01982281
-0.14838691 -0.40589273 0.019792471
-0.14854008 -0.40576893 0.019830376
-0.14867826 -0.40565452 0.019806996
-0.14881897 -0.40553975 0.019819625
-0.14894998 -0.40543357 0.019845311
-0.14909868 -0.40531054 0.019821655
-0.14924136 -0.40519187 0.019786526
-0.14939125 -0.4050687 0.019780301
-0.14949828 -0.40497434 0.01964137
-0.14963375 -0.40486392 0.019655306
-0.1498215 -0.40471435 0.019747002
-0.14997543 -0.40459099 0.01980699
-0.15010862 -0.40448293 0.01983146
-0.15025061 -0.40436634 0.019827761
-0.15038714 -0.40425408 0.019820716
-0.15053436 -0.4041332 0.019816892
-0.15068558 -0.40401018 0.019837387
-0.15082383 -0.40389577 0.019815175
-0.15096326 -0.40378138 0.019813875
-0.15111154 -0.40366063 0.019830965
-0.15125924 -0.40353984 0.01983759
-0.15140086 -0.40342334 0.019829251
-0.15154487 -0.40330464 0.019816201
-0.15169169 -0.40318379 0.019806566
-0.15182561 -0.40307379 0.019801911
-0.15196796 -0.40295741 0.019808685
-0.1521108 -0.40284115 0.019827079
-0.15225732 -0.40272027 0.01981163
-0.15240438 -0.40259951 0.019807801
-0.15255208 -0.40247896 0.019819085
-0.15269381 -0.40236253 0.019814236
-0.15283211 -0.402248 0.019789692
-0.15297206 -0.402134 0.019805832
-0.15311165 -0.40201992 0.019813839
-0.1532736 -0.40188596 0.019788686
-0.15341343 -0.40177202 0.019803656
-0.15355818 -0.40165365 0.019810369
-0.15368354 -0.40155342 0.019864125
-0.15381238 -0.40144801 0.019868914
-0.15396844 -0.40131795 0.019824132
-0.15412621 -0.40118888 0.019830491
-0.15425612 -0.40108022 0.019785227
-0.15440103 -0.40096211 0.019800076
-0.1545544 -0.40083376 0.019744882
-0.15469603 -0.4007217 0.019830797
-0.15484293 -0.40060103 0.019825811
-0.15497011 -0.40049887 0.01987021
-0.15511423 -0.40038523 0.019965371
-0.15525132 -0.40026385 0.019776795
-0.15540814 -0.4001337 0.019743625
-0.15553218 -0.4000276 0.019650796
-0.15567686 -0.39990923 0.01965634
-0.15583812 -0.39977926 0.019703344
-0.155963 -0.39967379 0.019638427
-0.1561026 -0.39956009 0.019654576
-0.15626489 -0.39943257 0.019771373
-0.15639883 -0.39931494 0.019607302
-0.1565509 -0.39918894 0.019578908
-0.15669301 -0.3990728 0.01958685
-0.15682673 -0.39896178 0.019557778
-0.15697178 -0.39884442 0.019591235
-0.15710995 -0.39872584 0.019479424
-0.15726101 -0.39860722 0.019589532
-0.15742777 -0.39847657 0.019717844
-0.15756199 -0.39836797 0.019748095
-0.15768827 -0.39826587 0.019778555
-0.1578486 -0.39813539 0.019798821
-0.15800619 -0.39800665 0.019808685
-0.15812956 -0.39790469 0.019791516
-0.15827468 -0.39779839 0.020058855
-0.15840356 -0.39770484 0.020313829
-0.15854488 -0.39759037 0.020342734
-0.15868616 -0.39747456 0.020343706
-0.15883267 -0.39735514 0.020358514
-0.15900911 -0.39718989 0.019924549
-0.15914048 -0.39708021 0.019883897
-0.15928222 -0.39696455 0.019895338
-0.15943724 -0.39683643 0.019873857
-0.15957059 -0.39673126 0.019961149
-0.15971407 -0.39660272 0.019731671
-0.15984236 -0.39650053 0.019794662
-0.1599894 -0.39638066 0.019809455
-0.16015261 -0.3962456 0.019783098
-0.16030475 -0.39612222 0.01981172
-0.16043355 -0.39601669 0.019813029
-0.1605794 -0.39589271 0.019720796
-0.16070627 -0.39578676 0.019680262
-0.16084962 -0.39567342 0.019768452
-0.16103211 -0.39552104 0.019710183
-0.1611812 -0.39540121 0.019760998
-0.16131057 -0.39529404 0.019737849
-0.16143872 -0.39519092 0.019778732
-0.161566 -0.39509031 0.019858032
-0.1617361 -0.39494705 0.019777976
-0.16186757 -0.39483407 0.01966867
-0.16200474 -0.39472127 0.019661609
-0.16217202 -0.39458668 0.019715436
-0.16232197 -0.39446411 0.019723173
-0.16246854 -0.39434564 0.019758921
-0.16261445 -0.39422426 0.019722546
-0.16275257 -0.3941178 0.019865561
-0.16291425 -0.39397949 0.01974383
-0.16305515 -0.39386213 0.019705256
-0.16320455 -0.39374092 0.019732788
-0.16332552 -0.39364219 0.019742446
-0.16349232 -0.3935045 0.019722976
-0.16363697 -0.39338651 0.0197355
-0.16376878 -0.39327857 0.019737892
-0.16390468 -0.39316541 0.019701779
-0.16404378 -0.39305562 0.019791251
