# .PCD v0.7 - Point Cloud Data file format
VERSION 0.7
FIELDS x y z
SIZE 4 4 4
TYPE F F F
COUNT 1 1 1
WIDTH 109
HEIGHT 1
VIEWPOINT 0 0 0 1 0 0 0
POINTS 109
DATA ascii
-0.16430044 -0.40443408 0.020274043
-0.16444166 -0.40431717 0.020249389
-0.16458544 -0.40420035 0.020271204
-0.16501658 -0.40385073 0.020349469
-0.16548052 -0.40346318 0.020196505
-0.16560733 -0.40335292 0.020064034
-0.16573051 -0.40325189 0.020061955
-0.16587333 -0.40312898 0.019939536
-0.16601072 -0.40301225 0.019853324
-0.16618407 -0.40287942 0.020046551
-0.16631213 -0.40277573 0.020073438
-0.1664685 -0.40265042 0.02013332
-0.16660549 -0.40253597 0.020087834
-0.16673717 -0.40242633 0.020051798
-0.16690415 -0.40229172 0.020098601
-0.16704695 -0.40217161 0.02003435
-0.16717525 -0.40206078 0.019915802
-0.16731402 -0.40195388 0.020058755
-0.16745819 -0.40183598 0.020064268
-0.1675939 -0.40172079 0.019981591
-0.16772276 -0.40162003 0.020082917
-0.1678797 -0.40150234 0.020311479
-0.1680254 -0.40137517 0.020149428
-0.16815381 -0.40127483 0.020251926
-0.16830635 -0.40114456 0.020142047
-0.16844238 -0.40102944 0.02006634
-0.16860016 -0.40089983 0.020059867
-0.168733 -0.40079668 0.020179702
-0.16887802 -0.40067297 0.02007816
-0.16901961 -0.40055731 0.02008608
-0.16917942 -0.40042695 0.020099327
-0.16930103 -0.4003334 0.020227605
-0.16944225 -0.40021148 0.020098248
-0.16960339 -0.40007836 0.020076554
-0.16978267 -0.39992762 0.01999623
-0.16990596 -0.399827 0.020005789
-0.17005703 -0.39970505 0.020044867
-0.17021079 -0.39957774 0.020017553
-0.1703428 -0.39946908 0.020008273
-0.17049894 -0.39934316 0.020050708
-0.17064321 -0.39922267 0.020003863
-0.17076881 -0.39912063 0.020022672
-0.17093153 -0.39898789 0.020035852
-0.17107466 -0.39886975 0.020018131
-0.17121866 -0.39875263 0.020037619
-0.17135862 -0.39863771 0.020032771
-0.17150335 -0.39851934 0.020038281
-0.17164786 -0.39840141 0.020048447
-0.17179208 -0.39828396 0.02006444
-0.17193547 -0.39816558 0.020046711
-0.17208132 -0.39804542 0.020033568
-0.17222477 -0.39792705 0.020016996
-0.17237082 -0.39780667 0.020002699
-0.17250976 -0.39769584 0.020066526
-0.17265937 -0.39756972 0.019992787
-0.17278321 -0.39746851 0.019998841
-0.17289987 -0.39737469 0.020036498
-0.17305183 -0.39724094 0.019844022
-0.17321073 -0.39710867 0.019801453
-0.17334701 -0.39699608 0.01978275
-0.17348 -0.39689258 0.01989793
-0.1736201 -0.3967818 0.01998267
-0.17378829 -0.39664486 0.020001519
-0.17395012 -0.39651203 0.019997269
-0.17410043 -0.39638931 0.020007282
-0.1742461 -0.39626995 0.020008106
-0.17439298 -0.39614883 0.019992616
-0.1745366 -0.39603084 0.019986521
-0.17468269 -0.39591098 0.019983843
-0.17482607 -0.39579341 0.019982407
-0.17497277 -0.39567271 0.019972732
-0.1751157 -0.39555579 0.019978289
-0.17524503 -0.39545032 0.01998885
-0.17540574 -0.39531779 0.019971829
-0.17554972 -0.39520112 0.019999459
-0.17569269 -0.39508426 0.020006174
-0.17582762 -0.39497405 0.020014269
-0.17596042 -0.39486378 0.019984014
-0.17612794 -0.39472803 0.020016842
-0.17627384 -0.39460722 0.019990906
-0.1764212 -0.39448592 0.019980054
-0.17656435 -0.39436898 0.019987933
-0.17668021 -0.39427477 0.020003499
-0.17683391 -0.39414638 0.019952927
-0.1769969 -0.39401403 0.01997889
-0.1771479 -0.3938894 0.019960962
-0.17729363 -0.39376912 0.01994317
-0.17742693 -0.39365858 0.019916404
-0.17756404 -0.39354849 0.019963998
-0.17768411 -0.39345148 0.019993413
-0.17822555 -0.39311671 0.022274662
-0.1783549 -0.39301676 0.022401569
-0.17849767 -0.39290068 0.022421092
-0.17862311 -0.39280558 0.022583004
-0.17978711 -0.39184383 0.022420956
-0.17994089 -0.39171422 0.022345947
-0.18007818 -0.39160404 0.022394698
-0.18022946 -0.39147761 0.022344187
-0.18037339 -0.39135927 0.022335745
-0.18050663 -0.39125189 0.022374129
-0.18066414 -0.39112014 0.022318805
-0.18081415 -0.39099446 0.022261348
-0.18277037 -0.38912719 0.016735958
-0.18291697 -0.38900715 0.016737916
-0.18307075 -0.38888162 0.016749
-0.18321736 -0.38876262 0.016773071
-0.18336658 -0.38863954 0.016756359
-0.18351699 -0.38851607 0.016752411
-0.18366887 -0.38839191 0.016758893
