# .PCD v0.7 - Point Cloud Data file format
VERSION 0.7
FIELDS x y z
SIZE 4 4 4
TYPE F F F
COUNT 1 1 1
WIDTH 130
HEIGHT 1
VIEWPOINT 0 0 0 1 0 0 0
POINTS 130
DATA ascii
-0.10648122 -0.40432784 0.017449751
-0.10663605 -0.40420088 0.017447986
-0.10678845 -0.4040744 0.017413702
-0.10695677 -0.40393898 0.017467439
-0.10710952 -0.40381339 0.017458739
-0.10725851 -0.40369019 0.017435012
-0.10741617 -0.403561 0.017435504
-0.10756662 -0.40343747 0.017430361
-0.10772323 -0.40330899 0.017427379
-0.10787605 -0.40318346 0.017421016
-0.10803104 -0.40305603 0.017412255
-0.10818724 -0.40292844 0.017420925
-0.10833837 -0.40280402 0.017408784
-0.10849269 -0.40267766 0.017410524
-0.10864782 -0.40255022 0.017404091
-0.10879894 -0.40242586 0.01739311
-0.10895334 -0.40229893 0.017384376
-0.10910696 -0.40217304 0.017384961
-0.10926127 -0.4020468 0.017389029
-0.10941467 -0.40192109 0.017389622
-0.10956735 -0.4017953 0.017375112
-0.10972238 -0.40166867 0.017383814
-0.10987749 -0.40154141 0.017380878
-0.1100289 -0.40141705 0.017374542
-0.11018255 -0.40129131 0.017378628
-0.1103348 -0.4011665 0.01737693
-0.1104895 -0.40103957 0.017373998
-0.11064002 -0.4009158 0.017365366
-0.11079273 -0.40079075 0.017367145
-0.11094306 -0.40066716 0.017358515
-0.11109561 -0.40054163 0.0173475
-0.11125029 -0.40041545 0.0173597
-0.11140085 -0.40029177 0.017353386
-0.11155133 -0.40016815 0.017347082
-0.11170056 -0.40004468 0.01732219
-0.11186153 -0.39991421 0.017352838
-0.1120109 -0.39979196 0.017355876
-0.112161 -0.39966866 0.017349575
-0.11231816 -0.39954054 0.01736404
-0.11246808 -0.3994174 0.017357742
-0.11260881 -0.39929968 0.017307479
-0.11276171 -0.39917481 0.017316235
-0.11291607 -0.39904845 0.017319132
-0.11306545 -0.39892569 0.017311689
-0.11321591 -0.39880231 0.017310038
-0.11336745 -0.3986783 0.01731417
-0.1135205 -0.39855215 0.017298486
-0.11739305 -0.39619315 0.034621023
-0.11752707 -0.39608383 0.034631442
-0.11765872 -0.39597589 0.034630291
-0.1177863 -0.39587089 0.034621097
-0.11792741 -0.39575756 0.034669738
-0.11806126 -0.39564902 0.034694124
-0.11819343 -0.39554086 0.034697611
-0.11832617 -0.39543182 0.034691773
-0.11845884 -0.39532343 0.034698736
-0.11859011 -0.39521584 0.034698755
-0.11872066 -0.3951087 0.034695305
-0.11885141 -0.39500085 0.034680206
-0.11898226 -0.39489356 0.034679078
-0.11911517 -0.39478514 0.034689527
-0.11924629 -0.39467773 0.034690712
-0.1193767 -0.39457077 0.034688424
-0.11950538 -0.39446476 0.03467688
-0.11963567 -0.39435789 0.034674596
-0.1197661 -0.39425096 0.034673467
-0.11990011 -0.39414141 0.034679238
-0.12003018 -0.39403468 0.034676962
-0.12015959 -0.39392838 0.03467121
-0.12028975 -0.39382166 0.034670096
-0.12042024 -0.39371479 0.034671299
-0.12055166 -0.39360741 0.034678295
-0.12068141 -0.39350098 0.034676023
-0.12081248 -0.39339384 0.034681872
-0.12094352 -0.39328608 0.034673747
-0.12107444 -0.39317906 0.034679599
-0.12120317 -0.39307326 0.034672704
-0.12133107 -0.39296791 0.03466117
-0.12146122 -0.39286137 0.034663551
-0.12159035 -0.39275536 0.034660134
-0.12172037 -0.39264894 0.034662519
-0.12184919 -0.39254317 0.03465794
-0.12197853 -0.3924371 0.034656852
-0.12210762 -0.39233121 0.034654602
-0.12223866 -0.39222363 0.034649964
-0.12236873 -0.39211726 0.034654677
-0.12249763 -0.39201149 0.034652431
-0.12262703 -0.39190552 0.03465366
-0.12275636 -0.3917996 0.0346549
-0.12288509 -0.39169401 0.034652658
-0.12301449 -0.39158809 0.034655057
-0.12315575 -0.39147466 0.034704853
-0.12328919 -0.39136526 0.034703646
-0.12341328 -0.39126131 0.034656148
-0.12352949 -0.39116514 0.034635618
-0.12365791 -0.39106053 0.034649674
-0.12378695 -0.39095491 0.034652073
-0.12391508 -0.39084977 0.034648687
-0.12404299 -0.39074472 0.034644142
-0.12417284 -0.39063874 0.034653511
-0.12429999 -0.39053413 0.034644328
-0.12443038 -0.39042792 0.034658335
-0.12455996 -0.39032134 0.034650259
-0.1246873 -0.39021668 0.034643389
-0.12481493 -0.39011189 0.034638856
-0.12494361 -0.3900066 0.034642432
-0.12507114 -0.38990188 0.034637898
-0.12519862 -0.38979718 0.034633361
-0.12532623 -0.38969246 0.034629986
-0.12545502 -0.38958719 0.03463589
-0.12558374 -0.38948199 0.034641799
-0.1257121 -0.38937697 0.034645386
-0.12583815 -0.38927302 0.03463158
-0.12596625 -0.38916814 0.034634002
-0.12609698 -0.38906127 0.034638699
-0.1262241 -0.38895687 0.034634165
-0.12635046 -0.38885283 0.034623843
-0.12647881 -0.38874793 0.034629762
-0.12660539 -0.38864383 0.034621753
-0.12673321 -0.3885392 0.034624193
-0.12686114 -0.38843453 0.034627791
-0.12698886 -0.38832998 0.034630235
-0.12711556 -0.38822588 0.034624554
-0.12724361 -0.38812122 0.034630477
-0.12737136 -0.38801578 0.034614298
-0.12749878 -0.38791141 0.03461558
-0.12762521 -0.38780749 0.034608744
-0.12775189 -0.38770348 0.034604236
-0.12787892 -0.38759932 0.034603208
-0.12800604 -0.38749516 0.034603335
