# .PCD v0.7 - Point Cloud Data file format
VERSION 0.7
FIELDS x y z
SIZE 4 4 4
TYPE F F F
COUNT 1 1 1
WIDTH 132
HEIGHT 1
VIEWPOINT 0 0 0 1 0 0 0
POINTS 132
DATA ascii
-0.2197818 -0.41709703 0.015307501
-0.21991988 -0.41698381 0.015306258
-0.22006196 -0.41686696 0.015297918
-0.22020285 -0.41675144 0.015296601
-0.22034776 -0.41663226 0.015288197
-0.22048505 -0.4165206 0.015306758
-0.22062914 -0.41640174 0.015290225
-0.22076757 -0.41628829 0.015290142
-0.22090803 -0.41617331 0.015293486
-0.22104767 -0.41605923 0.015301514
-0.22118624 -0.41594627 0.01531539
-0.22132766 -0.41583034 0.01531522
-0.22146964 -0.41571388 0.015312714
-0.22161315 -0.41559583 0.015303178
-0.2217544 -0.41548014 0.015305341
-0.22189385 -0.41536579 0.015304063
-0.22203793 -0.41524723 0.01529335
-0.2221783 -0.41513252 0.015301358
-0.2223219 -0.41501451 0.01529415
-0.22246559 -0.41489699 0.015299741
-0.22260843 -0.41477978 0.015297203
-0.22275043 -0.41466352 0.015299358
-0.2228986 -0.41454142 0.015285039
-0.22303617 -0.41442919 0.015296611
-0.22317946 -0.41431165 0.015294071
-0.22332452 -0.41419283 0.015296136
-0.22346602 -0.41407716 0.015302954
-0.22361217 -0.41395673 0.015288688
-0.22375566 -0.41383907 0.015287303
-0.22389825 -0.41372234 0.015290603
-0.22404197 -0.4136045 0.015289213
-0.22418718 -0.41348565 0.015293604
-0.22433206 -0.41336611 0.01527588
-0.22448072 -0.41324437 0.015277851
-0.22462195 -0.41312858 0.015277696
-0.22476469 -0.41301185 0.015283312
-0.22490752 -0.41289505 0.015288926
-0.22505629 -0.41277221 0.01526878
-0.22520179 -0.41265327 0.015275495
-0.22534871 -0.41253287 0.015276341
-0.22548768 -0.41242006 0.015300688
-0.22563483 -0.41229898 0.015289897
-0.22578159 -0.41217831 0.015281436
-0.22592223 -0.41206333 0.015288277
-0.22606869 -0.41194302 0.015282154
-0.226218 -0.41182038 0.015275967
-0.22636341 -0.41170067 0.01526406
-0.226505 -0.41158533 0.015280178
-0.22664797 -0.41146913 0.015302091
-0.22680819 -0.41133559 0.015252543
-0.22695434 -0.41121572 0.015251089
-0.22709563 -0.41110027 0.015259072
-0.15338255 -0.47157195 0.016483821
-0.15353699 -0.47144586 0.016494945
-0.15368736 -0.47132295 0.016502682
-0.15383448 -0.4712019 0.01649189
-0.15399353 -0.47107273 0.016519185
-0.15414107 -0.47095144 0.016510705
-0.15428886 -0.47082999 0.016503386
-0.15443905 -0.47070691 0.016504148
-0.15459174 -0.4705826 0.016522298
-0.15474126 -0.47046003 0.016521916
-0.15488812 -0.47033927 0.016513452
-0.1550352 -0.47021839 0.016506154
-0.15518394 -0.47009641 0.016504623
-0.15533574 -0.4699724 0.016513493
-0.15548022 -0.46985292 0.016489968
-0.15564613 -0.46971947 0.01654618
-0.15578383 -0.46960539 0.016519332
-0.15592836 -0.46948636 0.016506277
-0.15608078 -0.46936202 0.016519783
-0.1562282 -0.46924108 0.016517127
-0.15637374 -0.46912143 0.016508697
-0.15652089 -0.4690007 0.016506046
-0.15666859 -0.46887961 0.016505713
-0.15681615 -0.46875864 0.016505383
-0.15696529 -0.46863666 0.016510822
-0.15711088 -0.46851707 0.016504722
-0.15726006 -0.46839508 0.01651133
-0.15740944 -0.46827298 0.016519094
-0.15755397 -0.46815416 0.016510701
-0.15770073 -0.46803385 0.01651038
-0.15785068 -0.46791145 0.016521631
-0.15799551 -0.46779248 0.016515549
-0.15814379 -0.46767166 0.016531484
-0.1582877 -0.46755332 0.016523097
-0.15843314 -0.46743402 0.016520491
-0.15858042 -0.4673135 0.016524829
-0.1587269 -0.46719351 0.016526846
-0.15887779 -0.46707067 0.016545042
-0.15902269 -0.46695179 0.016542451
-0.15916973 -0.46683151 0.016547956
-0.15932773 -0.46670318 0.016574118
-0.15946048 -0.46659237 0.016528785
-0.1596086 -0.46647188 0.016549384
-0.15975416 -0.46635267 0.016551426
-0.15990116 -0.46623254 0.016559251
-0.16004427 -0.46611497 0.016553216
-0.16019195 -0.46599442 0.016564514
-0.16033265 -0.46587849 0.016550399
-0.16048118 -0.46575698 0.016555855
-0.16063011 -0.46563616 0.016583413
-0.16076711 -0.46552265 0.016556595
-0.16091442 -0.46540248 0.016569072
-0.16105947 -0.46528378 0.016573457
-0.16119985 -0.46516815 0.016560512
-0.16134429 -0.46504945 0.016553272
-0.16148598 -0.46493298 0.016546112
-0.16163176 -0.46481392 0.01655513
-0.16177741 -0.46469495 0.016564161
-0.16191848 -0.46457896 0.016555848
-0.16206387 -0.46446019 0.016564876
-0.16220999 -0.46434051 0.016566914
-0.16235133 -0.4642244 0.016560923
-0.16249518 -0.46410668 0.01656534
-0.16263776 -0.46398982 0.01656514
-0.16277964 -0.46387342 0.016562626
-0.16292489 -0.46375489 0.016573988
-0.16306625 -0.46363884 0.016570318
-0.16320725 -0.46352309 0.016565509
-0.16334842 -0.46340719 0.016561843
-0.1634907 -0.46329015 0.016552338
-0.16363336 -0.46317339 0.016555626
-0.16377424 -0.46305776 0.01655197
-0.16391724 -0.46294078 0.016557578
-0.16405819 -0.46282515 0.01655509
-0.16420043 -0.46270874 0.016558388
-0.16434568 -0.46258992 0.01656393
-0.16448605 -0.4624747 0.016560296
-0.16462605 -0.46235976 0.016555501
-0.16476567 -0.46224505 0.016549556
-0.16490942 -0.46212727 0.016550485
