# .PCD v0.7 - Point Cloud Data file format
VERSION 0.7
FIELDS x y z
SIZE 4 4 4
TYPE F F F
COUNT 1 1 1
WIDTH 130
HEIGHT 1
VIEWPOINT 0 0 0 1 0 0 0
POINTS 130
DATA ascii
-0.14724612 -0.36416611 0.035836447
-0.14736982 -0.36406362 0.035813432
-0.14749697 -0.36395913 0.03580777
-0.14762005 -0.36385912 0.035826657
-0.14774607 -0.36375484 0.035805903
-0.14787401 -0.36365074 0.035822332
-0.14799632 -0.36355042 0.035821456
-0.14812046 -0.36344895 0.035827518
-0.14824803 -0.36334398 0.035819523
-0.14837611 -0.36323836 0.035805695
-0.14850388 -0.36313319 0.035796538
-0.14862789 -0.36303198 0.03580609
-0.14875509 -0.36292765 0.035805084
-0.14887916 -0.36282641 0.035814635
-0.14900672 -0.36272162 0.035810135
-0.14913276 -0.36261895 0.035824284
-0.14925821 -0.36251587 0.035818677
-0.14938158 -0.36241436 0.035810784
-0.14951295 -0.36230698 0.035817824
-0.14963812 -0.36220434 0.035816874
-0.14976248 -0.36210158 0.035799652
-0.14988627 -0.36200202 0.035840623
-0.15001354 -0.3618978 0.035843112
-0.15013871 -0.36179405 0.03581889
-0.15026709 -0.36168846 0.035810873
-0.15039353 -0.36158541 0.035823852
-0.15052189 -0.36147985 0.035816997
-0.15064533 -0.36137852 0.035813764
-0.15077175 -0.36127552 0.035827912
-0.15089762 -0.3611733 0.035847887
-0.15102479 -0.36106831 0.035831757
-0.15115611 -0.36096016 0.035821334
-0.15128128 -0.36085775 0.035826206
-0.15140697 -0.36075473 0.0358264
-0.15153249 -0.36065197 0.035828933
-0.15165964 -0.36054817 0.035838403
-0.15178867 -0.36044204 0.035830371
-0.15191703 -0.36033675 0.035829339
-0.15204531 -0.36023161 0.03582947
-0.15217377 -0.36012626 0.035828434
-0.15229762 -0.36002564 0.035848461
-0.15241757 -0.35992792 0.035861611
-0.15254407 -0.35982504 0.035879239
-0.15267161 -0.35971901 0.035846815
-0.15280843 -0.35960636 0.03583625
-0.15545729 -0.35653624 0.016506964
-0.15559945 -0.35642037 0.016520694
-0.1557454 -0.35630199 0.016548287
-0.15589148 -0.35618246 0.016552605
-0.15604647 -0.35605326 0.016506663
-0.15619069 -0.35593599 0.016527319
-0.15633623 -0.35581714 0.016537471
-0.15648329 -0.35569653 0.016535949
-0.15663214 -0.35557482 0.016542526
-0.15677918 -0.35545427 0.016542166
-0.15692905 -0.35533139 0.016541734
-0.15707684 -0.35521001 0.016536694
-0.15722425 -0.35508907 0.016535167
-0.15737222 -0.35496756 0.016530132
-0.15752269 -0.35484406 0.016527353
-0.15766972 -0.35472369 0.016530484
-0.15782019 -0.35460028 0.016528875
-0.15796831 -0.35447866 0.016524997
-0.158117 -0.35435644 0.016517613
-0.15826383 -0.35423636 0.016524242
-0.15841495 -0.35411233 0.016520286
-0.15856192 -0.35399213 0.01652691
-0.15871385 -0.3538672 0.016518272
-0.15886313 -0.35374442 0.016509715
-0.15901098 -0.3536233 0.016511654
-0.15916094 -0.3534998 0.016499586
-0.1593114 -0.35337669 0.01650379
-0.15946223 -0.35325223 0.016487049
-0.15961301 -0.35312879 0.016490083
-0.15976337 -0.35300583 0.016496617
-0.15990685 -0.35288894 0.016512634
-0.16005684 -0.35276559 0.016504057
-0.16020934 -0.3526403 0.016497735
-0.1603599 -0.35251635 0.016486812
-0.16050804 -0.35239518 0.016492246
-0.16065951 -0.35227028 0.016476639
-0.16081023 -0.3521471 0.016484335
-0.16096154 -0.35202244 0.016471062
-0.1611152 -0.35189602 0.01646122
-0.16126487 -0.35177323 0.016459633
-0.16141574 -0.35164997 0.016468475
-0.16156597 -0.35152665 0.016464543
-0.16171327 -0.35140657 0.01647931
-0.16186245 -0.35128525 0.016499836
-0.16202608 -0.35114798 0.016432716
-0.16217142 -0.35102937 0.016444042
-0.16232559 -0.35090339 0.0164528
-0.16247185 -0.35078382 0.016459443
-0.16262712 -0.35065591 0.016446076
-0.16277574 -0.35053453 0.016456138
-0.16292503 -0.35041246 0.016462699
-0.16307783 -0.35028657 0.016449399
-0.1632289 -0.35016337 0.016462889
-0.16338091 -0.35003841 0.016455429
-0.16353582 -0.34991106 0.016447872
-0.16368701 -0.34978706 0.016446244
-0.1638409 -0.34966087 0.016445708
-0.16399188 -0.34953713 0.016446408
-0.16414589 -0.34941018 0.016430745
-0.16429967 -0.34928417 0.016432529
-0.16445315 -0.34915856 0.016436663
-0.16460687 -0.34903198 0.016424488
-0.16476312 -0.34890342 0.016414579
-0.1649093 -0.34878498 0.016444497
-0.16506381 -0.34865764 0.016429979
-0.16521627 -0.34853256 0.016427148
-0.16537121 -0.34840551 0.016426586
-0.16552275 -0.34828141 0.016429599
-0.16567776 -0.34815368 0.016415071
-0.1658266 -0.3480325 0.016433276
-0.16598684 -0.34790063 0.016422104
-0.16614017 -0.34777474 0.016418088
-0.16629872 -0.34764403 0.016402297
-0.16644785 -0.34752199 0.016406545
-0.16660023 -0.34739786 0.016423499
-0.16675469 -0.34727088 0.016415955
-0.16691029 -0.34714341 0.016417705
-0.16706447 -0.34701613 0.016398545
-0.16722219 -0.34688649 0.01639092
-0.16737789 -0.34675899 0.016393824
-0.16753419 -0.3466309 0.016394394
-0.16768678 -0.34650606 0.0163997
-0.16783991 -0.34638131 0.016416635
-0.16800286 -0.34624568 0.016372815
-0.16815943 -0.34611675 0.016360566
