# .PCD v0.7 - Point Cloud Data file format
VERSION 0.7
FIELDS x y z
SIZE 4 4 4
TYPE F F F
COUNT 1 1 1
WIDTH 132
HEIGHT 1
VIEWPOINT 0 0 0 1 0 0 0
POINTS 132
DATA ascii
-0.22042581 -0.41647312 0.01542032
-0.2205641 -0.41636062 0.015438863
-0.2207054 -0.41624433 0.015428223
-0.22084737 -0.41612858 0.01544201
-0.22099267 -0.41600874 0.015425456
-0.22113331 -0.41589382 0.015433456
-0.22127379 -0.41577905 0.015442621
-0.22141747 -0.4156616 0.015449382
-0.22156137 -0.41554332 0.015442176
-0.22170493 -0.41542542 0.015437298
-0.22184931 -0.41530672 0.015428909
-0.2219919 -0.41518986 0.015429867
-0.2221351 -0.41507244 0.0154285
-0.22227937 -0.41495448 0.015435246
-0.22242491 -0.41483465 0.015423326
-0.22256722 -0.41471821 0.015427793
-0.22271204 -0.41459975 0.015433365
-0.22285622 -0.4144814 0.015429631
-0.22299542 -0.41436768 0.015437679
-0.22314739 -0.41424245 0.015423272
-0.2232863 -0.41412905 0.015433648
-0.22343044 -0.41401082 0.015432246
-0.22357595 -0.41389123 0.015424987
-0.22372402 -0.4137696 0.015418832
-0.22386649 -0.41365317 0.015426786
-0.224012 -0.41353419 0.0154335
-0.22415876 -0.41341341 0.015422718
-0.22430256 -0.41329569 0.015425986
-0.22444932 -0.41317496 0.015416374
-0.22459273 -0.41305715 0.01541033
-0.22473636 -0.41293967 0.015415933
-0.22488411 -0.41281855 0.015415598
-0.22502524 -0.4127031 0.015421265
-0.22517447 -0.41257998 0.015403438
-0.22532418 -0.41245693 0.015396071
-0.22546387 -0.4123441 0.015433201
-0.22560921 -0.41222501 0.015434097
-0.22575277 -0.41210723 0.015431551
-0.2259016 -0.41198465 0.015418385
-0.22605084 -0.41186219 0.015415691
-0.22619286 -0.41174603 0.015421325
-0.22634098 -0.41162476 0.015424481
-0.22648923 -0.41150337 0.015427633
-0.22663873 -0.41138023 0.015414449
-0.22679484 -0.4112505 0.015374331
-0.2269374 -0.41113442 0.015391603
-0.22707836 -0.41101995 0.015415888
-0.22722627 -0.41089803 0.015400426
-0.15313554 -0.47168565 0.016661949
-0.1532746 -0.47156945 0.016612962
-0.15342924 -0.47144309 0.01662178
-0.15358958 -0.47131291 0.016649062
-0.15374188 -0.47118777 0.016642807
-0.15389454 -0.47106284 0.016647015
-0.15404694 -0.4709377 0.016641919
-0.15420145 -0.47081152 0.016653059
-0.1543557 -0.47068518 0.016654896
-0.15450655 -0.47056115 0.016646348
-0.15466049 -0.47043505 0.016648192
-0.15480796 -0.47031373 0.016638573
-0.1549648 -0.47018573 0.016650813
-0.1551134 -0.47006369 0.016645815
-0.15526259 -0.46994129 0.016643133
-0.1554046 -0.46982372 0.01661735
-0.15556987 -0.46968973 0.016650327
-0.15572353 -0.46956483 0.016673131
-0.15586896 -0.4694446 0.016650762
-0.15601744 -0.46932277 0.016648088
-0.15616611 -0.46920043 0.016637266
-0.15631399 -0.46907905 0.016633447
-0.1564713 -0.46895096 0.016652666
-0.15661752 -0.46883073 0.016644239
-0.15676296 -0.46871102 0.016633503
-0.15691605 -0.46858627 0.016649341
-0.15706731 -0.46846229 0.016650096
-0.15721639 -0.46834025 0.016653225
-0.15736537 -0.46821785 0.016647058
-0.15751183 -0.46809757 0.016642114
-0.1576619 -0.46797451 0.016640568
-0.15781373 -0.46785071 0.01665527
-0.15796113 -0.46772987 0.016654953
-0.1581084 -0.46760914 0.016654652
-0.15825824 -0.46748629 0.016654272
-0.15840395 -0.46736664 0.016649347
-0.1585584 -0.46724081 0.016666312
-0.15870738 -0.46711904 0.016674105
-0.1588586 -0.46699539 0.01668068
-0.15900315 -0.46687657 0.016673457
-0.15915778 -0.46675116 0.016703218
-0.15930824 -0.46662807 0.016708653
-0.15944198 -0.46651644 0.016663294
-0.159593 -0.46639344 0.016681517
-0.15974434 -0.46626985 0.016691569
-0.15989129 -0.4661496 0.016695926
-0.16003892 -0.46602845 0.016693283
-0.16018315 -0.46591002 0.016688399
-0.16032818 -0.46579108 0.016686983
-0.16047607 -0.46566984 0.016686654
-0.16063301 -0.46554273 0.016721016
-0.16077194 -0.46542829 0.016708117
-0.16091733 -0.46530876 0.016699713
-0.16106145 -0.46519047 0.01669715
-0.16120753 -0.46507055 0.016692217
-0.16135442 -0.46495053 0.016701236
-0.16150028 -0.46483076 0.0166963
-0.16164364 -0.46471307 0.016692607
-0.16178839 -0.46459451 0.016694691
-0.16193478 -0.46447492 0.016703712
-0.16208282 -0.46435383 0.016709199
-0.16222544 -0.46423671 0.016704356
-0.16236946 -0.46411824 0.016694816
-0.16251247 -0.46400091 0.016692294
-0.1626606 -0.46387982 0.016700109
-0.16280711 -0.46376029 0.016712628
-0.16295126 -0.46364182 0.016705416
-0.16309497 -0.46352413 0.016707525
-0.16323949 -0.46340543 0.016702633
-0.16338296 -0.46328792 0.016704749
-0.16352615 -0.46317011 0.016695231
-0.16366747 -0.46305403 0.01668925
-0.16381437 -0.46293393 0.016695939
-0.16395713 -0.46281692 0.016696913
-0.16410242 -0.46269789 0.016697811
-0.1642447 -0.46258125 0.016697638
-0.16438785 -0.46246359 0.016690452
-0.16453075 -0.46234661 0.016693741
-0.16467641 -0.4622274 0.016698131
-0.16481775 -0.46211144 0.016695652
-0.16496077 -0.46199393 0.016689628
-0.16509871 -0.46188015 0.016673265
-0.16524395 -0.4617613 0.016677666
-0.16538756 -0.46164399 0.01668676
