# .PCD v0.7 - Point Cloud Data file format
VERSION 0.7
FIELDS x y z
SIZE 4 4 4
TYPE F F F
COUNT 1 1 1
WIDTH 132
HEIGHT 1
VIEWPOINT 0 0 0 1 0 0 0
POINTS 132
DATA ascii
-0.22239372 -0.41455227 0.016462294
-0.22254439 -0.41442901 0.016471189
-0.2226972 -0.41430351 0.016469544
-0.22284663 -0.41418031 0.016457526
-0.22299619 -0.41405764 0.016459467
-0.22314586 -0.41393489 0.016461406
-0.22330031 -0.41380712 0.016439945
-0.22344925 -0.4136858 0.016460516
-0.2236042 -0.41355759 0.016437884
-0.22375408 -0.41343471 0.016440976
-0.22390334 -0.41331249 0.016447576
-0.22406097 -0.41318282 0.016441157
-0.22420932 -0.41306099 0.016439639
-0.22436425 -0.41293296 0.016420497
-0.22451225 -0.41281214 0.016435269
-0.22466707 -0.41268489 0.016431265
-0.22481772 -0.41256136 0.016434338
-0.22497302 -0.41243365 0.016429149
-0.22512892 -0.41230479 0.01640881
-0.22528274 -0.41217864 0.016411802
-0.22542426 -0.41206461 0.016459329
-0.22558129 -0.41193464 0.016435472
-0.22573514 -0.41180742 0.016414028
-0.22588997 -0.41168094 0.016427474
-0.22603869 -0.41155958 0.016443389
-0.22619839 -0.41142699 0.016410161
-0.22635619 -0.4112964 0.016386295
-0.22651021 -0.41117024 0.016392771
-0.22665787 -0.41104952 0.016402902
-0.22681502 -0.41092023 0.016396495
-0.22696573 -0.41079697 0.016406547
-0.2271218 -0.41066885 0.016406
-0.22727971 -0.41053832 0.016385611
-0.22743213 -0.41041338 0.016389798
-0.2275825 -0.41029057 0.016403358
-0.22773854 -0.41016257 0.016405122
-0.22789158 -0.4100371 0.016408144
-0.22804706 -0.40990973 0.016413411
-0.22820449 -0.40977985 0.016398856
-0.22835681 -0.40965515 0.016406547
-0.22851118 -0.40952843 0.016406033
-0.2286694 -0.40939838 0.016401928
-0.22882265 -0.40927282 0.016407263
-0.22898279 -0.40914035 0.016384495
-0.2291383 -0.40901256 0.016381621
-0.15099785 -0.4731946 0.017333081
-0.15116401 -0.47305948 0.017361365
-0.15132333 -0.47292823 0.017350253
-0.1514803 -0.47279897 0.017341528
-0.15163714 -0.47267029 0.01734212
-0.1517909 -0.47254324 0.017324179
-0.15195727 -0.47240728 0.017337317
-0.15211549 -0.47227728 0.017334383
-0.15227498 -0.47214645 0.017336076
-0.15243074 -0.47201815 0.017326213
-0.15259208 -0.4718861 0.017334841
-0.15275572 -0.47175252 0.017351549
-0.15290004 -0.47163203 0.017305909
-0.15306452 -0.47149751 0.017316774
-0.15321739 -0.47137171 0.017309327
-0.15337968 -0.47123912 0.01732374
-0.15353447 -0.47111166 0.017313914
-0.15369225 -0.47098216 0.017314482
-0.1538492 -0.47085324 0.017312741
-0.15400392 -0.47072586 0.017304076
-0.15416417 -0.47059435 0.017304581
-0.15431985 -0.47046679 0.017309852
-0.15447417 -0.47033975 0.017301198
-0.1546277 -0.47021323 0.017290244
-0.15478685 -0.470083 0.017298918
-0.15495193 -0.4699479 0.017308608
-0.1551064 -0.46982086 0.017302278
-0.15525334 -0.46969882 0.017270543
-0.15541458 -0.46956727 0.017288473
-0.15557244 -0.46943843 0.017305331
-0.15573002 -0.46930939 0.017311726
-0.15588501 -0.46918163 0.017299563
-0.15604064 -0.46905389 0.017300187
-0.15619418 -0.46892759 0.017293874
-0.15635021 -0.46879965 0.017296817
-0.15650412 -0.46867314 0.017292824
-0.156656 -0.468548 0.017281912
-0.15681413 -0.46841827 0.017283631
-0.15696897 -0.46829119 0.017284276
-0.15712526 -0.46816319 0.017290704
-0.15727951 -0.46803656 0.017290192
-0.15743677 -0.46790752 0.017290773
-0.15759328 -0.46777943 0.017299525
-0.15774646 -0.4676531 0.017286239
-0.15790331 -0.46752486 0.017297303
-0.15805314 -0.46740121 0.017282955
-0.1582063 -0.46727544 0.017281312
-0.15836339 -0.46714664 0.017284218
-0.1585169 -0.46702066 0.017284896
-0.15868324 -0.46688586 0.017323649
-0.15884081 -0.46675682 0.017330043
-0.15897924 -0.46664071 0.017275251
-0.159134 -0.4665145 0.017293351
-0.15929632 -0.46638244 0.017319405
-0.15944633 -0.46625885 0.017309692
-0.15960293 -0.46613055 0.017314952
-0.1597545 -0.46600604 0.01731218
-0.15990625 -0.46588141 0.017310584
-0.16005819 -0.46575665 0.017310133
-0.16020779 -0.46563295 0.01728997
-0.16036406 -0.46550497 0.017296387
-0.16052924 -0.46537128 0.01733866
-0.16067119 -0.46525356 0.017311703
-0.16082588 -0.46512666 0.017313521
-0.1609745 -0.46500421 0.017302684
-0.1611259 -0.46487996 0.017303418
-0.16127831 -0.46475509 0.017308775
-0.16143197 -0.46462893 0.017308289
-0.16158272 -0.4645052 0.01730787
-0.16173613 -0.46437925 0.01730739
-0.16188638 -0.46425584 0.017305823
-0.16203901 -0.46413043 0.017303033
-0.16218708 -0.46400845 0.017293381
-0.16233812 -0.46388462 0.017296445
-0.16248904 -0.46376088 0.01729952
-0.16264124 -0.46363583 0.017296743
-0.16278836 -0.46351454 0.017284784
-0.16294144 -0.46338898 0.017286634
-0.16309084 -0.46326628 0.017285088
-0.16323884 -0.46314394 0.017266126
-0.16338883 -0.46302092 0.017268056
-0.16354094 -0.46289602 0.017267611
-0.163691 -0.462773 0.017270708
-0.16384341 -0.46264797 0.017272577
-0.16399191 -0.46252596 0.017269894
-0.16414228 -0.46240225 0.017263662
-0.16429034 -0.46228057 0.017259832
