# .PCD v0.7 - Point Cloud Data file format
VERSION 0.7
FIELDS x y z
SIZE 4 4 4
TYPE F F F
COUNT 1 1 1
WIDTH 132
HEIGHT 1
VIEWPOINT 0 0 0 1 0 0 0
POINTS 132
DATA ascii
-0.22369184 -0.41119444 0.016331045
-0.22384794 -0.41106662 0.016333994
-0.22400413 -0.41093874 0.016336948
-0.22416118 -0.41080996 0.016336381
-0.22432663 -0.41067317 0.016310003
-0.22448272 -0.41054547 0.016315293
-0.2246411 -0.41041604 0.016324002
-0.22479889 -0.41028661 0.016322255
-0.22495554 -0.4101584 0.01632636
-0.22511682 -0.41002542 0.016309401
-0.22527541 -0.40989587 0.016319275
-0.22543445 -0.40976527 0.016314007
-0.22559083 -0.40963745 0.016321609
-0.22575343 -0.40950322 0.016301114
-0.2259053 -0.40938067 0.016343746
-0.22606766 -0.40924674 0.016325591
-0.22622927 -0.40911427 0.016324915
-0.22638725 -0.4089849 0.016327824
-0.22655059 -0.40885007 0.016307313
-0.22670884 -0.40872049 0.016310215
-0.22687256 -0.40858594 0.016302494
-0.22702922 -0.40845802 0.016313579
-0.22719079 -0.40832514 0.016303593
-0.22735518 -0.40818939 0.016281893
-0.227516 -0.40805793 0.016289379
-0.22767177 -0.407931 0.016306309
-0.2278312 -0.40780038 0.016308021
-0.22799349 -0.40766692 0.016298007
-0.22816359 -0.40752614 0.016268019
-0.2283204 -0.40739825 0.01628259
-0.22848141 -0.40726671 0.016292403
-0.22863427 -0.40714288 0.016324539
-0.22880679 -0.40699917 0.016274694
-0.22897424 -0.40686068 0.016247105
-0.22913268 -0.40673184 0.016269773
-0.14784655 -0.47340971 0.017327789
-0.14801143 -0.47327429 0.017322378
-0.14817478 -0.47313952 0.017303044
-0.14834781 -0.47299865 0.017324198
-0.14851782 -0.47285941 0.017326808
-0.14867803 -0.47272727 0.017308716
-0.14884591 -0.47258952 0.017305559
-0.1490113 -0.47245392 0.017304797
-0.14918715 -0.47231084 0.017328206
-0.14934355 -0.47218135 0.017299734
-0.14949879 -0.47205263 0.017267808
-0.14967322 -0.47191104 0.017298236
-0.14984688 -0.47176954 0.017317044
-0.15000598 -0.47163832 0.01729898
-0.15017027 -0.47150362 0.017298248
-0.15033087 -0.47137141 0.017285965
-0.15049668 -0.47123483 0.017271221
-0.15065424 -0.47110471 0.017249707
-0.15083903 -0.47095591 0.017308973
-0.1510001 -0.4708235 0.01730017
-0.15115517 -0.47069511 0.01727174
-0.15131932 -0.47056019 0.017264018
-0.15148576 -0.47042379 0.017264389
-0.15164766 -0.47029087 0.017260225
-0.15180841 -0.47015879 0.017252602
-0.15197274 -0.47002429 0.017257677
-0.1521416 -0.46988636 0.017268468
-0.15230793 -0.46975017 0.01727117
-0.15246943 -0.46961764 0.017268177
-0.15263546 -0.46948168 0.017270889
-0.15280032 -0.46934652 0.01727014
-0.15296206 -0.4692139 0.017269462
-0.15312694 -0.46907923 0.017280355
-0.15328874 -0.46894616 0.017270373
-0.15345301 -0.46881148 0.017269641
-0.15361023 -0.46868241 0.017265588
-0.15377748 -0.46854582 0.017276419
-0.15393545 -0.46841583 0.017265366
-0.15410243 -0.46827897 0.017265724
-0.15426169 -0.46814865 0.017270939
-0.15442511 -0.46801466 0.017270228
-0.15458481 -0.46788365 0.017267283
-0.15474701 -0.46775049 0.017263101
-0.15490486 -0.4676207 0.017254382
-0.15506385 -0.4674902 0.017250294
-0.15522954 -0.46735436 0.017249525
-0.15539731 -0.46721816 0.017278954
-0.15554751 -0.46709344 0.017243668
-0.15570647 -0.46696255 0.017230261
-0.1558753 -0.46682575 0.017265495
-0.15603013 -0.46669805 0.017248703
-0.15618487 -0.46657047 0.017231923
-0.15634669 -0.46643779 0.017231241
-0.15650597 -0.46630678 0.017221328
-0.15666221 -0.46617827 0.017211489
-0.15682614 -0.46604481 0.017231707
-0.15698536 -0.46591389 0.017222963
-0.15714511 -0.46578318 0.017228156
-0.15730646 -0.46565095 0.017228659
-0.15746446 -0.46552143 0.017228087
-0.15762731 -0.46538827 0.017235532
-0.15778185 -0.46526098 0.017222248
-0.15794094 -0.4651303 0.017215827
-0.15809876 -0.46500096 0.017216422
-0.15826049 -0.46486861 0.017221574
-0.15841663 -0.4647404 0.017216388
-0.15857407 -0.46461138 0.017216992
-0.1587314 -0.46448243 0.017217597
-0.15889037 -0.46435195 0.01721351
-0.15904999 -0.4642216 0.017224528
-0.15920703 -0.46409237 0.017213501
-0.15936303 -0.46396437 0.017210649
-0.15952322 -0.46383321 0.017213512
-0.15968204 -0.46370345 0.017223392
-0.15984195 -0.4635725 0.01722626
-0.15999639 -0.46344557 0.0172188
-0.16015662 -0.46331447 0.017223982
-0.16031167 -0.46318722 0.017219996
-0.16046976 -0.46305749 0.017217092
-0.16061811 -0.46293443 0.017185334
-0.16078532 -0.46279851 0.017210139
-0.1609419 -0.46267092 0.017227056
-0.16109499 -0.46254441 0.01720449
-0.16125074 -0.46241683 0.017206306
-0.16140769 -0.46228853 0.017213902
-0.16156842 -0.46215731 0.017226063
-0.16171518 -0.46203479 0.017176893
-0.16186817 -0.46190959 0.017181102
-0.162027 -0.46177962 0.017186329
-0.16218443 -0.46165115 0.017198574
-0.16233531 -0.46152669 0.017181884
-0.16248843 -0.46140093 0.017175619
-0.16264732 -0.46127102 0.017183164
-0.16280049 -0.46114522 0.017178055
-0.16295666 -0.46101704 0.017174043
-0.16311087 -0.46089065 0.017174728
-0.16326475 -0.4607645 0.017174263
