# .PCD v0.7 - Point Cloud Data file format
VERSION 0.7
FIELDS x y z
SIZE 4 4 4
TYPE F F F
COUNT 1 1 1
WIDTH 1251
HEIGHT 1
VIEWPOINT 0 0 0 1 0 0 0
POINTS 1251
DATA ascii
-0.25894323 -0.12965716 0.061500289
-0.25913909 -0.12957087 0.061495166
-0.25934097 -0.12948495 0.061469264
-0.25954679 -0.12939934 0.06142953
-0.25969809 -0.12932165 0.061500609
-0.25992966 -0.12922867 0.061433133
-0.26011533 -0.12914757 0.061423421
-0.26030239 -0.12905943 0.061457515
-0.26054391 -0.12896745 0.061353114
-0.2607193 -0.12888414 0.061389551
-0.26091796 -0.12880424 0.061332531
-0.26106781 -0.12873025 0.061382867
-0.26128313 -0.12864804 0.061291218
-0.26149979 -0.1285532 0.061281428
-0.26171884 -0.12845492 0.061287768
-0.26192772 -0.12836708 0.061253782
-0.26213023 -0.12828073 0.061229039
-0.26232418 -0.12819561 0.061221611
-0.26251897 -0.12811066 0.061210722
-0.26272506 -0.12802678 0.061158303
-0.26291719 -0.12794368 0.061142802
-0.26309836 -0.12785392 0.061205741
-0.26330221 -0.12777205 0.061146408
-0.26345122 -0.12770028 0.061184064
-0.26367617 -0.12762074 0.061045118
-0.26388448 -0.12752621 0.06105841
-0.2640608 -0.12744777 0.061059102
-0.26427871 -0.12735829 0.061008953
-0.2644324 -0.1272814 0.061067343
-0.26465496 -0.12719461 0.060984898
-0.26484224 -0.12711181 0.060982101
-0.26504767 -0.12701736 0.061003465
-0.26523083 -0.12694214 0.060961485
-0.26539162 -0.12686025 0.061032534
-0.26560879 -0.12677144 0.060980082
-0.26579696 -0.12668908 0.060971513
-0.26600051 -0.12660277 0.060943309
-0.26619452 -0.12651527 0.060952023
-0.2663998 -0.12642531 0.060943417
-0.26658446 -0.12634687 0.060918715
-0.26675078 -0.12626794 0.060952865
-0.26702416 -0.12616758 0.060809184
-0.26722047 -0.126085 0.060777545
-0.26738489 -0.12601639 0.060747139
-0.26759243 -0.12592322 0.060753509
-0.26774999 -0.12584105 0.060836092
-0.26795158 -0.1257512 0.060837872
-0.26813519 -0.12567967 0.060769372
-0.26830894 -0.12560236 0.060770068
-0.26852977 -0.1255182 0.06067495
-0.26869786 -0.12543578 0.060727537
-0.26893795 -0.12533376 0.060695775
-0.26912943 -0.12525128 0.060677983
-0.26933107 -0.12517515 0.060586371
-0.26951522 -0.12509151 0.060598567
-0.26967612 -0.12501888 0.060606219
-0.26991597 -0.12491967 0.060556009
-0.27010113 -0.12483865 0.060547456
-0.27025294 -0.12477106 0.060548209
-0.27043822 -0.12468795 0.06055348
-0.27064908 -0.1245967 0.060536787
-0.27082491 -0.12452304 0.060506344
-0.27102187 -0.12443811 0.06048853
-0.27117765 -0.12435793 0.060563058
-0.27138433 -0.12427989 0.060469136
-0.2716032 -0.12419561 0.060380943
-0.27178228 -0.12411625 0.060379319
-0.2719835 -0.12402114 0.060417987
-0.27217701 -0.12393828 0.060396731
-0.27237356 -0.12385627 0.060360469
-0.27254981 -0.12377647 0.060370386
-0.27275199 -0.12368653 0.060371
-0.27296147 -0.12360335 0.060303576
-0.27312648 -0.12352806 0.060316984
-0.27333078 -0.12344379 0.060272634
-0.27350554 -0.12335414 0.060354028
-0.27371562 -0.12327409 0.060263544
-0.27389976 -0.12319199 0.06026537
-0.27405339 -0.12311869 0.060299553
-0.27426019 -0.12303568 0.060239062
-0.27445596 -0.12294961 0.060232781
-0.27463475 -0.12286869 0.060242675
-0.27483237 -0.12278333 0.060226023
-0.27500778 -0.1227117 0.060182899
-0.27518585 -0.12263332 0.060177825
-0.27537757 -0.12255413 0.060136974
-0.27558225 -0.12246104 0.060151413
-0.27574509 -0.12238839 0.060153294
-0.27597106 -0.12229977 0.060073148
-0.27613276 -0.12221897 0.060133822
-0.27631706 -0.12214579 0.060074545
-0.27650625 -0.12206908 0.06002447
-0.27670386 -0.12198473 0.060000893
-0.27689075 -0.12190208 0.059998095
-0.27707714 -0.12182204 0.059979156
-0.27728203 -0.12173241 0.059969395
-0.27743819 -0.12166342 0.059966676
-0.27765226 -0.12157464 0.059923459
-0.27784052 -0.1214985 0.05987224
-0.27801758 -0.12142379 0.059845261
-0.27818757 -0.12134357 0.059877086
-0.27838185 -0.12125594 0.0598858
-0.27857193 -0.12117527 0.059859931
-0.27876902 -0.12109184 0.059831746
-0.27893546 -0.12101895 0.059824388
-0.27912444 -0.1209352 0.059822742
-0.27925918 -0.12085469 0.05996304
-0.27942175 -0.12078607 0.059938401
-0.27964848 -0.12070116 0.059830584
-0.2798602 -0.12061885 0.059750482
-0.28006041 -0.12053454 0.059718825
-0.28023952 -0.12045585 0.059712581
-0.28042713 -0.12037509 0.059694797
-0.28061205 -0.12029621 0.059672404
-0.28079727 -0.12021448 0.059668459
-0.28096753 -0.12015057 0.059588466
-0.28116056 -0.12006029 0.059619084
-0.28133547 -0.11998313 0.059615161
-0.28153768 -0.11989437 0.059607722
-0.28170171 -0.11981814 0.059630342
-0.28188324 -0.11974788 0.059559535
-0.28206024 -0.11966556 0.059584439
-0.28223869 -0.11959396 0.059532091
-0.28242785 -0.11950844 0.059541959
-0.28260124 -0.11944434 0.05945389
-0.28279924 -0.11935049 0.059493721
-0.28298584 -0.11927391 0.05945057
-0.28316405 -0.11919256 0.059465088
-0.28332534 -0.11911502 0.059505012
-0.28350458 -0.11903781 0.059488405
-0.28370211 -0.1189613 0.059411786
-0.28389794 -0.11887688 0.05939398
-0.28407824 -0.11880785 0.059318572
-0.28425765 -0.11872039 0.059371132
-0.2844317 -0.11864396 0.059364911
-0.28461152 -0.11856037 0.0593898
-0.28478321 -0.11848617 0.05937551
-0.28496149 -0.11841279 0.059335843
-0.28515422 -0.11832687 0.059337646
-0.28534484 -0.11824714 0.059303701
-0.28552419 -0.11817107 0.059279025
-0.28571656 -0.11808904 0.059255458
-0.28588822 -0.11801538 0.059237711
-0.28607297 -0.11793181 0.059247606
-0.28624293 -0.11785702 0.059242547
-0.28642657 -0.11778074 0.059206322
-0.28661674 -0.11769749 0.059197746
-0.28679267 -0.11762768 0.059140794
-0.28698602 -0.11754725 0.059103392
-0.28718838 -0.11745758 0.059101708
-0.28735077 -0.11738971 0.059072465
-0.28752488 -0.11731478 0.059055857
-0.28770754 -0.11723435 0.059050761
-0.28790367 -0.11714828 0.05904334
-0.2880857 -0.11707627 0.058982901
-0.28824413 -0.11699202 0.059077021
-0.2884292 -0.1169185 0.059017744
-0.28860331 -0.1168395 0.059028804
-0.28876811 -0.11676089 0.059065275
-0.28899109 -0.11667783 0.05895631
-0.28915381 -0.11659726 0.059012372
-0.28929693 -0.11653033 0.059035055
-0.28948006 -0.11646545 0.058922742
-0.28968108 -0.11637552 0.058926828
-0.28986564 -0.11629798 0.05889637
-0.29004568 -0.11622075 0.058877449
-0.29020441 -0.11614061 0.058942739
-0.29039919 -0.11606956 0.058837317
-0.29057124 -0.11599401 0.058831103
-0.29075837 -0.11590956 0.058839828
-0.29094774 -0.1158331 0.058787454
-0.29112056 -0.11575874 0.05877085
-0.29127458 -0.11569985 0.058705889
-0.29145849 -0.11561175 0.058749218
-0.29163358 -0.11552926 0.058781035
-0.29182687 -0.1154587 0.058676764
-0.29199705 -0.11537567 0.058727041
-0.2921868 -0.11529514 0.058701187
-0.29237941 -0.11521268 0.058679916
-0.29254431 -0.11514015 0.058674872
-0.29271483 -0.11506951 0.058639839
-0.29288316 -0.11498968 0.058673985
-0.29306906 -0.11491036 0.058651589
-0.29325548 -0.11483199 0.058621123
-0.2934314 -0.11475066 0.058642566
-0.29361492 -0.1146746 0.058605194
-0.29378971 -0.11459818 0.058596663
-0.29396453 -0.11452191 0.05858697
-0.29414037 -0.11444739 0.058562301
-0.29431495 -0.11437089 0.058554925
-0.29450428 -0.11429141 0.058523297
-0.29468119 -0.11421929 0.058479022
-0.2948648 -0.11413725 0.058481999
-0.29503661 -0.11406352 0.058464251
-0.29521427 -0.11398565 0.058456868
-0.29538748 -0.11390704 0.058467947
-0.29555628 -0.11382752 0.058498621
-0.29573396 -0.11375795 0.058434747
-0.29591742 -0.11367581 0.058438879
-0.29609889 -0.11359794 0.05841995
-0.29629138 -0.11351841 0.058379095
-0.29646525 -0.11344139 0.058377482
-0.29665476 -0.11336453 0.058327407
-0.29682711 -0.11329342 0.058290072
-0.29701832 -0.11320226 0.058332216
-0.29719651 -0.11311686 0.058374401
-0.29734921 -0.11305482 0.058334809
-0.29753235 -0.11299283 0.058202893
-0.29770076 -0.11291195 0.058243956
-0.29788193 -0.11283489 0.058220424
-0.29806024 -0.11274945 0.058262609
-0.29822516 -0.11268012 0.058235653
-0.29839677 -0.1126202 0.058124531
-0.29857412 -0.11253162 0.058190927
-0.29875076 -0.11245235 0.058196224
-0.29892859 -0.11237729 0.058169246
-0.29910812 -0.11229536 0.058183759
-0.29928544 -0.11221866 0.058169454
-0.29946882 -0.11213724 0.05816897
-0.29967237 -0.11204923 0.058152303
-0.29986966 -0.11196554 0.058125265
-0.3000474 -0.11189135 0.05809252
-0.30022314 -0.11180807 0.058127791
-0.30040142 -0.11173671 0.058074292
-0.30057609 -0.11164746 0.058153376
-0.30075914 -0.11158347 0.058035295
-0.30092445 -0.11152041 0.057964541
-0.30111316 -0.11142984 0.058010153
-0.30127606 -0.11135259 0.05804316
-0.30144271 -0.11127639 0.058057711
-0.30159909 -0.11120103 0.058097646
-0.30177173 -0.11114336 0.057968073
-0.30195749 -0.11108275 0.057818867
-0.3021442 -0.11100323 0.057795316
-0.3023448 -0.11089263 0.057941198
-0.30249125 -0.11081828 0.058004223
-0.3026576 -0.11073695 0.058054511
-0.30285871 -0.11066513 0.057935238
-0.30303624 -0.11059833 0.057852913
-0.30319929 -0.11051627 0.057918198
-0.3033804 -0.11045739 0.057771306
-0.30357039 -0.11037999 0.057723537
-0.30374363 -0.11030086 0.057738073
-0.30394647 -0.11021384 0.057716787
-0.30410358 -0.11015256 0.057658732
-0.30428013 -0.11007145 0.05767671
-0.30445674 -0.10999473 0.057664715
-0.30460718 -0.10992742 0.057667781
-0.30482945 -0.10983857 0.057600319
-0.30498958 -0.10977188 0.057569932
-0.30518299 -0.10967176 0.057666257
-0.30536586 -0.10959955 0.057604678
-0.30554566 -0.10952242 0.057585757
-0.30571306 -0.10943877 0.057648722
-0.30586421 -0.10936283 0.057708278
-0.30605286 -0.1092967 0.057587881
-0.30622631 -0.10922021 0.057583962
-0.30643153 -0.10913976 0.057510793
-0.30660462 -0.10906664 0.057484973
-0.30678493 -0.10898352 0.057505254
-0.30696198 -0.10890236 0.057522073
-0.30714104 -0.10883135 0.057463963
-0.30731776 -0.1087532 0.057461195
-0.30748761 -0.10868085 0.057439994
-0.30767018 -0.10860504 0.057403773
-0.30783665 -0.10853434 0.057381433
-0.30799586 -0.10847094 0.057331435
-0.30817649 -0.10838751 0.057352863
-0.30836734 -0.10829769 0.057386946
-0.30853161 -0.10822219 0.057403803
-0.30871832 -0.10815643 0.057286881
-0.30891228 -0.10806692 0.057309419
-0.3090778 -0.10798545 0.057363175
-0.30925763 -0.10789305 0.057448015
-0.30944359 -0.10782912 0.057320707
-0.30959707 -0.10777743 0.057208478
-0.30976686 -0.10769118 0.057281811
-0.30997139 -0.10760852 0.057225935
-0.31015107 -0.10753128 0.057208166
-0.31031194 -0.10745917 0.05721236
-0.31046581 -0.10739186 0.057205029
-0.3106482 -0.10731545 0.057173423
-0.31084138 -0.10723104 0.057163693
-0.31101903 -0.10715063 0.057173602
-0.31120455 -0.10707334 0.057138525
-0.31137225 -0.10699804 0.057143848
-0.31155506 -0.10692009 0.057121459
-0.31172714 -0.10684944 0.057081811
-0.31192917 -0.10675482 0.057114713
-0.31209278 -0.10668404 0.057101592
-0.3122808 -0.10660768 0.057052687
-0.31245154 -0.10654102 0.056989983
-0.31262812 -0.10646483 0.05697453
-0.31280148 -0.10638988 0.056960233
-0.31297299 -0.10632052 0.05691367
-0.31314167 -0.10625103 0.056876332
-0.31333056 -0.10615547 0.056955386
-0.31352684 -0.10606305 0.056990605
-0.31369522 -0.10599474 0.05694636
-0.31385708 -0.10592152 0.056955148
-0.3140417 -0.10584632 0.056908544
-0.31420419 -0.10575705 0.057024561
-0.31438476 -0.10569264 0.05691687
-0.31457835 -0.10561533 0.056857556
-0.31476739 -0.10553563 0.056828246
-0.31491581 -0.10548296 0.05673793
-0.3150892 -0.10538834 0.05685737
-0.3152644 -0.10530308 0.056907631
-0.31546426 -0.10523637 0.056757234
-0.31564891 -0.10515439 0.05675675
-0.31580484 -0.10507718 0.056810524
-0.31599504 -0.10500121 0.056752376
-0.31617358 -0.10491532 0.056796867
-0.31634033 -0.10484434 0.056775685
-0.31654319 -0.10476358 0.056711737
-0.31671223 -0.10468751 0.056718208
-0.31685579 -0.10464412 0.056579489
-0.31700397 -0.10459596 0.056459196
-0.31720465 -0.10449684 0.056526683
-0.31740895 -0.10440156 0.056557279
-0.31758931 -0.10431299 0.056614444
-0.31776434 -0.10424647 0.056537893
-0.31794047 -0.10415639 0.056618135
-0.31811908 -0.10407217 0.056651093
-0.31831434 -0.1039909 0.056613687
-0.31850126 -0.10392095 0.056524429
-0.31866655 -0.10385807 0.056452513
-0.31883353 -0.10378189 0.056465905
-0.31902218 -0.10369846 0.0564631
-0.31919417 -0.10361786 0.056491472
-0.31935695 -0.10354999 0.056461066
-0.31955302 -0.10347193 0.05639945
-0.31972119 -0.10340336 0.056357503
-0.31989565 -0.1033186 0.056406613
-0.32010058 -0.10322439 0.056427982
-0.32027987 -0.10315393 0.056365255
-0.3204675 -0.103073 0.056348618
-0.32062474 -0.10300183 0.056357432
-0.32080144 -0.10292709 0.056331605
-0.32098344 -0.10285611 0.056264259
-0.32113063 -0.10279822 0.056213148
-0.32135525 -0.10269628 0.056227542
-0.32153738 -0.10261661 0.056218989
-0.32171753 -0.10253204 0.056249641
-0.3218779 -0.10246845 0.056197345
-0.32199609 -0.10245463 0.055934176
-0.32218412 -0.10235707 0.056029372
-0.32241488 -0.10223766 0.056144048
-0.3226085 -0.10215151 0.056144688
-0.32277346 -0.10208047 0.056129269
-0.32295245 -0.10199863 0.056144934
-0.32314724 -0.10191858 0.056100614
-0.32333902 -0.1018319 0.056110483
-0.3235141 -0.10175654 0.056093886
-0.32368189 -0.10168882 0.05604732
-0.32385561 -0.10160082 0.056120656
-0.3240383 -0.10152496 0.056084435
-0.32422003 -0.10145055 0.0560413
-0.3244043 -0.10137584 0.055992391
-0.32458395 -0.10129032 0.056031115
-0.32476291 -0.10121306 0.056015655
-0.32494289 -0.10113433 0.056007117
-0.3251349 -0.10105179 0.055988163
-0.32531238 -0.10097688 0.05596118
-0.32550427 -0.10088778 0.055987183
-0.3256402 -0.10084286 0.055881921
-0.3258017 -0.10078098 0.055814628
-0.32594609 -0.10073026 0.055723175
-0.3261795 -0.10060526 0.055867821
-0.32635957 -0.10052361 0.055878874
-0.32654378 -0.10045249 0.055805758
-0.32673535 -0.10035811 0.055868663
-0.32691267 -0.10029022 0.055794407
-0.32711697 -0.10019443 0.05582846
-0.32727501 -0.10013104 0.055781923
-0.32745644 -0.10005742 0.05573418
-0.32763797 -0.099977508 0.055729091
-0.32781014 -0.099898003 0.055749394
-0.32799357 -0.099818766 0.055733919
-0.32814848 -0.099759646 0.055667795
-0.3283284 -0.099682137 0.05565118
-0.32851136 -0.099594623 0.055693354
-0.32870972 -0.099495865 0.055765465
-0.32888368 -0.099429473 0.055691227
-0.329072 -0.099350095 0.055661909
-0.32924855 -0.099274419 0.055642996
-0.32944295 -0.099193022 0.055609051
-0.32960004 -0.099133953 0.055536002
-0.32977301 -0.099065788 0.055476751
-0.32996741 -0.09896455 0.055577692
-0.33014268 -0.098882318 0.055607211
-0.33034033 -0.098808296 0.055513304
-0.33051398 -0.098736614 0.055475958
-0.33067667 -0.098673187 0.055415578
-0.33085999 -0.098586708 0.055449683
-0.33105654 -0.098502994 0.055424955
-0.33123189 -0.098421246 0.055451006
-0.33141583 -0.098342441 0.055430923
-0.33159462 -0.098262042 0.055437375
-0.33176619 -0.098195866 0.0553689
-0.33194178 -0.098127395 0.055303875
-0.33213589 -0.098036468 0.055335648
-0.33232442 -0.097952418 0.055337451
-0.33251426 -0.097869478 0.055327728
-0.33268851 -0.097797528 0.055290382
-0.33285618 -0.097728334 0.055254195
-0.33304763 -0.097641125 0.055268686
-0.33323053 -0.097561605 0.055256672
-0.33342707 -0.097471118 0.055278055
-0.33359128 -0.097408727 0.055206154
-0.33379534 -0.097309634 0.055263259
-0.33397445 -0.09723486 0.055230506
-0.3341473 -0.097159974 0.055217363
-0.33432394 -0.097078323 0.055238802
-0.3344996 -0.097012527 0.055155333
-0.33470026 -0.096925303 0.055142127
-0.33489022 -0.09684553 0.055110496
-0.33504868 -0.096775346 0.055108927
-0.33525631 -0.096685186 0.055094544
-0.3354201 -0.096618563 0.055052612
-0.33560282 -0.09653303 0.055082109
-0.33579621 -0.096449696 0.055064298
-0.33598739 -0.096361928 0.055083398
-0.33615756 -0.096295357 0.055021845
-0.33633846 -0.096221477 0.054977562
-0.33654594 -0.096125111 0.055005841
-0.33671373 -0.096058913 0.054948904
-0.33688936 -0.095979571 0.054957658
-0.33706704 -0.095907122 0.054913387
-0.33725175 -0.095824771 0.054915205
-0.3374441 -0.095738679 0.054919314
-0.33763966 -0.095658123 0.054876141
-0.3378095 -0.095585421 0.054857247
-0.33799636 -0.095501103 0.054865975
-0.33819705 -0.095410809 0.054873519
-0.3383826 -0.095328078 0.054875337
-0.33853301 -0.095274173 0.054787323
-0.3387228 -0.095189236 0.054791432
-0.33892483 -0.09509138 0.054846242
-0.33910966 -0.095018297 0.054784656
-0.33927578 -0.09495642 0.054703515
-0.33948132 -0.09485735 0.054756004
-0.3396683 -0.09477789 0.054731295
-0.33984452 -0.094703361 0.054705471
-0.34002456 -0.094631232 0.054651964
-0.34022886 -0.094531864 0.054710228
-0.34039944 -0.094465449 0.054646365
-0.34059787 -0.094372436 0.054679275
-0.34078106 -0.094295152 0.05465113
-0.34097582 -0.094212241 0.054626409
-0.34116688 -0.094127066 0.054628205
-0.34134603 -0.094050072 0.054610446
-0.34152102 -0.093979314 0.05456271
-0.34169057 -0.093908101 0.054534595
-0.34190381 -0.093808845 0.054565165
-0.34208652 -0.093732461 0.054532401
-0.3422848 -0.093646452 0.054518044
-0.34246579 -0.093573898 0.054464538
-0.3426533 -0.093488947 0.054475572
-0.34282544 -0.093417428 0.05444169
-0.34304032 -0.093319133 0.054460719
-0.34322342 -0.093248516 0.054387607
-0.34342289 -0.093148246 0.054466631
-0.34359369 -0.093080208 0.054413144
-0.34377837 -0.093004316 0.05437116
-0.34397271 -0.092920899 0.054351047
-0.34416425 -0.092838399 0.054333255
-0.34434959 -0.092752546 0.054356966
-0.34453529 -0.092675842 0.054317288
-0.34471974 -0.09259294 0.054323711
-0.34489492 -0.09252651 0.054246012
-0.34507143 -0.092451356 0.054223642
-0.25720894 -0.13358873 0.040008742
-0.25742769 -0.13350858 0.039892867
-0.25763035 -0.13343181 0.039802395
-0.25782976 -0.1333553 0.039720006
-0.25802416 -0.1332778 0.039659534
-0.2582272 -0.13319884 0.039582904
-0.25841317 -0.13312188 0.039544363
-0.25859895 -0.13304633 0.039496608
-0.25877953 -0.13296972 0.039471921
-0.2589606 -0.13289185 0.039454143
-0.25913718 -0.13281684 0.039430626
-0.25931066 -0.13273931 0.039433632
-0.25948244 -0.13266455 0.039422803
-0.25964764 -0.13258731 0.039448891
-0.25981158 -0.13251281 0.039459992
-0.25997937 -0.13243696 0.039468773
-0.26014349 -0.1323612 0.039487951
-0.26030087 -0.13228419 0.039535962
-0.26045385 -0.13220863 0.039587446
-0.26061159 -0.13213164 0.039634306
-0.26075882 -0.13205475 0.039712336
-0.260903 -0.13197783 0.039799586
-0.26104835 -0.13190226 0.039874151
-0.26119149 -0.13182668 0.039955638
-0.26133093 -0.13174966 0.040057898
-0.26147664 -0.13167259 0.040141687
-0.26161194 -0.13159828 0.04023819
-0.26175681 -0.13151971 0.040334664
-0.26189497 -0.1314453 0.040423095
-0.26204118 -0.13136664 0.040516108
-0.26217151 -0.13129063 0.040639143
-0.26230425 -0.13121456 0.040755246
-0.26242936 -0.13113831 0.040895596
-0.26255956 -0.13105913 0.041040532
-0.26268518 -0.13098267 0.041180871
-0.26280797 -0.13090459 0.041340832
-0.26292264 -0.13082618 0.041527323
-0.26303598 -0.13074906 0.041709207
-0.26314598 -0.1306702 0.041913003
-0.25883654 -0.12970349 0.061507612
-0.2590335 -0.12961705 0.061500177
-0.25923425 -0.1295291 0.061491583
-0.25943124 -0.12944283 0.061482988
-0.25960398 -0.12936071 0.061519444
-0.25981396 -0.12927526 0.061465848
-0.26002622 -0.12918288 0.061452601
-0.26021755 -0.12909658 0.061461326
-0.26043299 -0.12901363 0.061374284
-0.26062736 -0.12892224 0.061408367
-0.26080856 -0.1288428 0.061400972
-0.26099402 -0.12876554 0.061365895
-0.26117173 -0.12868968 0.061344683
-0.26139477 -0.12859319 0.061326794
-0.26161855 -0.12849501 0.061318144
-0.26182532 -0.12840676 0.061293386
-0.26203412 -0.12831694 0.061273232
-0.26224428 -0.12823294 0.061209269
-0.26242408 -0.12814464 0.061266452
-0.26263735 -0.12806113 0.061189789
-0.26282501 -0.1279812 0.061166238
-0.26301238 -0.12788799 0.061233774
-0.2632243 -0.12780474 0.061159428
-0.26338425 -0.12772813 0.061197057
-0.2635648 -0.12765357 0.061158534
-0.26379988 -0.12755953 0.061087579
-0.26398349 -0.1274797 0.061075576
-0.2642014 -0.12739192 0.061013892
-0.26436201 -0.12730975 0.061087266
-0.26457566 -0.12722762 0.061000228
-0.26477015 -0.12714346 0.060984723
-0.26498049 -0.12704937 0.060988784
-0.26514882 -0.12696819 0.061032169
-0.26533091 -0.12688871 0.061022468
-0.26553252 -0.12680171 0.061004639
-0.26573488 -0.12671493 0.060983356
-0.26590917 -0.12663263 0.061016336
-0.26613262 -0.12654273 0.060952328
-0.26632866 -0.12645331 0.060967959
-0.26651105 -0.12637843 0.060925972
-0.26667869 -0.12629332 0.060998179
-0.26696777 -0.12619701 0.06077949
-0.26715106 -0.1261102 0.060815915
-0.26731762 -0.12603962 0.060792413
-0.26751888 -0.12595569 0.060754988
-0.26770398 -0.12586299 0.060825989
-0.26789477 -0.1257754 0.060845099
-0.26806802 -0.12569982 0.060835414
-0.26824614 -0.12562513 0.060804974
-0.26846698 -0.12554285 0.060697153
-0.2686429 -0.12545727 0.060747433
-0.26888236 -0.12535486 0.060720287
-0.26908311 -0.12527165 0.060679406
-0.26926374 -0.1252045 0.060590144
-0.26946771 -0.12511122 0.060608055
-0.26963267 -0.12503697 0.060614549
-0.26985562 -0.12494526 0.060564376
-0.27004856 -0.12486111 0.060553506
-0.27020499 -0.12478979 0.060565777
-0.2703895 -0.12470854 0.060560673
-0.27059606 -0.12461615 0.060564745
-0.27077883 -0.12454601 0.060489323
-0.27096629 -0.12446108 0.060500357
-0.27113068 -0.12437571 0.060584102
-0.27133775 -0.12429751 0.060490169
-0.27154499 -0.12421956 0.060393915
-0.27173597 -0.12413341 0.060402639
-0.27193341 -0.12403947 0.060444787
-0.27212656 -0.12395862 0.060410846
-0.27233008 -0.12387334 0.060375713
-0.27249736 -0.12379584 0.060397193
-0.27270114 -0.12370604 0.060392044
-0.27291667 -0.12361932 0.060330372
-0.27308711 -0.12354279 0.060335688
-0.27328327 -0.12346096 0.060299426
-0.2734704 -0.12337194 0.060339294
-0.27366886 -0.12329093 0.060290344
-0.27385479 -0.12320906 0.06028524
-0.27402404 -0.12313 0.060311317
-0.27422297 -0.12304947 0.060257759
-0.27441204 -0.12296621 0.060252659
-0.2745932 -0.12288576 0.060252182
-0.27479348 -0.12279837 0.060241278
-0.27497125 -0.12272977 0.060170479
-0.27514401 -0.12264696 0.060211532
-0.27534515 -0.12256528 0.060159113
-0.27554697 -0.12247618 0.060155131
-0.27571362 -0.1223993 0.060174294
-0.27592349 -0.12232086 0.060073435
-0.27609584 -0.1222328 0.060151387
-0.27627042 -0.12216139 0.060109422
-0.27647021 -0.12208269 0.060040869
-0.27665758 -0.12200254 0.06001962
-0.27685478 -0.12191514 0.060017951
-0.27703366 -0.12184031 0.059986345
-0.27724338 -0.12174939 0.059970818
-0.27739966 -0.12167745 0.059987698
-0.27761403 -0.12159125 0.059926026
-0.27781227 -0.12150747 0.059896678
-0.27797899 -0.12143973 0.059853576
-0.27815226 -0.12135769 0.059887722
-0.27834311 -0.12127126 0.059898756
-0.27854624 -0.12118699 0.059857864
-0.27872699 -0.12110809 0.05984816
-0.27891043 -0.12102748 0.05984192
-0.27909496 -0.12094742 0.059828743
-0.27923781 -0.1208672 0.059942529
-0.27939057 -0.12079412 0.059977867
-0.27961612 -0.12071127 0.059859671
-0.27983594 -0.12062622 0.059773769
-0.28003314 -0.12054628 0.059721366
-0.28021818 -0.12046395 0.059722029
-0.28039566 -0.12038735 0.059706584
-0.28058651 -0.12030481 0.059691086
-0.28076872 -0.12022442 0.059687153
-0.2809462 -0.12015748 0.059605978
-0.28113058 -0.12007205 0.059629701
-0.2813178 -0.11998807 0.059634984
-0.28151613 -0.1199034 0.059611399
-0.28168666 -0.11982378 0.059637472
-0.2818639 -0.11975424 0.059574742
-0.28204155 -0.11967196 0.059597336
-0.28222334 -0.11959855 0.059547286
-0.28240871 -0.11951725 0.059539884
-0.28258198 -0.11944947 0.059477162
-0.28278121 -0.11935592 0.059511229
-0.28297281 -0.11927848 0.059458844
-0.28314865 -0.11919887 0.059468757
-0.28331754 -0.11911862 0.059504062
-0.28349307 -0.11903883 0.059516281
-0.28368822 -0.11896404 0.059435055
-0.28388238 -0.11888174 0.059408031
-0.28406698 -0.11880791 0.0593522
-0.28424838 -0.11872499 0.059367869
-0.28442708 -0.11864395 0.059378929
-0.2846086 -0.11856114 0.059393443
-0.28478348 -0.11848502 0.059382603
-0.28495601 -0.11841113 0.059363708
-0.28515148 -0.11832671 0.059347048
-0.28534123 -0.11824601 0.059322342
-0.28552148 -0.11817022 0.059293047
-0.28572476 -0.11808402 0.059264839
-0.2858974 -0.11801076 0.059241325
-0.28607845 -0.117928 0.059256993
-0.28624913 -0.1178534 0.059248473
-0.28643903 -0.1177735 0.059218001
-0.28662661 -0.1176919 0.059205983
-0.28680336 -0.1176224 0.0591444
-0.28699997 -0.11754002 0.059110448
-0.28720289 -0.11745042 0.059106465
-0.28736556 -0.11738244 0.059077207
-0.28754354 -0.11730613 0.059058294
-0.28772587 -0.117225 0.059058964
-0.28792232 -0.11713879 0.059051529
-0.28810924 -0.11706631 0.058979556
-0.28826821 -0.11698215 0.059071384
-0.28845182 -0.1169069 0.059028242
-0.28863052 -0.11682722 0.059030078
-0.28879523 -0.11674815 0.059069999
-0.28901902 -0.1166654 0.058956414
-0.28918818 -0.11658129 0.059017088
-0.28933153 -0.11651425 0.059039772
-0.28951436 -0.11644867 0.058933217
-0.28971663 -0.11635953 0.058928072
-0.28990149 -0.11628187 0.058897607
-0.2900849 -0.1162028 0.058880985
-0.29024413 -0.11612277 0.058943979
-0.29043931 -0.11605171 0.058837388
-0.29061142 -0.1159758 0.05883348
-0.29080567 -0.11588853 0.058839887
-0.29099545 -0.11581206 0.058786355
-0.29116845 -0.11573745 0.05877091
-0.29132587 -0.11567688 0.058707077
-0.2915099 -0.11558839 0.058752723
-0.29168558 -0.11550614 0.058781084
-0.29187924 -0.11543559 0.058675654
-0.29205287 -0.11535069 0.058728237
-0.29224649 -0.11526896 0.058698911
-0.29243898 -0.11518586 0.058682263
-0.29260454 -0.11511371 0.058672599
-0.29277503 -0.11504257 0.058641024
-0.29294705 -0.11496128 0.058674008
-0.29313976 -0.11487877 0.058652751
-0.29332662 -0.11480054 0.058619976
-0.29350293 -0.11471921 0.058640271
-0.29368648 -0.11464263 0.058606341
-0.2938613 -0.11456569 0.058601283
-0.29403368 -0.11449168 0.058583532
-0.29421669 -0.11441466 0.058554225
-0.29439124 -0.1143375 0.058551461
-0.29458481 -0.11425765 0.058509443
-0.2947647 -0.11418287 0.058474381
-0.29494187 -0.11410335 0.058479685
-0.2951178 -0.11402914 0.058452699
-0.2953018 -0.11394726 0.058453377
-0.29547167 -0.11386929 0.058470227
-0.29564199 -0.11379214 0.058480162
-0.29582268 -0.11371989 0.058425486
-0.29600617 -0.11363706 0.058434233
-0.29619151 -0.11355831 0.058409538
-0.29638082 -0.1134797 0.058372136
-0.29656112 -0.11339878 0.058377434
-0.29674849 -0.11332525 0.058311217
-0.29693666 -0.11324475 0.058289971
-0.29711905 -0.11315952 0.058318321
-0.29729059 -0.1130759 0.058368601
-0.29744428 -0.11301579 0.058312856
-0.29762772 -0.11295401 0.058178626
-0.29780799 -0.11286278 0.058254249
-0.29798007 -0.11279128 0.058220357
-0.29816297 -0.1127072 0.058239482
-0.29833165 -0.11263705 0.058206759
-0.29849827 -0.11257256 0.058141746
-0.29867294 -0.112486 0.058202405
-0.29885373 -0.1124071 0.058192708
-0.29903138 -0.11233025 0.058178399
-0.29921547 -0.11225021 0.058166392
-0.29939258 -0.11217157 0.05816593
-0.2995871 -0.11208961 0.058135435
-0.29977748 -0.11200593 0.058129176
-0.29997477 -0.11192086 0.058111366
-0.30015182 -0.11184224 0.058110893
-0.30032915 -0.1117647 0.058102366
-0.30050635 -0.1116867 0.058097288
-0.3006818 -0.11159946 0.058160238
-0.30086321 -0.11154468 0.057984509
-0.30104393 -0.11146734 0.057964437
-0.30121937 -0.11137942 0.058032006
-0.30137664 -0.11130875 0.058037359
-0.30154973 -0.1112268 0.058071494
-0.30170411 -0.11115995 0.058059562
-0.3018772 -0.11110447 0.057913821
-0.30205986 -0.11104574 0.057761148
-0.30226806 -0.11094007 0.057850532
-0.30243713 -0.11085126 0.057943486
-0.30258986 -0.11076767 0.058050316
-0.30276716 -0.11069015 0.058041789
-0.30297244 -0.11062663 0.057853304
-0.30314603 -0.11054802 0.057863221
-0.30330673 -0.11047803 0.05785358
-0.30348772 -0.11041361 0.057744719
-0.30367789 -0.11033442 0.057708472
-0.30386779 -0.11024672 0.057731036
-0.30403826 -0.11017662 0.057692543
-0.30422181 -0.11010581 0.057619415
-0.30437896 -0.11002585 0.057688188
-0.30454603 -0.10995642 0.057655461
-0.30472624 -0.10987402 0.057671133
-0.30491266 -0.10980736 0.057561107
-0.3051061 -0.10971452 0.057607874
-0.3052898 -0.10962752 0.057644296
-0.30547285 -0.10955676 0.05757232
-0.30564991 -0.10947593 0.057586852
-0.30581421 -0.1093962 0.057632536
-0.30595601 -0.10932136 0.05771289
-0.30614457 -0.10926002 0.057560187
-0.30635741 -0.10916805 0.057542339
-0.30653358 -0.109099 0.057479613
-0.30670422 -0.10902119 0.057493001
-0.30688864 -0.10893202 0.057542093
-0.30706456 -0.10886374 0.057474758
-0.30724096 -0.10879049 0.057439703
-0.30740562 -0.1087123 0.057473861
-0.30759129 -0.10863885 0.057412267
-0.30776769 -0.10856493 0.057381831
-0.3079274 -0.10850012 0.057339899
-0.30810425 -0.10842278 0.057331361
-0.3082754 -0.1083434 0.057353973
-0.3084732 -0.10825031 0.057389207
-0.30864897 -0.1081799 0.057336856
-0.30882481 -0.10810843 0.057291426
-0.30900586 -0.10802533 0.057309397
-0.30917948 -0.10793484 0.057400033
-0.30934569 -0.10785238 0.057458401
-0.30953532 -0.10780041 0.057238828
-0.30969897 -0.10772979 0.057224564
-0.30987495 -0.10764384 0.057277139
-0.31006572 -0.10757083 0.057197087
-0.31024024 -0.10749165 0.057208158
-0.31039441 -0.10742404 0.057201982
-0.31056708 -0.10735264 0.057165794
-0.31074813 -0.10727105 0.057173386
-0.31093153 -0.10719183 0.057157923
-0.31112728 -0.10710965 0.057125121
-0.31128314 -0.10703621 0.057153538
-0.31146544 -0.10696103 0.05711386
-0.31164211 -0.1068853 0.057094947
-0.31184265 -0.1067966 0.057092112
-0.31201181 -0.10671759 0.057118189
-0.31218687 -0.10664732 0.057066999
-0.3123714 -0.10657369 0.057010021
-0.31253791 -0.10650332 0.056985363
-0.31270769 -0.10643149 0.056960713
-0.31289738 -0.10635031 0.056939453
-0.31303474 -0.10629983 0.056867611
-0.31324908 -0.10619568 0.056928154
-0.31341651 -0.10611472 0.05697269
-0.3136096 -0.10603222 0.056950271
-0.31377813 -0.10595636 0.056956753
-0.31394067 -0.10588945 0.056920577
-0.31411916 -0.10580188 0.056976616
-0.31428567 -0.10573184 0.05694966
-0.31447995 -0.10566068 0.056846526
-0.31467858 -0.10557095 0.056856386
-0.31484273 -0.1055135 0.05675102
-0.31500095 -0.10543681 0.056794424
-0.31517065 -0.10534552 0.056902371
-0.31536746 -0.10526746 0.056838434
-0.31556034 -0.10519861 0.056723781
-0.31571507 -0.10511819 0.056802936
-0.31589711 -0.10504313 0.05676325
-0.31608158 -0.10496241 0.056754701
-0.31624722 -0.10488224 0.056799229
-0.31645069 -0.10480089 0.056737591
-0.31661925 -0.10473215 0.056695633
-0.316771 -0.10467716 0.056611065
-0.31691122 -0.10463541 0.056471184
-0.31710497 -0.10454599 0.056493737
-0.3173033 -0.10444707 0.056567006
-0.31749833 -0.10435556 0.056599937
-0.3176752 -0.10428567 0.056540668
-0.31785232 -0.10419922 0.056593247
-0.31802577 -0.10411526 0.056640066
-0.31821662 -0.10402781 0.056658015
-0.31840461 -0.10396145 0.056541067
-0.31858635 -0.10389195 0.05646449
-0.31873828 -0.10382551 0.056457173
-0.31892595 -0.10373947 0.056475133
-0.3191064 -0.10365765 0.056486186
-0.31926501 -0.1035884 0.056477703
-0.31946853 -0.1035111 0.056388386
-0.31963032 -0.10344536 0.056346446
-0.31979981 -0.10336077 0.056409419
-0.32000366 -0.10326891 0.056418113
-0.32018477 -0.10319562 0.056369215
-0.3203797 -0.10311093 0.056356017
-0.32053399 -0.1030453 0.056336012
-0.32071033 -0.10296276 0.05636438
-0.32089752 -0.10289185 0.056280866
-0.32104728 -0.10283419 0.056220513
-0.32126674 -0.102733 0.056245305
-0.3214415 -0.10266201 0.056199882
-0.32162672 -0.10257334 0.056243207
-0.32178983 -0.10250549 0.05621165
-0.32192421 -0.10247329 0.056024499
-0.32209954 -0.10239714 0.056012519
-0.32232624 -0.10227663 0.05614683
-0.32251972 -0.10219107 0.056144014
-0.32269454 -0.10211616 0.056125108
-0.32285544 -0.10204031 0.056154668
-0.32305652 -0.10195832 0.056104559
-0.32325259 -0.10187278 0.05609367
-0.32343501 -0.10178991 0.056105874
-0.32359761 -0.10172687 0.056043185
-0.32377291 -0.1016404 0.056101531
-0.32394826 -0.10156508 0.056083772
-0.32413459 -0.1014876 0.056047544
-0.32431597 -0.10141402 0.055999789
-0.32449299 -0.1013327 0.056017779
-0.32468867 -0.1012448 0.056024183
-0.32486764 -0.10116787 0.056006424
-0.32504526 -0.10108951 0.05600249
-0.32522997 -0.10101462 0.055953581
-0.32542261 -0.10092467 0.055983059
-0.32557142 -0.10087149 0.05589503
-0.32572097 -0.10081035 0.055858895
-0.32586864 -0.1007653 0.055718996
-0.3260982 -0.10064268 0.055859067
-0.326285 -0.10055499 0.055890862
-0.32646921 -0.10048421 0.055815425
-0.32665977 -0.10039146 0.05587028
-0.32683492 -0.10032369 0.055801786
-0.32704514 -0.10022628 0.055828914
-0.32720488 -0.10016077 0.05579159
-0.3273865 -0.10008727 0.055742688
-0.32756791 -0.10000773 0.055735298
-0.32774261 -0.099928126 0.055748675
-0.3279359 -0.099845015 0.055729717
-0.32809088 -0.099782974 0.055683192
-0.3282645 -0.099708088 0.055667747
-0.32844695 -0.099621475 0.055705324
-0.32865128 -0.099518038 0.055791259
-0.32883149 -0.0994526 0.055691626
-0.32901371 -0.099375598 0.055664632
-0.32919231 -0.099297479 0.05565609
-0.32939363 -0.099213175 0.055620976
-0.32954541 -0.099158332 0.055535249
-0.32971808 -0.099090815 0.055472538
-0.32991409 -0.098990552 0.05556196
-0.33009231 -0.098901927 0.055626065
-0.33029249 -0.098827794 0.055525225
-0.33046544 -0.098757282 0.055482104
-0.33062369 -0.098694138 0.05543327
-0.33081135 -0.098607928 0.055452377
-0.33101228 -0.098521769 0.055431098
-0.33118829 -0.098442078 0.055441014
-0.33137426 -0.098361045 0.055430144
-0.33155611 -0.09827707 0.055451576
-0.33172697 -0.098209344 0.055395789
-0.33190647 -0.098141685 0.055313449
-0.33209997 -0.098051697 0.055340618
-0.33228746 -0.097969122 0.055335507
-0.33248305 -0.097882114 0.055336151
-0.33265492 -0.097813256 0.05528497
-0.33282489 -0.097741514 0.05525915
-0.33301502 -0.097656071 0.055265579
-0.33320141 -0.097575173 0.055252407
-0.33340105 -0.097481281 0.055287622
-0.33356762 -0.097416312 0.05522608
-0.33378088 -0.097316697 0.05525896
-0.33395457 -0.09724348 0.055231981
-0.33413327 -0.097164467 0.055229206
-0.33430547 -0.097083263 0.055261042
-0.33448049 -0.097018428 0.055172946
-0.3346774 -0.096935749 0.055140153
-0.33486843 -0.096855 0.055111974
-0.33503991 -0.09677732 0.055121906
-0.33524275 -0.096690491 0.055099469
-0.33540782 -0.096622616 0.055062138
-0.33559304 -0.096536815 0.055085864
-0.33578753 -0.096452497 0.055071518
-0.33598375 -0.096361637 0.055096369
-0.33615303 -0.096293926 0.055045195
-0.33634147 -0.09621653 0.055002041
-0.33654651 -0.096123122 0.055017639
-0.33671424 -0.096054912 0.054974545
-0.33689612 -0.095973484 0.054978676
-0.33707231 -0.095902883 0.054926336
-0.33724689 -0.095825016 0.054928176
-0.33744681 -0.095735401 0.054933418
-0.33764353 -0.095653825 0.054893699
-0.3378188 -0.095577702 0.054881707
-0.33800706 -0.095494278 0.054880064
-0.33821428 -0.095403798 0.054869141
-0.33839715 -0.095324121 0.054858286
-0.3385517 -0.095263794 0.054801386
-0.33873481 -0.095181815 0.054805517
-0.33894348 -0.095079325 0.054871842
-0.33912611 -0.095010966 0.054784887
-0.33928731 -0.09495227 0.054696832
-0.33950207 -0.094845891 0.054771226
-0.33968994 -0.094765685 0.054748822
-0.33986852 -0.094688945 0.054731056
-0.34004167 -0.094622061 0.054662578
-0.34025216 -0.094518594 0.054730058
-0.34042135 -0.094453819 0.05465927
-0.34062365 -0.094359078 0.054692183
-0.34080753 -0.094283357 0.05465135
-0.3410041 -0.094198793 0.054632381
-0.34120378 -0.094109118 0.054638781
-0.34138295 -0.094032273 0.054619864
-0.34155422 -0.093961485 0.054583665
-0.3417193 -0.093894966 0.05453711
-0.34193555 -0.093794875 0.054564223
-0.34212822 -0.093710691 0.054554489
-0.34232029 -0.093629122 0.054528616
-0.34250781 -0.093554176 0.054471631
-0.34268379 -0.093475021 0.054478079
-0.34286398 -0.093399584 0.054446481
-0.34308717 -0.093295231 0.05448164
-0.34325686 -0.093232274 0.05439702
-0.3434585 -0.093133919 0.05445645
-0.34363088 -0.093064502 0.054407574
-0.34383103 -0.092979357 0.05438168
-0.34402213 -0.09289553 0.054374263
-0.34421474 -0.092814066 0.054346088
-0.34439793 -0.092732385 0.054347917
-0.34457782 -0.092657775 0.054311693
-0.34477428 -0.092567146 0.054334246
-0.3449508 -0.092497751 0.054272667
-0.34512541 -0.092424631 0.054242235
-0.25732809 -0.13354675 0.039934218
-0.25753272 -0.13346981 0.039839081
-0.25773406 -0.13339314 0.039752044
-0.25793657 -0.13331527 0.039669596
-0.25813127 -0.13323779 0.039607942
-0.25832763 -0.13315909 0.039549742
-0.25850791 -0.13308364 0.039518107
-0.25869113 -0.13300687 0.039486464
-0.25887737 -0.1329301 0.039445594
-0.25905323 -0.13285372 0.039433584
-0.25922689 -0.13277745 0.039427333
-0.25939924 -0.13270128 0.039424557
-0.25957298 -0.13262515 0.039417159
-0.25973698 -0.13254791 0.0394467
-0.25990015 -0.13247344 0.039460093
-0.26006442 -0.13239762 0.039479248
-0.26022464 -0.13232191 0.039509941
-0.26038325 -0.13224486 0.039554492
-0.26053947 -0.13216923 0.039596733
-0.26068711 -0.1320923 0.039673597
-0.26082897 -0.13201676 0.039758548
-0.2609756 -0.13193978 0.039838877
-0.26112226 -0.13186416 0.039909977
-0.26126441 -0.13178712 0.040004164
-0.26140392 -0.13171145 0.040097196
-0.26154405 -0.13163431 0.040198304
-0.26168719 -0.13155854 0.040280942
-0.26183054 -0.13148132 0.040372811
-0.26196975 -0.13140544 0.040468156
-0.26210195 -0.13132945 0.040585428
-0.26223505 -0.13125338 0.040700387
-0.26237038 -0.13117582 0.040818799
-0.26249331 -0.131098 0.040976472
-0.26262388 -0.13102019 0.041111041
-0.26274344 -0.13094351 0.04127102
-0.26286283 -0.13086525 0.041442532
-0.26298034 -0.13078678 0.041620966
-0.26309249 -0.1307095 0.041807495
-0.26319453 -0.13063179 0.042027496
-0.25892729 -0.12966162 0.061518084
-0.25912187 -0.12957506 0.061518703
-0.25932783 -0.12948735 0.061492771
-0.25951815 -0.12940606 0.061470341
-0.25968665 -0.12932549 0.061509084
-0.25992453 -0.12922902 0.06144616
-0.26012689 -0.12913968 0.061442144
-0.26029992 -0.12906133 0.061452046
-0.26054049 -0.12896724 0.061364897
-0.26069519 -0.12888786 0.061437123
-0.26091346 -0.12880537 0.061338499
-0.26105344 -0.12873237 0.061411925
-0.26129553 -0.12863708 0.061328221
-0.2615056 -0.12854889 0.061293051
-0.26172027 -0.12845188 0.061303996
-0.2619254 -0.12836352 0.061284985
-0.2621384 -0.12827778 0.061224427
-0.26231956 -0.1281914 0.061264295
-0.26253372 -0.12810597 0.061197978
-0.26272711 -0.12802266 0.061180148
-0.26292211 -0.12793387 0.061194606
-0.26311654 -0.12784891 0.061184838
-0.26328981 -0.12777349 0.061173983
-0.26344994 -0.12769493 0.061224297
-0.26368961 -0.12761277 0.061058715
-0.26389021 -0.12751913 0.061089311
-0.26406217 -0.12744583 0.061068073
-0.26427612 -0.12735373 0.061047886
-0.26444906 -0.12727286 0.061075091
-0.26466823 -0.12718743 0.060993761
-0.2648586 -0.12709883 0.061020914
-0.26504806 -0.12701014 0.061051533
-0.26524219 -0.12693802 0.060955279
-0.26541796 -0.12684776 0.061037838
-0.26563323 -0.12675846 0.06099458
-0.26580438 -0.12667567 0.061040234
-0.26603222 -0.12659028 0.060932357
-0.2662091 -0.12650022 0.061010297
-0.26643515 -0.12641902 0.060879357
-0.26660317 -0.12633187 0.060964242
-0.26685423 -0.12624227 0.060814776
-0.26704633 -0.1261546 0.060830396
-0.26722461 -0.12608156 0.060788389
-0.2673929 -0.12600496 0.060800619
-0.26762277 -0.1259024 0.060803443
-0.26779127 -0.12581961 0.060857192
-0.26798397 -0.12573439 0.060854353
-0.26816344 -0.12566623 0.060775436
-0.26835942 -0.12558177 0.060757596
-0.2685568 -0.12549548 0.06074784
-0.26874319 -0.12540951 0.06076923
-0.26898479 -0.12531613 0.060674012
-0.26915583 -0.12524495 0.060641244
-0.26937422 -0.12514985 0.060627967
-0.26954013 -0.12507787 0.060615972
-0.26971555 -0.12499897 0.060622413
-0.26995668 -0.12489971 0.060568705
-0.27013156 -0.12482308 0.060561299
-0.27029091 -0.12475233 0.060560867
-0.2705017 -0.12465619 0.060577586
-0.27068993 -0.12458483 0.060494035
-0.2708624 -0.12450571 0.060510866
-0.27105749 -0.12441552 0.060534552
-0.27123308 -0.12433485 0.060552523
-0.2714358 -0.1242557 0.060478151
-0.27164304 -0.12417081 0.060429148
-0.27183443 -0.12407769 0.060483977
-0.27204409 -0.12399359 0.060422283
-0.2722466 -0.12391029 0.060376748
-0.27241889 -0.12383159 0.060391273
-0.27261987 -0.12374337 0.060383797
-0.27282462 -0.12365619 0.060357869
-0.27301347 -0.12357709 0.060325056
-0.27318299 -0.12350029 0.060334973
-0.27339208 -0.12341458 0.060285963
-0.27358186 -0.12332624 0.06031312
-0.27377632 -0.12324415 0.06028375
-0.27395603 -0.12316299 0.06029249
-0.27413461 -0.12308405 0.060289696
-0.2743296 -0.12300239 0.060255721
-0.27451915 -0.12291925 0.060248274
-0.27471498 -0.12283298 0.060243122
-0.27490404 -0.12276006 0.06016764
-0.27506489 -0.12267864 0.060235243
-0.27526817 -0.12260007 0.060155116
-0.2754676 -0.12251271 0.060146492
-0.27565962 -0.12242304 0.060175955
-0.27582943 -0.12235765 0.060107447
-0.27603474 -0.12226192 0.060138017
-0.27619973 -0.12218985 0.060129493
-0.27640632 -0.12211067 0.060043588
-0.27658743 -0.12203094 0.060038477
-0.27679732 -0.12193978 0.06002406
-0.27696335 -0.12187114 0.059989005
-0.27717006 -0.12177902 0.059990749
-0.27734721 -0.12170089 0.059986807
-0.27753615 -0.12162446 0.059935547
-0.27774626 -0.12153389 0.059916519
-0.27791974 -0.12146585 0.059854917
-0.2781015 -0.12138142 0.059879791
-0.27828452 -0.12130032 0.059878133
-0.27848837 -0.12121337 0.059853353
-0.27866763 -0.12113378 0.059852868
-0.27886173 -0.12104879 0.059844263
-0.27904099 -0.12097225 0.059823014
-0.27921399 -0.12089017 0.059858285
-0.27934328 -0.12080987 0.060013629
-0.27954406 -0.12073685 0.05990351
-0.27978927 -0.12064493 0.059787519
-0.27998403 -0.12056982 0.059709713
-0.28017068 -0.12048508 0.059721887
-0.28034136 -0.12040827 0.059728343
-0.28054076 -0.12032348 0.059702419
-0.28072247 -0.12024585 0.059681162
-0.28089887 -0.12017516 0.059628788
-0.28108007 -0.12009436 0.059630595
-0.28127378 -0.12000716 0.059638143
-0.28145811 -0.11992805 0.059619181
-0.28164834 -0.1198424 0.059626732
-0.28181708 -0.11977154 0.059598587
-0.28199902 -0.11969143 0.059593476
-0.28218254 -0.11961555 0.059554912
-0.28236157 -0.11954065 0.059523284
-0.28253904 -0.11946168 0.059523948
-0.28273743 -0.11937427 0.059518799
-0.28293252 -0.11929528 0.059466369
-0.28311026 -0.1192167 0.059463568
-0.2832914 -0.11913322 0.059483834
-0.28345853 -0.11905529 0.059508748
-0.28364262 -0.11898068 0.059459802
-0.28383628 -0.11890148 0.059413146
-0.28402704 -0.11882067 0.059386097
-0.28421116 -0.11874656 0.05933369
-0.28439146 -0.11865921 0.059382796
-0.2845611 -0.11857948 0.059412308
-0.28474277 -0.11850034 0.05940143
-0.28491479 -0.118426 0.059387121
-0.28511053 -0.11834536 0.059343915
-0.2853038 -0.11825939 0.059344538
-0.28547549 -0.11818891 0.059304863
-0.28568256 -0.1181014 0.059274308
-0.28586254 -0.11802554 0.05924613
-0.28603673 -0.11794549 0.059264109
-0.28621325 -0.11787119 0.059235942
-0.28639296 -0.1177914 0.059235454
-0.28658205 -0.11771084 0.059211869
-0.28676531 -0.11763812 0.059152544
-0.28695193 -0.11756001 0.059119746
-0.28715819 -0.11746877 0.059116878
-0.28732932 -0.11739923 0.059072588
-0.28749904 -0.11732437 0.059068657
-0.28768387 -0.11724095 0.059077382
-0.28788126 -0.11715536 0.059062995
-0.28806433 -0.11708815 0.058966771
-0.28823036 -0.11700136 0.05905512
-0.28841659 -0.11691935 0.059049997
-0.28859466 -0.11684351 0.059027601
-0.28875789 -0.1167629 0.059082504
-0.28897309 -0.11668567 0.058957361
-0.28914604 -0.1166004 0.059014555
-0.2892943 -0.11652862 0.059054509
-0.28946799 -0.11646321 0.058974463
-0.2896716 -0.11638011 0.05892431
-0.28986168 -0.11629791 0.058908798
-0.29004347 -0.11622194 0.058876008
-0.29020187 -0.11614092 0.058948234
-0.29039323 -0.11607055 0.058848523
-0.29056886 -0.11599325 0.058843426
-0.29076388 -0.11590666 0.05884289
-0.29095024 -0.11583138 0.058791637
-0.29112387 -0.11575734 0.058770407
-0.29127938 -0.11569423 0.058729619
-0.2914649 -0.11560745 0.058759097
-0.29164428 -0.11552407 0.058783967
-0.29183808 -0.11545346 0.058678497
-0.29200846 -0.11537 0.058731079
-0.29220232 -0.11528835 0.058700565
-0.29239586 -0.11520647 0.05867235
-0.29256141 -0.11513416 0.058663823
-0.29273403 -0.11505973 0.058648363
-0.2929056 -0.11497761 0.058688249
-0.2930958 -0.11489756 0.058657743
-0.2932764 -0.11482247 0.058622658
-0.29345921 -0.11473791 0.058645219
-0.29364312 -0.11466168 0.058607806
-0.2938211 -0.11458284 0.058606174
-0.29399356 -0.11450879 0.058588393
-0.2941741 -0.1144344 0.058548689
-0.2943514 -0.11435466 0.058555126
-0.29454204 -0.11427663 0.058509625
-0.29472172 -0.11420126 0.058479153
-0.29490206 -0.11411984 0.058487877
-0.29508242 -0.11404604 0.058444716
-0.29526335 -0.11396586 0.058443062
-0.2954326 -0.11388648 0.058471434
-0.29560009 -0.11381144 0.058475588
-0.2957831 -0.1137356 0.058438186
-0.29596743 -0.11365426 0.058434214
-0.29615298 -0.11357561 0.058408342
-0.29634261 -0.11349753 0.058366302
-0.2965197 -0.11341789 0.058372729
-0.29670715 -0.11334433 0.058306478
-0.29689482 -0.11326235 0.05829674
-0.29708382 -0.11317402 0.058326211
-0.29725245 -0.11309253 0.058370724
-0.29741335 -0.11303093 0.058303401
-0.29759261 -0.1129678 0.058191035
-0.29777357 -0.11287829 0.058252811
-0.29794511 -0.11280484 0.058233894
-0.29812244 -0.11272627 0.058232255
-0.29829201 -0.11265861 0.058179889
-0.29846627 -0.11258244 0.058171339
-0.29864168 -0.11249793 0.058215842
-0.29882649 -0.11241961 0.058189958
-0.29900336 -0.11233972 0.058198705
-0.29918492 -0.11226335 0.058169376
-0.2993654 -0.11218321 0.058168873
-0.29956681 -0.11209922 0.058131419
-0.29975781 -0.11201764 0.058108989
-0.29994878 -0.11193623 0.058085397
-0.30012491 -0.11185294 0.058119513
-0.30030674 -0.1117795 0.058069423
-0.30048621 -0.11169456 0.058104686
-0.30066293 -0.11161354 0.058121495
-0.30083731 -0.11155852 0.057968788
-0.30102086 -0.11147668 0.057970595
-0.30118698 -0.11139579 0.058018573
-0.30135387 -0.11131882 0.058037721
-0.30152687 -0.11123556 0.058081072
-0.30168512 -0.11117106 0.058041424
