# .PCD v0.7 - Point Cloud Data file format
VERSION 0.7
FIELDS x y z
SIZE 4 4 4
TYPE F F F
COUNT 1 1 1
WIDTH 1268
HEIGHT 1
VIEWPOINT 0 0 0 1 0 0 0
POINTS 1268
DATA ascii
-0.13660289 -0.49461317 0.047588628
-0.13674141 -0.49472457 0.047534749
-0.13689998 -0.49484044 0.047541887
-0.13705131 -0.49495625 0.047517918
-0.13721429 -0.49507323 0.047537729
-0.13735756 -0.49518582 0.04749766
-0.13751352 -0.49530134 0.047495585
-0.13766035 -0.49541479 0.047465872
-0.13780706 -0.49552968 0.047426943
-0.13798675 -0.49565241 0.047485877
-0.13812003 -0.49576423 0.047406636
-0.13827688 -0.49588019 0.047405716
-0.13842109 -0.49599466 0.04735871
-0.1385819 -0.49611023 0.047377385
-0.13874294 -0.49623027 0.047370661
-0.13887468 -0.49634174 0.04728682
-0.13906167 -0.49646831 0.04735494
-0.13918643 -0.49657518 0.047267679
-0.13935077 -0.49669766 0.047260936
-0.13951655 -0.496822 0.047249585
-0.13965455 -0.49693224 0.047200315
-0.13982022 -0.4970524 0.047213182
-0.13998142 -0.49716866 0.047229536
-0.14013432 -0.49728426 0.047213636
-0.14028177 -0.4974013 0.047165465
-0.14044473 -0.49752101 0.047169115
-0.14058271 -0.4976328 0.047110617
-0.14076233 -0.49775565 0.0471684
-0.14092049 -0.49787846 0.047132857
-0.14106235 -0.49798998 0.047092795
-0.14121515 -0.49810863 0.047058437
-0.14136374 -0.49822062 0.047044873
-0.14153638 -0.49834478 0.047064621
-0.14169788 -0.49846596 0.047053285
-0.1418481 -0.49858269 0.047018945
-0.14200726 -0.4987033 0.047000702
-0.14218692 -0.49882832 0.047045797
-0.14231065 -0.49893641 0.046947002
-0.14246842 -0.49905542 0.046932228
-0.14261521 -0.49917001 0.046895597
-0.14277281 -0.49928769 0.04688774
-0.14295232 -0.49941713 0.0469063
-0.14309675 -0.49953249 0.046854682
-0.1432379 -0.49964291 0.046818085
-0.14339805 -0.49976289 0.046807915
-0.14355922 -0.49988323 0.04680004
-0.14374647 -0.50000995 0.046868157
-0.063381702 -0.44069514 0.046705078
-0.063552603 -0.44080412 0.046806727
-0.067166254 -0.44213623 0.054704748
-0.067352206 -0.44229245 0.054592937
-0.067510873 -0.44240177 0.054639295
-0.067673758 -0.44251537 0.054678716
-0.067854621 -0.44266355 0.054592304
-0.06803149 -0.44280505 0.05452783
-0.068202741 -0.44293696 0.054495689
-0.068363734 -0.44305092 0.054524731
-0.068536147 -0.44318524 0.054483354
-0.06870617 -0.44331232 0.054474279
-0.068866283 -0.44342503 0.054506794
-0.069043294 -0.44356823 0.054433092
-0.069213614 -0.44369963 0.054399796
-0.069375701 -0.44381303 0.054436915
-0.069545329 -0.44394353 0.054405931
-0.069712244 -0.4440693 0.054391112
-0.069890022 -0.44421518 0.054304719
-0.070044726 -0.44431883 0.054367252
-0.070202954 -0.44442898 0.054406691
-0.070382074 -0.44457471 0.05432722
-0.07055112 -0.44470537 0.054292779
-0.070731431 -0.44485742 0.054180991
-0.070894048 -0.44497648 0.054186966
-0.071044117 -0.44507182 0.054278359
-0.071210958 -0.4451991 0.054254308
-0.071380831 -0.4453288 0.054229096
-0.071548313 -0.4454577 0.054198127
-0.071721807 -0.44559848 0.054123294
-0.071881257 -0.44571227 0.054146577
-0.072041601 -0.4458279 0.054162946
-0.072201557 -0.44594288 0.054181613
-0.072369665 -0.44607028 0.054162171
-0.072538346 -0.44620281 0.054115053
-0.072711632 -0.44634479 0.054032143
-0.072875373 -0.44646803 0.054018494
-0.073035926 -0.44658497 0.054027941
-0.073197886 -0.44670492 0.05402584
-0.073362276 -0.4468261 0.054027174
-0.073536359 -0.44697121 0.053929273
-0.073689319 -0.44707316 0.053994127
-0.073856063 -0.4472037 0.053950474
-0.074022017 -0.44733283 0.05391144
-0.074182168 -0.44745007 0.053917423
-0.074350327 -0.44758028 0.053881839
-0.074516736 -0.44771111 0.053834725
-0.074669227 -0.44781256 0.053900726
-0.074837558 -0.44794795 0.053835154
-0.075003654 -0.44807467 0.053811111
-0.075163648 -0.44819257 0.053812481
-0.075326227 -0.44831201 0.053816147
-0.075491473 -0.4484418 0.053770188
-0.075650312 -0.44855767 0.053778484
-0.07581573 -0.44868839 0.053727929
-0.075978853 -0.44880977 0.053722352
-0.076138899 -0.44892889 0.053716801
-0.076303273 -0.44905806 0.053670861
-0.076464057 -0.44917926 0.053656079
-0.076626658 -0.44930029 0.053650513
-0.076785341 -0.44941702 0.053653043
-0.076931655 -0.44952852 0.053632572
-0.077104196 -0.44968304 0.053472403
-0.077277951 -0.44980273 0.053523283
-0.077429757 -0.44990385 0.053588133
-0.077589795 -0.45001984 0.053601045
-0.077756844 -0.450158 0.05351356
-0.077911332 -0.45028588 0.053431921
-0.078075215 -0.45039693 0.053490933
-0.078230359 -0.45050147 0.053549998
-0.078392968 -0.45062992 0.053500608
-0.078555673 -0.45075372 0.053478893
-0.078714684 -0.45087364 0.053464122
-0.078876115 -0.45100003 0.053421658
-0.079040624 -0.45113474 0.053343415
-0.079194397 -0.45123634 0.053414028
-0.079350449 -0.45134938 0.053426951
-0.079517953 -0.45148748 0.053341776
-0.079666674 -0.45158127 0.053436633
-0.079833977 -0.45172524 0.053315699
-0.079988852 -0.45183587 0.053337857
-0.080147266 -0.45195046 0.053351928
-0.080307454 -0.45207614 0.053308308
-0.080471493 -0.45221302 0.053215083
-0.080626935 -0.45232603 0.053225711
-0.080788314 -0.45245004 0.053197075
-0.080942959 -0.45256105 0.053215787
-0.081104092 -0.45268488 0.053187162
-0.08125966 -0.45279893 0.053192016
-0.08141765 -0.45292044 0.053163402
-0.081571937 -0.453031 0.053183265
-0.081697382 -0.45311362 0.053242508
-0.081870936 -0.45324311 0.05323457
-0.082052067 -0.45340377 0.053075492
-0.082206748 -0.45351639 0.053084973
-0.082361296 -0.45362872 0.053095594
-0.08250396 -0.45373869 0.053068236
-0.082677722 -0.45387068 0.05304645
-0.082835607 -0.45399484 0.053001706
-0.082993045 -0.45411026 0.053006548
-0.083147906 -0.45422477 0.053005643
-0.083304249 -0.45434466 0.052979354
-0.083460666 -0.45446521 0.0529496
-0.083615445 -0.45457202 0.052993678
-0.083773278 -0.45469829 0.052936234
-0.083930217 -0.45481336 0.05294108
-0.084083408 -0.45492312 0.052960947
-0.084240042 -0.45504615 0.05291735
-0.084396571 -0.45516932 0.052872606
-0.084540375 -0.45527017 0.052904058
-0.084705099 -0.45538962 0.05291694
-0.084864765 -0.45551723 0.052859485
-0.085019574 -0.45563504 0.052838966
-0.085178398 -0.45576027 0.052791908
-0.085331798 -0.45587292 0.052795619
-0.08548256 -0.45599493 0.052732453
-0.085642867 -0.45611796 0.052704986
-0.08579874 -0.45623204 0.052710991
-0.085949719 -0.45634583 0.052697424
-0.086078197 -0.45643261 0.052745111
-0.086261153 -0.45658544 0.052640237
-0.086415157 -0.45670363 0.052613955
-0.086569145 -0.45682216 0.052585382
-0.086723745 -0.45694447 0.052537188
-0.086862445 -0.45704761 0.052532911
-0.08702255 -0.45716113 0.05256081
-0.087173507 -0.45726454 0.052608367
-0.087311521 -0.45736426 0.052621394
-0.087464653 -0.45749524 0.05251554
-0.08760526 -0.45759648 0.052530862
-0.087794684 -0.45775467 0.052422494
-0.087950967 -0.45786124 0.052474629
-0.088108093 -0.4579905 0.052396432
-0.088256367 -0.45807633 0.052536279
-0.08840961 -0.45819706 0.052491553
-0.088562727 -0.45831788 0.05244568
-0.088718869 -0.45844349 0.052384786
-0.088870548 -0.45855486 0.052388512
-0.089007668 -0.4586738 0.052283902
-0.089176014 -0.45879769 0.052286375
-0.089326918 -0.45890382 0.052317783
-0.089477591 -0.45900741 0.052363046
-0.089626506 -0.45911968 0.052349482
-0.089781083 -0.45923749 0.052327815
-0.089936107 -0.45936185 0.052269239
-0.090087608 -0.45947701 0.052249901
-0.0902391 -0.45959312 0.052224793
-0.090389788 -0.45969847 0.052259661
-0.090536676 -0.45982915 0.052128468
-0.090687543 -0.45993993 0.0521322
-0.090840824 -0.46004602 0.052173976
-0.090994492 -0.46016005 0.052170765
-0.091137014 -0.46026778 0.052156094
-0.091287762 -0.46037942 0.05215406
-0.091449618 -0.46049851 0.052156571
-0.091600344 -0.46061367 0.052133776
-0.091750994 -0.46073091 0.052098293
-0.091901504 -0.46084318 0.052091636
-0.092051953 -0.46095267 0.052101143
-0.092180125 -0.46104217 0.052131534
-0.09235277 -0.46117353 0.052108604
-0.092502885 -0.46129721 0.052032754
-0.092656024 -0.46140498 0.052064154
-0.092803113 -0.46152449 0.051999852
-0.09295582 -0.46164206 0.051971279
-0.093080729 -0.46173736 0.051953252
-0.093255423 -0.46187219 0.051918782
-0.093405657 -0.46197742 0.051952496
-0.093554683 -0.46210146 0.051869735
-0.093704589 -0.46221036 0.051880393
-0.093849018 -0.46231401 0.051898003
-0.094006807 -0.46243382 0.051878627
-0.094156921 -0.46253973 0.051907733
-0.094305269 -0.46266347 0.051823817
-0.094455004 -0.46277222 0.051834475
-0.094603814 -0.4628889 0.051794391
-0.094753236 -0.46299958 0.051792365
-0.094902247 -0.46311307 0.051771879
-0.095039688 -0.46319929 0.051862195
-0.095176831 -0.46333113 0.051681459
-0.095330045 -0.46345535 0.051615972
-0.095466346 -0.46356842 0.051542513
-0.095647611 -0.46368957 0.051617578
-0.095793374 -0.46378291 0.051702075
-0.09593831 -0.46389866 0.051650472
-0.096093506 -0.46402571 0.051576898
-0.09624254 -0.46413511 0.051580641
-0.09638869 -0.46424299 0.051580939
-0.096519895 -0.46434587 0.051545568
-0.096679017 -0.46446702 0.051523879
-0.096833803 -0.46457875 0.051539116
-0.096987545 -0.46469477 0.051524375
-0.097135164 -0.46479592 0.051570803
-0.097273089 -0.4649094 0.051501945
-0.097408459 -0.46500716 0.051514987
-0.097582087 -0.46513435 0.051520899
-0.097722121 -0.46523908 0.051513154
-0.097881094 -0.46535897 0.051498383
-0.098000415 -0.46546495 0.051392723
-0.098168418 -0.46558762 0.051400967
-0.098322421 -0.46570089 0.051403522
-0.098469019 -0.46581572 0.051364604
-0.098614164 -0.46592441 0.051355679
-0.098737605 -0.46602583 0.051294982
-0.098893046 -0.46612498 0.051387496
-0.09906026 -0.46625876 0.051326539
-0.099201046 -0.46636909 0.051288813
-0.099337578 -0.466472 0.051276479
-0.09949246 -0.466591 0.051249042
-0.099642836 -0.46669477 0.051291984
-0.099786624 -0.46680579 0.05126347
-0.099946186 -0.46693021 0.051224466
-0.10008148 -0.46702713 0.051242128
-0.10023651 -0.46714506 0.051221617
-0.1003796 -0.46724111 0.05127845
-0.10052664 -0.4673678 0.051171474
-0.10065748 -0.46746609 0.051161483
-0.10082537 -0.46758768 0.051175486
-0.10096321 -0.46769428 0.051147006
-0.10111222 -0.46780115 0.051165741
-0.10127854 -0.4679257 0.051155534
-0.10140202 -0.46802303 0.051119059
-0.10154292 -0.46813738 0.051058255
-0.10169237 -0.46825686 0.051004328
-0.10185511 -0.46837348 0.05102529
-0.10200609 -0.46849 0.050995566
-0.10213102 -0.46859056 0.050946392
-0.10228726 -0.46870473 0.050953552
-0.10243514 -0.46880686 0.050995361
-0.10257394 -0.46891063 0.050987631
-0.10272391 -0.46903422 0.050911777
-0.10288011 -0.46914834 0.050918937
-0.10301369 -0.46924749 0.050915852
-0.10316061 -0.46935713 0.050909217
-0.1033072 -0.46947291 0.05086454
-0.10344993 -0.46958235 0.050840631
-0.10360341 -0.46969995 0.050815511
-0.10375269 -0.46980622 0.050838862
-0.10390893 -0.46992019 0.050847173
-0.10405424 -0.47003153 0.050823249
-0.10419236 -0.47014087 0.050779767
-0.10432261 -0.47024363 0.050740942
-0.10447993 -0.47035098 0.050793074
-0.10461733 -0.47045568 0.050773818
-0.10475393 -0.47055101 0.05080647
-0.104904 -0.47066179 0.050806738
-0.1050662 -0.4707942 0.050731972
-0.10521817 -0.47091264 0.05069533
-0.10535841 -0.47102374 0.050650679
-0.10550177 -0.4711315 0.050639454
-0.10563698 -0.47123793 0.050600599
-0.10578525 -0.47134539 0.050612427
-0.1059291 -0.47145721 0.050579283
-0.1060775 -0.47156462 0.050592259
-0.10623819 -0.47167426 0.050645523
-0.10636906 -0.47177082 0.05064591
-0.10649573 -0.47188458 0.050526373
-0.10664342 -0.47200587 0.050453998
-0.10679892 -0.47211578 0.050483074
-0.10695575 -0.47222903 0.050498299
-0.10710284 -0.47234187 0.050473228
-0.10724532 -0.47244996 0.050456241
-0.10738992 -0.47255629 0.05045886
-0.10753968 -0.47266275 0.050483346
-0.10769291 -0.47278306 0.05044093
-0.10782948 -0.47289145 0.050396308
-0.1079798 -0.47299752 0.05042541
-0.10811974 -0.47311133 0.050363462
-0.10825501 -0.47322834 0.050262321
-0.10839382 -0.47333467 0.050239597
-0.10854483 -0.47344029 0.050274465
-0.10869638 -0.4735418 0.050335862
-0.10885096 -0.47365299 0.050353412
-0.1089949 -0.47376743 0.050305277
-0.1091364 -0.47388706 0.050215639
-0.1092775 -0.47398809 0.050234418
-0.10942795 -0.47409815 0.050240465
-0.10958026 -0.47419614 0.050326072
-0.1097241 -0.474314 0.05025718
-0.10985934 -0.47442591 0.050186031
-0.10999624 -0.47453669 0.050128717
-0.11014999 -0.47464493 0.05016011
-0.11029222 -0.47475612 0.050123528
-0.11043695 -0.47486937 0.050085768
-0.11059311 -0.47497645 0.050134446
-0.11073999 -0.47507823 0.050173961
-0.11088449 -0.4751882 0.050154649
-0.11103023 -0.47529751 0.050144576
-0.11116901 -0.47541028 0.050083783
-0.11130272 -0.4755187 0.050026488
-0.11143935 -0.47563556 0.04993226
-0.11160004 -0.47574422 0.049991302
-0.11175419 -0.47585604 0.050003085
-0.11189515 -0.47596416 0.049979188
-0.11202259 -0.47608143 0.049842343
-0.11216016 -0.47618765 0.049815007
-0.11229934 -0.47628996 0.049817655
-0.11245485 -0.47640124 0.049838658
-0.11260568 -0.47650516 0.049882762
-0.11275296 -0.4766199 0.049847286
-0.11291435 -0.47672909 0.049906325
-0.11304256 -0.4768481 0.049762547
-0.11318512 -0.47695836 0.049732883
-0.1133341 -0.47706327 0.049763154
-0.1134811 -0.47716299 0.049815346
-0.11363304 -0.47727299 0.049828302
-0.11377116 -0.47738487 0.049769823
-0.11391173 -0.47749582 0.049727477
-0.11404733 -0.47760546 0.049671311
-0.11419676 -0.47771341 0.049685434
-0.11434478 -0.47782189 0.049690332
-0.11449042 -0.47793114 0.049680255
-0.1146342 -0.47804096 0.049658652
-0.11477165 -0.47815546 0.049581725
-0.11491991 -0.47826391 0.049587775
-0.11506452 -0.47837067 0.049588084
-0.11521729 -0.47847795 0.049620632
-0.11537751 -0.47858334 0.049696978
-0.11553286 -0.47869021 0.049743351
-0.11567835 -0.47880247 0.049714819
-0.11583469 -0.47890928 0.049765807
-0.11595365 -0.47902808 0.049582876
-0.11606513 -0.47914565 0.04937461
-0.11620834 -0.47925541 0.049350709
-0.11636577 -0.47935933 0.049423598
-0.11652978 -0.47946462 0.049517218
-0.11666767 -0.47957572 0.049462199
-0.11681637 -0.4796845 0.049468257
-0.11695438 -0.47979555 0.049414385
-0.1171023 -0.4799045 0.049415827
-0.11724 -0.48001552 0.049360808
-0.11738963 -0.48012674 0.049356479
-0.11753994 -0.48023534 0.049370587
-0.11768971 -0.48034412 0.049381245
-0.11784381 -0.48045221 0.049414948
-0.11798058 -0.48056328 0.049355324
-0.11812833 -0.48067254 0.049354456
-0.1182929 -0.4807792 0.049442302
-0.11845212 -0.48088929 0.049486354
-0.11859847 -0.48100144 0.049462426
-0.11872966 -0.48111326 0.049373999
-0.11886753 -0.48122886 0.04929246
-0.11899441 -0.481341 0.04918329
-0.1191299 -0.48145193 0.049119066
-0.1192469 -0.48156029 0.048989203
-0.11939514 -0.48166952 0.048990641
-0.11955259 -0.48177773 0.049038164
-0.11971963 -0.48188505 0.049132917
-0.11988834 -0.48199242 0.04923458
-0.12005125 -0.48210061 0.049306288
-0.12015578 -0.48221672 0.049076147
-0.12030616 -0.48232383 0.04909949
-0.12047334 -0.48243183 0.049190782
-0.12063687 -0.48254257 0.049249798
-0.12079759 -0.48265594 0.049281154
-0.12091961 -0.48277447 0.049113195
-0.12104432 -0.48288366 0.049012125
-0.12118152 -0.48299193 0.048970949
-0.12132508 -0.48310199 0.048947047
-0.12146871 -0.48321423 0.048910443
-0.12162086 -0.48332167 0.048939548
-0.12175976 -0.48342985 0.048906431
-0.12191808 -0.48353928 0.04895049
-0.12206931 -0.48365131 0.048948448
-0.12220272 -0.48376399 0.048864629
-0.12235527 -0.48387387 0.048881032
-0.12249273 -0.48398 0.048853703
-0.1226375 -0.48409015 0.048834402
-0.12278101 -0.48420036 0.048809338
-0.12294024 -0.4843103 0.048854541
-0.12309843 -0.48442453 0.048869763
-0.1232399 -0.48453695 0.04882279
-0.1233702 -0.48464733 0.04873899
-0.12352456 -0.48475757 0.048761152
-0.12367388 -0.48486993 0.048748743
-0.1238149 -0.48498026 0.048712164
-0.12394808 -0.48508847 0.048653714
-0.12411048 -0.485199 0.048709277
-0.12425566 -0.48531142 0.048678447
-0.12439908 -0.48541981 0.048663761
-0.1245427 -0.48553419 0.04861448
-0.12468772 -0.48563868 0.048629776
-0.12482421 -0.48575288 0.04855055
-0.12495419 -0.48585698 0.048502494
-0.12512147 -0.48596817 0.048575327
-0.12525176 -0.48608014 0.048482295
-0.12541458 -0.48619136 0.048535556
-0.12557283 -0.48630252 0.048569225
-0.12571968 -0.48641324 0.048555683
-0.12587887 -0.48653036 0.048558209
-0.12600254 -0.48663995 0.048450224
-0.12614636 -0.48674864 0.048435539
-0.12631378 -0.48686442 0.048481844
-0.12645586 -0.48697123 0.048470628
-0.12657577 -0.4870804 0.048348829
-0.12674633 -0.48719284 0.048428562
-0.12688316 -0.48730496 0.048363172
-0.12701261 -0.48741275 0.048290901
-0.12716728 -0.48752242 0.048317682
-0.12732545 -0.487638 0.048324823
-0.12747508 -0.48775294 0.048298575
-0.12762423 -0.4878642 0.048291937
-0.12775898 -0.48797244 0.048240397
-0.12794791 -0.48808733 0.048385773
-0.12808101 -0.48820272 0.048284642
-0.12823159 -0.48831251 0.048292987
-0.12837827 -0.48842019 0.048296746
-0.12851451 -0.488534 0.048218668
-0.12866199 -0.48864713 0.048193593
-0.12881719 -0.48875937 0.04820767
-0.12896043 -0.48887035 0.048176847
-0.12911955 -0.48898312 0.048204754
-0.12927349 -0.48909363 0.048223458
-0.12943321 -0.48920664 0.048252508
-0.12955846 -0.48931566 0.048154894
-0.12970912 -0.48942941 0.048140168
-0.1298551 -0.4895426 0.048108172
-0.13001895 -0.48965809 0.04814066
-0.13016216 -0.48977101 0.0480983
-0.13029942 -0.48987973 0.048054822
-0.13045514 -0.48998919 0.048087358
-0.13060619 -0.49010324 0.048072629
-0.13075212 -0.49021658 0.048039485
-0.13089262 -0.49032751 0.047997139
-0.13104047 -0.49043781 0.047990501
-0.13118331 -0.49054909 0.047956221
-0.13133432 -0.4906666 0.047920737
-0.13148201 -0.49077696 0.047912948
-0.13163394 -0.4908897 0.047909744
-0.13177142 -0.49099857 0.04786627
-0.13192482 -0.49111161 0.047867678
-0.13207683 -0.49122283 0.047873702
-0.13223766 -0.49133882 0.047890067
-0.13237691 -0.49145135 0.047832731
-0.13250877 -0.49155939 0.047769681
-0.13268442 -0.49167639 0.047844775
-0.13281953 -0.49178663 0.047782853
-0.13295323 -0.4918966 0.047716327
-0.1331166 -0.49201173 0.047748819
-0.1332569 -0.49212289 0.047704164
-0.13340551 -0.49223393 0.047696382
-0.13357216 -0.49235308 0.04771962
-0.13371085 -0.49246401 0.047669217
-0.13385616 -0.49257457 0.047649905
-0.13402563 -0.49269286 0.04769044
-0.13417011 -0.49280649 0.047649223
-0.13431744 -0.49291915 0.047626447
-0.13447343 -0.49303195 0.047640529
-0.13462019 -0.49314457 0.047615446
-0.13478716 -0.49326277 0.047645617
-0.1349294 -0.49337456 0.047605563
-0.13508037 -0.49348813 0.047593147
-0.13523069 -0.49360165 0.047578424
-0.13539784 -0.49372017 0.047607429
-0.13552491 -0.49382895 0.047519036
-0.13566439 -0.49394026 0.047469769
-0.13584855 -0.49406102 0.047559813
-0.13597746 -0.49417019 0.047477171
-0.13613194 -0.49428481 0.047473952
-0.13627785 -0.49439913 0.047435038
-0.13643026 -0.49451339 0.04742492
-0.1365854 -0.49462831 0.04742286
-0.13673839 -0.49474278 0.047413893
-0.13689286 -0.49485913 0.047400296
-0.13703829 -0.49497351 0.047359072
-0.13720509 -0.49509275 0.047382321
-0.13734126 -0.49520358 0.047321543
-0.1374945 -0.49531981 0.047303345
-0.13765419 -0.49543613 0.047312796
-0.13779584 -0.49554828 0.047268137
-0.13794702 -0.49566123 0.047260329
-0.13811541 -0.49578124 0.04728587
-0.13826482 -0.49589679 0.047255013
-0.13842371 -0.49601468 0.047251768
-0.13857314 -0.49612886 0.047228981
-0.13870433 -0.49623719 0.047161315
-0.13885516 -0.49635321 0.047133908
-0.13903427 -0.49647626 0.047188215
-0.13920833 -0.49659678 0.047235642
-0.13932024 -0.49670178 0.047103498
-0.13946006 -0.49681374 0.047051929
-0.13965365 -0.49694225 0.047137301
-0.13978314 -0.49705166 0.047055803
-0.13996221 -0.49717665 0.047098588
-0.14008312 -0.49728245 0.047000993
-0.14023298 -0.49739715 0.046977054
-0.14039396 -0.49751481 0.046984177
-0.14054945 -0.49763387 0.046959046
-0.14072673 -0.4977546 0.047019143
-0.14090276 -0.4978793 0.047050398
-0.14102718 -0.49799159 0.046929725
-0.141188 -0.49810955 0.046934549
-0.14134692 -0.4982284 0.046925545
-0.14151345 -0.49834529 0.046961475
-0.14165331 -0.49845904 0.046899527
-0.14180624 -0.49857369 0.046889409
-0.1419563 -0.49869439 0.046830859
-0.14211199 -0.49880719 0.046843786
-0.14227414 -0.49892727 0.046841685
-0.14242744 -0.49904492 0.046815407
-0.14258425 -0.49916494 0.046790265
-0.14275269 -0.49928969 0.046788126
-0.14288662 -0.4993979 0.046733133
-0.14305778 -0.49951684 0.046777114
-0.14321233 -0.49963775 0.046737
-0.14337257 -0.49975368 0.046751048
-0.14352381 -0.49987373 0.046701722
-0.14369825 -0.49999529 0.046744529
-0.062918231 -0.43895146 0.054988265
-0.063096777 -0.43908989 0.054949209
-0.063264281 -0.43921101 0.054964416
-0.06343738 -0.43934116 0.054950755
-0.06361413 -0.43947455 0.054933619
-0.063793384 -0.43961489 0.054886483
-0.063976645 -0.43975917 0.054833561
-0.064139545 -0.43987358 0.054868393
-0.064308628 -0.43999526 0.054887049
-0.065007508 -0.44052857 0.054785099
-0.065184295 -0.4406665 0.054741446
-0.065359488 -0.44079918 0.054722011
-0.065528825 -0.44092515 0.054716449
-0.065699644 -0.44105086 0.054718945
-0.065877885 -0.441192 0.054662596
-0.066053122 -0.44132549 0.054638542
-0.066208124 -0.44142798 0.054709174
-0.066391706 -0.44157583 0.054636642
-0.066570841 -0.44171938 0.0545699
-0.066738605 -0.44184089 0.054583956
-0.066910416 -0.4419724 0.054556467
-0.067090102 -0.44211462 0.054500099
-0.067258097 -0.44224 0.054492235
-0.067422315 -0.44235596 0.05452361
-0.067587882 -0.44247741 0.054528445
-0.067765787 -0.44262043 0.054459408
-0.06792967 -0.44273925 0.054472327
-0.068107069 -0.44287881 0.054421738
-0.068273343 -0.44300213 0.054418493
-0.068435937 -0.44311592 0.054455638
-0.068616986 -0.4432658 0.054360062
-0.06878604 -0.44339135 0.054355651
-0.068954647 -0.44351953 0.054333944
-0.069118798 -0.4436366 0.0543584
-0.069288373 -0.44376686 0.054328617
-0.069453388 -0.44388574 0.054346137
-0.069625512 -0.44402102 0.054297891
-0.069802403 -0.44416195 0.054236926
-0.069968015 -0.44428575 0.054227926
-0.07013458 -0.44440812 0.054231606
-0.07030236 -0.44453627 0.054206446
-0.0704761 -0.44467235 0.054160498
-0.07063593 -0.44478601 0.054186121
-0.070798039 -0.44490063 0.054216348
-0.070976347 -0.44504943 0.05411502
-0.071147762 -0.44518203 0.054079466
-0.071302302 -0.44528612 0.054138564
-0.071469128 -0.44541025 0.054133005
-0.071640491 -0.4455469 0.054073233
-0.071808606 -0.44567394 0.054056149
-0.071975484 -0.44580239 0.054025222
-0.072143137 -0.4459326 0.05398738
-0.072294086 -0.44603014 0.054069556
-0.072471559 -0.44617638 0.053979773
-0.072635867 -0.4463006 0.0539627
-0.072793283 -0.44640744 0.054018322
-0.072957076 -0.44653088 0.054003559
-0.073140427 -0.44669026 0.053861845
-0.073297746 -0.4468011 0.053893249
-0.07346683 -0.44693217 0.053856552
-0.073627993 -0.44705114 0.053856805
-0.073793441 -0.44717911 0.053822424
-0.073955357 -0.44729999 0.053814605
-0.074121863 -0.44742662 0.053792909
-0.074284375 -0.4475491 0.053778157
-0.07444334 -0.44766021 0.05381532
-0.074617274 -0.44780734 0.053704787
-0.074782282 -0.44793168 0.05369002
-0.074941009 -0.44804689 0.053701818
-0.075099118 -0.44816086 0.053718228
-0.075262696 -0.44828689 0.05368733
-0.075429738 -0.44841644 0.05365064
-0.075590841 -0.4485375 0.053638205
-0.075752281 -0.4486551 0.053647678
-0.075912498 -0.44877455 0.053641006
-0.076068863 -0.448881 0.053694326
-0.076233879 -0.44901156 0.05364266
-0.0763987 -0.44914201 0.053590998
-0.076560035 -0.44926482 0.053569332
-0.076730356 -0.44940403 0.053489957
-0.076889031 -0.44952112 0.053490225
-0.077049449 -0.4496378 0.053500853
-0.077206492 -0.44975138 0.053514957
-0.077369258 -0.44987386 0.053501364
-0.077528484 -0.44999295 0.053492401
-0.077693962 -0.45012739 0.053419963
-0.077855304 -0.45025215 0.05338677
-0.078016676 -0.45037225 0.053381253
-0.078175247 -0.45049065 0.053373441
-0.078328982 -0.45059204 0.053445231
-0.078491911 -0.45072165 0.053390119
-0.078653753 -0.45084894 0.053344231
-0.078816906 -0.45097992 0.053282198
-0.078977883 -0.45110029 0.053273223
-0.079136044 -0.45121899 0.053261954
-0.079298027 -0.45134246 0.053239137
-0.079455748 -0.45146045 0.053230181
-0.079613462 -0.45157862 0.053220063
-0.079768784 -0.45169052 0.053236492
-0.079934984 -0.45182648 0.053158291
-0.080092236 -0.45194411 0.053149339
-0.080240048 -0.45204753 0.053183105
-0.080408923 -0.45218021 0.053136028
-0.080567621 -0.4523026 0.053105149
-0.080717474 -0.45239994 0.053183883
-0.080885828 -0.45254451 0.053064153
-0.081046507 -0.45267364 0.053002134
-0.081203364 -0.45279199 0.052987412
-0.081351206 -0.45288354 0.053091526
-0.081517838 -0.45302507 0.052982196
-0.08167018 -0.4531303 0.053025156
-0.081822202 -0.45322767 0.053113095
-0.081990346 -0.45338222 0.05293341
-0.08214806 -0.45349786 0.052938286
-0.082301736 -0.45360777 0.052959338
-0.082463309 -0.45375788 0.052777372
-0.082622275 -0.45387131 0.0528007
-0.082776032 -0.45397484 0.052859802
-0.082927339 -0.45407754 0.052913159
-0.083085328 -0.45419532 0.052906498
-0.083243072 -0.45432034 0.052856028
-0.08339797 -0.45443586 0.052849386
-0.083550647 -0.45454365 0.052878518
-0.083712317 -0.45467588 0.052802652
-0.083867252 -0.45479238 0.052790243
-0.084025659 -0.45491362 0.052765146
-0.084178664 -0.45502341 0.052783884
-0.08433038 -0.45512837 0.052825697
-0.08448825 -0.45525739 0.052752167
-0.084622271 -0.45536605 0.052694909
-0.084772199 -0.4554925 0.052601807
-0.084941313 -0.45562202 0.052574333
-0.085112482 -0.45574096 0.052618347
-0.085269153 -0.45585817 0.052609399
-0.085421383 -0.45596662 0.05263276
-0.085572556 -0.45607039 0.052679189
-0.085729554 -0.45620051 0.05259528
-0.085887343 -0.45632422 0.052552879
-0.086039938 -0.45643526 0.052562401
-0.0861945 -0.45655599 0.052523475
-0.086348437 -0.45667431 0.052496091
-0.08650586 -0.45679849 0.052449081
-0.08665704 -0.45690364 0.05248744
-0.086788923 -0.45700952 0.052437104
-0.086963028 -0.45713338 0.052464962
-0.087119803 -0.45725632 0.052422564
-0.08727026 -0.45735782 0.052479375
-0.087402537 -0.45745367 0.052490164
-0.087578535 -0.45760468 0.052365791
-0.087729186 -0.45770764 0.052414533
-0.087881982 -0.45782435 0.052391756
-0.088038117 -0.45794719 0.05234706
-0.0881892 -0.45805344 0.052378498
-0.088342026 -0.45817208 0.052344203
-0.088493906 -0.45828459 0.052342191
-0.088636912 -0.45838776 0.052356377
-0.088797495 -0.4585301 0.052215945
-0.088954933 -0.45864865 0.05220237
-0.089074969 -0.45875517 0.052096758
-0.089255132 -0.45887139 0.052196074
-0.089409605 -0.45898834 0.052179061
-0.089559123 -0.45908171 0.052279703
-0.089712098 -0.45921141 0.052180819
-0.089867085 -0.45933694 0.052115373
-0.090018995 -0.45945901 0.052056864
-0.090169758 -0.45956793 0.052071005
-0.090321891 -0.45969701 0.051972128
-0.090466835 -0.45980045 0.051993225
-0.090609156 -0.4599047 0.051998194
-0.090731554 -0.45998779 0.052041329
-0.090880014 -0.46010849 0.051975921
-0.091044389 -0.46022591 0.051999215
-0.091214508 -0.46035248 0.051993638
-0.09136501 -0.46046337 0.051995102
-0.091529518 -0.46058929 0.051968805
-0.091682762 -0.46070608 0.051947191
-0.091833115 -0.4608202 0.051929045
-0.091983393 -0.46093559 0.051902834
-0.092128024 -0.46104506 0.051887032
-0.092255801 -0.461153 0.051806744
-0.092433825 -0.46127078 0.051887617
-0.092587017 -0.46136746 0.05198478
-0.092736661 -0.46149468 0.051885914
-0.092886165 -0.46161869 0.051805511
-0.093002424 -0.46171185 0.051762186
-0.093157545 -0.46183082 0.051735945
-0.093323573 -0.46195906 0.051702723
-0.093453452 -0.46206114 0.051666241
-0.093614742 -0.46217024 0.051725309
-0.093774587 -0.46229956 0.051658675
-0.093914136 -0.46238789 0.051745534
-0.094065398 -0.46251184 0.051673181
-0.0942197 -0.46263295 0.05163081
-0.094367772 -0.46275529 0.05155386
-0.094529405 -0.46286154 0.051631369
-0.09466432 -0.46294081 0.051751696
-0.094813146 -0.46305531 0.051724341
-0.094961002 -0.46317634 0.051654316
-0.09509436 -0.46329075 0.051560156
-0.095259212 -0.4634183 0.05152579
-0.095417082 -0.46355024 0.05143496
-0.095578544 -0.4636589 0.051497474
-0.095719546 -0.46376061 0.051511675
-0.095867783 -0.4638741 0.051487774
-0.096012995 -0.46398655 0.051456984
-0.096173465 -0.46411708 0.051385734
-0.096323155 -0.46422192 0.051419493
-0.096467145 -0.46424916 0.051886871
-0.096596904 -0.46437436 0.051713169
-0.096724495 -0.4644931 0.051568307
-0.096865393 -0.46462244 0.051418744
-0.097010896 -0.46475792 0.051253021
-0.097169578 -0.46486548 0.051309794
-0.097317234 -0.46496549 0.051363163
-0.097458169 -0.46507847 0.051310476
-0.097601913 -0.46520445 0.051193196
-0.097750649 -0.4653236 0.051138166
-0.09790995 -0.46542928 0.051208764
-0.098065376 -0.46552625 0.051313985
-0.098202787 -0.46564853 0.051190972
-0.09836071 -0.46577993 0.051103603
-0.098530196 -0.46586642 0.051332131
-0.098662741 -0.46596149 0.05134869
-0.098797858 -0.4660688 0.051304106
-0.098940745 -0.46619257 0.051196061
-0.099105231 -0.46633253 0.051086735
-0.099247992 -0.46642774 0.051147051
-0.099392109 -0.46652883 0.05117853
-0.099539474 -0.46663955 0.051167324
-0.099681132 -0.46674663 0.051152691
-0.099825166 -0.46686482 0.051082686
-0.099981651 -0.46696258 0.05118791
-0.10013452 -0.46705279 0.051321972
-0.10026744 -0.46718675 0.051110193
-0.10041162 -0.46731129 0.051003292
-0.10056505 -0.46742377 0.051008187
-0.10070944 -0.46753189 0.05099931
-0.10085969 -0.46764317 0.050997306
-0.10101155 -0.4677586 0.050978005
-0.10115846 -0.46787599 0.050925285
-0.10131103 -0.4679687 0.051043209
-0.10144909 -0.46808794 0.050940953
-0.10159194 -0.46820506 0.050872117
-0.10174353 -0.4683269 0.050813597
-0.10189214 -0.46843365 0.050831221
-0.10204325 -0.46854284 0.050845362
-0.10219124 -0.4686507 0.050853752
-0.10233686 -0.46875602 0.050866775
-0.10248079 -0.46885777 0.050893646
-0.10262818 -0.46897277 0.050857071
-0.10276756 -0.46909338 0.050752498
-0.10291528 -0.46920145 0.050758585
-0.1030593 -0.46931475 0.050717413
-0.1032114 -0.46943405 0.050676201
-0.10335075 -0.4695476 0.050613143
-0.1035086 -0.46964753 0.050711431
-0.10365285 -0.46976006 0.050676022
-0.10379456 -0.46988666 0.050546076
-0.10396034 -0.46998799 0.050670836
-0.10410845 -0.47009006 0.05071383
-0.10424691 -0.47020397 0.050645009
-0.10439157 -0.47032595 0.050555404
-0.10454808 -0.47045961 0.050448433
-0.10469259 -0.47055551 0.050512198
-0.10483288 -0.4706614 0.050498724
-0.10497741 -0.47077256 0.050472543
-0.10512298 -0.47088251 0.050457887
-0.10526633 -0.47098988 0.050449014
-0.10541037 -0.47109169 0.050475873
-0.10556496 -0.47119722 0.050526902
-0.1057139 -0.47130382 0.050546825
-0.10586764 -0.47141981 0.050532121
-0.10603105 -0.47153577 0.050560031
-0.10617438 -0.47165695 0.050469283
-0.10629554 -0.47176215 0.050376344
-0.10645167 -0.47187114 0.050413523
-0.10661216 -0.4719941 0.050387252
-0.10675316 -0.47209895 0.050383002
-0.10689358 -0.47220862 0.050347619
-0.1070343 -0.47231364 0.050341059
-0.10717749 -0.47242087 0.050332189
-0.10732426 -0.47252938 0.050331354
-0.10747464 -0.4726392 0.050338589
-0.10761579 -0.47275215 0.050287053
-0.10776228 -0.47286493 0.050259709
-0.10790512 -0.4729723 0.050248519
-0.10805145 -0.47308108 0.050244242
-0.10819945 -0.47319266 0.05023073
-0.10834122 -0.47330859 0.0501642
-0.10849185 -0.4734143 0.050196793
-0.10864758 -0.47352049 0.050248962
-0.10879982 -0.47363302 0.050248109
-0.10894633 -0.47375697 0.050155032
-0.10907388 -0.4738628 0.050086282
-0.10922752 -0.47397053 0.050120007
-0.10937637 -0.47408506 0.050092656
-0.10951802 -0.47419664 0.050051495
-0.10965654 -0.47429904 0.050050717
-0.10981798 -0.47440243 0.050144374
-0.1099665 -0.47450638 0.050178137
-0.11010318 -0.47461718 0.050119705
-0.11023813 -0.47473589 0.050007086
-0.11037588 -0.47485274 0.049917523
-0.11053391 -0.474962 0.049961612
-0.11068722 -0.4750773 0.04994921
-0.11084076 -0.47518224 0.049999095
-0.11098179 -0.4752869 0.049995996
-0.11111894 -0.47539687 0.049944479
-0.11128242 -0.47550058 0.050045043
-0.11142386 -0.47560847 0.050024651
-0.11157233 -0.47572291 0.049996138
-0.1117075 -0.4758369 0.049912348
-0.11185003 -0.47594094 0.04991962
-0.11200282 -0.4760533 0.04992222
-0.1121487 -0.47617191 0.049857974
-0.11229307 -0.47628468 0.049821418
-0.11243361 -0.47638959 0.049814861
-0.11256941 -0.47649956 0.049757596
-0.11270955 -0.47660765 0.049730282
-0.11285611 -0.47672245 0.049691401
-0.113004 -0.47683668 0.049661744
-0.11315578 -0.47694635 0.049675882
-0.11329708 -0.47705394 0.049656637
-0.11343653 -0.4771592 0.049643166
-0.11358552 -0.47726703 0.049656171
-0.11373244 -0.47737858 0.049638048
-0.11387917 -0.47748724 0.049636066
-0.11403029 -0.47759742 0.049644444
-0.11418185 -0.47770461 0.049672421
-0.11431532 -0.47782338 0.049552895
-0.11446553 -0.47793385 0.04955551
-0.11461073 -0.47804025 0.049560465
-0.1147682 -0.47814867 0.049606856
-0.11491816 -0.47826502 0.049573727
-0.11506365 -0.47837979 0.049530245
-0.11520141 -0.47848281 0.049522553
-0.11534663 -0.47859761 0.049477912
-0.11548965 -0.47870472 0.049469039
-0.11563306 -0.47881445 0.049446315
-0.11577585 -0.47892705 0.049403999
-0.11591709 -0.4790346 0.049384758
-0.11606943 -0.47914216 0.04941389
-0.11623266 -0.47925523 0.049457937
-0.11637846 -0.47937241 0.049401775
-0.11650932 -0.4794797 0.049338765
-0.11665311 -0.47958931 0.049318351
-0.11679921 -0.47970104 0.049295623
-0.11694909 -0.47980171 0.049354747
-0.11710421 -0.47991171 0.049381554
-0.11723914 -0.48002827 0.049281616
-0.11738045 -0.48013586 0.049262375
-0.11752281 -0.48024327 0.049248889
-0.11768529 -0.48035717 0.049284883
-0.11782999 -0.48046923 0.049254082
-0.11797833 -0.48058066 0.049242869
-0.11812146 -0.48068804 0.049232837
-0.1182584 -0.48079884 0.049175564
-0.11840206 -0.48090857 0.049154002
-0.1185455 -0.48101833 0.049131289
-0.11868317 -0.4811289 0.049078621
-0.11884314 -0.48123878 0.049127307
-0.11898102 -0.48134932 0.04907579
-0.11913168 -0.48145819 0.049089942
-0.119272 -0.48156837 0.049051099
-0.11941799 -0.48167786 0.049041048
-0.11957109 -0.48179126 0.04903904
-0.11971138 -0.48190141 0.049000196
-0.11986596 -0.48201239 0.049018927
-0.12000258 -0.48212063 0.048975494
-0.12014238 -0.48223081 0.04893434
-0.12029508 -0.4823398 0.048956554
-0.12045843 -0.48245025 0.049016751
-0.12059903 -0.48256943 0.048926018
-0.12074061 -0.48267722 0.048906766
-0.12088272 -0.48278055 0.048916347
-0.12103187 -0.48289451 0.048893604
-0.12117616 -0.4830088 0.048847817
-0.12132121 -0.48311645 0.048844695
-0.12146435 -0.48322424 0.048832361
-0.12162235 -0.48333344 0.048876449
-0.12175623 -0.48344609 0.048794977
-0.12189272 -0.48355636 0.048738856
-0.12203844 -0.48366195 0.048750717
-0.12220106 -0.48377126 0.048814386
-0.12235016 -0.48388541 0.048790481
-0.12249672 -0.48399964 0.048755061
-0.1226413 -0.48411179 0.048723113
-0.12279133 -0.48422173 0.048728041
-0.12293428 -0.48432979 0.048713401
-0.12307718 -0.48443991 0.048686072
-0.12322909 -0.48455206 0.048686367
-0.12336364 -0.48466226 0.048622187
-0.1235038 -0.48477036 0.048594873
-0.12365633 -0.48488256 0.048597477
-0.12381186 -0.48499483 0.048612751
-0.12396019 -0.48510507 0.04860846
-0.12410135 -0.48521531 0.048573073
-0.12424916 -0.48532361 0.048578013
-0.12438904 -0.48543581 0.04852533
-0.12453237 -0.48554608 0.048499148
-0.12468391 -0.48565656 0.048507527
-0.12483718 -0.48576713 0.048522815
-0.12498118 -0.48587948 0.04848741
-0.12511468 -0.48598948 0.048419766
-0.12526366 -0.48610005 0.048416629
-0.12542079 -0.48621288 0.048435345
-0.12555534 -0.48632291 0.048372317
-0.12570654 -0.48642981 0.048400305
-0.12585834 -0.48654068 0.048407525
-0.12601762 -0.48665962 0.048399709
-0.12616439 -0.4867779 0.048341218
-0.12629092 -0.48687986 0.048290927
-0.12645042 -0.48699135 0.048328087
-0.12659514 -0.48710009 0.048316896
-0.12674414 -0.48721105 0.04831145
-0.12688635 -0.4873234 0.048267975
-0.12702827 -0.48743203 0.04824527
-0.12717964 -0.48754141 0.048259411
-0.12732443 -0.48765218 0.04823669
-0.12746491 -0.48776442 0.048186313
-0.12761401 -0.4878774 0.04816933
-0.12777247 -0.48798579 0.048220333
-0.1279137 -0.48809996 0.048161875
-0.12805986 -0.48821095 0.048143759
-0.12821828 -0.48832497 0.048161328
-0.12836148 -0.48843396 0.048142064
-0.12850694 -0.48854679 0.048110113
-0.12866159 -0.488657 0.048133459
-0.1287991 -0.48876727 0.048081953
-0.12893967 -0.48887783 0.048041947
-0.12910266 -0.48899269 0.04807448
-0.12925519 -0.48910469 0.048078232
-0.12939782 -0.4892121 0.048065901
-0.12954035 -0.48932821 0.048001677
-0.12966254 -0.48943141 0.04792488
-0.1298295 -0.48954707 0.047970068
-0.12997949 -0.48965895 0.047963455
-0.13010782 -0.48976806 0.047878556
-0.13028391 -0.48988342 0.047965206
-0.13042222 -0.4899939 0.047915995
-0.13057186 -0.4901059 0.047907084
-0.1307079 -0.49021605 0.047849819
-0.1308707 -0.49032995 0.04788696
-0.13101877 -0.49044353 0.047861911
-0.13116919 -0.49055749 0.047844917
-0.13131931 -0.49066809 0.047846384
-0.13146076 -0.4907791 0.047807533
-0.13159902 -0.49089128 0.047747944
-0.13174532 -0.4910014 0.047735594
-0.13190021 -0.49111456 0.047742791
-0.13204041 -0.49122542 0.04769934
-0.13218871 -0.49133763 0.047683507
-0.1323176 -0.491445 0.047611292
-0.13248822 -0.49156258 0.047661066
-0.13264434 -0.49167782 0.047661349
-0.13278838 -0.49178782 0.047639783
-0.13292634 -0.49189842 0.047588263
-0.13309403 -0.4920142 0.047635756
-0.1332411 -0.49212646 0.047614172
-0.13336699 -0.49223495 0.047522366
-0.13353506 -0.49235103 0.047569856
-0.13369428 -0.49246716 0.04757819
-0.13382857 -0.4925772 0.047514003
-0.13398649 -0.49269006 0.047536183
-0.13413818 -0.49280339 0.047528412
-0.13428427 -0.49291724 0.047492996
-0.13444543 -0.49303249 0.047515158
-0.13457373 -0.49314138 0.047431406
-0.134734 -0.49325502 0.047459334
-0.13487488 -0.49336797 0.047406647
-0.13503137 -0.4934825 0.047412686
-0.13518764 -0.49359706 0.047417577
-0.13534513 -0.49371195 0.047425922
-0.1354965 -0.49382561 0.047414694
-0.13564649 -0.49393907 0.04739885
-0.13580941 -0.49405679 0.047414083
-0.13594848 -0.49416798 0.047363717
-0.13608903 -0.4942795 0.047317952
-0.13625535 -0.49439663 0.047351614
-0.13638991 -0.49450842 0.047278207
-0.13655272 -0.49462488 0.047300361
-0.13670252 -0.49473858 0.047282219
-0.13684671 -0.49485102 0.047246814
-0.13699891 -0.49496531 0.047235578
-0.13715579 -0.49508071 0.047238156
-0.13729326 -0.49519175 0.047182031
-0.13745685 -0.49530879 0.047204182
-0.13760269 -0.49542326 0.047164153
-0.13775301 -0.49553731 0.047146011
-0.13790148 -0.49565098 0.04712211
-0.13806246 -0.49576768 0.047135044
-0.13822596 -0.49588504 0.047154881
-0.13835827 -0.49599496 0.047082648
-0.13852552 -0.49611336 0.047112845
-0.13866061 -0.49622399 0.047048651
-0.13881126 -0.49633986 0.047021288
-0.138971 -0.49645659 0.04702846
-0.1391294 -0.49657449 0.047022957
-0.1392722 -0.49668708 0.046980642
-0.13942306 -0.49680173 0.046961345
-0.13958448 -0.49691916 0.046971966
-0.13971916 -0.49703258 0.046889339
-0.13988402 -0.49715096 0.046909168
-0.14002101 -0.49726218 0.046849586
-0.14018375 -0.49738154 0.04685444
-0.14034781 -0.49749991 0.046870816
-0.14051908 -0.49762169 0.046898678
-0.14065129 -0.49772897 0.046841435
-0.14084323 -0.49786055 0.046901476
-0.14096397 -0.4979662 0.046803929
-0.14111044 -0.49808016 0.04676966
-0.14128536 -0.49820188 0.046813652
-0.14143036 -0.49831688 0.04676671
-0.14157835 -0.49843001 0.04674397
-0.14173271 -0.49854901 0.046714276
-0.14187069 -0.49865943 0.046663906
-0.14203751 -0.49878064 0.046675656
-0.14219901 -0.49889904 0.046680517
-0.14235339 -0.49901554 0.04666581
-0.14250787 -0.4991321 0.046651106
-0.14266843 -0.49925178 0.046644442
-0.14281878 -0.49936861 0.04661015
-0.1429805 -0.4994874 0.04661385
-0.14312634 -0.49960166 0.046574984
-0.14326879 -0.49971363 0.04653497
-0.14340836 -0.49982345 0.046494979
-0.14360277 -0.4999547 0.046567686
-0.061543491 -0.4379431 0.054948315
-0.061712939 -0.43806604 0.054961227
-0.061896276 -0.43820801 0.054922167
-0.062785283 -0.43888557 0.054797374
-0.062962055 -0.43901843 0.054783721
-0.063136622 -0.4391506 0.054764315
-0.063310474 -0.43927914 0.054763366
-0.063491687 -0.43941957 0.054724317
-0.063668117 -0.43955255 0.054708365
-0.063837595 -0.43967727 0.054710902
-0.064011864 -0.43980709 0.054704178
-0.064176589 -0.43992436 0.054729808
-0.064363822 -0.44007549 0.05465382
-0.064538151 -0.44020867 0.054627497
-0.064722605 -0.44035578 0.05456306
-0.064896747 -0.44048628 0.054551732
-0.065067485 -0.44061133 0.054557718
-0.065243334 -0.4407478 0.0545187
-0.065404363 -0.44085708 0.054575481
-0.065587036 -0.44100523 0.054497216
-0.065765351 -0.44114348 0.054458186
-0.06594491 -0.44128698 0.054393768
-0.066111907 -0.44140676 0.054414775
-0.066284373 -0.44153875 0.054387305
-0.066444308 -0.44165269 0.054411806
-0.066621654 -0.44178438 0.054407373
-0.066815898 -0.44195104 0.05427023
-0.066958562 -0.4420329 0.054408997
-0.067134053 -0.44216791 0.0543769
-0.067303248 -0.44229534 0.054362141
-0.06748265 -0.44243756 0.054304644
-0.067657672 -0.44257241 0.0542714
-0.067826256 -0.44269627 0.054275088
-0.067994341 -0.44282249 0.054262642
-0.068168983 -0.44295728 0.054228242
-0.068345457 -0.44309866 0.054162692
-0.068507165 -0.44321102 0.054204479
-0.068684183 -0.44335067 0.054151617
-0.068848491 -0.44346786 0.054176088
-0.069032207 -0.44362319 0.054059759
-0.069195822 -0.44373947 0.054086547
-0.069363795 -0.443867 0.054066025
-0.069528848 -0.44398609 0.054082423
-0.069686629 -0.44409531 0.054125383
-0.069852963 -0.44421694 0.054132547
-0.070024118 -0.44434759 0.054107394
-0.070191406 -0.44447127 0.054106481
-0.070366845 -0.44461367 0.05403056
-0.070544153 -0.44475645 0.053960394
-0.070710264 -0.44488201 0.05394334
-0.070870221 -0.44499263 0.053987447
-0.071033858 -0.44511032 0.054006167
-0.071206629 -0.44524547 0.053961396
-0.071376823 -0.4453795 0.053912029
-0.071547978 -0.44551209 0.053875338
-0.071714357 -0.44563568 0.053870972
-0.071883351 -0.44576451 0.053846985
-0.072047234 -0.44588724 0.05383686
-0.072209366 -0.44600302 0.053860195
-0.072383925 -0.44614708 0.053770442
-0.072549075 -0.44626921 0.05376954
-0.07270883 -0.44638067 0.053807881
-0.072880425 -0.44651595 0.053757347
-0.07304313 -0.44663739 0.053749543
-0.073210821 -0.44676527 0.053725559
-0.073376238 -0.44688874 0.05371774
-0.073547781 -0.44702494 0.053661447
-0.073704876 -0.44713563 0.053692881
-0.073873684 -0.4472667 0.053655054
-0.074044049 -0.44740123 0.053603377
-0.074200958 -0.44750786 0.053657882
-0.074369997 -0.44764417 0.053590063
-0.074530736 -0.44775909 0.053612251
-0.0746952 -0.44788206 0.053603284
-0.074865066 -0.44801682 0.05354815
-0.075015403 -0.44811392 0.053630359
-0.075189039 -0.44825733 0.05354061
-0.075359136 -0.4483934 0.053478554
-0.075520314 -0.44851023 0.053491518
-0.075677276 -0.4486222 0.053514883
-0.075845107 -0.44875407 0.053467833
-0.076009631 -0.44887885 0.053448487
-0.076171696 -0.44899827 0.053449906
-0.076340377 -0.44913295 0.053390171
-0.076505065 -0.4492588 0.053365044
-0.076667845 -0.44938052 0.053356089
-0.076832354 -0.44950643 0.053329818
-0.076990239 -0.4496218 0.053337026
-0.077133894 -0.44969893 0.053508081
-0.077311754 -0.44985697 0.05335027
-0.077480674 -0.44999433 0.053275533
-0.077648044 -0.45012844 0.053213496
-0.0778061 -0.45024019 0.053242613
-0.077964038 -0.45035678 0.053242907
-0.078128174 -0.4504838 0.053208563
-0.078289032 -0.45060292 0.053206541
-0.078454942 -0.45073494 0.05315027
-0.078614563 -0.45085141 0.053158622
-0.078782372 -0.45098892 0.05307813
-0.078934059 -0.45109075 0.053138427
-0.079097703 -0.45121816 0.05309948
-0.079256728 -0.45133379 0.053110145
-0.079424262 -0.4514721 0.053023886
-0.079547368 -0.4515596 0.053043969
-0.079742745 -0.4517056 0.053033672
-0.079900734 -0.45182496 0.053017825
-0.080041505 -0.45193216 0.052998599
-0.080209561 -0.45206809 0.052928489
-0.08035548 -0.45216644 0.052984204
-0.0805078 -0.45228276 0.052961461
-0.080696747 -0.4524121 0.05302155
-0.080864958 -0.45255619 0.052904151
-0.081028372 -0.45268694 0.052844435
-0.081186041 -0.45280761 0.05281936
-0.081337154 -0.45290899 0.052879658
-0.081496209 -0.45302114 0.05291108
-0.081657276 -0.45314607 0.052875608
-0.081816413 -0.45326549 0.052864354
-0.081930384 -0.45331949 0.053042497
-0.082135543 -0.4535147 0.052784193
-0.082292169 -0.45362699 0.052804094
-0.08244963 -0.45374203 0.052811306
-0.082607716 -0.4538593 0.052808136
-0.082767963 -0.45398402 0.052770361
-0.082926132 -0.45410213 0.052762572
-0.083084419 -0.45422092 0.052751333
-0.083220914 -0.4543269 0.052720599
-0.083386809 -0.45444918 0.052722003
-0.08355286 -0.45456412 0.052767225
-0.083714932 -0.45469761 0.052685611
-0.083874419 -0.45482236 0.052644376
-0.084035046 -0.45495185 0.052580066
-0.08419323 -0.4550727 0.052556138
-0.084346056 -0.45518219 0.052576058
-0.08449883 -0.4553006 0.052542932
-0.084638298 -0.45539415 0.052598689
-0.084788457 -0.45551199 0.052557498
-0.084949411 -0.4556267 0.052581988
-0.0851309 -0.45576867 0.052534871
-0.085253701 -0.45588154 0.052403882
-0.08544071 -0.45601842 0.052410927
-0.085599691 -0.45612562 0.052471191
-0.085756332 -0.45624357 0.052457649
-0.085911192 -0.45636469 0.052417591
-0.086066686 -0.45647812 0.052425969
-0.086220481 -0.45658344 0.052474722
-0.086380124 -0.45671764 0.052378129
-0.086534105 -0.45683658 0.052347295
-0.086689435 -0.45695043 0.052352212
-0.086846188 -0.4570722 0.052316763
-0.087000802 -0.45718279 0.052337833
-0.087153524 -0.45729667 0.052331228
-0.087310456 -0.45742109 0.052280787
-0.087465733 -0.45753649 0.052276477
-0.087610342 -0.45764768 0.052250315
-0.087765209 -0.45776141 0.052254084
-0.087920301 -0.45787686 0.052248623
-0.0880813 -0.45799881 0.05223044
-0.088235743 -0.45811066 0.052243441
-0.088388495 -0.45822886 0.052211463
-0.088544771 -0.45835531 0.052146029
-0.088695981 -0.4584634 0.052167118
-0.088851921 -0.45858943 0.052102838
-0.089003302 -0.45869979 0.052111238
-0.089157373 -0.45881155 0.052123081
-0.089311652 -0.45892543 0.052123394
-0.089437984 -0.45901999 0.052115776
-0.089618109 -0.45916021 0.052073274
-0.089773096 -0.45928437 0.052015919
-0.089923956 -0.45939237 0.052035861
-0.090078436 -0.45951322 0.051995803
-0.090220422 -0.45960942 0.052046925
-0.09037371 -0.45971474 0.052093368
-0.0905343 -0.45985162 0.051985241
-0.090688296 -0.45997113 0.05195095
-0.090836577 -0.46008605 0.05191901
-0.090992704 -0.46019757 0.05194122
-0.091140278 -0.46029809 0.051991157
-0.091274448 -0.46040371 0.05195237
-0.091450475 -0.46054596 0.051879905
-0.091603778 -0.46066087 0.051869839
-0.091754124 -0.460765 0.051910535
-0.091907434 -0.46089375 0.051818591
-0.092054948 -0.46099833 0.05184431
-0.092171885 -0.46107289 0.051914021
-0.09231104 -0.4611789 0.051894806
