# .PCD v0.7 - Point Cloud Data file format
VERSION 0.7
FIELDS x y z
SIZE 4 4 4
TYPE F F F
COUNT 1 1 1
WIDTH 845
HEIGHT 1
VIEWPOINT 0 0 0 1 0 0 0
POINTS 845
DATA ascii
-0.26357895 -0.26265791 0.061099537
-0.26378953 -0.26263145 0.061104417
-0.26400265 -0.26260608 0.061098903
-0.26422742 -0.26258561 0.061047234
-0.26443136 -0.2625587 0.061061367
-0.26461539 -0.26252347 0.061153963
-0.2648524 -0.2625064 0.061066501
-0.26508203 -0.26248845 0.060991764
-0.26529014 -0.26246151 0.061002415
-0.26551437 -0.26244158 0.060947292
-0.2657226 -0.26241696 0.060940646
-0.26594126 -0.26239488 0.060906306
-0.26614711 -0.26236725 0.060923874
-0.26638627 -0.26235446 0.060802985
-0.26656249 -0.26231596 0.060926735
-0.26677987 -0.2622937 0.060894698
-0.26700336 -0.26227432 0.060836121
-0.26720804 -0.26224652 0.060856007
-0.26741049 -0.26221994 0.060868986
-0.26762685 -0.26219764 0.060838103
-0.26782778 -0.26216826 0.060872987
-0.26805896 -0.26215315 0.060776338
-0.26825008 -0.2621215 0.060836628
-0.26848829 -0.26211008 0.060706519
-0.26868799 -0.26208037 0.060744863
-0.26889774 -0.26205558 0.060738228
-0.26911795 -0.26203597 0.060684264
-0.26933253 -0.26201373 0.060654536
-0.26953471 -0.26198784 0.06066291
-0.26973453 -0.26196077 0.060681671
-0.26997048 -0.26194963 0.060551569
-0.27016649 -0.26191849 0.060603764
-0.27038613 -0.26189941 0.060546361
-0.27059069 -0.26187274 0.06055817
-0.27080098 -0.26185152 0.060525015
-0.27104038 -0.26184326 0.060370691
-0.27123839 -0.26181343 0.060411353
-0.27143711 -0.26178402 0.060448557
-0.27161139 -0.26176623 0.060422465
-0.27184027 -0.26173076 0.060476825
-0.27205303 -0.26170906 0.060444806
-0.27225417 -0.26168105 0.060469314
-0.27246636 -0.2616618 0.060420007
-0.27268809 -0.26164547 0.060340695
-0.27286744 -0.261608 0.060454052
-0.27307332 -0.26158288 0.060453184
-0.27329952 -0.26157737 0.060290851
-0.27350375 -0.261549 0.060315356
-0.27367467 -0.26151964 0.060376883
-0.27392343 -0.26150158 0.060285915
-0.27412152 -0.26147506 0.060302373
-0.27433813 -0.26145968 0.060220774
-0.27454212 -0.26143417 0.060224526
-0.27474931 -0.26140794 0.060230568
-0.27494597 -0.26138082 0.060252786
-0.2751388 -0.26135683 0.060255431
-0.2753219 -0.26133797 0.060229309
-0.27554774 -0.26132098 0.060151119
-0.27577996 -0.26129422 0.060138617
-0.27599064 -0.26127359 0.060100839
-0.27619228 -0.26125008 0.060091916
-0.2763876 -0.26121965 0.060139507
-0.27658057 -0.26119345 0.060158297
-0.27680776 -0.26118132 0.060043223
-0.27701446 -0.26116163 0.060002003
-0.27719498 -0.26113316 0.060048498
-0.27739343 -0.26110202 0.060098387
-0.27761474 -0.26108369 0.060034059
-0.27781099 -0.26106623 0.059985965
-0.27799678 -0.26104766 0.059955209
-0.27820277 -0.26101592 0.060002759
-0.27838445 -0.26099455 0.059996225
-0.27860424 -0.26097596 0.059935361
-0.27879453 -0.26096424 0.05985041
-0.27899238 -0.26093301 0.059901446
-0.27921668 -0.26091513 0.059831329
-0.27943173 -0.26089045 0.059818901
-0.27961183 -0.26086205 0.059865408
-0.2798095 -0.26084706 0.059797712
-0.28001004 -0.26082137 0.059806094
-0.28021118 -0.2607995 0.059785649
-0.28043622 -0.26077995 0.059727062
-0.28062412 -0.2607545 0.059744708
-0.2808266 -0.26072383 0.059787665
-0.28103399 -0.26070404 0.059746444
-0.28122926 -0.26068479 0.05971219
-0.28142533 -0.2606664 0.059671026
-0.28163299 -0.26064029 0.05967591
-0.28183427 -0.26061589 0.059673913
-0.28203085 -0.26059115 0.059678841
-0.28223547 -0.26056981 0.059651464
-0.28242597 -0.26055083 0.059619542
-0.28263488 -0.26053733 0.059531048
-0.28282472 -0.26050693 0.05958328
-0.28300843 -0.26047838 0.059627466
-0.28321844 -0.26047024 0.05949863
-0.28342637 -0.26044521 0.059495445
-0.28362042 -0.26041099 0.059571855
-0.28383398 -0.26039535 0.059494875
-0.28404996 -0.26037437 0.059454769
-0.28424034 -0.26035255 0.059443593
-0.2844314 -0.26033556 0.059396684
-0.28462523 -0.26030925 0.05941546
-0.28482267 -0.26028249 0.059434228
-0.285014 -0.26026198 0.059412673
-0.28520843 -0.26024064 0.059394564
-0.28540426 -0.26021659 0.059394889
-0.28562123 -0.26019359 0.05936861
-0.28582275 -0.26017153 0.059349321
-0.28602496 -0.26015475 0.059290834
-0.28621343 -0.26013193 0.059288882
-0.28642365 -0.26011559 0.059219994
-0.28663653 -0.26008883 0.059224851
-0.28682753 -0.2600646 0.059230968
-0.28700912 -0.26004341 0.059223287
-0.28721014 -0.26002172 0.059201688
-0.28739685 -0.26000211 0.059177846
-0.28758931 -0.25998965 0.059096344
-0.2877906 -0.25995895 0.059140448
-0.28799868 -0.2599268 0.059189145
-0.28818205 -0.2598983 0.05923333
-0.28839236 -0.25988415 0.059148289
-0.28858215 -0.25986415 0.059124433
-0.28877044 -0.25984231 0.059115574
-0.28896749 -0.25982174 0.059089378
-0.28916785 -0.25980598 0.059025139
-0.28936255 -0.25978252 0.059022017
-0.28956479 -0.25976434 0.058973897
-0.28975961 -0.25973567 0.059008807
-0.28996503 -0.25971112 0.059004486
-0.29016897 -0.25969017 0.05897481
-0.29035681 -0.25966269 0.059007443
-0.29053926 -0.25964487 0.058974404
-0.29074723 -0.25961855 0.058980446
-0.29093808 -0.25960204 0.058930069
-0.29113811 -0.25958192 0.058898106
-0.29132247 -0.25955516 0.058928449
-0.2915346 -0.25952977 0.058924098
-0.29172772 -0.25951141 0.058885247
-0.29192668 -0.25949013 0.0588625
-0.29210699 -0.2594699 0.05884907
-0.29229668 -0.25944597 0.058854029
-0.2924971 -0.25942782 0.058807079
-0.2927005 -0.25940838 0.058767024
-0.2928862 -0.25937706 0.058829635
-0.29309073 -0.25936016 0.05876999
-0.29328918 -0.25933909 0.058746096
-0.29347628 -0.25931817 0.058731478
-0.29367352 -0.25929493 0.05872488
-0.29386696 -0.25927165 0.058721766
-0.29405326 -0.25924939 0.058717515
-0.2942577 -0.25923422 0.058645181
-0.29446134 -0.25920892 0.058647785
-0.29465091 -0.25918597 0.058645837
-0.29483488 -0.25916776 0.058613941
-0.29503348 -0.25913945 0.058643077
-0.29523239 -0.25912151 0.058596127
-0.29542831 -0.25909603 0.058606826
-0.29561919 -0.25907716 0.058573745
-0.295809 -0.25905558 0.058561414
-0.29601842 -0.25903714 0.058508664
-0.29620716 -0.25901285 0.058517091
-0.29638141 -0.25898957 0.058531344
-0.29657808 -0.25896683 0.058521286
-0.29677671 -0.2589508 0.058460515
-0.2969771 -0.25892872 0.058442369
-0.29717386 -0.25890711 0.058424249
-0.29736909 -0.25888014 0.058446489
-0.29756331 -0.25886306 0.058397256
-0.29774854 -0.25884017 0.058398776
-0.29794216 -0.25882158 0.058361068
-0.29812729 -0.25879854 0.058363751
-0.2983312 -0.25877777 0.058332916
-0.29851651 -0.2587558 0.05832753
-0.29871246 -0.25873238 0.058323249
-0.29891318 -0.25871497 0.058270529
-0.29909909 -0.25869703 0.058235168
-0.29929417 -0.25866961 0.058260851
-0.29949078 -0.25865132 0.058218524
-0.29967615 -0.25863138 0.058198147
-0.29987529 -0.25860679 0.058199618
-0.3000707 -0.25858137 0.058210321
-0.30026254 -0.2585561 0.058223344
-0.30046192 -0.25853351 0.058209822
-0.30065089 -0.25851518 0.058174446
-0.30083972 -0.2584964 0.058142528
-0.30103907 -0.25847542 0.058117483
-0.30123055 -0.25844622 0.058159322
-0.30142632 -0.25842631 0.058129676
-0.30161127 -0.2584064 0.058109306
-0.30180722 -0.25839323 0.058030095
-0.30200243 -0.25836581 0.058055777
-0.30219793 -0.2583462 0.058023833
-0.30238619 -0.25832435 0.058014974
-0.30258152 -0.2583029 0.057996862
-0.3027733 -0.25827667 0.058016792
-0.30296499 -0.2582607 0.057961814
-0.30316383 -0.25823534 0.057969045
-0.30335173 -0.25822109 0.057904847
-0.30354735 -0.25818714 0.057977803
-0.30374244 -0.25816762 0.057945851
-0.30393752 -0.25814682 0.057923131
-0.304133 -0.25811967 0.057946514
-0.30431747 -0.25809908 0.057931907
-0.30451521 -0.25808707 0.057842311
-0.30471039 -0.25806311 0.057842638
-0.3049092 -0.25803792 0.057848718
-0.30508959 -0.25802097 0.05781107
-0.30529177 -0.25799695 0.057805613
-0.30547598 -0.25797668 0.057788692
-0.30567113 -0.25795272 0.057789024
-0.30586192 -0.25793466 0.05775018
-0.30606061 -0.25791028 0.057750493
-0.30625227 -0.25788641 0.057753146
-0.3064428 -0.25786901 0.057709694
-0.30663398 -0.25784758 0.057695046
-0.30683601 -0.25782374 0.057688441
-0.30701691 -0.25780183 0.057686523
-0.30720225 -0.25779119 0.057598136
-0.30740201 -0.25776181 0.057634175
-0.30761188 -0.25773367 0.057651743
-0.30779621 -0.25769797 0.057747785
-0.30800307 -0.25769606 0.057576317
-0.30818418 -0.25767317 0.057581313
-0.30837142 -0.25765303 0.057560936
-0.30856523 -0.25763381 0.057527836
-0.30875719 -0.25760898 0.057537403
-0.30894163 -0.25758663 0.057535466
-0.30914161 -0.25755817 0.057564601
-0.30937883 -0.25752026 0.057629306
-0.30959669 -0.25746942 0.057805911
-0.30979827 -0.25741774 0.058003325
-0.3100031 -0.25736803 0.058183435
-0.31020385 -0.25732151 0.058343973
-0.31041101 -0.25726804 0.058549441
-0.31061447 -0.25721678 0.058742236
-0.31081077 -0.25716764 0.058925845
-0.31102499 -0.25711757 0.059100155
-0.31123388 -0.257065 0.059297539
-0.31143913 -0.25701427 0.059484571
-0.24598508 -0.26461092 0.062583484
-0.24624956 -0.2645922 0.062483214
-0.24716109 -0.26448545 0.062447079
-0.24739046 -0.2644586 0.062438037
-0.24763545 -0.2644358 0.062385112
-0.24856459 -0.2643359 0.062283184
-0.24878216 -0.26430809 0.062291484
-0.24897879 -0.26427326 0.062370203
-0.24922372 -0.26425281 0.062299989
-0.24946225 -0.26422924 0.062258631
-0.24969555 -0.26420599 0.062219597
-0.24993062 -0.26418173 0.062186323
-0.25014257 -0.26415291 0.062207334
-0.25036404 -0.26412511 0.062212154
-0.25061655 -0.26410598 0.062125769
-0.25081664 -0.26407242 0.062191792
-0.25107831 -0.26405612 0.062076543
-0.25130039 -0.26402888 0.062076755
-0.25150192 -0.26399752 0.062125482
-0.25175193 -0.26397836 0.062041417
-0.25199383 -0.26395708 0.061980441
-0.25220081 -0.26392585 0.062023371
-0.25242206 -0.26390043 0.062010899
-0.25264367 -0.26387358 0.062008817
-0.25286359 -0.26384628 0.062011339
-0.25310069 -0.26382414 0.061960757
-0.25330716 -0.26379469 0.061991014
-0.25353509 -0.26377004 0.061966993
-0.25377771 -0.26374993 0.061896794
-0.25397876 -0.26371735 0.061954744
-0.25424218 -0.26370382 0.061817579
-0.25443488 -0.26366884 0.061900925
-0.254677 -0.26364908 0.06182842
-0.25491071 -0.26362687 0.061781313
-0.25512743 -0.26359949 0.061787318
-0.255339 -0.26357055 0.061809473
-0.25555903 -0.26354435 0.061803933
-0.25578424 -0.26351988 0.061781079
-0.25601593 -0.26349935 0.061723605
-0.25625229 -0.2634787 0.061662652
-0.25647107 -0.2634525 0.061658263
-0.25667667 -0.26342207 0.061696593
-0.25690666 -0.26339969 0.06165411
-0.25712699 -0.26337424 0.061642807
-0.25734124 -0.26334685 0.061651118
-0.25756907 -0.26332411 0.061613262
-0.25779808 -0.26330185 0.061570793
-0.25800765 -0.26327315 0.061592951
-0.25821918 -0.26324514 0.061608206
-0.2584694 -0.26323053 0.0614907
-0.25867447 -0.26320049 0.061526723
-0.25889453 -0.2631757 0.061510801
-0.25913 -0.26315644 0.061440632
-0.25932243 -0.26312211 0.061519369
-0.25954521 -0.26309857 0.061491907
-0.25977367 -0.26307714 0.061443672
-0.25999367 -0.26305285 0.061424293
-0.26021123 -0.26302773 0.061412994
-0.26042402 -0.26300287 0.061404023
-0.26065981 -0.26298469 0.061325781
-0.26087353 -0.26295847 0.061326031
-0.26109916 -0.26293677 0.061282415
-0.26131281 -0.26291072 0.061281517
-0.26151907 -0.26288193 0.061307155
-0.2617569 -0.26286522 0.06121622
-0.26194793 -0.26283073 0.061297275
-0.26214287 -0.26280367 0.061320659
-0.26239181 -0.26278576 0.061228521
-0.26261321 -0.2627652 0.061180316
-0.26283211 -0.26274183 0.061155178
-0.26303351 -0.26271158 0.061195828
-0.2632581 -0.26269066 0.061147608
-0.26349023 -0.2626729 0.061069384
-0.26369452 -0.26264405 0.061097339
-0.263908 -0.26262102 0.061074533
-0.26411417 -0.26259303 0.061094411
-0.26431939 -0.26256469 0.061117753
-0.26455551 -0.26254931 0.061018754
-0.26477489 -0.26252916 0.060969405
-0.26499262 -0.2625064 0.060940817
-0.26523888 -0.26249591 0.060796805
-0.26543346 -0.26246351 0.060859393
-0.26562357 -0.26242912 0.060940448
-0.26582646 -0.2624003 0.060969561
-0.26605386 -0.26238438 0.060882129
-0.26625594 -0.26235533 0.060913559
-0.26648295 -0.26233739 0.060841113
-0.26668951 -0.26231048 0.06085293
-0.26689762 -0.26228431 0.06085781
-0.26711568 -0.26226276 0.060819991
-0.2673319 -0.2622427 0.060772955
-0.26753899 -0.26221633 0.060780149
-0.26774251 -0.26218837 0.060802348
-0.26795554 -0.26216489 0.060782995
-0.26817292 -0.26214358 0.060744029
-0.26838955 -0.26212206 0.060707375
-0.26858842 -0.26209214 0.060748041
-0.26880443 -0.26207051 0.060712539
-0.26902255 -0.26205006 0.060666643
-0.26921991 -0.26201954 0.060713079
-0.2693947 -0.26199648 0.060725026
-0.2696555 -0.26198122 0.060602866
-0.26986417 -0.26195657 0.06059622
-0.27008829 -0.26193979 0.060518026
-0.27029911 -0.26191643 0.060499839
-0.27048081 -0.26187822 0.060616661
-0.270675 -0.2618632 0.060552426
-0.27089265 -0.26182908 0.060606852
-0.27107835 -0.26181227 0.060563404
-0.2713151 -0.26180309 0.060418285
-0.27153 -0.26176775 0.060484245
-0.27174407 -0.26174432 0.060463741
-0.27195096 -0.26172209 0.060440965
-0.2721628 -0.26169768 0.060429689
-0.27237052 -0.2616761 0.060401142
-0.27257881 -0.26165244 0.06038757
-0.27276263 -0.26162279 0.060439829
-0.27296683 -0.26160467 0.060389396
-0.27318287 -0.26157531 0.060410384
-0.27342156 -0.26156431 0.06027678
-0.27361125 -0.26153299 0.060335927
-0.27376634 -0.2615051 0.060400993
-0.27396202 -0.26148787 0.060351744
-0.27421427 -0.2614831 0.060160443
-0.27442339 -0.26145017 0.060213745
-0.27464172 -0.2614201 0.060238183
-0.27485228 -0.26140165 0.060184255
-0.27505863 -0.26137257 0.06021221
-0.27522486 -0.26134613 0.060256466
-0.27544188 -0.26133212 0.060164467
-0.27562669 -0.26129794 0.060249001
-0.27589005 -0.26128566 0.060102619
-0.27608898 -0.26126346 0.060086794
-0.27629626 -0.26123533 0.060106669
-0.27646381 -0.26120418 0.060184352
-0.27667645 -0.26118833 0.060109667
-0.27691346 -0.26116857 0.060041793
-0.27711758 -0.26114446 0.060035169
-0.27729404 -0.26112533 0.060017124
-0.27748337 -0.26110318 0.060009405
-0.27771029 -0.26107407 0.060018823
-0.27789289 -0.2610504 0.060028426
-0.27809328 -0.26103321 0.059974544
-0.27830294 -0.26101977 0.059884876
-0.27852947 -0.26098773 0.059916198
-0.27870706 -0.26095757 0.05997771
-0.2789211 -0.26095098 0.059833843
-0.27912074 -0.26092461 0.059847984
-0.27931952 -0.26089436 0.059890956
-0.27952927 -0.26087242 0.059863545
-0.27975029 -0.260856 0.059785366
-0.27994776 -0.26083478 0.059763782
-0.28014705 -0.2608051 0.05980213
-0.28035131 -0.26078272 0.059782818
-0.28055766 -0.26076213 0.059748515
-0.28076351 -0.26073104 0.059791449
-0.28095347 -0.26071101 0.059767589
-0.2811583 -0.2606895 0.059741363
-0.28137293 -0.26066932 0.059696645
-0.2815522 -0.26065123 0.059668213
-0.28175959 -0.26062879 0.059646584
-0.28195396 -0.26060602 0.059638839
-0.28214493 -0.260584 0.059628807
-0.28237098 -0.26056004 0.059601329
-0.28256804 -0.26053995 0.05957168
-0.28276491 -0.26051611 0.05956969
-0.28295287 -0.26049176 0.059579261
-0.28316388 -0.26046965 0.059551861
-0.28336334 -0.26044849 0.059527952
-0.28356358 -0.26042816 0.059497137
-0.28377497 -0.26039907 0.059520446
-0.28397655 -0.26038033 0.059476938
-0.28417423 -0.26036188 0.0594346
-0.28436095 -0.26033282 0.059479918
-0.28455597 -0.26030794 0.059487164
-0.2847681 -0.26028803 0.059442453
-0.28496587 -0.26026613 0.059425481
-0.28516102 -0.2602458 0.059399292
-0.28536153 -0.26022702 0.059356928
-0.28556862 -0.26020256 0.059350293
-0.2857694 -0.2601757 0.05936674
-0.28596306 -0.26015428 0.059349772
-0.28617275 -0.26013297 0.059317756
-0.28636116 -0.26010591 0.059346937
-0.28656021 -0.26008636 0.059311509
-0.28676564 -0.26007438 0.059214946
-0.28695938 -0.26004446 0.059260245
-0.28715715 -0.26002395 0.059232891
-0.28736472 -0.25999627 0.059249304
-0.28758153 -0.25997502 0.059210341
-0.2877582 -0.25995332 0.059210747
-0.28794122 -0.25992975 0.059219193
-0.28814709 -0.2599152 0.059141077
-0.28834459 -0.25989017 0.059147157
-0.28854632 -0.25986555 0.059146307
-0.28874859 -0.25985223 0.059062436
-0.28893924 -0.25982884 0.059062786
-0.28914443 -0.25980398 0.059060764
-0.28934267 -0.25978041 0.05905531
-0.2895343 -0.25975311 0.05908332
-0.28973651 -0.25973538 0.059031732
-0.28993434 -0.25971726 0.058987089
-0.2901319 -0.25968733 0.059028912
-0.29034096 -0.25967476 0.058933482
-0.29053167 -0.25965229 0.05892691
-0.29072186 -0.25962907 0.058926113
-0.29091975 -0.25959975 0.058963317
-0.29111728 -0.25958228 0.058914054
-0.29131499 -0.25956541 0.05886019
-0.29151782 -0.25953799 0.058878928
-0.29171091 -0.25951368 0.058883872
-0.29191196 -0.25949654 0.058828831
-0.29210034 -0.25946397 0.05889836
-0.29230955 -0.25944823 0.058825999
-0.29249489 -0.25943112 0.058784865
-0.29269165 -0.25940698 0.058785185
-0.29288426 -0.25938225 0.058793589
-0.29308543 -0.25935942 0.058780059
-0.29327536 -0.25933707 0.058773495
-0.29347205 -0.25932094 0.058715008
-0.2936736 -0.25929147 0.058749899
-0.29386491 -0.2592724 0.058717962
-0.29405603 -0.2592532 0.058687173
-0.29426453 -0.25923091 0.058663238
-0.29445812 -0.25920922 0.058648579
-0.2946533 -0.25918242 0.058669657
-0.29484066 -0.25915483 0.058703452
-0.29504275 -0.25914532 0.058591917
-0.29524183 -0.25911915 0.058604904
-0.29543459 -0.25909594 0.058601782
-0.2956318 -0.2590749 0.058579046
-0.29582176 -0.25905457 0.058557488
-0.29601356 -0.25901824 0.058651216
-0.29621869 -0.25901011 0.058526985
-0.29641792 -0.25898468 0.058534212
-0.29660434 -0.25896573 0.058505751
-0.29679403 -0.25894561 0.058483042
-0.29699147 -0.25892705 0.058441855
-0.29718095 -0.25890693 0.058419146
-0.29737687 -0.25888366 0.058413707
-0.2975738 -0.25886437 0.058378287
-0.29776642 -0.25882828 0.058469705
-0.29796413 -0.25881237 0.058408916
-0.29816431 -0.25879219 0.058376938
-0.29836053 -0.25877094 0.058356509
-0.29854923 -0.25874904 0.058347635
-0.29874626 -0.25873241 0.058292616
-0.29893458 -0.25870928 0.058292974
-0.29912701 -0.25868866 0.058271404
-0.2993257 -0.2586627 0.058283251
-0.29951805 -0.25864208 0.058261685
-0.29971221 -0.25861004 0.05832196
-0.29990441 -0.25858849 0.058307312
-0.30009037 -0.25857496 0.058239654
-0.30029339 -0.25855494 0.058204211
-0.30048224 -0.25853789 0.058159597
-0.30068076 -0.25851083 0.058179513
-0.30087674 -0.25849497 0.058119889
-0.30106857 -0.25847393 0.058101781
-0.30126387 -0.25845218 0.058085967
-0.30145511 -0.25842351 0.058124352
-0.30165011 -0.25839624 0.058148894
-0.30184186 -0.25837556 0.05812848
-0.30202663 -0.25836027 0.058074661
-0.30223235 -0.25833389 0.05808302
-0.30241701 -0.25832319 0.05799577
-0.30260846 -0.2582975 0.058012243
-0.30280346 -0.25827718 0.057986058
-0.30299485 -0.25825873 0.057949513
-0.30319336 -0.2582331 0.057959042
-0.30338123 -0.25821114 0.057951335
-0.30357608 -0.25819004 0.057930905
-0.30376744 -0.25816703 0.057927791
-0.30396283 -0.25813627 0.057977691
-0.30414733 -0.25811204 0.057989597
-0.30434495 -0.25809973 0.05790228
-0.30453911 -0.25808457 0.057839207
-0.30473366 -0.25806385 0.057816483
-0.30491769 -0.25804281 0.057805322
-0.30512017 -0.25801355 0.057837903
-0.30531165 -0.25798926 0.057844002
-0.30549493 -0.257974 0.057791352
-0.30568203 -0.25795558 0.057758279
-0.30587682 -0.25793201 0.057756301
-0.30607063 -0.25791433 0.057711668
-0.30626917 -0.25788903 0.057718899
-0.30645773 -0.25788036 0.057613183
-0.30665386 -0.25784922 0.057665385
-0.30684152 -0.25782633 0.057664588
-0.3070347 -0.25781018 0.057609584
-0.30722597 -0.25778651 0.057611085
-0.30743527 -0.25774431 0.057732411
-0.30764487 -0.25768787 0.057957485
-0.30786401 -0.25762334 0.058233261
-0.3080425 -0.25758564 0.05834895
-0.30826223 -0.25753665 0.058510575
-0.30844617 -0.25749403 0.058657371
-0.30866542 -0.25743768 0.058873191
-0.30908051 -0.25734013 0.059215009
-0.30928814 -0.2572822 0.059452783
-0.30969426 -0.25717893 0.0598442
-0.24537908 -0.26469493 0.0625121
-0.24559569 -0.26466584 0.062530763
-0.24580827 -0.2646358 0.062559836
-0.2460648 -0.26461509 0.062481474
-0.24628808 -0.26458785 0.062480517
-0.24648432 -0.26455399 0.062552333
-0.24672809 -0.264532 0.062494777
-0.2469697 -0.26450804 0.062453382
-0.24719128 -0.26448071 0.062454738
-0.24742097 -0.26445398 0.062444527
-0.2476676 -0.26443318 0.062375434
-0.24791756 -0.26441342 0.062295943
-0.24811742 -0.26438087 0.062355053
-0.24834029 -0.26435274 0.062361021
-0.24856754 -0.26432738 0.062342741
-0.24879287 -0.26430008 0.062340625
-0.24903879 -0.26427984 0.062268078
-0.2492567 -0.26425233 0.062274061
-0.24946839 -0.26422322 0.062297374
-0.24972945 -0.26420587 0.062190168
-0.24993308 -0.26417473 0.062235411
-0.25016585 -0.26414996 0.0622079
-0.25041652 -0.26413184 0.062115721
-0.25063589 -0.26410526 0.062113632
-0.25085232 -0.26407793 0.062119614
-0.251093 -0.26405582 0.062065542
-0.25133517 -0.26403591 0.061994161
-0.25152379 -0.26399934 0.06209252
-0.25176543 -0.26397949 0.062021144
-0.25199449 -0.26395455 0.061998252
-0.25220162 -0.26392505 0.062028505
-0.25244227 -0.26390532 0.061957128
-0.25264451 -0.2638745 0.062001236
-0.2528742 -0.26385012 0.061973728
-0.25309697 -0.26382548 0.061954323
-0.25336972 -0.26381412 0.061792865
-0.25355965 -0.26377991 0.061872769
-0.25376147 -0.2637476 0.06192841
-0.25401154 -0.2637316 0.061821245
-0.25421461 -0.26370147 0.061859578
-0.25442609 -0.26367396 0.061871361
-0.25464398 -0.26364675 0.061875045
-0.25487483 -0.26362538 0.061824471
-0.25509992 -0.26360062 0.061803892
-0.25533307 -0.2635802 0.061744083
-0.25556663 -0.26355836 0.061694659
-0.25576192 -0.26352617 0.061754934
-0.2559889 -0.26350418 0.061712451
-0.25621566 -0.26348045 0.061682649
-0.25642589 -0.26345325 0.061693281
-0.25665247 -0.26343146 0.061649635
-0.2568813 -0.26340875 0.061610609
-0.25708124 -0.26337838 0.061653562
-0.25729686 -0.26335144 0.061657254
-0.25753385 -0.26333359 0.061575517
-0.25776103 -0.26331076 0.061538793
-0.2579782 -0.2632865 0.061521716
-0.25818771 -0.26325968 0.06153005
-0.25837916 -0.26322672 0.061599568
-0.25860655 -0.26320434 0.06155939
-0.25882873 -0.26318213 0.061522685
-0.25906187 -0.26316205 0.06146057
-0.2592653 -0.26313347 0.061487377
-0.25950056 -0.26311439 0.061416026
-0.25971779 -0.26309091 0.061393183
-0.25993901 -0.26306707 0.061369173
-0.26013795 -0.26303715 0.061409831
-0.26036209 -0.26301453 0.061374277
-0.26057273 -0.26298901 0.061372224
-0.2607922 -0.26296681 0.061337836
-0.26102805 -0.26294893 0.061257258
-0.26123175 -0.26292109 0.061278298
-0.26144704 -0.26289767 0.061256617
-0.26165628 -0.2628701 0.061270706
-0.26186776 -0.26284543 0.061261728
-0.26208979 -0.26282293 0.061227337
-0.26228178 -0.26279083 0.061289933
-0.26249519 -0.26276514 0.061286718
-0.26271647 -0.26274461 0.06123849
-0.26294929 -0.26272678 0.061160229
-0.26316333 -0.26270366 0.061137404
-0.26336783 -0.26267478 0.061165355
-0.26359144 -0.26265571 0.061104432
-0.26380637 -0.26263124 0.06109082
-0.26400992 -0.26260421 0.061106097
-0.26423424 -0.26258585 0.061039411
-0.26444191 -0.26256067 0.061037365
-0.26466343 -0.26253933 0.060994893
-0.26487362 -0.26251543 0.060981318
-0.2650944 -0.26249403 0.060940012
-0.26528531 -0.26246208 0.061002612
-0.26548028 -0.26243186 0.061049059
-0.26570839 -0.26241601 0.060960442
-0.26591036 -0.2623868 0.060993016
-0.26614124 -0.26237252 0.060890548
-0.26635048 -0.26234668 0.060891956
-0.26655716 -0.26232195 0.060887612
-0.26676917 -0.26229751 0.060876325
-0.26697719 -0.26227358 0.060865052
-0.26715547 -0.26225153 0.060866594
-0.26739684 -0.26223862 0.060744483
-0.26762441 -0.26221073 0.060744654
-0.26782557 -0.26218399 0.060759939
-0.26802081 -0.26215449 0.060800616
-0.26822242 -0.26212803 0.060813591
-0.26845136 -0.26211241 0.060722664
-0.26863581 -0.26209384 0.060693044
-0.26881805 -0.26206973 0.060706101
-0.26907027 -0.26204291 0.060676195
-0.2692827 -0.26201984 0.060654521
-0.26944992 -0.26199314 0.060699932
-0.26967964 -0.26198122 0.060581326
-0.2698741 -0.26195183 0.060621999
-0.27010292 -0.26193747 0.060521848
-0.27029672 -0.26190785 0.060564838
-0.27051452 -0.26187861 0.06058351
-0.27073172 -0.26185876 0.060534146
-0.27093714 -0.26182804 0.060574777
-0.27112707 -0.26181352 0.060510546
-0.27134183 -0.26179034 0.06048771
-0.27154207 -0.26176685 0.060479932
-0.27175173 -0.26173863 0.06049864
-0.27197528 -0.26172048 0.060430795
-0.27215588 -0.2616865 0.060517669
-0.27237368 -0.2616705 0.060439475
-0.2725752 -0.26164308 0.060459364
-0.2728028 -0.26162526 0.060385734
-0.2730118 -0.26160482 0.060347937
-0.27321041 -0.26158375 0.060324021
-0.27340192 -0.26155347 0.06037394
-0.2736133 -0.2615321 0.060340747
-0.27379364 -0.26150584 0.060371112
-0.27399474 -0.26149455 0.060273387
-0.27424103 -0.26146767 0.060249262
-0.27441671 -0.26144421 0.060263507
-0.27464756 -0.26142174 0.060220998
-0.27483881 -0.26139697 0.060230561
-0.27504721 -0.26137739 0.060187005
-0.27525577 -0.26134977 0.060202248
-0.2754606 -0.26133376 0.06013564
-0.27563506 -0.26130429 0.060194857
-0.27584657 -0.26128718 0.060130529
-0.27605805 -0.26125887 0.060148068
-0.27623916 -0.26123947 0.060127687
-0.27645773 -0.26121879 0.060082931
-0.27665907 -0.26119849 0.060050935
-0.27686346 -0.26117453 0.060043134
-0.27706212 -0.26115265 0.060024992
-0.27726004 -0.26112741 0.060032211
-0.27746293 -0.26110867 0.059987523
-0.27767426 -0.26108083 0.060001612
-0.27787325 -0.26105657 0.060000755
-0.27805465 -0.26102909 0.060039181
-0.27827817 -0.26101318 0.059955202
-0.27847034 -0.26098424 0.059994735
-0.27866817 -0.26096877 0.059930466
-0.27887547 -0.26094475 0.059920348
-0.27907297 -0.26092306 0.05990221
-0.27927876 -0.26090127 0.059877113
-0.27946568 -0.26088145 0.059854403
-0.27969521 -0.26086181 0.059792299
-0.27990377 -0.26083606 0.059793711
-0.28008664 -0.26081344 0.059795238
-0.28028303 -0.26078823 0.05980362
-0.28048399 -0.26077005 0.059756625
-0.28067851 -0.2607435 0.059776545
-0.28088647 -0.26072443 0.059729535
-0.28108522 -0.26070145 0.059719454
-0.28128222 -0.26067713 0.059720915
-0.28148419 -0.26066053 0.059661247
-0.28166994 -0.26063392 0.05968928
-0.28187779 -0.26061553 0.059637643
-0.2820757 -0.26059595 0.059603356
-0.28227684 -0.26056844 0.059624396
-0.28247064 -0.26054543 0.059618957
-0.28267261 -0.26052615 0.059578888
-0.28286925 -0.26050219 0.059578039
-0.28306594 -0.26048592 0.059520692
-0.28327638 -0.26045206 0.059579752
-0.28347909 -0.26043019 0.059558131
-0.28366908 -0.26041189 0.059521571
-0.28387347 -0.2603958 0.059456117
-0.28405997 -0.26037052 0.059473764
-0.28426334 -0.26034179 0.059501722
-0.2844601 -0.26032269 0.059465133
-0.28465894 -0.26030174 0.059440069
-0.28486115 -0.26028025 0.05941613
-0.28507128 -0.2602587 0.059385255
-0.28527078 -0.26023045 0.059413228
-0.28544828 -0.26020455 0.059443604
-0.28565198 -0.26020664 0.059245534
-0.28585017 -0.26017287 0.059315033
-0.28605026 -0.2601499 0.059303798
-0.2862342 -0.26012242 0.0593399
-0.28642738 -0.26010531 0.059291795
-0.28662935 -0.26008022 0.059294395
-0.28682536 -0.26006213 0.059250884
-0.28703308 -0.26003459 0.059266139
-0.28722224 -0.26001343 0.059251487
-0.28742594 -0.25999552 0.059199881
-0.28762907 -0.25997233 0.059187479
-0.28782889 -0.25994512 0.05920738
-0.28802294 -0.25992557 0.059176557
-0.28822032 -0.25991046 0.059109986
-0.28841829 -0.25988114 0.05914719
-0.28860763 -0.25986102 0.059124477
-0.28880739 -0.25984454 0.059065957
-0.2890048 -0.2598145 0.059108932
-0.28918627 -0.25979474 0.05909086
-0.28939754 -0.25977308 0.059059963
-0.28959435 -0.25974765 0.059069499
-0.28979853 -0.25972733 0.059035189
-0.28998789 -0.25970832 0.059004389
-0.29019269 -0.25968349 0.059002355
-0.29037932 -0.2596606 0.059002712
-0.29058692 -0.25964031 0.05896493
-0.29077333 -0.25961727 0.058966432
-0.29097071 -0.25959337 0.058964431
-0.29116797 -0.25957561 0.058917459
-0.29136786 -0.25954965 0.058928132
-0.29155931 -0.25952899 0.058907706
-0.29177019 -0.25950894 0.05886529
-0.2919645 -0.25948021 0.058901362
-0.29215056 -0.25946397 0.058853284
-0.29234225 -0.25944439 0.058824785
-0.29254344 -0.25942144 0.058812395
-0.29274014 -0.25940454 0.058759652
-0.29294321 -0.25937819 0.058770314
-0.29315343 -0.25935099 0.058780953
-0.29333448 -0.25933379 0.058744419
-0.29353133 -0.25931829 0.058681305
-0.29371664 -0.25929475 0.058687434
-0.29391462 -0.25926587 0.058721177
-0.29410425 -0.25925189 0.058653489
-0.29430112 -0.25922915 0.058643416
-0.29450074 -0.25920418 0.058647171
-0.2946915 -0.25918502 0.058616377
-0.29489812 -0.25915903 0.058621254
-0.29507914 -0.25913459 0.058637772
-0.29528242 -0.25911942 0.058566555
-0.29547456 -0.25909486 0.058573812
-0.29568022 -0.25906664 0.058595993
-0.29586917 -0.25905415 0.058517918
-0.29606599 -0.25903285 0.058497474
-0.29625419 -0.25900799 0.058510505
-0.29645818 -0.25898626 0.058486566
-0.2966491 -0.25895843 0.058519185
-0.29685342 -0.25893807 0.058484875
-0.2970368 -0.25892219 0.058436811
-0.29722425 -0.25889507 0.058467131
-0.29742339 -0.25888368 0.058371726
-0.29762936 -0.25885731 0.058380064
-0.29782447 -0.25883147 0.058394223
-0.29800594 -0.25880966 0.058391131
-0.29819503 -0.25878945 0.058369569
-0.29839221 -0.25877297 0.05831337
-0.29858726 -0.25874713 0.05832753
-0.29878366 -0.25872791 0.058292091
-0.29897532 -0.25870344 0.05829934
-0.29917493 -0.25868273 0.058271967
-0.29935971 -0.25866064 0.058267709
-0.29955861 -0.25863624 0.058268011
-0.2997584 -0.25861803 0.058222186
-0.29994592 -0.25859028 0.058257125
-0.30013072 -0.25856885 0.058248263
-0.30032238 -0.25854468 0.058253206
-0.30052558 -0.25852716 0.058199286
-0.30072045 -0.25849992 0.058223825
-0.30091181 -0.2584728 0.058250684
-0.30110082 -0.25846016 0.058173761
-0.30129337 -0.25844958 0.058078382
-0.30149227 -0.25843054 0.058039475
-0.30167946 -0.25839368 0.058141302
-0.30187514 -0.25838336 0.058041293
-0.30207038 -0.2583662 0.057992019
-0.30226892 -0.25834608 0.057961188
-0.30246377 -0.25831759 0.057994947
-0.30265871 -0.2582916 0.05801025
-0.3028501 -0.25827426 0.057965618
-0.3030521 -0.25824869 0.057971664
-0.30324343 -0.25822741 0.057955857
-0.30343819 -0.25820678 0.05793196
-0.30363303 -0.25818413 0.057923056
-0.30382076 -0.25816202 0.057916477
-0.30400807 -0.25814676 0.05786033
-0.30420339 -0.25811586 0.057911381
-0.30438331 -0.25810304 0.05784373
-0.30457598 -0.2580646 0.057952449
-0.30477971 -0.25805753 0.057821274
-0.3049736 -0.25804177 0.057762779
-0.30516511 -0.2580156 0.057782721
-0.30536506 -0.25797892 0.057871811
-0.30560005 -0.25794238 0.057928458
-0.30580834 -0.25789964 0.058054414
-0.30600312 -0.25785637 0.058196567
-0.30620322 -0.25780487 0.058394045
-0.3064003 -0.2577534 0.058593858
-0.30660054 -0.25770646 0.058757894
-0.30679837 -0.25765648 0.05894617
-0.30699944 -0.2576099 0.059106745
-0.30720192 -0.25755891 0.059298456
-0.30740386 -0.25751254 0.059456721
-0.30760536 -0.25745502 0.059696872
-0.30780825 -0.25740871 0.059853982
