# .PCD v0.7 - Point Cloud Data file format
VERSION 0.7
FIELDS x y z
SIZE 4 4 4
TYPE F F F
COUNT 1 1 1
WIDTH 1296
HEIGHT 1
VIEWPOINT 0 0 0 1 0 0 0
POINTS 1296
DATA ascii
-0.23359495 -0.21905351 0.052790698
-0.23378825 -0.21902892 0.052937858
-0.23397161 -0.21902488 0.052933976
-0.2341447 -0.21902047 0.052934721
-0.23433323 -0.21902575 0.052860484
-0.23450704 -0.2190173 0.052891217
-0.23471336 -0.21901858 0.052843459
-0.2348893 -0.21901658 0.052825753
-0.23509438 -0.21900719 0.052857567
-0.23526618 -0.21900809 0.052819107
-0.23546571 -0.21900783 0.052784048
-0.2356309 -0.21900703 0.05275945
-0.23582384 -0.21900508 0.052738242
-0.23600742 -0.21899948 0.052745886
-0.23619919 -0.21900158 0.052694701
-0.23637643 -0.21899413 0.052717358
-0.23658618 -0.21899301 0.052686878
-0.23677915 -0.21899043 0.052670289
-0.23694946 -0.21898361 0.052689508
-0.23712699 -0.21898621 0.052637197
-0.2373233 -0.21898371 0.052619439
-0.23749784 -0.21898454 0.052580982
-0.23767306 -0.21897373 0.052629009
-0.23787268 -0.21897146 0.052608941
-0.2380607 -0.21897256 0.052565832
-0.23826642 -0.21896318 0.052597642
-0.23844381 -0.21896501 0.052551102
-0.238626 -0.2189548 0.05259335
-0.23881303 -0.21894974 0.052596379
-0.23899521 -0.2189561 0.052515227
-0.23917736 -0.21895427 0.052495204
-0.23938054 -0.21895887 0.052423239
-0.2395272 -0.2189672 0.0523341
-0.23974565 -0.21894556 0.052454669
-0.23991737 -0.2189367 0.052488878
-0.24009421 -0.21893871 0.05244118
-0.24027216 -0.21894518 0.052360035
-0.24048492 -0.21894319 0.052335329
-0.24067345 -0.21893515 0.052360266
-0.24088159 -0.21893546 0.052319415
-0.24105246 -0.21893513 0.052290194
-0.24123015 -0.21892844 0.052307073
-0.24142148 -0.21892188 0.052320465
-0.24160881 -0.21892254 0.052280828
-0.24179789 -0.21892007 0.052264247
-0.241971 -0.21892154 0.052221168
-0.24215925 -0.2189146 0.052238028
-0.24236625 -0.21891059 0.052229479
-0.24253647 -0.21891105 0.052194491
-0.2427253 -0.21890889 0.052175604
-0.24293479 -0.21890639 0.052155502
-0.24311024 -0.21890378 0.052142415
-0.24327531 -0.21890143 0.052129347
-0.2434749 -0.21889837 0.052115049
-0.2436785 -0.21888934 0.052144557
-0.24385333 -0.2188928 0.052086487
-0.24403994 -0.21888882 0.052081447
-0.24424677 -0.21888034 0.052106339
-0.24440239 -0.21887697 0.05210251
-0.24459033 -0.21888088 0.052038647
-0.24477871 -0.21888399 0.051980551
-0.24496731 -0.21888199 0.051960513
-0.24515522 -0.2188718 0.052001588
-0.24535394 -0.21887001 0.051978067
-0.24553496 -0.21886912 0.051951118
-0.24572361 -0.21886712 0.051931083
-0.245903 -0.21887262 0.051856853
-0.24607863 -0.21886119 0.051909495
-0.24624787 -0.21885796 0.051902182
-0.24641252 -0.21885623 0.051884506
-0.2466169 -0.2188475 0.051911704
-0.24680164 -0.21885441 0.051825937
-0.24699681 -0.21884869 0.051832404
-0.24718617 -0.21884589 0.051818132
-0.24737716 -0.2188412 0.051817678
-0.24758366 -0.21883829 0.051801056
-0.24777405 -0.21883439 0.051794849
-0.24797058 -0.21883127 0.051781707
-0.24815501 -0.2188303 0.051754761
-0.24832664 -0.21882468 0.051764738
-0.24851094 -0.21882387 0.051736634
-0.2487064 -0.21882202 0.051714271
-0.24888638 -0.21881852 0.051706929
-0.2490641 -0.21881384 0.051708821
-0.24925463 -0.21881722 0.051648412
-0.24944706 -0.21881497 0.051629514
-0.24962263 -0.2188091 0.051640637
-0.24979895 -0.218806 0.051631011
-0.24999338 -0.21880525 0.051600568
-0.25017941 -0.21879929 0.051610518
-0.25037625 -0.21879615 0.051597379
-0.25055671 -0.2187925 0.051591195
-0.25075451 -0.21879181 0.051559597
-0.25091547 -0.21879716 0.051490027
-0.25111884 -0.21878782 0.051521845
-0.251311 -0.21878605 0.051499486
-0.25149927 -0.21878792 0.051450618
-0.25169092 -0.21878026 0.051472079
-0.25189191 -0.21878292 0.051415112
-0.25204986 -0.21878447 0.05137438
-0.25221786 -0.21876763 0.051468559
-0.25234079 -0.21881604 0.051085401
-0.25255397 -0.21879221 0.051223293
-0.25273976 -0.21878996 0.051205561
-0.25295538 -0.21876159 0.051376894
-0.2531721 -0.21873565 0.051529769
-0.2533685 -0.218757 0.051334415
-0.25355628 -0.21875627 0.051305152
-0.25374705 -0.21874724 0.051337004
-0.25397062 -0.21874221 0.051333021
-0.25412634 -0.21874845 0.051257703
-0.25429681 -0.2187452 0.051250391
-0.25450411 -0.21873127 0.051315635
-0.25468934 -0.21873833 0.051228717
-0.25486261 -0.21874121 0.05117527
-0.25504082 -0.21873729 0.051171392
-0.25523287 -0.21873055 0.051185936
-0.25543958 -0.21872036 0.051223513
-0.25561732 -0.2187304 0.051115848
-0.25579762 -0.21872504 0.051122352
-0.25598422 -0.21872278 0.05110462
-0.25620168 -0.21871512 0.051121417
-0.25639522 -0.21871284 0.051102515
-0.25657752 -0.21871392 0.05106058
-0.25676343 -0.2187123 0.051038228
-0.25695357 -0.218705 0.051057395
-0.25716487 -0.21870229 0.051038459
-0.25732821 -0.21869981 0.051026542
-0.25750989 -0.21869892 0.050999597
-0.25770438 -0.21869864 0.050965708
-0.25791079 -0.21869464 0.050957151
-0.25808042 -0.21869265 0.050940618
-0.25825089 -0.21868768 0.05094599
-0.25844252 -0.21868467 0.050932851
-0.25862151 -0.21868818 0.050873622
-0.25884351 -0.21866877 0.050976899
-0.25903609 -0.21867473 0.050896879
-0.25922582 -0.21867085 0.050890673
-0.25940457 -0.21867219 0.05084759
-0.2595937 -0.21866877 0.050837927
-0.25977516 -0.21866369 0.050842118
-0.25995296 -0.21866567 0.050794426
-0.26013198 -0.21866685 0.050752491
-0.26035011 -0.21865793 0.050778508
-0.26053637 -0.2186611 0.050720409
-0.26070157 -0.21866463 0.050663523
-0.26088023 -0.2186638 0.050636586
-0.26108244 -0.21865 0.050701845
-0.26127008 -0.21864571 0.050699104
-0.26143894 -0.21865998 0.05056148
-0.26165813 -0.21863571 0.050701667
-0.26189753 -0.21862052 0.050770301
-0.26206875 -0.21863537 0.050628066
-0.26225883 -0.21863194 0.050618388
-0.26243249 -0.21863449 0.050567251
-0.26262474 -0.21862976 0.050566807
-0.26282585 -0.21862389 0.050573256
-0.26301959 -0.21861634 0.050593562
-0.26322651 -0.21861126 0.050593082
-0.26339895 -0.21861461 0.050536178
-0.26357129 -0.21861595 0.050494257
-0.26376638 -0.21861394 0.050473053
-0.26391822 -0.21862741 0.050344694
-0.26412264 -0.21860783 0.050452616
-0.26436931 -0.21858178 0.050600804
-0.26454425 -0.21859576 0.050464328
-0.26475075 -0.21859331 0.050444245
-0.26492071 -0.21859813 0.050376959
-0.26508874 -0.21859616 0.050360423
-0.26530445 -0.21858466 0.050406054
-0.26548851 -0.21858928 0.050337583
-0.26568907 -0.21857877 0.050378636
-0.26588339 -0.21857958 0.05033667
-0.2660709 -0.21857652 0.050324701
-0.26624602 -0.21857655 0.050292
-0.26647574 -0.21856548 0.050331831
-0.26665795 -0.21856549 0.050297961
-0.26683778 -0.21856681 0.050254885
-0.26703382 -0.21856122 0.05026019
-0.26723418 -0.21856079 0.050226286
-0.26742947 -0.21856126 0.050186615
-0.26760441 -0.21855788 0.050179299
-0.26780307 -0.21854928 0.050206512
-0.26799095 -0.21855195 0.050151873
-0.26819819 -0.21854624 0.050156001
-0.26838821 -0.2185442 0.050135959
-0.26857311 -0.21854307 0.050110165
-0.26874253 -0.21855175 0.050014049
-0.26893711 -0.21854031 0.050063185
-0.26915759 -0.21853164 0.050086889
-0.26931268 -0.21853884 0.050004657
-0.26954165 -0.21851894 0.050110217
-0.26972947 -0.21852534 0.050027911
-0.2699241 -0.21852303 0.050009005
-0.27009967 -0.21852165 0.049986683
-0.27031362 -0.21851671 0.049983881
-0.2705152 -0.21851796 0.049937282
-0.27070817 -0.21851321 0.049936835
-0.27089137 -0.21850653 0.049952559
-0.27107528 -0.21850806 0.049907152
-0.27127829 -0.21850029 0.049927443
-0.27148035 -0.21849811 0.049906213
-0.27167717 -0.21849683 0.049879234
-0.27187762 -0.21849717 0.049839564
-0.27205899 -0.21849504 0.049821842
-0.2722581 -0.21848781 0.049838677
-0.27244774 -0.21849339 0.049762122
-0.27263734 -0.21848749 0.049770914
-0.27284071 -0.21847846 0.049800422
-0.27305496 -0.21847583 0.049780317
-0.27324164 -0.21847636 0.049741831
-0.27341804 -0.21847682 0.049705669
-0.27361584 -0.21847227 0.049702901
-0.27381635 -0.21846811 0.049696669
-0.27402681 -0.21846108 0.049710024
-0.27421531 -0.21846095 0.049676139
-0.27441132 -0.21846217 0.049630713
-0.27459607 -0.21845593 0.049642973
-0.27479032 -0.21845487 0.049614843
-0.27501711 -0.21845022 0.049607392
-0.27521122 -0.21844932 0.049578112
-0.27541432 -0.21843985 0.04961108
-0.27560234 -0.21844018 0.049573749
-0.27577922 -0.21844544 0.049501836
-0.2759513 -0.21844818 0.049449541
-0.27616903 -0.21843106 0.049536675
-0.2763764 -0.21842921 0.04951198
-0.27655274 -0.21843325 0.049449299
-0.27675399 -0.21842505 0.049473044
-0.27695042 -0.21842502 0.049436841
-0.27713147 -0.21843156 0.049354542
-0.27728617 -0.21843737 0.049282685
-0.27755973 -0.21840772 0.04945273
-0.27775094 -0.2184086 0.049410764
-0.27794731 -0.21841028 0.049361873
-0.27814886 -0.21840394 0.049371783
-0.27835232 -0.21840125 0.049354017
-0.27850941 -0.21841057 0.049255624
-0.27875659 -0.21839426 0.049331166
-0.27891552 -0.21840136 0.049248923
-0.27910337 -0.21839659 0.049249642
-0.2793344 -0.21838146 0.049319446
-0.27953324 -0.21838385 0.049264781
-0.27973562 -0.21838197 0.049241249
-0.27993569 -0.21838109 0.049210805
-0.28012684 -0.2183767 0.049208056
-0.28032285 -0.21837328 0.049197216
-0.28052372 -0.21837361 0.049157541
-0.28073418 -0.21836874 0.049154751
-0.28094405 -0.21836559 0.049139269
-0.28113514 -0.21836291 0.049123831
-0.28132677 -0.21836285 0.049088791
-0.28154173 -0.21835649 0.049096368
-0.18655995 -0.22331034 0.029816855
-0.18670271 -0.22329381 0.029913396
-0.18684889 -0.2232772 0.030009933
-0.18700612 -0.22326435 0.030076446
-0.18714668 -0.22324695 0.030179923
-0.18728529 -0.22322883 0.030289162
-0.18742116 -0.22320968 0.030406488
-0.18755761 -0.22318821 0.030541107
-0.18769798 -0.22317174 0.030637655
-0.1878299 -0.22314975 0.030776903
-0.18795548 -0.22312668 0.030925393
-0.18807939 -0.22310163 0.031088885
-0.18819834 -0.22307469 0.031267382
-0.18831533 -0.22304563 0.031462032
-0.18147799 -0.21982028 0.05673825
-0.18168849 -0.21981217 0.056759652
-0.18189546 -0.21981235 0.056719933
-0.18205437 -0.21979915 0.056788754
-0.18233688 -0.21980104 0.056722317
-0.18255484 -0.21979445 0.056731015
-0.18278398 -0.21979548 0.056680866
-0.18300997 -0.21979381 0.056651473
-0.18321942 -0.21978743 0.05666019
-0.18344605 -0.2197862 0.056627341
-0.18365291 -0.21977895 0.056642987
-0.18388288 -0.21978089 0.056585912
-0.18410003 -0.21977788 0.056568082
-0.18431647 -0.21977304 0.056564096
-0.18453154 -0.21977271 0.056526657
-0.18474823 -0.21976645 0.056533061
-0.18493278 -0.21976069 0.05654183
-0.18517742 -0.21976258 0.056482412
-0.18540135 -0.21975785 0.056476101
-0.18557188 -0.21974483 0.056541432
-0.18579483 -0.21973811 0.056550115
-0.18602563 -0.2197433 0.056468818
-0.1862106 -0.21974495 0.05642223
-0.1864464 -0.21974908 0.05634784
-0.1866921 -0.21973854 0.056380685
-0.1869078 -0.21973619 0.056358248
-0.18712825 -0.21973248 0.056345016
-0.18731138 -0.21972163 0.056391872
-0.18751721 -0.21972758 0.056309469
-0.18776229 -0.21971892 0.056328487
-0.18796813 -0.21972162 0.056270316
-0.1881856 -0.21972774 0.056184422
-0.18842398 -0.21971646 0.05622422
-0.18862258 -0.21971096 0.056228347
-0.18885016 -0.21970941 0.056197803
-0.18906851 -0.21970744 0.056171902
-0.18928346 -0.21970589 0.056143697
-0.18949847 -0.21970448 0.056114338
-0.18969966 -0.21969691 0.056133453
-0.1898918 -0.21968894 0.056157213
-0.19011648 -0.21968853 0.0561186
-0.1903425 -0.21968886 0.056074221
-0.19054154 -0.21968615 0.056057587
-0.19076708 -0.21968092 0.056054726
-0.19097152 -0.21967527 0.056058854
-0.19119214 -0.21967544 0.056016788
-0.1913919 -0.21966775 0.056037061
-0.19160804 -0.21966599 0.056010015
-0.19181587 -0.21966228 0.055999123
-0.19203803 -0.21966365 0.055947829
-0.1922567 -0.21966541 0.055894233
-0.19246738 -0.21966147 0.055884495
-0.19266446 -0.21965291 0.055911705
-0.19288622 -0.21965459 0.055858109
-0.19308813 -0.21964854 0.05586569
-0.19329873 -0.21964492 0.055853643
-0.19350627 -0.21964183 0.055838145
-0.19371679 -0.21963838 0.055824939
-0.19392398 -0.21963529 0.055809442
-0.19413418 -0.21963184 0.055796247
-0.19434705 -0.21963188 0.055756509
-0.19454819 -0.21962802 0.055747949
-0.19476244 -0.21962494 0.055731274
-0.19497162 -0.21962135 0.05571923
-0.19518393 -0.21962155 0.055678345
-0.19538882 -0.21961591 0.055682462
-0.19561407 -0.21962322 0.055586182
-0.19581664 -0.21961655 0.055598371
-0.19601332 -0.21960676 0.055634804
-0.19621545 -0.21959993 0.055648159
-0.19643253 -0.21960343 0.055581883
-0.19664302 -0.21960136 0.055558302
-0.19684583 -0.21959731 0.055550881
-0.19705223 -0.21959317 0.055543464
-0.19724253 -0.21958882 0.055540696
-0.19746666 -0.21958826 0.055503245
-0.19766912 -0.21958438 0.055494677
-0.1978796 -0.21958293 0.055466473
-0.19808461 -0.21958068 0.055445217
-0.19829057 -0.21957687 0.05543549
-0.1984804 -0.21957049 0.05544772
-0.19869757 -0.21956888 0.055419512
-0.19890219 -0.21956679 0.055397093
-0.19911157 -0.21956538 0.055368904
-0.19931278 -0.21955919 0.055377632
-0.19951932 -0.21955629 0.055360988
-0.19972007 -0.21955229 0.055353574
-0.19992803 -0.21955043 0.05532885
-0.20010912 -0.21954396 0.055343412
-0.20033902 -0.21954638 0.055282868
-0.20052788 -0.2195354 0.055329699
-0.20073809 -0.21953534 0.055291124
-0.20096585 -0.21955128 0.055130236
-0.20114967 -0.21953732 0.055200152
-0.2013533 -0.21953107 0.055208888
-0.20156106 -0.21953 0.055178396
-0.20175712 -0.21952146 0.055205595
-0.20196229 -0.21951891 0.055186644
-0.20216227 -0.21951555 0.055174623
-0.20236073 -0.21951377 0.055151071
-0.20249547 -0.21949744 0.055247635
-0.20274313 -0.21951352 0.05508209
-0.20296961 -0.21951059 0.055061925
-0.2031633 -0.21950087 0.055098366
-0.20337074 -0.21949284 0.055119779
-0.20358361 -0.21949644 0.055053513
-0.20377736 -0.21949477 0.055029973
-0.20398061 -0.21948668 0.055052552
-0.20418602 -0.21948816 0.055003602
-0.20439337 -0.21948849 0.054962732
-0.2045901 -0.21948133 0.054979552
-0.20477767 -0.21946758 0.055047147
-0.20499474 -0.21947806 0.05492897
-0.2052024 -0.21947914 0.054882333
-0.20539956 -0.21947539 0.054873779
-0.20559759 -0.21946959 0.054880217
-0.20578042 -0.21946929 0.054848626
-0.20599577 -0.2194626 0.054858483
-0.2062009 -0.21946532 0.054800313
-0.20638192 -0.21945824 0.054819483
-0.20653214 -0.21945331 0.054828342
-0.20677438 -0.21945339 0.054782767
-0.20701006 -0.21946032 0.054687612
-0.20719557 -0.21944523 0.054765601
-0.20739378 -0.21944331 0.054743201
-0.20759659 -0.21944219 0.054713868
-0.20778774 -0.21943471 0.05473417
-0.20794825 -0.21942642 0.054766066
-0.20814963 -0.21941823 0.054789804
-0.20838171 -0.21943283 0.054638136
-0.20859367 -0.21943071 0.054614548
-0.20879133 -0.21942602 0.054612923
-0.20898499 -0.2194211 0.054613605
-0.20918183 -0.21941906 0.054592364
-0.20938094 -0.21941587 0.054579191
-0.20958433 -0.21941662 0.054536022
-0.20977528 -0.21940635 0.054577079
-0.20997708 -0.21940589 0.054543138
-0.21016903 -0.21939993 0.054551896
-0.21036956 -0.21939857 0.054524876
-0.21056491 -0.21939594 0.054508261
-0.21076579 -0.21939519 0.054476626
-0.21096352 -0.21939157 0.054466911
-0.21115863 -0.21938553 0.054475669
-0.21135665 -0.21938594 0.054435972
-0.21155111 -0.21938303 0.054421656
-0.2117507 -0.21938169 0.054394644
-0.21194999 -0.2193802 0.054368779
-0.21214038 -0.21937351 0.054383319
-0.2123455 -0.21937823 0.054310143
-0.21254306 -0.2193754 0.054294672
-0.21271749 -0.21936367 0.054349616
-0.21291341 -0.2193708 0.054260321
-0.21312645 -0.21936153 0.054289795
-0.21332233 -0.21936122 0.054255866
-0.2135144 -0.21935293 0.054281931
-0.21371032 -0.21935293 0.054245699
-0.21390599 -0.21934874 0.05424061
-0.21409754 -0.21934822 0.054208998
-0.21429169 -0.21933834 0.05424659
-0.21448712 -0.21933834 0.054210357
-0.21467641 -0.21933556 0.054196056
-0.21485262 -0.21933882 0.054139111
-0.21506839 -0.21932469 0.05420433
-0.2152683 -0.21933077 0.054121949
-0.2154711 -0.21933633 0.054043025
-0.21565789 -0.21932663 0.054080635
-0.2158504 -0.21931958 0.054097462
-0.2160448 -0.21931961 0.054061234
-0.21620765 -0.21931623 0.054056227
-0.21636279 -0.21930745 0.054092761
-0.21659502 -0.21931523 0.053991847
-0.21680517 -0.21931303 0.053969413
-0.2169937 -0.21930096 0.054024324
-0.21719614 -0.21929814 0.054007687
-0.21739005 -0.21929865 0.05396799
-0.21758753 -0.21929938 0.053925987
-0.21777605 -0.21929769 0.05390361
-0.21796706 -0.21928929 0.053930834
-0.21813744 -0.21928743 0.05391312
-0.21831015 -0.21928923 0.053867713
-0.21852133 -0.2192845 0.053863741
-0.21870473 -0.21928108 0.053855222
-0.21890402 -0.21928038 0.05382359
-0.21909544 -0.21927288 0.053843893
-0.2192551 -0.21926586 0.053866565
-0.21947315 -0.21926717 0.053816441
-0.21968052 -0.21926269 0.053811319
-0.21984591 -0.21925336 0.053850137
-0.22007404 -0.21926698 0.053706557
-0.2202374 -0.21925414 0.053771906
-0.22041623 -0.21924989 0.053770315
-0.22064202 -0.2192473 0.053747855
-0.22079578 -0.21923608 0.05380284
-0.22097491 -0.2192464 0.053692825
-0.22117089 -0.21924856 0.053640448
-0.2213711 -0.21924534 0.053627271
-0.22155313 -0.21922661 0.05373295
-0.22176686 -0.21922199 0.053727813
-0.22193375 -0.21922331 0.053687036
-0.22213873 -0.21921533 0.053708453
-0.22236012 -0.21922849 0.053569499
-0.22252221 -0.21922792 0.053543732
-0.22271205 -0.21923472 0.053457908
-0.22290871 -0.21921594 0.053561244
-0.22307703 -0.21920499 0.053611595
-0.22326887 -0.21920881 0.053547684
-0.223474 -0.21921104 0.053492974
-0.22367197 -0.21920402 0.053508639
-0.22384679 -0.21921073 0.053426318
-0.22401589 -0.21921183 0.053386696
-0.2242337 -0.21921191 0.053345788
-0.22443083 -0.21920304 0.053375304
-0.22460622 -0.21920276 0.053344883
-0.22479399 -0.21919753 0.05334904
-0.22498345 -0.21918637 0.05339703
-0.22516295 -0.21917669 0.053435806
-0.22535196 -0.219188 0.053316537
-0.22552823 -0.2191795 0.053347256
-0.22572114 -0.21918081 0.053301804
-0.22591189 -0.2191741 0.053316332
-0.22610575 -0.21916577 0.053342395
-0.22629777 -0.21916431 0.0533177
-0.22648527 -0.21915862 0.053325325
-0.22666644 -0.21915604 0.053311035
-0.22684422 -0.2191543 0.053290997
-0.22703055 -0.21916074 0.053208653
-0.22722472 -0.2191544 0.053219713
-0.22741269 -0.21915227 0.053200804
-0.22760315 -0.21914466 0.05322225
-0.22779708 -0.2191591 0.053078756
-0.22797325 -0.21914981 0.053115234
-0.22818212 -0.21915011 0.05307436
-0.22840749 -0.21914427 0.053076118
-0.22858417 -0.21913837 0.053087223
-0.2287502 -0.21913026 0.053116806
-0.22893472 -0.21913317 0.053060994
-0.22911447 -0.21912287 0.053104386
-0.22931004 -0.21913636 0.052967805
-0.22951841 -0.21913944 0.052906163
-0.22970121 -0.21912193 0.053002611
-0.22986762 -0.21912034 0.05298375
-0.2300996 -0.21911138 0.053007409
-0.23027988 -0.21911176 0.052971218
-0.2304704 -0.21910925 0.052954603
-0.23066092 -0.21911278 0.052893005
-0.23084782 -0.21910834 0.052891392
-0.23103465 -0.21910918 0.052850574
-0.23120765 -0.21910554 0.052845534
-0.23138754 -0.21910268 0.052833568
-0.23156367 -0.21910563 0.052778922
-0.2317293 -0.21910916 0.052722003
-0.23194034 -0.2191015 0.052739948
-0.23214452 -0.21909384 0.052759059
-0.23233178 -0.21908274 0.052807052
-0.23251861 -0.21907784 0.052808903
-0.23271112 -0.21908489 0.052720774
-0.23287365 -0.2190806 0.052722678
-0.23304622 -0.21907882 0.052703809
-0.23325014 -0.21907398 0.052702159
-0.23344393 -0.21906783 0.052712064
-0.23363113 -0.21905981 0.052736986
-0.23381399 -0.21905796 0.052716933
-0.23400392 -0.21905468 0.052706089
-0.23418485 -0.2190439 0.052752942
-0.23436697 -0.21904577 0.05270521
-0.23454908 -0.21904702 0.052662086
-0.23471849 -0.21905945 0.052538257
-0.23493646 -0.21905239 0.052550416
-0.2351443 -0.2190448 0.052568369
-0.23533083 -0.21904038 0.052566759
-0.23551728 -0.21903642 0.052561689
-0.23569551 -0.21903762 0.052519739
-0.23589313 -0.21903013 0.052538864
-0.23606496 -0.21902932 0.05251307
-0.2362304 -0.21902665 0.052502289
-0.23642087 -0.21902043 0.052513357
-0.23661427 -0.2190273 0.052426375
-0.23679446 -0.21902101 0.052439779
-0.23699902 -0.21901366 0.05245658
-0.23718885 -0.21900962 0.052451506
-0.23737365 -0.21901019 0.052412994
-0.23754907 -0.21900806 0.052396417
-0.23772655 -0.21900959 0.052352156
-0.2379449 -0.2190022 0.052366622
-0.23812002 -0.2190007 0.05234544
-0.23830311 -0.2189962 0.052344985
-0.23850173 -0.21899566 0.052312206
-0.23869134 -0.21899194 0.052304823
-0.23886105 -0.21899489 0.052251354
-0.23902953 -0.21898456 0.052297089
-0.23924245 -0.21898226 0.052274648
-0.23942128 -0.21898733 0.052203853
-0.23958744 -0.21900479 0.052043118
-0.23975968 -0.21900117 0.052038085
-0.23992854 -0.21899749 0.052034214
-0.24011761 -0.21899439 0.052022219
-0.24034125 -0.21898349 0.052062046
-0.24052231 -0.2189761 0.052083522
-0.2407198 -0.21896349 0.05214072
-0.24091233 -0.21896063 0.052126408
-0.24108905 -0.21896186 0.052084457
-0.24127443 -0.21895328 0.052113991
-0.24146827 -0.21895425 0.052070849
-0.24166785 -0.2189509 0.05205882
-0.24184191 -0.2189505 0.052029565
-0.24202706 -0.2189427 0.05205334
-0.24221699 -0.21894424 0.052006736
-0.24239753 -0.21893856 0.052015532
-0.24257016 -0.21894036 0.051970121
-0.24275528 -0.21894386 0.051909693
-0.24296491 -0.21893531 0.051934559
-0.2431474 -0.21893208 0.051924884
-0.24333216 -0.21892536 0.051940583
-0.24351251 -0.21892032 0.051944762
-0.24370997 -0.21892026 0.051908527
-0.24389443 -0.21890923 0.051956519
-0.24409643 -0.21891248 0.051894896
-0.24428195 -0.21890993 0.051879447
-0.2444611 -0.21890678 0.051869787
-0.24463777 -0.21890709 0.051834755
-0.24483542 -0.21890657 0.05180198
-0.24500425 -0.21890816 0.051758889
-0.24518825 -0.21890302 0.051763058
-0.24538054 -0.21890047 0.051746435
-0.24557769 -0.21890043 0.051710203
-0.24575596 -0.21889403 0.051724762
-0.24595074 -0.21889266 0.051698919
-0.2461503 -0.21888527 0.051716879
-0.2463287 -0.2188874 0.051668011
-0.24651371 -0.2188855 0.05164795
-0.24670145 -0.21888027 0.051652107
-0.24688222 -0.21887939 0.051625133
-0.24705723 -0.21887726 0.051608555
-0.24725562 -0.21887161 0.051613845
-0.24744301 -0.218867 0.051613394
-0.24762496 -0.21885696 0.051654473
-0.2478129 -0.21885963 0.051599801
-0.2480126 -0.21886805 0.051500119
-0.24819325 -0.21886346 0.051500835
-0.24836031 -0.21885517 0.051531576
-0.24856113 -0.21883985 0.051608365
-0.24874793 -0.21882892 0.051655203
-0.24895145 -0.21883662 0.051560119
-0.24913655 -0.21883486 0.051538911
-0.24933951 -0.21883221 0.051521115
-0.24952625 -0.21883227 0.051486056
-0.24969998 -0.21883172 0.051457949
-0.24988186 -0.21884011 0.051361773
-0.25004742 -0.21883744 0.051350992
-0.25024751 -0.21882741 0.051388565
-0.25044167 -0.21882342 0.051382329
-0.25063777 -0.21881427 0.051414147
-0.25082603 -0.21881939 0.051341027
-0.25102097 -0.21882127 0.051290952
-0.25118721 -0.21881813 0.051283628
-0.25136223 -0.2188163 0.051264744
-0.2515685 -0.21880752 0.051291928
-0.2517404 -0.21880236 0.051298432
-0.25193051 -0.21879305 0.051332574
-0.25212687 -0.21879674 0.051268648
-0.25231227 -0.21878879 0.051293574
-0.2525053 -0.21878931 0.051253892
-0.25270081 -0.21878761 0.051230349
-0.25287077 -0.21878746 0.051199943
-0.25307092 -0.21878766 0.05116139
-0.25326312 -0.21878293 0.051160928
-0.2534326 -0.21878032 0.051148973
-0.2536065 -0.21878551 0.051078193
-0.25381178 -0.21877272 0.051135369
-0.25402308 -0.21876644 0.051142931
-0.25420317 -0.2187721 0.051067512
-0.25436714 -0.21877411 0.051022135
-0.25455469 -0.21876237 0.05107474
-0.25474748 -0.21876585 0.051013134
-0.25490567 -0.2187725 0.050934311
-0.25514209 -0.21875724 0.051004104
-0.25532579 -0.21875706 0.050971359
-0.25551188 -0.21875234 0.050972063
-0.25568229 -0.21875994 0.050883986
-0.25586924 -0.2187493 0.050928511
-0.2560721 -0.21873704 0.050982233
-0.25627005 -0.21873388 0.050969057
-0.25645965 -0.21873713 0.05090978
-0.25664008 -0.2187344 0.050896652
-0.2568244 -0.21873389 0.050866209
-0.25699702 -0.21873198 0.050848491
-0.25720444 -0.218732 0.05080992
-0.25739822 -0.21872708 0.050810602
-0.25759143 -0.21871769 0.050844736
-0.25777233 -0.21871975 0.050795857
-0.25794378 -0.21872129 0.050752759
-0.25812453 -0.21871126 0.050793841
-0.25834033 -0.21870069 0.050832536
-0.25853464 -0.21870537 0.0507617
-0.25871187 -0.21871001 0.050694365
-0.25889593 -0.2187075 0.050678927
-0.25907084 -0.21870428 0.050670434
-0.25928578 -0.2186877 0.050754104
-0.25949439 -0.21868955 0.050701696
-0.25967282 -0.21868873 0.050674736
-0.25985759 -0.21869054 0.050626997
-0.2600376 -0.21868643 0.050624244
-0.26025087 -0.2186829 0.050611041
-0.26044983 -0.21867988 0.050596714
-0.26063871 -0.21867678 0.050584726
-0.26082107 -0.21867354 0.050575051
-0.26098695 -0.2186766 0.05052159
-0.26114792 -0.21867621 0.050494667
-0.26137009 -0.21866068 0.050569102
-0.26156721 -0.21866126 0.050528251
-0.2617501 -0.21866652 0.050455142
-0.261931 -0.21866441 0.050437395
-0.26210821 -0.21866037 0.05043466
-0.26227996 -0.21866189 0.050391562
-0.26245591 -0.218665 0.050335769
-0.26265344 -0.21865906 0.050343368
-0.26286057 -0.21865149 0.05036132
-0.26306492 -0.21863951 0.050412722
-0.26325184 -0.21864437 0.050341912
-0.26345396 -0.218638 0.050351802
-0.26365429 -0.21863076 0.050368611
-0.26385009 -0.21862023 0.050410815
-0.2640236 -0.218633 0.05028351
-0.2642014 -0.21863313 0.050249636
-0.264377 -0.21863455 0.050206527
-0.26454407 -0.21863493 0.050172668
-0.26478937 -0.21860009 0.050386615
-0.26495489 -0.21861927 0.050213192
-0.26511627 -0.21862693 0.050126296
-0.26535079 -0.21859886 0.050291821
-0.26555085 -0.21860215 0.050230205
-0.2657575 -0.21859212 0.050266616
-0.26591533 -0.21860559 0.050137039
-0.26611283 -0.21860075 0.050136562
-0.26631141 -0.21859726 0.050125696
-0.26650816 -0.21858917 0.050149433
-0.26670033 -0.21858183 0.050168585
-0.2668775 -0.21859203 0.050059725
-0.26707193 -0.21858726 0.050059255
-0.26728061 -0.21858229 0.05005759
-0.2674363 -0.21858916 0.049977627
-0.26761723 -0.21858254 0.049993336
-0.26784873 -0.21856926 0.050049294
-0.26802593 -0.21857932 0.049941584
-0.26821208 -0.21857738 0.049921524
-0.26839948 -0.21857123 0.049932607
-0.26860702 -0.21856366 0.049950559
-0.26879409 -0.21856852 0.049879741
-0.26897618 -0.21856529 0.049870066
-0.26917437 -0.21855561 0.049905349
-0.26936513 -0.21856038 0.04983452
-0.26955682 -0.21855241 0.04985828
-0.2697379 -0.21855509 0.049804781
-0.26995778 -0.2185418 0.04986307
-0.27013397 -0.2185418 0.049830347
-0.27034348 -0.21853387 0.049850594
-0.27053839 -0.21853498 0.049806297
-0.27072638 -0.21853779 0.04975047
-0.27092236 -0.21853329 0.049747691
-0.27112201 -0.21853551 0.049694143
-0.27130905 -0.21852705 0.049722522
-0.27150247 -0.21853065 0.049659766
-0.27168792 -0.21852641 0.049657013
-0.27188861 -0.21851994 0.049668055
-0.27208394 -0.21851607 0.049660653
-0.27229178 -0.21851127 0.049657844
-0.27247488 -0.21851003 0.049633179
-0.27268317 -0.21850677 0.049618829
-0.27288389 -0.21850386 0.04960335
-0.27307042 -0.21850114 0.049589057
-0.27326882 -0.21849456 0.049601261
-0.27345806 -0.21849069 0.049595028
-0.27366629 -0.21849254 0.049542621
-0.27385736 -0.21849111 0.049517937
-0.27405348 -0.21848582 0.049520914
-0.27424175 -0.2184826 0.049510073
-0.27443492 -0.21848033 0.049491152
-0.27463302 -0.21847747 0.049475681
-0.27483681 -0.21847682 0.049442887
-0.27501848 -0.21847358 0.049433213
-0.2752243 -0.21846589 0.04945232
-0.27543473 -0.21846244 0.049439125
-0.27563107 -0.21846831 0.049359053
-0.27581427 -0.21846613 0.04934131
-0.27600175 -0.21846059 0.049347777
-0.27620578 -0.21845403 0.049358808
-0.27638787 -0.21845855 0.049291473
-0.27658558 -0.21845028 0.049316369
-0.27679804 -0.2184463 0.049306624
-0.27697799 -0.21844731 0.049265817
-0.27715653 -0.21844742 0.049231928
-0.27735284 -0.21844895 0.049184158
-0.27755561 -0.21843591 0.049243651
-0.27776623 -0.21843152 0.04923737
-0.27796742 -0.21842967 0.049213812
-0.27820224 -0.21841383 0.049288217
-0.27835101 -0.2184266 0.049165584
-0.2785404 -0.2184283 0.049117833
-0.27876532 -0.21841829 0.049150735
-0.27895746 -0.21841605 0.049131818
-0.27917323 -0.21840563 0.04916935
-0.27935499 -0.21841063 0.049098548
-0.27952048 -0.21841647 0.049024325
-0.27976176 -0.21839738 0.049121786
-0.2799291 -0.21840395 0.049041793
-0.2801291 -0.21840169 0.049021695
-0.28034011 -0.21839929 0.04900042
-0.28055525 -0.21838966 0.049032185
-0.28074193 -0.21839143 0.048984442
-0.28093246 -0.21839589 0.048915923
-0.28115031 -0.21838264 0.048974227
-0.28135878 -0.21837458 0.048995636
-0.28158712 -0.21837407 0.048957013
-0.18639967 -0.22324798 0.03031072
-0.18654701 -0.22323273 0.030396856
-0.18669312 -0.22321582 0.030495672
-0.18683766 -0.22319832 0.030599117
-0.18697445 -0.22318056 0.030706044
-0.18711177 -0.22316046 0.030830262
-0.1872493 -0.22314158 0.030945264
-0.18738207 -0.22311974 0.03108334
-0.18750434 -0.22309534 0.031242214
-0.18762243 -0.22306935 0.03141379
-0.18774328 -0.22304423 0.031578436
-0.18085828 -0.21983548 0.056739919
-0.18109226 -0.21983749 0.056681614
-0.18132128 -0.21983621 0.056648716
-0.18153134 -0.2198295 0.056659706
-0.18170977 -0.21982683 0.056646541
-0.18193154 -0.21983425 0.056550212
-0.18218558 -0.21982694 0.056557618
-0.18242042 -0.2198204 0.056562778
-0.18264028 -0.21981624 0.056552965
-0.18286049 -0.21981394 0.056529317
-0.18308291 -0.21981096 0.056510273
-0.18329853 -0.21980707 0.056499325
-0.1835106 -0.21980186 0.05649877
-0.18370888 -0.21979623 0.056504007
-0.1839547 -0.21979794 0.056445688
-0.18415809 -0.21978955 0.056470536
-0.18437186 -0.21978368 0.056474589
-0.18459764 -0.21978605 0.056415156
-0.18481432 -0.2197832 0.056396127
-0.18504441 -0.21978423 0.056345925
-0.18527383 -0.21978511 0.05629687
-0.18544593 -0.21976942 0.056381781
-0.18568304 -0.21977025 0.05633156
-0.18586963 -0.21976057 0.056369137
-0.18604942 -0.21975833 0.056352511
-0.18631923 -0.21976286 0.056268744
-0.18652907 -0.21975106 0.056317791
-0.18673605 -0.21975017 0.056286104
-0.18695614 -0.21974972 0.056248609
-0.1871805 -0.21974948 0.056208797
-0.18739976 -0.21974193 0.05622438
-0.18760173 -0.21973403 0.056245763
-0.18782914 -0.21973543 0.056193255
-0.18803766 -0.21973759 0.056138489
-0.18826643 -0.21973276 0.056132115
-0.18847445 -0.21972781 0.05613042
-0.18869956 -0.2197305 0.056068681
-0.18889135 -0.21972394 0.056082025
-0.18910001 -0.21971773 0.05608955
-0.18927388 -0.21970867 0.056124851
-0.18954611 -0.21971484 0.056028396
-0.18975309 -0.21971178 0.056012847
-0.18995187 -0.21970691 0.056012329
-0.19017795 -0.21970539 0.05598174
-0.19039038 -0.21970141 0.055971958
-0.19059947 -0.21969783 0.055959873
-0.19081061 -0.21969342 0.055953544
-0.19101682 -0.21968868 0.055950694
-0.1912307 -0.21968761 0.055918988
-0.19143938 -0.2196842 0.055905756
-0.19165753 -0.2196835 0.055870567
-0.19186428 -0.21968509 0.055820424
-0.19208075 -0.21967807 0.055832542
-0.19229504 -0.21967778 0.055795066
-0.19250834 -0.21967517 0.055774897
-0.19270359 -0.21967162 0.055765159
-0.19291088 -0.21966235 0.055795755
-0.1931309 -0.21966532 0.05573288
-0.1933378 -0.21965994 0.055734649
-0.19353931 -0.2196539 0.055742189
-0.19375327 -0.21965222 0.055715099
-0.19395685 -0.21964738 0.055713408
-0.19416723 -0.2196461 0.055684019
-0.19436643 -0.21964121 0.055683486
-0.19458538 -0.21964048 0.055648308
-0.19479686 -0.21964011 0.055611998
-0.19500053 -0.21963371 0.05562184
-0.19519466 -0.21963267 0.05559364
-0.19542247 -0.21963297 0.055549212
-0.19563031 -0.21963112 0.055524435
-0.19583476 -0.21962549 0.05552851
-0.19603784 -0.21962127 0.055522211
-0.19624151 -0.21961536 0.055528596
-0.19644541 -0.21961173 0.055517677
-0.1966697 -0.21961941 0.055419032
-0.19686995 -0.21961403 0.055421967
-0.19707516 -0.21961148 0.055402979
-0.19727887 -0.21960601 0.055405904
-0.19745962 -0.21960297 0.055395044
-0.197688 -0.21959846 0.055386372
-0.19790196 -0.21960126 0.055325821
-0.19808972 -0.21958922 0.055380702
-0.19828919 -0.21958169 0.055399783
-0.19849026 -0.21957737 0.055394642
-0.19871528 -0.21958487 0.055297151
-0.19891421 -0.21957953 0.055300083
-0.19912133 -0.2195791 0.055264931
-0.19932434 -0.21958093 0.055213645
-0.19950861 -0.21957858 0.055197008
-0.19966243 -0.21956721 0.055253126
-0.19989786 -0.21957043 0.055185605
-0.20012502 -0.21955943 0.05522538
-0.20033616 -0.21956216 0.055165999
-0.20054108 -0.21955884 0.055152766
-0.20073956 -0.21955396 0.055152245
-0.2009384 -0.21954939 0.055149417
-0.20113902 -0.21954602 0.055137355
-0.20134182 -0.21954414 0.055113744
-0.20154859 -0.21954247 0.055087831
-0.20171325 -0.21953829 0.05508855
-0.20194811 -0.21954027 0.055030253
-0.20215482 -0.21953644 0.055020478
-0.20235246 -0.21953422 0.055000346
-0.20255494 -0.21954289 0.054898299
-0.20274419 -0.21952012 0.055032771
-0.20295972 -0.21952769 0.054936457
-0.20314543 -0.21953321 0.054860987
-0.20331609 -0.21953119 0.054844394
-0.2035204 -0.21949781 0.055054955
-0.20375352 -0.21951039 0.054918218
-0.2039607 -0.21951306 0.054859996
-0.20415196 -0.21950464 0.054887187
-0.2043504 -0.21949869 0.054894734
-0.20454763 -0.21949463 0.05488845
-0.20474662 -0.21949191 0.054871775
-0.2049537 -0.21949519 0.054808933
-0.2051273 -0.21948785 0.05483155
-0.205345 -0.21948545 0.05480906
-0.20555109 -0.21948566 0.054769304
-0.20575252 -0.21948536 0.054734167
-0.20594944 -0.21948177 0.054724418
-0.20614192 -0.21947488 0.054740056
-0.20634605 -0.219477 0.054686461
-0.20654608 -0.21947612 0.054655947
-0.20674494 -0.21947154 0.054653108
-0.20693801 -0.21946542 0.054662988
-0.2071071 -0.2194639 0.054642931
-0.20733726 -0.21946384 0.054600794
-0.20752876 -0.21945666 0.054618746
-0.20771733 -0.21945621 0.054587115
-0.20792769 -0.21945556 0.054553106
-0.20811804 -0.21944763 0.054576829
-0.20831321 -0.21944377 0.054569393
-0.20851184 -0.21944292 0.054538883
-0.20871159 -0.21944004 0.054523356
-0.20890993 -0.21943919 0.054492842
-0.20909388 -0.21943562 0.054485433
-0.20929736 -0.21942985 0.054490671
-0.20950021 -0.2194334 0.054426692
-0.20969053 -0.21942593 0.054446958
-0.20988716 -0.2194242 0.054423369
-0.2100759 -0.2194154 0.054454014
-0.21027461 -0.21941239 0.054439649
-0.21047837 -0.2194176 0.054362983
-0.2106664 -0.21941176 0.054371715
-0.21083552 -0.21940884 0.054362036
-0.21106359 -0.21940991 0.054311834
-0.21125589 -0.21940489 0.054313645
-0.21143433 -0.21940066 0.054312013
-0.2115929 -0.21939491 0.054325446
-0.21184686 -0.21940061 0.05423595
-0.21203467 -0.2193988 0.054214694
-0.21223214 -0.21939209 0.054228015
-0.21242364 -0.21938677 0.054232121
-0.21261175 -0.21938556 0.05420626
-0.21280824 -0.21938184 0.054197658
-0.21299824 -0.21937127 0.054240994
-0.21318425 -0.21936812 0.054230131
-0.21339194 -0.2193689 0.054185741
-0.21358703 -0.219368 0.054156393
-0.21378306 -0.21936829 0.05411781
-0.21397556 -0.21936482 0.054108068
-0.2141725 -0.21936649 0.054059111
-0.21436729 -0.21936589 0.054027453
-0.21455541 -0.21935771 0.054053489
-0.21474485 -0.21935105 0.05406798
-0.21493857 -0.21934521 0.05407555
-0.21512665 -0.21934572 0.05403699
-0.21533218 -0.21935013 0.053966086
-0.2155287 -0.21935259 0.053911351
-0.21572116 -0.21934569 0.053926989
-0.21590914 -0.21933767 0.053951867
-0.21610372 -0.21933816 0.053912144
-0.2162752 -0.21934156 0.053855162
-0.2164793 -0.21933608 0.053858086
-0.21666962 -0.21932662 0.053893346
-0.21686727 -0.21933199 0.053816695
-0.21705499 -0.21932398 0.053841583
-0.21723548 -0.21931583 0.053868793
-0.2174224 -0.21931683 0.053826764
-0.21760584 -0.21932332 0.053744383
-0.21781369 -0.21931884 0.05373922
-0.21798576 -0.21930377 0.053819522
-0.21819736 -0.21931036 0.0537313
-0.21841381 -0.21930845 0.053705342
-0.21859786 -0.21929511 0.05377062
-0.21875653 -0.21928656 0.053804811
-0.21894239 -0.21929301 0.053722411
-0.21913999 -0.21929576 0.05366537
-0.21933936 -0.21928404 0.053715605
-0.2195248 -0.21927872 0.053720884
-0.21972169 -0.21928087 0.053668458
-0.21990533 -0.21928504 0.053603366
-0.22007722 -0.21928129 0.053599458
-0.22030771 -0.21926804 0.053655379
-0.22050603 -0.21927387 0.053575266
-0.22070053 -0.21927296 0.053545907
-0.22089119 -0.21926488 0.053570788
-0.22106898 -0.21925928 0.05357955
-0.22125825 -0.21926254 0.053520225
-0.22145319 -0.21925604 0.053532399
-0.22165497 -0.21925652 0.053491496
-0.22184762 -0.21925287 0.053482912
-0.22203359 -0.21925017 0.053468578
-0.22220142 -0.21925442 0.05340584
-0.2224239 -0.21925502 0.053360272
-0.2225848 -0.21923572 0.053474054
-0.22276041 -0.21923405 0.053453982
-0.22298822 -0.21923962 0.053370323
-0.22315606 -0.21922791 0.053426404
-0.22332884 -0.21923761 0.053322125
-0.22355206 -0.21924205 0.053247716
-0.22371306 -0.21923082 0.053301506
-0.22392909 -0.21922582 0.05329863
-0.22410026 -0.21922319 0.053286646
-0.22429214 -0.21921971 0.053276919
-0.22446392 -0.21921922 0.053248774
-0.22466388 -0.21921942 0.053210184
-0.2248482 -0.21921475 0.053210851
-0.22504362 -0.21921228 0.053193036
-0.22524071 -0.21920356 0.05322136
-0.22541709 -0.21919583 0.053246271
-0.22564064 -0.21919407 0.053217996
-0.22580706 -0.21918827 0.053230245
-0.22599384 -0.21919392 0.053153619
-0.22617966 -0.21918193 0.053208508
-0.22637333 -0.21918833 0.053124934
-0.22655013 -0.2191826 0.053134859
-0.22674164 -0.21918038 0.053115893
-0.22693288 -0.21917723 0.053103857
-0.22713564 -0.21917985 0.053046793
-0.22731325 -0.21917921 0.053018648
-0.2275009 -0.21917662 0.053003162
-0.22771177 -0.21916726 0.053033751
-0.22791736 -0.21916874 0.052984759
-0.22810598 -0.21917434 0.05290813
-0.22828595 -0.21916837 0.052919194
-0.22846149 -0.2191543 0.052991401
-0.22863895 -0.21915615 0.052944791
-0.22883286 -0.21914999 0.05295467
-0.22901443 -0.21916088 0.052839991
-0.22919728 -0.21914849 0.052898332
-0.22939144 -0.21914667 0.052875914
-0.22957151 -0.21914241 0.052874282
-0.22977231 -0.21913733 0.052874904
-0.22995943 -0.21913615 0.052849032
-0.23013616 -0.21913753 0.052805893
-0.2303229 -0.21912785 0.052843474
-0.23051682 -0.21913083 0.052785285
-0.23071404 -0.21912661 0.052780151
-0.23092158 -0.21912447 0.052757684
-0.23110154 -0.21911463 0.052797589
-0.23129524 -0.21911174 0.052783236
-0.23150599 -0.21911369 0.052729614
-0.23169266 -0.21911067 0.052717589
-0.23186897 -0.21910696 0.052712508
-0.23204514 -0.21910511 0.052693591
-0.23222815 -0.21910372 0.052670039
-0.23242465 -0.21910495 0.052624531
-0.232611 -0.21910286 0.052605588
-0.23279467 -0.21909323 0.052643176
-0.23299152 -0.21908981 0.052632272
-0.23318817 -0.21908762 0.052612145
-0.23338504 -0.21908355 0.052605864
-0.23357087 -0.21908411 0.052567296
-0.23373185 -0.21908915 0.052499965
-0.23393589 -0.21908228 0.052513279
-0.23413533 -0.21908236 0.05247584
-0.23432572 -0.21907504 0.052494943
-0.23449042 -0.21907642 0.052454144
-0.23468144 -0.21906632 0.052494012
-0.23486362 -0.21906587 0.052463546
-0.23504123 -0.21905485 0.052512683
-0.2352224 -0.21905862 0.052451067
-0.23541814 -0.21905832 0.052417096
-0.23560432 -0.21905483 0.052408531
-0.23578385 -0.21905042 0.052408062
-0.23596677 -0.21904625 0.052405272
-0.23616198 -0.21904719 0.052362077
-0.23635158 -0.21904346 0.052354652
-0.23655203 -0.21904925 0.052274533
-0.23674338 -0.21903959 0.05231094
-0.23692228 -0.21903706 0.052296624
-0.23711903 -0.21903223 0.052296109
-0.23733179 -0.21903074 0.052267864
-0.23751315 -0.21903078 0.052233938
-0.23768884 -0.2190274 0.052226551
-0.2378751 -0.21902314 0.052223753
-0.2380714 -0.21901956 0.052214015
-0.23824388 -0.21901564 0.052211255
-0.23844111 -0.21901824 0.052155364
-0.23861721 -0.21901377 0.052156053
-0.23881787 -0.21900776 0.052163605
-0.23902288 -0.21900769 0.052126151
-0.2391959 -0.21900252 0.052132614
-0.23936924 -0.2190043 0.052087165
-0.23958112 -0.21900375 0.052052002
-0.23977661 -0.2189943 0.0520861
-0.23997058 -0.2189883 0.052094817
-0.24015151 -0.21899518 0.05201013
-0.2403238 -0.21899158 0.05200506
-0.24050909 -0.21898253 0.052038025
-0.2407147 -0.21898058 0.052014418
-0.24088946 -0.21897894 0.051994346
-0.24108204 -0.21898212 0.05193501
-0.2412557 -0.21898854 0.051854961
-0.24141523 -0.21898943 0.051818769
-0.24164428 -0.2189756 0.051879313
-0.24182332 -0.21897215 0.051871918
-0.24200602 -0.21896827 0.051866829
-0.24219087 -0.21896653 0.051845573
-0.24237974 -0.21896376 0.051831231
-0.24256879 -0.21896067 0.051819202
-0.24273722 -0.21895793 0.051808383
-0.24293795 -0.21895254 0.051811315
-0.24312826 -0.21894756 0.051813118
-0.24332909 -0.21894217 0.05181605
-0.243533 -0.21893732 0.051814359
-0.24371679 -0.21894227 0.051743511
-0.24389316 -0.2189429 0.051706128
-0.24408354 -0.21893792 0.051707942
-0.24428245 -0.21893056 0.051725876
-0.24446157 -0.21892725 0.051717326
-0.24463844 -0.21892709 0.051685713
-0.24481423 -0.21892835 0.051643725
-0.24499387 -0.21893355 0.051571727
-0.24520554 -0.21892294 0.051611554
-0.24539588 -0.21891826 0.051611055
-0.24558301 -0.21891786 0.051579416
-0.24576789 -0.21892031 0.051527016
-0.24593528 -0.21891898 0.051505812
-0.24612504 -0.2189151 0.051499549
-0.2463046 -0.21891551 0.05146331
-0.24648504 -0.2189106 0.051466294
-0.24668095 -0.21890348 0.051483087
-0.24688242 -0.21889791 0.05148717
-0.24707666 -0.21888897 0.051517803
-0.24727115 -0.21887985 0.051549591
-0.24745768 -0.21887621 0.051542185
-0.24765356 -0.21887745 0.051496677
-0.24784149 -0.21887609 0.051471964
-0.24802077 -0.21887681 0.051433429
-0.24821551 -0.21886784 0.051464058
-0.24841301 -0.21886718 0.05143239
-0.2485905 -0.21886981 0.051380012
-0.2487811 -0.21886186 0.051403735
-0.2489745 -0.21886192 0.051367469
-0.24914023 -0.21886608 0.051305898
-0.24933049 -0.21886931 0.051246565
-0.24951591 -0.21886693 0.051229924
-0.24969667 -0.21885893 0.051255982
-0.24988937 -0.21884924 0.05129239
-0.25008589 -0.2188393 0.051329941
-0.25028661 -0.21883547 0.051321339
-0.25045714 -0.21884802 0.051196299
-0.25063851 -0.21884978 0.051149681
-0.250826 -0.21883897 0.051195335
-0.25102893 -0.21882656 0.051250167
-0.25122979 -0.21882597 0.051217344
-0.25140339 -0.21883503 0.051117681
-0.25158489 -0.21883027 0.051119514
-0.25176594 -0.21882908 0.051094808
-0.25195083 -0.21882749 0.051072408
-0.25216687 -0.21881305 0.051139891
-0.25234801 -0.21881495 0.051092122
-0.25253311 -0.21881026 0.051092789
-0.25271285 -0.21881638 0.051013872
-0.25287092 -0.21882057 0.050953478
-0.25309893 -0.21879327 0.05111438
-0.25328726 -0.2187978 0.05104582
-0.25347543 -0.21880233 0.050977267
-0.2536388 -0.21881056 0.050885707
-0.2538268 -0.21880363 0.050902508
-0.25405782 -0.21879485 0.050924979
-0.25421992 -0.21879552 0.050889947
-0.25439945 -0.21878462 0.050937921
-0.25459284 -0.21876809 0.051025085
-0.25480247 -0.21877442 0.050939165
-0.25497141 -0.21877787 0.050882198
-0.2551657 -0.21877728 0.05085054
-0.25535566 -0.21877743 0.050814286
-0.25553825 -0.21877 0.050835721
-0.25575086 -0.21875519 0.050906681
-0.25594038 -0.21876633 0.050788522
-0.25613025 -0.21876401 0.050770711
-0.25630078 -0.21876091 0.050762199
-0.25649676 -0.21875656 0.050758217
-0.25667536 -0.21875 0.050773904
-0.25684547 -0.21875498 0.050705388
-0.25705472 -0.21874596 0.050733682
-0.25724623 -0.21874514 0.050704338
-0.25742939 -0.21875042 0.050631184
-0.25762728 -0.21874246 0.05065373
-0.25780997 -0.21874557 0.050596729
-0.2579743 -0.21874231 0.05059053
-0.25818166 -0.21873026 0.050641891
-0.25840884 -0.2187236 0.050649367
-0.25859225 -0.21872622 0.05059582
-0.25877544 -0.21872188 0.050594192
-0.25896859 -0.21871777 0.05058907
-0.25913835 -0.2187181 0.050555162
-0.25933138 -0.21871413 0.050548889
-0.25950941 -0.21871115 0.050538037
-0.25969455 -0.21871033 0.05050987
-0.25989595 -0.2187009 0.050542794
-0.26008216 -0.21870625 0.050468482
-0.26026964 -0.21869716 0.050501436
-0.26046497 -0.21869871 0.050453622
-0.26065078 -0.21869756 0.050427753
-0.26083958 -0.21869448 0.050415725
-0.26103157 -0.21869381 0.050385229
-0.26122585 -0.21869168 0.050365109
-0.26140851 -0.21869044 0.050340407
-0.26159352 -0.21868776 0.050326079
-0.26177293 -0.21868864 0.050286379
-0.26191983 -0.21870346 0.050148718
-0.26215225 -0.2186691 0.050361522
-0.26240534 -0.21863717 0.050552342
-0.26256353 -0.21867032 0.050276224
-0.26276886 -0.2186659 0.050271071
-0.2629244 -0.21867727 0.050157618
-0.26313943 -0.21864845 0.05033239
-0.2633346 -0.21865651 0.050236128
-0.26351196 -0.21865883 0.05018606
-0.26368704 -0.21866041 0.050141767
-0.26387829 -0.21865046 0.050180484
-0.26406336 -0.21864824 0.050162692
-0.26424509 -0.21865603 0.050071087
-0.2644372 -0.21864775 0.050097115
-0.26463884 -0.21864001 0.050117351
-0.26482871 -0.2186352 0.050118003
-0.26503143 -0.21862899 0.050126702
-0.26519459 -0.21863754 0.050032832
-0.26537496 -0.2186421 0.049965449
-0.26556998 -0.21863453 0.049985692
-0.2657789 -0.21862118 0.050046287
-0.26596111 -0.21862477 0.049985819
-0.26614851 -0.21862358 0.049959946
-0.2663452 -0.21862294 0.049928293
-0.26655227 -0.21861291 0.049964659
-0.26672795 -0.2186182 0.049892671
-0.26691976 -0.21861473 0.049882945
-0.26709479 -0.21861663 0.049836338
-0.2673091 -0.21860301 0.049898069
-0.26750579 -0.2185971 0.049905624
-0.26770854 -0.21859352 0.049894717
-0.26787317 -0.21860653 0.049767382
-0.26805061 -0.21860543 0.049742695
-0.26827791 -0.21858187 0.049875911
-0.2684938 -0.21857348 0.04989842
-0.26864958 -0.21858919 0.049752656
-0.26884615 -0.21858017 0.049783282
-0.26903158 -0.21858229 0.049733192
-0.26924795 -0.21856862 0.04979492
-0.26943287 -0.21857105 0.04974252
-0.26962447 -0.21856837 0.049727023
-0.26979923 -0.21857074 0.049676962
-0.27000803 -0.21856469 0.049683332
-0.27022979 -0.21855228 0.049734659
-0.27039257 -0.21856068 0.049641941
-0.27057374 -0.21855995 0.049613785
-0.27077845 -0.21855275 0.049629394
-0.2709581 -0.21855284 0.049595464
-0.27114543 -0.21855259 0.049562674
-0.27132431 -0.21855812 0.049488377
-0.2715379 -0.21854854 0.04952012
-0.27176443 -0.21853787 0.049557589
-0.27193362 -0.21854146 0.049499463
-0.27212816 -0.21853793 0.049489725
-0.27235293 -0.21852343 0.049556039
-0.27254125 -0.218523 0.049524397
-0.27273923 -0.2185262 0.049463898
-0.27292868 -0.21852201 0.049459931
-0.27309021 -0.21852766 0.049387991
-0.273303 -0.21851918 0.049411654
-0.27350444 -0.21851765 0.049385749
-0.27369282 -0.21851256 0.049388714
-0.27389759 -0.21850801 0.049384709
-0.27410525 -0.21850693 0.049354177
-0.27428317 -0.2185052 0.049334098
-0.27449197 -0.218499 0.049341619
-0.27469841 -0.21849394 0.049341079
-0.27487993 -0.21849072 0.049331378
-0.27506122 -0.21849231 0.049285907
-0.27525955 -0.21849257 0.049247321
-0.27546769 -0.21848235 0.049284846
-0.27565956 -0.21848243 0.049248572
-0.275837 -0.21848583 0.049190424
-0.2760303 -0.21848078 0.049192231
-0.2762236 -0.21847883 0.049170949
-0.27642626 -0.21847138 0.049188875
-0.27663636 -0.21847133 0.049150258
-0.27682886 -0.21846537 0.049158983
-0.27699867 -0.21846616 0.049121618
-0.27718163 -0.21846586 0.049089998
-0.27740961 -0.21845841 0.049103238
-0.27760252 -0.21845399 0.049100425
-0.27779779 -0.21845306 0.049071074
-0.27801752 -0.21844488 0.049091253
-0.27820233 -0.21845135 0.049008865
-0.27842218 -0.21844472 0.049017519
-0.27860284 -0.21843982 0.049020506
-0.27881202 -0.21843484 0.049018797
-0.27898321 -0.21844119 0.048939902
