# .PCD v0.7 - Point Cloud Data file format
VERSION 0.7
FIELDS x y z
SIZE 4 4 4
TYPE F F F
COUNT 1 1 1
WIDTH 1295
HEIGHT 1
VIEWPOINT 0 0 0 1 0 0 0
POINTS 1295
DATA ascii
-0.17546123 -0.2277278 0.057061009
-0.17568716 -0.22773761 0.057021242
-0.17590271 -0.2277444 0.057002258
-0.17612456 -0.22775428 0.05696135
-0.1762937 -0.22774637 0.057045098
-0.17651029 -0.22776449 0.056941945
-0.17672239 -0.22776473 0.056971394
-0.17695884 -0.22778201 0.056877419
-0.17718521 -0.22778392 0.056896456
-0.17740983 -0.22779043 0.056880902
-0.17763096 -0.22780076 0.056836542
-0.17780115 -0.22780076 0.056861483
-0.17805815 -0.22781257 0.056811258
-0.17828342 -0.2278253 0.05674959
-0.17849347 -0.22783245 0.056727163
-0.17868593 -0.22784932 0.05662984
-0.17887713 -0.22784913 0.056659333
-0.17908004 -0.22784004 0.056756828
-0.17933887 -0.2278536 0.056693923
-0.17953591 -0.22785088 0.056743007
-0.17974615 -0.2278568 0.056729805
-0.17997822 -0.22787215 0.056649674
-0.18018708 -0.22787757 0.056639925
-0.18040629 -0.22788848 0.056590959
-0.18061039 -0.22789164 0.056597367
-0.18082187 -0.22789681 0.05658992
-0.18102783 -0.2279011 0.056588255
-0.18124276 -0.22791408 0.056523152
-0.18144989 -0.22791529 0.056544539
-0.18167089 -0.22792593 0.056497879
-0.18186209 -0.22792263 0.056550436
-0.18207821 -0.22793084 0.056521073
-0.18230097 -0.22794475 0.056450184
-0.182491 -0.22794098 0.056506202
-0.18269402 -0.22795032 0.056466497
-0.18287846 -0.22795758 0.056439526
-0.18312435 -0.2279667 0.056407776
-0.18335044 -0.22797912 0.056348413
-0.18354233 -0.22797662 0.056395203
-0.1837545 -0.2279835 0.056375079
-0.1839589 -0.22799845 0.05629386
-0.18417722 -0.22800082 0.056308307
-0.18436423 -0.22800194 0.056327436
-0.18459556 -0.22801401 0.05627152
-0.18479733 -0.22803432 0.05614996
-0.18501343 -0.22802734 0.056233585
-0.18521337 -0.22802997 0.056243461
-0.18541785 -0.2280353 0.056233723
-0.1856219 -0.22804049 0.056225143
-0.18583331 -0.22804797 0.056200415
-0.1859951 -0.22804317 0.056259956
-0.18624832 -0.22806078 0.056165934
-0.18644591 -0.22806244 0.056182746
-0.18665418 -0.22807063 0.056152243
-0.18686226 -0.22807883 0.056121752
-0.187071 -0.22808534 0.056103934
-0.18727919 -0.22809385 0.056071132
-0.18748808 -0.22810067 0.056051016
-0.1876387 -0.22809812 0.056092139
-0.187886 -0.22810665 0.056065008
-0.18810402 -0.22812186 0.055983752
-0.18831643 -0.22813138 0.055944022
-0.18850905 -0.22813061 0.055978134
-0.18870729 -0.22813118 0.056003008
-0.18891259 -0.2281387 0.055977132
-0.18912205 -0.22814909 0.055930492
-0.18930307 -0.22815505 0.055912748
-0.1895269 -0.22816573 0.05586607
-0.18973841 -0.22817075 0.055859771
-0.18993257 -0.22817139 0.055883497
-0.19014025 -0.22817881 0.055858776
-0.19034266 -0.22818519 0.055840977
-0.19054934 -0.22819459 0.055801257
-0.19075163 -0.22819866 0.055800751
-0.1909499 -0.22820248 0.055801418
-0.19115697 -0.22821005 0.055775527
-0.19136494 -0.22822087 0.05572544
-0.19155787 -0.22822118 0.055751473
-0.19176924 -0.22823471 0.055681773
-0.1919705 -0.2282386 0.055682417
-0.19216581 -0.2282408 0.055694617
-0.19236773 -0.22824532 0.055690654
-0.19257024 -0.22825295 0.055663627
-0.19277255 -0.22825794 0.05565621
-0.19297345 -0.2282646 0.055636104
-0.19317298 -0.22826767 0.055642523
-0.19337654 -0.22827655 0.055606276
-0.19357219 -0.22827955 0.055612706
-0.19378495 -0.22829574 0.055523399
-0.19398545 -0.2283027 0.055500992
-0.19416457 -0.22830971 0.055475183
-0.19434457 -0.22830914 0.055505868
-0.19453019 -0.22831023 0.055525001
-0.19478047 -0.22831772 0.055505924
-0.19498172 -0.22832578 0.055475451
-0.19517945 -0.22833115 0.055464581
-0.19536372 -0.22833717 0.055446826
-0.19558145 -0.22834463 0.055423226
-0.19577612 -0.22834776 0.055428509
-0.19597775 -0.22835381 0.055413008
-0.19617432 -0.22835869 0.055405602
-0.19635057 -0.22836439 0.055389028
-0.19657221 -0.22838184 0.055291619
-0.19677205 -0.22838384 0.055306114
-0.19694917 -0.22839065 0.05528146
-0.19716062 -0.22840294 0.05522098
-0.19733818 -0.22840418 0.055237833
-0.19754827 -0.22840932 0.05523039
-0.19773301 -0.22840761 0.055270277
-0.19792321 -0.22841081 0.055274423
-0.19809653 -0.2284115 0.055294737
-0.19835615 -0.22842692 0.055218004
-0.19856219 -0.22844189 0.055136781
-0.19875674 -0.22844301 0.05515705
-0.19895016 -0.22844642 0.055160027
-0.19914925 -0.22845197 0.055147991
-0.19930375 -0.22846204 0.055095725
-0.19948137 -0.22847086 0.055056084
-0.19972372 -0.22849864 0.054884844
-0.19990174 -0.22847697 0.05507233
-0.20012765 -0.22848181 0.055069461
-0.2003203 -0.22848506 0.055073597
-0.20052139 -0.22849342 0.055040807
-0.20071509 -0.22849794 0.055035714
-0.20091249 -0.22850639 0.055001792
-0.20110434 -0.22850914 0.05500938
-0.20126566 -0.22850929 0.055032033
-0.20149484 -0.22851837 0.054998029
-0.20169115 -0.22852618 0.054968715
-0.201887 -0.2285298 0.054970536
-0.20205414 -0.22853269 0.054973572
-0.20228389 -0.22855093 0.054871544
-0.2024789 -0.22855793 0.054848
-0.20267612 -0.22856762 0.054804843
-0.20285009 -0.22857483 0.054776739
-0.20305175 -0.22856958 0.054845415
-0.20325133 -0.2285742 0.054840308
-0.20342991 -0.22858723 0.054769535
-0.20362385 -0.22859375 0.054749444
-0.20383751 -0.22859463 0.054774284
-0.20403039 -0.22860005 0.054762274
-0.20422605 -0.22860909 0.054723736
-0.20439827 -0.22861068 0.054737136
-0.20457219 -0.22861448 0.054734405
-0.20478842 -0.2286326 0.054631252
-0.20497893 -0.228631 0.054671124
-0.20516843 -0.22863263 0.0546868
-0.20534867 -0.22864538 0.054618321
-0.20555536 -0.2286517 0.054601669
-0.20577632 -0.2286586 0.054582667
-0.20596591 -0.22866566 0.054557983
-0.2061573 -0.22866547 0.054587483
-0.20634852 -0.22867009 0.05458124
-0.20652707 -0.22867151 0.054596931
-0.20668143 -0.2286732 0.054606929
-0.20691237 -0.22868542 0.054549854
-0.20710622 -0.22868915 0.054550529
-0.20730717 -0.22869861 0.05450967
-0.20750481 -0.22870304 0.054505717
-0.20768906 -0.22870843 0.054492582
-0.20788877 -0.22871646 0.054462101
-0.20808035 -0.22872278 0.054443181
-0.20826451 -0.22872849 0.054427736
-0.20845501 -0.22873324 0.054420341
-0.20864743 -0.2287354 0.054432537
-0.20882694 -0.22874551 0.054383673
-0.20901518 -0.22875284 0.054356683
-0.20923287 -0.22875705 0.054357298
-0.20942593 -0.22876728 0.054309539
-0.20961364 -0.22876763 0.054334436
-0.20979998 -0.228772 0.054329362
-0.20999244 -0.22878173 0.054285072
-0.21018626 -0.22878748 0.054270752
-0.2103809 -0.22879511 0.054242596
-0.21054822 -0.2287966 0.054256018
-0.21075948 -0.22880301 0.054239344
-0.21093141 -0.22880708 0.054234307
-0.21110302 -0.22881052 0.054233871
-0.21133129 -0.22882454 0.054162979
-0.2115093 -0.22881898 0.054230556
-0.21171384 -0.228835 0.054141268
-0.21190409 -0.22884223 0.054115433
-0.21208189 -0.22884455 0.054124206
-0.21228555 -0.22885096 0.054106403
-0.21247384 -0.22885366 0.054114014
-0.21266353 -0.2288601 0.054093935
-0.21285181 -0.22886294 0.054100383
-0.213039 -0.22886267 0.054129899
-0.21323086 -0.22887596 0.054059088
-0.21341732 -0.22888404 0.054026335
-0.21361403 -0.22889201 0.053995874
-0.21379158 -0.22889449 0.054003499
-0.21398383 -0.22889975 0.053992644
-0.21417521 -0.22891395 0.053914919
-0.21437348 -0.22891669 0.053923652
-0.21455343 -0.22891581 0.053956632
-0.21472895 -0.22892413 0.053920455
-0.21493895 -0.22893222 0.053891107
-0.2151172 -0.22893843 0.053871062
-0.21527565 -0.22893448 0.053923704
-0.21546003 -0.2289374 0.053929012
-0.21566917 -0.22895847 0.053802818
-0.21583764 -0.22895241 0.053872727
-0.21602993 -0.22896075 0.053838808
-0.2162223 -0.22897004 0.053797979
-0.21640323 -0.22897428 0.053792909
-0.21658516 -0.22898445 0.05374404
-0.21678606 -0.22898428 0.05377467
-0.21700276 -0.22899668 0.053714175
-0.21719779 -0.22900401 0.053688325
-0.21737826 -0.22900654 0.053695943
-0.21758634 -0.22900824 0.053713866
-0.21777028 -0.22901069 0.053722635
-0.21794043 -0.2290138 0.053724512
-0.21812868 -0.2290253 0.053666402
-0.21832018 -0.22903612 0.053614039
-0.21848348 -0.22904234 0.053591732
-0.21868813 -0.22904597 0.053594679
-0.21888946 -0.22905265 0.05357457
-0.21906994 -0.22905937 0.05355107
-0.21926077 -0.22906645 0.053526379
-0.2194618 -0.22906862 0.053539712
-0.21965246 -0.2290709 0.053550765
-0.21983625 -0.22908294 0.053488046
-0.22001645 -0.22908765 0.05347953
-0.22021753 -0.22908564 0.053523995
-0.22039059 -0.22909839 0.053454384
-0.22059156 -0.2291012 0.053463109
-0.22077891 -0.22909907 0.053506449
-0.22098327 -0.22910517 0.053490952
-0.22115961 -0.22911429 0.053449005
-0.22131485 -0.22912608 0.053384051
-0.22150891 -0.22912796 0.053398561
-0.22171672 -0.2291315 0.053402651
-0.22190723 -0.22913471 0.053406782
-0.22207995 -0.22914189 0.053378683
-0.22227035 -0.22914587 0.053377058
-0.22244203 -0.22916 0.053297076
-0.2226399 -0.22915962 0.053328861
-0.22283626 -0.22916961 0.053283416
-0.2230396 -0.22917849 0.053247169
-0.22323602 -0.22918676 0.053214386
-0.22341533 -0.2291933 0.053192034
-0.22359473 -0.22919907 0.053175446
-0.22377679 -0.22919157 0.053258009
-0.22398072 -0.22919659 0.053250581
-0.22416738 -0.22920111 0.053244345
-0.22434656 -0.2292078 0.053220846
-0.22455966 -0.2292178 0.053177655
-0.2247456 -0.22922479 0.053152978
-0.22492793 -0.229232 0.053126004
-0.22510082 -0.22923547 0.053125575
-0.22527118 -0.22924787 0.053058282
-0.22546825 -0.22925167 0.053058937
-0.22566354 -0.22926131 0.053015791
-0.22586077 -0.2292645 0.05302107
-0.22602898 -0.22927143 0.052994128
-0.22621641 -0.22927271 0.053012107
-0.22642821 -0.22927417 0.053032339
-0.22661979 -0.22928375 0.052989192
-0.22679152 -0.22929029 0.052965716
-0.22697289 -0.22928943 0.052998692
-0.2271491 -0.22929327 0.052995946
-0.2273154 -0.22932248 0.052802991
-0.22750285 -0.22933243 0.052756406
-0.22770087 -0.22932494 0.052841228
-0.22789629 -0.22932422 0.052875329
-0.22807933 -0.2293282 0.052872576
-0.22825222 -0.2293473 0.052755687
-0.22844172 -0.22934444 0.05280479
-0.22863171 -0.22934082 0.052859664
-0.22881499 -0.22935177 0.052805021
-0.22901449 -0.22936507 0.052735344
-0.2292445 -0.22936566 0.052764747
-0.22942398 -0.22937669 0.052708957
-0.22960147 -0.22937778 0.052726962
-0.22981143 -0.22937703 0.052763332
-0.22999571 -0.22939187 0.052679859
-0.23019135 -0.22939193 0.052708201
-0.23035511 -0.22939925 0.052677814
-0.23052832 -0.22940829 0.052635878
-0.23073208 -0.22941269 0.052633058
-0.23093563 -0.22941755 0.052626789
-0.23111552 -0.229421 0.052627493
-0.23130517 -0.22942573 0.052620102
-0.23147874 -0.22943386 0.05258508
-0.23167355 -0.22943591 0.052598432
-0.23185331 -0.22944525 0.052555326
-0.2320639 -0.22945009 0.052550189
-0.23225047 -0.22945955 0.052507058
-0.23242728 -0.22945723 0.052550435
-0.23261778 -0.22946601 0.052513059
-0.23280968 -0.22947264 0.052491829
-0.2329839 -0.2294845 0.052429132
-0.23313692 -0.22950134 0.052326143
-0.2333816 -0.22949278 0.052425839
-0.23357463 -0.22949293 0.05245303
-0.23375303 -0.22949404 0.052471031
-0.23393965 -0.22950305 0.052431367
-0.23411769 -0.2295094 0.05241017
-0.23432152 -0.22951876 0.052370463
-0.23451646 -0.22952592 0.052345764
-0.23470061 -0.22953333 0.05231763
-0.23486245 -0.22954664 0.052242283
-0.23505512 -0.22954772 0.052262556
-0.23524024 -0.22954524 0.052308213
-0.23543459 -0.22954883 0.052310035
-0.23561369 -0.22954544 0.052361477
-0.23579882 -0.22955179 0.052341409
-0.23598677 -0.22955897 0.052315578
-0.23618615 -0.22956514 0.052298933
-0.23634826 -0.22959363 0.052110609
-0.23654068 -0.22959548 0.052125115
-0.23676462 -0.22959378 0.052170672
-0.23693757 -0.22959787 0.052165631
-0.23710671 -0.2295946 0.052214786
-0.23731168 -0.22961001 0.052130111
-0.23750463 -0.22961172 0.052145772
-0.23769261 -0.22962245 0.05209342
-0.23785815 -0.22962701 0.052083783
-0.23805864 -0.22962113 0.05215707
-0.23824607 -0.2296396 0.052047074
-0.23843235 -0.22964117 0.052062746
-0.2386287 -0.2296434 0.052074939
-0.23881766 -0.22965649 0.052005291
-0.23900312 -0.22965556 0.052039418
-0.23920888 -0.22966604 0.051991638
-0.23941413 -0.22967356 0.051965762
-0.23960201 -0.22967733 0.051965293
-0.23978898 -0.22968201 0.051957909
-0.23995739 -0.22968414 0.051966708
-0.24014035 -0.22969262 0.051930513
-0.24033357 -0.22969495 0.051941559
-0.24052365 -0.2297034 0.051906496
-0.24070911 -0.2297096 0.051887587
-0.2409035 -0.22971737 0.05185828
-0.24108601 -0.22972305 0.051842831
-0.24127987 -0.22972818 0.05183313
-0.24146508 -0.22973157 0.051834967
-0.24164206 -0.229739 0.051805705
-0.24184133 -0.22974269 0.051807515
-0.24201183 -0.22974657 0.051803634
-0.24220569 -0.22976378 0.051704001
-0.24239254 -0.22976598 0.051715061
-0.24257702 -0.22977602 0.051667325
-0.24275757 -0.22977763 0.051681872
-0.24297616 -0.22977179 0.05175741
-0.24315685 -0.22978209 0.051707387
-0.24333294 -0.22978747 0.051693112
-0.24353935 -0.22979161 0.051692598
-0.24373224 -0.22979517 0.051694423
-0.2439245 -0.22981033 0.051609777
-0.24410272 -0.22981964 0.051566679
-0.24429686 -0.22982229 0.051575411
-0.24447821 -0.22982655 0.051570348
-0.24468671 -0.2298267 0.051599808
-0.24483849 -0.22984229 0.051506042
-0.24500987 -0.22985131 0.051464111
-0.24523881 -0.22984722 0.051528104
-0.24543962 -0.22985327 0.051512606
-0.24561787 -0.22986257 0.051469509
-0.24582532 -0.22986905 0.051451694
-0.24600118 -0.22988002 0.051395912
-0.24618374 -0.2298812 0.051413912
-0.2463515 -0.22989525 0.051333942
-0.24657761 -0.22989142 0.051395632
-0.24676089 -0.22989479 0.051397476
-0.2469542 -0.22989635 0.051414289
-0.24715023 -0.22991081 0.051335402
-0.24733762 -0.22991642 0.0513211
-0.24750368 -0.22992177 0.051305704
-0.24768263 -0.22993062 0.051266048
-0.2478939 -0.22992541 0.05133586
-0.24809387 -0.22993484 0.051295001
-0.24826732 -0.22994731 0.0512277
-0.24845263 -0.22995444 0.051201876
-0.24864881 -0.22995465 0.05122906
-0.24883854 -0.22995676 0.05124126
-0.24900453 -0.22997387 0.051138237
-0.24921486 -0.22996771 0.051214959
-0.24939063 -0.22997867 0.051159181
-0.2495918 -0.22998518 0.051140234
-0.24980116 -0.22998226 0.051192742
-0.24999358 -0.229992 0.051148456
-0.25017828 -0.22999756 0.051134158
-0.25037584 -0.22998667 0.051244341
-0.25056073 -0.23000756 0.051115908
-0.2507312 -0.23001732 0.051068209
-0.25093383 -0.23002325 0.051053867
-0.25112385 -0.23003016 0.051030342
-0.25131163 -0.23003624 0.051012579
-0.25150347 -0.23004428 0.05098097
-0.25169128 -0.23004618 0.050994337
-0.25189573 -0.23004921 0.051001891
-0.25208274 -0.2300559 0.050979525
-0.25224537 -0.23006597 0.050928395
-0.25242749 -0.23007953 0.050854143
-0.2526333 -0.23006554 0.050988529
-0.25285089 -0.23006774 0.05100413
-0.25302687 -0.23008072 0.050933361
-0.25323537 -0.230088 0.050909776
-0.25340331 -0.23010127 0.050835572
-0.25360012 -0.2301029 0.050852373
-0.2537902 -0.23010625 0.050855361
-0.25398341 -0.23011787 0.050797235
-0.25418359 -0.23011987 0.050811719
-0.25435203 -0.23012696 0.05078363
-0.25455403 -0.23013009 0.050790042
-0.25474334 -0.23013605 0.050773427
-0.25493193 -0.23014432 0.050739527
-0.25512886 -0.23014642 0.050752871
-0.25533149 -0.23014568 0.050788105
-0.2555182 -0.23016073 0.050703473
-0.25568622 -0.23017386 0.050630417
-0.25587755 -0.23017521 0.050648395
-0.25608316 -0.23017888 0.050651338
-0.25626943 -0.23018478 0.050634731
-0.25645906 -0.23019277 0.050603125
-0.25666019 -0.23019511 0.050615311
-0.25685883 -0.23019692 0.050630957
-0.2570546 -0.2302075 0.050580893
-0.25722989 -0.23021892 0.050521657
-0.25744265 -0.23022133 0.050534956
-0.25763568 -0.23022427 0.050541393
-0.25776103 -0.23025945 0.050297808
-0.2580148 -0.23023187 0.050540447
-0.25820389 -0.23024572 0.05046504
-0.25841266 -0.23024683 0.05048757
-0.25859725 -0.2302575 0.050435226
-0.25876978 -0.23026328 0.050417501
-0.25895393 -0.23027068 0.050389372
-0.25917706 -0.230262 0.050486825
-0.25937599 -0.2302697 0.050458655
-0.25954175 -0.23028046 0.050402898
-0.25974041 -0.23028661 0.050386257
-0.25993094 -0.23029478 0.050353501
-0.26011986 -0.23030367 0.050314981
-0.26029921 -0.23031177 0.050281107
-0.26051089 -0.230314 0.050295562
-0.26070613 -0.23031853 0.050290465
-0.26089257 -0.23032862 0.050242726
-0.26108459 -0.23033464 0.050226111
-0.26127556 -0.23034281 0.050193354
-0.26147106 -0.2303441 0.050212458
-0.26167899 -0.23034672 0.050223477
-0.26186001 -0.23035763 0.050168831
-0.26205546 -0.23036402 0.050149899
-0.26224685 -0.23037221 0.050117139
-0.26246879 -0.23037076 0.050160401
-0.26266041 -0.23038375 0.050091892
-0.26284432 -0.23038712 0.050093744
-0.26303247 -0.23039679 0.050049458
-0.26324448 -0.23039345 0.05010543
-0.26344267 -0.23040223 0.050069194
-0.26364371 -0.23040672 0.050065234
-0.26383391 -0.23041256 0.050049763
-0.2640363 -0.23041661 0.050049268
-0.26421905 -0.23042709 0.049998078
-0.26443276 -0.23043293 0.049986016
-0.264599 -0.2304423 0.049940638
-0.26481637 -0.23044062 0.049985059
-0.26500195 -0.23045008 0.049941938
-0.26517758 -0.23046041 0.049890768
-0.26538283 -0.23046221 0.04990755
-0.26558629 -0.23046629 0.04990704
-0.26579297 -0.2304692 0.04991575
-0.26597285 -0.23048101 0.0498542
-0.2661711 -0.23048575 0.049847938
-0.26638094 -0.23048764 0.049864706
-0.26657102 -0.23049565 0.0498331
-0.26677838 -0.23050305 0.049808379
-0.26691982 -0.23052648 0.049654685
-0.26714799 -0.23051728 0.049756724
-0.26737273 -0.23052271 0.049749251
-0.26760042 -0.23051691 0.049825929
-0.26777673 -0.2305288 0.049763225
-0.267977 -0.23053622 0.049737364
-0.26816016 -0.23054996 0.049661972
-0.26838541 -0.23054257 0.049750179
-0.26855147 -0.23055828 0.049657535
-0.26877311 -0.2305567 0.049701944
-0.26894388 -0.23057498 0.049590833
-0.26917139 -0.23057428 0.049629472
-0.26937744 -0.23058136 0.04960705
-0.26958597 -0.23058337 0.049622662
-0.26980647 -0.23058686 0.04962904
-0.26999342 -0.23059805 0.049573228
-0.2702013 -0.23059912 0.049595773
-0.27040768 -0.23060496 0.049582571
-0.27057558 -0.2306187 0.049504906
-0.27076587 -0.23062329 0.049498662
-0.27098233 -0.23062718 0.04950159
-0.27119547 -0.23062541 0.049546022
-0.27139243 -0.23063339 0.049515549
-0.27157718 -0.23065104 0.04941133
-0.17678367 -0.23149769 0.029184585
-0.1769435 -0.23149331 0.029240703
-0.17709383 -0.23148641 0.029314142
-0.17724667 -0.23147926 0.029389881
-0.1774008 -0.23147383 0.029452931
-0.1775513 -0.2314657 0.029535597
-0.17769657 -0.23145545 0.029633271
-0.17783752 -0.23144341 0.029743632
-0.17798422 -0.23143488 0.029828604
-0.17812626 -0.23142317 0.029936656
-0.17826207 -0.23140886 0.030063175
-0.17839849 -0.23139472 0.030188534
-0.17853063 -0.23138002 0.030317372
-0.17866431 -0.23136458 0.030451955
-0.17878959 -0.23134556 0.030611942
-0.17891438 -0.23132624 0.030774221
-0.17903818 -0.23130766 0.030930754
-0.17218514 -0.22765273 0.057138838
-0.17234731 -0.22765444 0.057149984
-0.17259625 -0.22766779 0.057087123
-0.17282647 -0.22767472 0.057069279
-0.17308298 -0.22768342 0.057042159
-0.17330307 -0.2276911 0.057017416
-0.17352426 -0.2276977 0.057000756
-0.17373119 -0.22769967 0.05701641
-0.17394947 -0.22770514 0.057007816
-0.17415148 -0.2277084 0.057013109
-0.1743879 -0.22771887 0.056969889
-0.17459667 -0.22772709 0.056939416
-0.17483039 -0.22773486 0.05691579
-0.17505211 -0.22774412 0.056879528
-0.1752613 -0.22774768 0.056883641
-0.17544517 -0.22775167 0.056880902
-0.17568198 -0.22776479 0.056818075
-0.17592207 -0.22776914 0.056820959
-0.17614357 -0.22777884 0.056781236
-0.17632592 -0.22777893 0.056807324
-0.17653787 -0.22778782 0.056772232
-0.1767763 -0.22779353 0.056764744
-0.17700696 -0.22780451 0.05671693
-0.17721432 -0.22780618 0.056734882
-0.17741427 -0.22781329 0.056711353
-0.17760889 -0.2278161 0.056718964
-0.17779338 -0.22781764 0.05673467
-0.17807102 -0.22783589 0.056639463
-0.1782328 -0.22783187 0.056693271
-0.1784859 -0.22783647 0.056696128
-0.1787153 -0.22785145 0.056618337
-0.17891765 -0.22785674 0.056608632
-0.17913646 -0.22786485 0.056580439
-0.17933527 -0.22786108 0.056637615
-0.17955211 -0.22787209 0.056587528
-0.17974544 -0.22787875 0.056566313
-0.18000808 -0.22789656 0.056472294
-0.18021567 -0.22790134 0.056467187
-0.18041718 -0.22790305 0.056484006
-0.18062764 -0.22790758 0.056481201
-0.18084061 -0.22791541 0.056454174
-0.18106318 -0.22793226 0.056361403
-0.18125689 -0.22792438 0.056448586
-0.18148275 -0.22793742 0.056384627
-0.18170327 -0.22794974 0.056325302
-0.18187326 -0.22794881 0.056357179
-0.18205546 -0.22795448 0.05634176
-0.18227884 -0.22794889 0.056416187
-0.18252742 -0.22796501 0.056332573
-0.18273735 -0.22797015 0.05632516
-0.18295527 -0.22798179 0.05627045
-0.18316683 -0.22798805 0.056254953
-0.18336861 -0.22799705 0.056217581
-0.1835679 -0.22799051 0.056295518
-0.18378635 -0.22800295 0.056235038
-0.18400627 -0.22801432 0.05618263
-0.18420923 -0.22801824 0.056183301
-0.18442279 -0.22802623 0.056155127
-0.18463655 -0.22803655 0.056109652
-0.18483888 -0.22803828 0.056126472
-0.18504313 -0.22804332 0.056119062
-0.18525784 -0.22805241 0.056082815
-0.18545686 -0.22805454 0.056096185
-0.18565774 -0.22805996 0.056085326
-0.18584721 -0.22806299 0.056090642
-0.18601201 -0.22806211 0.056121383
-0.1862877 -0.22808018 0.056027334
-0.1865041 -0.22809102 0.055978395
-0.18673091 -0.22811058 0.055866007
-0.1869148 -0.22810405 0.055941679
-0.18711548 -0.2281056 0.055959649
-0.18728276 -0.22811329 0.055926964
-0.18750167 -0.22813083 0.055828445
-0.18773665 -0.22812936 0.055874012
-0.18790688 -0.22813694 0.055842474
-0.18814404 -0.22813922 0.055860363
-0.18834546 -0.22813939 0.055888712
-0.18854444 -0.22814724 0.055859413
-0.18876198 -0.22815563 0.055828918
-0.18896651 -0.22816035 0.055823825
-0.1891818 -0.22817458 0.055749517
-0.18938841 -0.22818089 0.055732884
-0.18959019 -0.22818647 0.055720873
-0.18979445 -0.22819382 0.055696178
-0.18998978 -0.22819526 0.055714168
-0.1901866 -0.22819534 0.055742525
-0.19034633 -0.2281945 0.055772122
-0.1905738 -0.22823283 0.055520222
-0.19078894 -0.22822119 0.055638481
-0.19100875 -0.22823504 0.055567618
-0.19121629 -0.2282505 0.055482954
-0.19141567 -0.22823778 0.05560701
-0.19163418 -0.22825626 0.055501562
-0.19182926 -0.22825567 0.055534545
-0.19203281 -0.22826378 0.055504084
-0.19222823 -0.22826351 0.055534758
-0.19242409 -0.22826619 0.055543516
-0.19262268 -0.22827095 0.05553728
-0.19282609 -0.22827937 0.055504512
-0.19302872 -0.22828466 0.055494808
-0.19322175 -0.22829086 0.055477049
-0.1933971 -0.22829452 0.055475485
-0.19363311 -0.22830389 0.055440329
-0.19380687 -0.22830924 0.055426084
-0.19401477 -0.22830814 0.0554648
-0.19422822 -0.22831692 0.055430856
-0.19441804 -0.22831839 0.055447698
-0.19461535 -0.22833428 0.055358451
-0.19483493 -0.22833991 0.055348702
-0.19503583 -0.22834487 0.055341311
-0.19520691 -0.22834583 0.055359352
-0.1954426 -0.22836201 0.055273473
-0.19562817 -0.22836339 0.055290326
-0.19582517 -0.22837432 0.055237968
-0.1960281 -0.22837853 0.05523634
-0.19623359 -0.22838204 0.055240467
-0.19643338 -0.22838975 0.055212315
-0.19663447 -0.22839874 0.055174943
-0.19683337 -0.22840598 0.055150263
-0.19703083 -0.22840901 0.055156708
-0.19722891 -0.22841577 0.055135489
-0.1974183 -0.22841492 0.055169627
-0.19761956 -0.22842468 0.055126496
-0.19780998 -0.22842804 0.055129498
-0.19801119 -0.22844446 0.055036772
-0.1982168 -0.22844905 0.055032827
-0.19840756 -0.22844976 0.055055447
-0.19859679 -0.22844906 0.055088434
-0.19879866 -0.2284669 0.05498533
-0.19900289 -0.22847393 0.054962933
-0.19918835 -0.22847657 0.05497057
-0.19940571 -0.22848976 0.054904334
-0.1995866 -0.2284881 0.054943115
-0.19978335 -0.22848478 0.054996833
-0.19997831 -0.22849007 0.054986
-0.20018053 -0.2285028 0.054920942
-0.20038049 -0.22851346 0.054870889
-0.20057224 -0.22851592 0.054880816
-0.20075968 -0.22851394 0.054923035
-0.20096736 -0.22853313 0.054810699
-0.20115991 -0.22853668 0.054812551
-0.20134045 -0.22854619 0.054768302
-0.20153126 -0.22854428 0.054810513
-0.20173864 -0.22855277 0.054777741
-0.20193744 -0.22855969 0.054755364
-0.20212606 -0.2285593 0.054786041
-0.2023218 -0.22856693 0.054757912
-0.20251623 -0.22857718 0.054710172
-0.20271099 -0.22858 0.054717783
-0.20286617 -0.22858156 0.054728944
-0.2030606 -0.22858407 0.054738864
-0.2032965 -0.22859855 0.054665662
-0.20348953 -0.22860381 0.054654825
-0.20368318 -0.2286142 0.054605946
-0.20387131 -0.2286223 0.054573208
-0.20405348 -0.2286275 0.054561246
-0.20424187 -0.22863623 0.054523908
-0.20445114 -0.22863175 0.054587983
-0.20464739 -0.22864188 0.054541398
-0.20484082 -0.22864854 0.054520182
-0.20502117 -0.2286565 0.054487471
-0.20521908 -0.2286648 0.054454714
-0.20538832 -0.22866277 0.054494672
-0.20559242 -0.22866547 0.05450457
-0.20579965 -0.22867256 0.054482166
-0.20597704 -0.22867705 0.054474831
-0.20618679 -0.22868806 0.054423597
-0.20637864 -0.22869362 0.054410461
-0.20656519 -0.22869658 0.054415785
-0.20675436 -0.22870873 0.054353073
-0.20693204 -0.22870378 0.054416072
-0.20713599 -0.22870694 0.054422498
-0.20733505 -0.22871882 0.054363228
-0.20752652 -0.22872452 0.054348934
-0.20768885 -0.22873381 0.054303586
-0.20785916 -0.22873366 0.054329697
-0.20807619 -0.2287648 0.054129709
-0.20828651 -0.22876221 0.054179937
-0.20845234 -0.22877251 0.054127663
-0.20867197 -0.22876792 0.054194022
-0.20886092 -0.22877032 0.05420395
-0.20904872 -0.22877067 0.054228872
-0.20922011 -0.22876637 0.054286119
-0.20941222 -0.22878756 0.054156527
-0.20963056 -0.22879332 0.054145634
-0.20981736 -0.22879197 0.054183234
-0.21001089 -0.22880374 0.054123968
-0.21019977 -0.2288066 0.054130446
-0.21039122 -0.22881477 0.054097708
-0.21058136 -0.22882044 0.054083418
-0.2107489 -0.22882983 0.054038055
-0.21093634 -0.22882244 0.054120634
-0.21113531 -0.22883262 0.054074042
-0.21133213 -0.22884616 0.05400208
-0.21152963 -0.22884564 0.054035056
-0.21172264 -0.22885911 0.053963102
-0.21191376 -0.22886851 0.053921141
-0.2120975 -0.22886847 0.053948384
-0.21227948 -0.22887275 0.053943332
-0.21246563 -0.22887896 0.053924441
-0.21266693 -0.22887942 0.053950492
-0.21285568 -0.22889312 0.053876244
-0.2130454 -0.22890033 0.053850438
-0.21320459 -0.22889964 0.053878885
-0.21340139 -0.22890761 0.053848431
-0.2136139 -0.22892164 0.053775292
-0.21377009 -0.22892259 0.053791061
-0.21398102 -0.2289211 0.053833228
-0.21416697 -0.22892869 0.053803965
-0.21434952 -0.22893684 0.053770088
-0.21452159 -0.22893254 0.053827334
-0.21469218 -0.22894821 0.053735837
-0.21490611 -0.22895822 0.053692676
-0.21508737 -0.22896278 0.053685322
-0.21529002 -0.2289701 0.053660624
-0.2154607 -0.22897428 0.053654462
-0.21563786 -0.22897661 0.053663269
-0.2158201 -0.22898661 0.053615559
-0.2160088 -0.22899488 0.05358167
-0.21620008 -0.22899917 0.053577762
-0.21639812 -0.22900268 0.053580746
-0.21659644 -0.2289876 0.05372211
-0.21679088 -0.22901087 0.053577516
-0.21697555 -0.22901797 0.053551711
-0.21715592 -0.22901957 0.05356627
-0.21733952 -0.22901937 0.053594664
-0.21754515 -0.22902876 0.053554971
-0.2177576 -0.22903845 0.053514108
-0.21794538 -0.22904515 0.05349176
-0.2181299 -0.22905505 0.053445201
-0.2183103 -0.22905836 0.053447083
-0.2184941 -0.22906095 0.053454719
-0.21867447 -0.22906379 0.05346005
-0.21886227 -0.22907591 0.053397343
-0.2190461 -0.22908084 0.053387687
-0.21922657 -0.22908895 0.053353816
-0.21942063 -0.22909114 0.053366046
-0.219594 -0.22909771 0.053342573
-0.21979156 -0.22910337 0.053329423
-0.21998563 -0.2291054 0.053342797
-0.22019687 -0.22911893 0.053273115
-0.22038382 -0.22912577 0.053249605
-0.22054355 -0.22911689 0.053339176
-0.22071303 -0.22912741 0.053285729
-0.2209132 -0.2291449 0.053184938
-0.22111061 -0.22914699 0.053198311
-0.22130796 -0.22915033 0.053202458
-0.22147378 -0.22915769 0.053172085
-0.2216534 -0.229165 0.053143986
-0.22184993 -0.22917575 0.053092778
-0.22205447 -0.22917582 0.053122278
-0.22225195 -0.22917746 0.053139109
-0.22242157 -0.22918023 0.053143319
-0.22260754 -0.22919016 0.053096756
-0.22280061 -0.22919822 0.053065166
-0.22299922 -0.22921443 0.052973606
-0.22318257 -0.22921702 0.052981235
-0.22337373 -0.22921512 0.053023458
-0.22357227 -0.22922947 0.052945722
-0.2237393 -0.2292271 0.052987996
-0.22391638 -0.22922692 0.053015247
-0.22410499 -0.22923782 0.052961763
-0.22427928 -0.22924998 0.052896779
-0.22450601 -0.22924571 0.05296196
-0.22468443 -0.22925454 0.052922338
-0.22484683 -0.22925796 0.052920803
-0.22506437 -0.2292631 0.052914523
-0.22525355 -0.22927013 0.052889857
-0.2254241 -0.22926937 0.052920584
-0.22560619 -0.22927675 0.052892476
-0.22580265 -0.22928254 0.052878182
-0.22597349 -0.22929215 0.05283165
-0.22616999 -0.22929749 0.052820813
-0.22635908 -0.22930406 0.052799609
-0.22653502 -0.22930837 0.052793421
-0.22671321 -0.22931612 0.052761868
-0.22691433 -0.22931814 0.052776389
-0.22711493 -0.22933082 0.052711338
-0.22729181 -0.22933252 0.052724753
-0.22748959 -0.22933431 0.052740432
-0.22768261 -0.22933942 0.052730754
-0.22785762 -0.22934587 0.052708425
-0.22806291 -0.22935478 0.052672192
-0.22825165 -0.2293615 0.052649841
-0.22841997 -0.2293748 0.052575652
-0.22858836 -0.22937244 0.052617911
-0.22878744 -0.22937922 0.052596692
-0.22897422 -0.2293825 0.052599706
-0.22917081 -0.22938721 0.052593477
-0.22934467 -0.22939549 0.052557312
-0.22954178 -0.22940595 0.052508425
-0.22971532 -0.22940788 0.052519541
-0.22989079 -0.22941279 0.052508745
-0.23008941 -0.22941367 0.052531347
-0.23030844 -0.22942209 0.052500844
-0.23049735 -0.22942804 0.052484244
-0.2306556 -0.22943865 0.052428532
-0.23083459 -0.22944348 0.05241888
-0.2310223 -0.22944538 0.052432276
-0.23123156 -0.22944647 0.052454837
-0.23140819 -0.22945528 0.052415218
-0.23159148 -0.22946453 0.052373275
-0.23178163 -0.22946835 0.052372821
-0.23196453 -0.22947805 0.052327417
-0.23215804 -0.22948208 0.052325815
-0.23233664 -0.22948752 0.052311555
-0.23252754 -0.22949553 0.052279968
-0.23272601 -0.22949749 0.052294485
-0.2328977 -0.22950278 0.052280243
-0.23310648 -0.22951022 0.052255537
-0.23328875 -0.22951543 0.052243568
-0.23345785 -0.22951944 0.052238561
-0.23367308 -0.22952282 0.052244969
-0.233833 -0.22953454 0.052181169
-0.2340035 -0.22953673 0.052189995
-0.23421469 -0.22953631 0.052224085
-0.23440748 -0.2295462 0.052178655
-0.23458016 -0.22955479 0.052140199
-0.23477069 -0.22956294 0.052107461
-0.23498018 -0.22956496 0.052123114
-0.23514113 -0.22957486 0.052073151
-0.23534673 -0.22957742 0.052084193
-0.23553744 -0.22958528 0.052053753
-0.2357288 -0.22958818 0.052060224
-0.23589168 -0.22959144 0.05205984
-0.23608446 -0.22959283 0.052077834
-0.23627548 -0.22960441 0.052019723
-0.23646417 -0.2296105 0.052001979
-0.2366267 -0.22961035 0.052026968
-0.2368138 -0.22961828 0.051995393
-0.23701155 -0.22962612 0.051966097
-0.23721454 -0.22963592 0.051922951
-0.23741089 -0.22964141 0.051910952
-0.23758833 -0.22964822 0.05188632
-0.23774076 -0.22965159 0.051883653
-0.23792231 -0.22965413 0.051891297
-0.23813094 -0.22966528 0.051838912
-0.23834218 -0.22967014 0.051833805
-0.23852815 -0.22966844 0.051873721
-0.23869292 -0.22966678 0.051910229
-0.23889437 -0.22968151 0.051830187
-0.23908421 -0.22969012 0.051793993
-0.23927149 -0.22969775 0.051764727
-0.23944899 -0.22970115 0.051765453
-0.23965666 -0.22970298 0.051782258
-0.23982175 -0.22970815 0.051768035
-0.24000674 -0.22971465 0.051746838
-0.24021114 -0.22972293 0.051715225
-0.24038059 -0.2297274 0.05170675
-0.2405588 -0.22973362 0.05168673
-0.24074943 -0.2297478 0.051609017
-0.24092443 -0.22975054 0.051614374
-0.24111274 -0.22975726 0.051592018
-0.24131958 -0.22975722 0.051622663
-0.24149528 -0.2297626 0.05160841
-0.24167798 -0.22976813 0.051594138
-0.24186194 -0.22977862 0.051542975
-0.24205048 -0.22978225 0.051543675
-0.24224648 -0.2297916 0.051502857
-0.24244139 -0.22979596 0.051498938
-0.24263503 -0.2298014 0.05148695
-0.24281873 -0.22980911 0.051456533
-0.24299176 -0.22981675 0.051424991
-0.24316511 -0.22982983 0.05135309
-0.24335809 -0.22982734 0.051399905
-0.24353886 -0.22982617 0.051435225
-0.24376197 -0.22982012 0.051513102
-0.24395925 -0.22983412 0.051437691
-0.24412937 -0.22984684 0.051368099
-0.24430218 -0.22985741 0.051314652
-0.24448973 -0.22985964 0.051325742
-0.24468917 -0.22985573 0.051384076
-0.24486966 -0.22986864 0.051314458
-0.24505892 -0.22987506 0.051294412
-0.24524201 -0.22988075 0.05127899
-0.24542652 -0.22989064 0.051232435
-0.24561885 -0.22989233 0.051248118
-0.24582459 -0.22989738 0.051240716
-0.24598742 -0.2299073 0.051190749
-0.24618557 -0.22991267 0.051179893
-0.24637452 -0.22991444 0.051194441
-0.24657726 -0.22992423 0.051151294
-0.2467525 -0.22993548 0.051093228
-0.24691522 -0.22994293 0.051061712
-0.24712969 -0.22992525 0.051224936
-0.24735361 -0.22993313 0.051199041
-0.24750073 -0.22996071 0.051015351
-0.24767534 -0.22996034 0.051043771
-0.24788073 -0.22995655 0.051102091
-0.24805827 -0.2299663 0.051055551
-0.24826998 -0.22996807 0.051073495
-0.24847408 -0.22997247 0.051070705
-0.24867263 -0.22997816 0.051057551
-0.24884239 -0.22999287 0.050972976
-0.24901584 -0.22999603 0.050974876
-0.24922396 -0.22999354 0.051023956
-0.24941516 -0.2300062 0.05095778
-0.24961603 -0.23001286 0.050937705
-0.24981618 -0.23001331 0.050963756
-0.24997953 -0.23001844 0.050949525
-0.25018373 -0.23002765 0.050910994
-0.2503618 -0.23003276 0.050899047
-0.25053242 -0.23004454 0.050836369
-0.2507222 -0.23005144 0.050812863
-0.25091407 -0.23005715 0.050798569
-0.25111037 -0.23005813 0.050820012
-0.25129512 -0.23006168 0.050820731
-0.25148377 -0.2300715 0.050775312
-0.25168592 -0.23007572 0.05077368
-0.25186235 -0.23008204 0.050752506
-0.25203174 -0.23008403 0.050762493
-0.25223809 -0.23009019 0.050747011
-0.25242466 -0.23009919 0.050707366
-0.25262254 -0.23010191 0.050716117
-0.25282225 -0.23010778 0.050701816
-0.25300074 -0.23012127 0.050627593
-0.2531797 -0.23012438 0.050630625
-0.25337961 -0.23012623 0.050646301
-0.25356361 -0.23013674 0.050595127
-0.25375304 -0.23013836 0.050610818
-0.25395739 -0.230142 0.050613798
-0.25412464 -0.23015355 0.05055229
-0.25432906 -0.23015919 0.050540272
-0.25450566 -0.23016584 0.050516792
-0.25469694 -0.23016873 0.050523259
-0.25490272 -0.23016806 0.050558515
-0.25508508 -0.23017187 0.050556932
-0.25526875 -0.2301884 0.050460793
-0.25546825 -0.23019302 0.050455716
-0.25561941 -0.23020519 0.050387323
-0.25581029 -0.2302067 0.050404169
-0.25603122 -0.23020074 0.050480902
-0.25623062 -0.23021311 0.050418161
-0.25640097 -0.23022132 0.050382011
-0.25660586 -0.23022543 0.050381526
-0.25679913 -0.23023163 0.050363772
-0.25699472 -0.23023492 0.050367922
-0.25718293 -0.23023823 0.050370939
-0.25736445 -0.23025022 0.050308246
-0.25755629 -0.23025547 0.050297409
-0.25775436 -0.23026316 0.050269261
-0.25793272 -0.23026952 0.050248086
-0.25810865 -0.23027708 0.050217696
-0.25831631 -0.2302786 0.050236799
-0.25851914 -0.23028421 0.050224796
-0.25871745 -0.23028323 0.050261222
-0.25891286 -0.23029241 0.050221555
-0.2590934 -0.23029976 0.050193451
-0.2592845 -0.23030575 0.050176859
-0.25947374 -0.23031265 0.050153345
-0.25966734 -0.23032272 0.050106764
-0.25985539 -0.23032168 0.050142065
-0.26006708 -0.23032035 0.050183084
-0.26024002 -0.23033635 0.05008927
-0.26046914 -0.23033924 0.050101411
-0.26065162 -0.23034599 0.050077923
-0.26082826 -0.23035201 0.05005905
-0.26104376 -0.23035774 0.050048161
-0.26122248 -0.23036952 0.049986627
-0.26140174 -0.23036955 0.050012723
-0.26159203 -0.23037475 0.050001901
-0.2617985 -0.23038292 0.049971431
-0.26198673 -0.23038748 0.049965214
-0.26215991 -0.23039682 0.049920987
-0.26236761 -0.23039649 0.049953938
-0.26253244 -0.2304094 0.049882058
-0.26273549 -0.23041596 0.049863126
-0.26292577 -0.23042147 0.049849994
-0.26310185 -0.2304329 0.049790774
-0.26331788 -0.23042949 0.049847916
-0.26352346 -0.23043205 0.049858958
-0.26373184 -0.23043515 0.049866535
-0.26387602 -0.23045647 0.049728978
-0.26407129 -0.23045868 0.049741197
-0.26429319 -0.23045647 0.049790256
-0.26448885 -0.23046333 0.049767885
-0.2646668 -0.23047417 0.049713269
-0.26486665 -0.23048097 0.049692042
-0.26507923 -0.23048584 0.049686924
-0.2652787 -0.23048985 0.049686454
-0.26545808 -0.2304987 0.049646828
-0.26565304 -0.2305136 0.049564496
-0.26584619 -0.23050664 0.049644761
-0.26607284 -0.23051243 0.049634993
-0.26625729 -0.23051797 0.049620718
-0.26646739 -0.23052126 0.04962714
-0.26664254 -0.230526 0.049617507
-0.2668128 -0.2305415 0.049527161
-0.26701739 -0.230547 0.049516302
-0.26723436 -0.23054498 0.049563061
-0.26742554 -0.23055564 0.049511872
-0.26760966 -0.23056598 0.049461856
-0.2678214 -0.23056325 0.049513239
-0.26802745 -0.23057142 0.049482774
-0.26822057 -0.23057714 0.049468476
-0.26839375 -0.23059161 0.0493862
-0.26859832 -0.23059896 0.049361505
-0.2688027 -0.23060073 0.049378317
-0.2690143 -0.23060142 0.049404342
-0.26922157 -0.23060232 0.049428064
-0.26942778 -0.23061357 0.049374536
-0.26961431 -0.23062056 0.049349874
-0.26983136 -0.23062244 0.049367808
-0.27000695 -0.23063478 0.049301669
-0.27018332 -0.23064405 0.049258593
-0.27040336 -0.23064783 0.04926268
-0.27058747 -0.23065726 0.049219582
-0.27077848 -0.23066156 0.049215667
-0.27098864 -0.23066345 0.049232464
-0.27120557 -0.23066856 0.049226195
-0.27139947 -0.23067616 0.049198058
-0.17649382 -0.23144807 0.029511524
-0.17665535 -0.23144403 0.029565349
-0.17680942 -0.23143704 0.029639946
-0.1769565 -0.23142853 0.029724939
-0.17710574 -0.23141836 0.029822612
-0.1772567 -0.23141132 0.029897219
-0.17740163 -0.23140059 0.029998362
-0.17754421 -0.23139013 0.030097201
-0.17768455 -0.23137745 0.030212203
-0.17781779 -0.23136185 0.030347966
-0.17795923 -0.23135075 0.030451428
-0.17808573 -0.23133221 0.030607972
-0.1782133 -0.23131402 0.030762196
-0.17833525 -0.2312934 0.030933749
-0.17161064 -0.22766019 0.056998868
-0.17183611 -0.22766781 0.056975279
-0.17202689 -0.2276687 0.056996737
-0.17222622 -0.22768152 0.056930535
-0.17249747 -0.22768804 0.056921825
-0.17271528 -0.22769767 0.056882098
-0.17287058 -0.22768654 0.056987833
-0.17317386 -0.22771414 0.056826822
-0.1733841 -0.22771743 0.056833245
-0.17360829 -0.22772533 0.056807339
-0.17382286 -0.22773071 0.056798764
-0.17401519 -0.22773798 0.05677294
-0.17425323 -0.22774228 0.056775838
-0.1744476 -0.22774385 0.05679268
-0.17469482 -0.22775422 0.056751739
-0.17492078 -0.22776355 0.056715451
-0.17510723 -0.22776341 0.056743849
-0.17535348 -0.22777888 0.056664851
-0.17557102 -0.22778293 0.056666642
-0.17576516 -0.22779179 0.056629281
-0.17597818 -0.22779389 0.056644924
-0.17617646 -0.22779785 0.056644455
-0.17641351 -0.22781144 0.056578167
-0.1766379 -0.22781919 0.056553412
-0.17687143 -0.22782077 0.056575928
-0.17710364 -0.22783425 0.056509655
-0.17731673 -0.22783868 0.056508001
-0.17752799 -0.22784229 0.05651211
-0.17775083 -0.22785342 0.056461997
-0.17796269 -0.2278575 0.056462653
-0.17814755 -0.2278575 0.056489896
-0.17832629 -0.22785814 0.056511384
-0.17857736 -0.22787818 0.056398936
-0.17877346 -0.22788212 0.056398474
-0.1790261 -0.22788857 0.056387499
-0.17925066 -0.22789587 0.056366213
-0.17945427 -0.22789638 0.056392256
-0.17967045 -0.22790335 0.05637214
-0.17989333 -0.22791572 0.056312807
-0.18010309 -0.22791961 0.05631461
-0.1803205 -0.22792752 0.056287572
-0.1805321 -0.22793254 0.056281313
-0.18073444 -0.22793473 0.056294672
-0.18095419 -0.22794612 0.056242269
-0.18114942 -0.22795436 0.056209508
-0.18133318 -0.2279644 0.056161795
-0.18157455 -0.22797017 0.056154311
-0.18180251 -0.22796884 0.056197595
-0.18201375 -0.22797431 0.056187868
-0.18222721 -0.22798108 0.056168918
-0.1824553 -0.22799788 0.056077272
-0.18266061 -0.22800045 0.056088325
-0.18285355 -0.22799827 0.056132849
-0.1830744 -0.2280075 0.056096576
-0.18325636 -0.22801347 0.056078847
-0.18349595 -0.22802122 0.056056373
-0.18369347 -0.22801974 0.056096274
-0.18390971 -0.22802888 0.056060012
-0.18411939 -0.22803649 0.056034148
-0.18434668 -0.2280522 0.055950578
-0.18455517 -0.22805731 0.055943169
-0.1847474 -0.22805311 0.056002684
-0.18495688 -0.22806102 0.055974513
-0.18518034 -0.2280751 0.055902485
-0.18538553 -0.22808076 0.055890474
-0.18559532 -0.22808497 0.055889979
-0.18579428 -0.2280871 0.055903349
-0.18600786 -0.22809587 0.055869401
-0.18620975 -0.22809991 0.055868927
-0.18640912 -0.22810468 0.055862691
-0.18663247 -0.22811536 0.055816032
-0.18684417 -0.22812347 0.055786703
-0.18704823 -0.22813143 0.0557574
-0.18726377 -0.22813994 0.05572575
-0.18747847 -0.22816375 0.055579942
-0.18766764 -0.22814478 0.055749021
-0.18785545 -0.22814746 0.055756651
-0.18807709 -0.22816026 0.055693854
-0.18828374 -0.22816595 0.05568184
-0.18848774 -0.22817004 0.055681359
-0.18870224 -0.22817868 0.055648558
-0.18891209 -0.22818676 0.055619232
-0.18912144 -0.22819699 0.055573761
-0.1893127 -0.22820252 0.055560626
-0.18951915 -0.22820635 0.055562451
-0.18972729 -0.22821377 0.055537738
-0.18989445 -0.22821543 0.055550028
-0.19011845 -0.22821681 0.055572569
-0.1902997 -0.22821596 0.055605587
-0.19050105 -0.22821906 0.055612031
-0.19072647 -0.22822404 0.055608049
-0.19093953 -0.22823544 0.055554487
-0.19115275 -0.22824962 0.055480186
-0.1913655 -0.22826117 0.05542548
-0.19155955 -0.22825964 0.055465382
-0.19176513 -0.22826886 0.055426847
-0.19196084 -0.22826861 0.055457521
-0.19215927 -0.22828063 0.055397082
-0.19236073 -0.22828467 0.055396609
-0.19256949 -0.22829676 0.055337302
-0.19278593 -0.22830155 0.055333339
-0.19298632 -0.22830774 0.055316724
-0.19317612 -0.22830877 0.055337034
-0.19333942 -0.22831932 0.055282447
-0.19359528 -0.22832476 0.055279531
-0.19379945 -0.22833426 0.055238694
-0.19398503 -0.22833504 0.055260167
-0.19414917 -0.22833848 0.055258628
-0.19432801 -0.22834517 0.05523514
-0.19456208 -0.22835915 0.055165399
-0.19480982 -0.22836737 0.055140592
-0.19500954 -0.22837415 0.055119369
-0.19520697 -0.22837347 0.055153497
-0.19539848 -0.22837374 0.05517957
-0.19560269 -0.22838154 0.055151418
-0.19580729 -0.22839278 0.055097882
-0.19599345 -0.22838876 0.05515511
-0.19619365 -0.22839355 0.05514887
-0.19640943 -0.22841166 0.05504572
-0.1965773 -0.22841626 0.055036105
-0.19674818 -0.22841442 0.055074912
-0.19700834 -0.22842878 0.055006254
-0.19720352 -0.22842973 0.055027708
-0.19740348 -0.22843808 0.054994952
-0.19759917 -0.22844279 0.054988723
-0.19780575 -0.2284542 0.054934032
-0.1980031 -0.22846064 0.054915115
-0.19820496 -0.22846809 0.054889265
-0.19839914 -0.22846857 0.054914184
-0.19859344 -0.22847247 0.054913729
-0.19879258 -0.2284777 0.054904032
-0.1989907 -0.22848539 0.054875888
-0.19917455 -0.22848628 0.054896213
-0.19938843 -0.22849923 0.054831125
-0.19958998 -0.22851071 0.054775298
-0.19976628 -0.22851828 0.054744899
-0.19997613 -0.22852093 0.054755941
-0.20017093 -0.2285191 0.054798149
-0.20037498 -0.22852661 0.054772295
-0.20057262 -0.22853489 0.054739542
-0.20076728 -0.22853664 0.054755233
-0.20096703 -0.22854373 0.054731689
-0.20116219 -0.22854981 0.054715086
-0.20136613 -0.22856164 0.054656945
-0.20157069 -0.22857441 0.054591879
-0.20175526 -0.22856945 0.054656029
-0.20195679 -0.22857921 0.05461289
-0.20215119 -0.22858512 0.054597437
-0.20233896 -0.22857974 0.054665029
-0.20254226 -0.2285959 0.054574609
-0.20274907 -0.22861244 0.054481857
-0.20293033 -0.2286077 0.054543708
-0.2031281 -0.22860996 0.05455593
-0.20332745 -0.22861829 0.05452317
-0.20351312 -0.22861877 0.054546952
-0.2037074 -0.22863397 0.054462299
-0.20388024 -0.22863169 0.054504566
-0.20411141 -0.22864547 0.054435976
-0.20430869 -0.22865206 0.054415911
-0.20449558 -0.2286589 0.054392412
-0.20469838 -0.22866389 0.054385014
-0.20488831 -0.22866584 0.054398395
-0.20508318 -0.22866975 0.054397941
-0.20527224 -0.2286706 0.054419413
-0.20543973 -0.22867534 0.05440864
-0.20564187 -0.22867985 0.054404706
-0.20586449 -0.2286936 0.054334987
-0.2060549 -0.22869666 0.054340299
-0.20623434 -0.22869901 0.054349102
-0.20640512 -0.22870909 0.054299112
-0.20660734 -0.22871439 0.054289408
-0.20677614 -0.22872195 0.054257877
-0.20699194 -0.22873758 0.054173183
-0.20722197 -0.22873801 0.054203775
-0.20741832 -0.22874565 0.054175634
-0.20760259 -0.22874533 0.054205183
-0.20780742 -0.22876136 0.054115906
-0.2079854 -0.22875656 0.054177769
-0.20819169 -0.22876984 0.054109238
-0.20837066 -0.22876661 0.054159559
-0.20857269 -0.22877902 0.054096803
-0.2087407 -0.22878703 0.054061815
-0.20895265 -0.22878678 0.054094754
-0.20912114 -0.22878335 0.054145101
-0.20931925 -0.22880234 0.054032769
-0.20952085 -0.22880235 0.054062288
-0.20971455 -0.22880717 0.054054905
-0.20989998 -0.2288163 0.054014105
-0.21010545 -0.22882414 0.05398595
-0.21031457 -0.22883964 0.05390127
-0.21049187 -0.2288401 0.053923912
-0.21068022 -0.22884186 0.053938467
-0.2108718 -0.22884306 0.053957615
-0.21105736 -0.22884631 0.05396064
-0.21126635 -0.22885546 0.053923249
-0.21142302 -0.22884838 0.053998988
-0.21159762 -0.22886674 0.053887866
-0.21180044 -0.22889528 0.053705182
-0.21201766 -0.22889219 0.053760022
-0.21222118 -0.2288893 0.053811438
-0.21238858 -0.22888245 0.053887159
-0.21255325 -0.22888637 0.053882163
-0.21275623 -0.22890963 0.053738676
-0.21294798 -0.22890264 0.053818956
-0.21315892 -0.2289304 0.053643167
-0.21336864 -0.22892515 0.053713024
-0.21356502 -0.22893173 0.053692959
-0.21375458 -0.22893894 0.053667132
-0.21394606 -0.22894138 0.05367706
-0.21413215 -0.22894898 0.053647794
-0.21433197 -0.22895655 0.0536208
-0.2144957 -0.22897175 0.053531613
-0.21469893 -0.22896716 0.053595714
-0.21490158 -0.22897322 0.053580254
-0.21507058 -0.22896965 0.053631749
-0.21523896 -0.22897752 0.053597912
-0.21544193 -0.22898544 0.053568602
-0.21563935 -0.22898445 0.053605035
-0.2158289 -0.22899507 0.053553849
-0.21601784 -0.22900349 0.053518809
-0.21622437 -0.22901383 0.053472195
-0.21639553 -0.22902098 0.05344411
-0.21656835 -0.22901824 0.053489834
-0.21675901 -0.22901788 0.053520519
-0.21694796 -0.22902864 0.053468183
-0.21712482 -0.22902878 0.053493138
-0.21732026 -0.22903781 0.053454619
-0.21751626 -0.22905211 0.053376891
-0.21770716 -0.22905424 0.053389125
-0.21788715 -0.22905119 0.053438291
-0.21809584 -0.22905707 0.053425111
-0.21828784 -0.22907145 0.053346246
-0.21849312 -0.22908083 0.053306554
-0.21868417 -0.22908635 0.053293418
-0.21886446 -0.22908595 0.053322971
-0.21904136 -0.22908609 0.053347923
-0.21920818 -0.22909392 0.05331409
-0.21940599 -0.22909617 0.053326312
-0.21961795 -0.22911529 0.053215105
-0.21982606 -0.22911885 0.053219222
-0.22000989 -0.22911929 0.053243008
-0.22020753 -0.22912851 0.053203333
-0.22039461 -0.22913907 0.053152151
-0.22058178 -0.22914313 0.053149406
-0.2207724 -0.22914742 0.053145502
-0.22095923 -0.22915719 0.053100079
-0.22114991 -0.22915962 0.053110011
-0.22133675 -0.22916694 0.053083051
-0.22151697 -0.22916977 0.053088389
-0.22171099 -0.22917351 0.053089086
-0.22190467 -0.22918063 0.05306441
-0.22208147 -0.22918294 0.05307322
-0.2222437 -0.22919099 0.053037085
-0.22244298 -0.22920692 0.052947823
-0.22264764 -0.22920792 0.052970406
-0.22281319 -0.22921526 0.052940033
-0.22297131 -0.22920372 0.05304921
-0.22315396 -0.22921281 0.053008419
