# .PCD v0.7 - Point Cloud Data file format
VERSION 0.7
FIELDS x y z
SIZE 4 4 4
TYPE F F F
COUNT 1 1 1
WIDTH 1202
HEIGHT 1
VIEWPOINT 0 0 0 1 0 0 0
POINTS 1202
DATA ascii
-0.08315105 -0.35503894 0.052564882
-0.083316922 -0.35513586 0.052612413
-0.083474852 -0.35524586 0.052531712
-0.083672628 -0.35533789 0.052755862
-0.083793908 -0.35545567 0.052456982
-0.083936319 -0.35555595 0.05237639
-0.084097408 -0.35566339 0.052328032
-0.08429762 -0.35576603 0.052487448
-0.084450714 -0.35585627 0.052525818
-0.084602281 -0.35596198 0.052447472
-0.084754393 -0.35607433 0.052324057
-0.084929906 -0.3561843 0.052321844
-0.085086241 -0.35628694 0.05228623
-0.085243225 -0.35638919 0.052256387
-0.085411675 -0.35649589 0.052246131
-0.085594535 -0.35660213 0.0523028
-0.085759588 -0.35671058 0.052264821
-0.085924141 -0.35680911 0.052295029
-0.086100839 -0.35691866 0.052300893
-0.086263068 -0.35702178 0.052288361
-0.086429998 -0.35712928 0.052265391
-0.086590849 -0.35722971 0.05226557
-0.086744867 -0.35732996 0.052236907
-0.086908884 -0.35743549 0.052215114
-0.087072238 -0.35754758 0.052143641
-0.087245926 -0.35766158 0.052104451
-0.087400839 -0.35775506 0.05212779
-0.087560289 -0.35785609 0.052117579
-0.0877482 -0.35797071 0.052137244
-0.087904245 -0.35806704 0.052145541
-0.088050254 -0.35816404 0.052104212
-0.088211179 -0.35826162 0.052125201
-0.088374197 -0.35837042 0.052075673
-0.088534623 -0.35848004 0.052008834
-0.088722259 -0.35859787 0.052004233
-0.088897362 -0.35869962 0.052058645
-0.089045055 -0.3587988 0.052009217
-0.089213103 -0.35890296 0.052015137
-0.089377217 -0.35900268 0.052034948
-0.089537613 -0.35911489 0.051949613
-0.089693859 -0.35921976 0.05189782
-0.089840911 -0.35931614 0.05186573
-0.090013176 -0.35941088 0.051957142
-0.09019199 -0.35952321 0.051952597
-0.090362757 -0.35963231 0.051935382
-0.090512305 -0.35973886 0.051842026
-0.090664752 -0.35983649 0.051824927
-0.090850569 -0.35994443 0.05188274
-0.091033526 -0.36004001 0.052015688
-0.091197595 -0.36015874 0.051900283
-0.091356501 -0.36027065 0.051810347
-0.09151309 -0.36035964 0.051872957
-0.091688663 -0.3604472 0.052030221
-0.091841847 -0.36056545 0.05186981
-0.091990873 -0.36068174 0.05170482
-0.092142016 -0.36078474 0.051643807
-0.09227486 -0.36088377 0.051529754
-0.092494696 -0.36099333 0.051727198
-0.09268409 -0.36107928 0.051957175
-0.092843361 -0.36118591 0.051906519
-0.093015328 -0.36128533 0.051963262
-0.093157172 -0.36140704 0.051727816
-0.093315512 -0.361516 0.051656362
-0.093486577 -0.36161327 0.051724665
-0.093625575 -0.36171564 0.051614039
-0.093793973 -0.36182293 0.051599156
-0.093937643 -0.36192676 0.051498905
-0.094127961 -0.3620286 0.051620245
-0.094277561 -0.36214086 0.051486451
-0.094435133 -0.36224493 0.051446199
-0.094590656 -0.36234239 0.05144411
-0.094782576 -0.36244684 0.05155389
-0.094962791 -0.36255744 0.051567819
-0.095107526 -0.36266309 0.051459476
-0.095260128 -0.36276326 0.05142504
-0.09544944 -0.36287746 0.051453944
-0.095595509 -0.36298051 0.05136985
-0.095744915 -0.36308095 0.05131926
-0.095918633 -0.36318132 0.051377147
-0.096105024 -0.36328948 0.051436108
-0.096248038 -0.36339486 0.051321991
-0.096409068 -0.36349866 0.051299065
-0.096577816 -0.36360407 0.051299199
-0.096731663 -0.36370841 0.051240489
-0.096889883 -0.3638103 0.051218733
-0.097067699 -0.36391521 0.051262725
-0.097225294 -0.36402142 0.051207457
-0.097382165 -0.36412343 0.051178776
-0.097557604 -0.36423075 0.051195052
-0.097734123 -0.36433807 0.051215939
-0.0978861 -0.36444449 0.051134132
-0.098047227 -0.3645505 0.051096175
-0.098214716 -0.36465624 0.051088233
-0.098393947 -0.3647677 0.051091768
-0.098574102 -0.36487111 0.051156551
-0.098711357 -0.36496982 0.051064424
-0.098884076 -0.36507559 0.05107956
-0.099064782 -0.36518323 0.051116604
-0.099225253 -0.3652854 0.051102921
-0.09937714 -0.36538967 0.051036134
-0.099531248 -0.36549386 0.050979733
-0.099695586 -0.36560187 0.050941758
-0.099846795 -0.36570409 0.05088653
-0.10002954 -0.36581206 0.050930496
-0.10020066 -0.36591244 0.050976835
-0.10036646 -0.36602053 0.050944634
-0.10053577 -0.36612675 0.050941303
-0.10070382 -0.36623302 0.050932195
-0.10087221 -0.36633933 0.050924245
-0.10103247 -0.36644363 0.05089438
-0.10120756 -0.36654827 0.050927989
-0.10136522 -0.36665258 0.050886601
-0.10150709 -0.36675644 0.050778262
-0.10168387 -0.3668631 0.050804928
-0.10185879 -0.36696798 0.050836228
-0.1020182 -0.36707419 0.050789043
-0.10218591 -0.36718071 0.050776467
-0.10234779 -0.36728522 0.050752386
-0.10251671 -0.36739007 0.050757136
-0.1026818 -0.36749837 0.050720319
-0.10285793 -0.36760366 0.050753921
-0.10302311 -0.36771202 0.050717097
-0.10319579 -0.36781728 0.050735701
-0.10334598 -0.3679195 0.050675847
-0.10351595 -0.36802468 0.050682917
-0.10366257 -0.36812842 0.050596517
-0.1038404 -0.36823592 0.050622012
-0.10400944 -0.36834118 0.05062446
-0.10416973 -0.36845103 0.050555307
-0.10433458 -0.36855429 0.050553158
-0.10449641 -0.36865911 0.050526764
-0.1046742 -0.3687669 0.050549947
-0.10484228 -0.36887398 0.050535064
-0.10498122 -0.36897355 0.050444089
-0.10515004 -0.36908242 0.050419956
-0.10531569 -0.36918765 0.050407402
-0.105496 -0.36929426 0.050450221
-0.10566796 -0.3694002 0.050460745
-0.10583673 -0.36950755 0.05044701
-0.10600275 -0.36961302 0.050434444
-0.10617223 -0.36971888 0.050434582
-0.10632938 -0.36982352 0.050388556
-0.10648869 -0.36992675 0.050362173
-0.1066584 -0.37003598 0.050339185
-0.10681367 -0.37014204 0.050274692
-0.10699581 -0.37025109 0.050308265
-0.10715849 -0.3703548 0.050293412
-0.10731991 -0.37046 0.050262392
-0.10749151 -0.37056962 0.05024517
-0.10766414 -0.37067938 0.050231412
-0.10781415 -0.37078166 0.050170422
-0.10798913 -0.37088704 0.05019825
-0.10816634 -0.37099594 0.05021105
-0.10832711 -0.37110123 0.050176561
-0.1084843 -0.37120605 0.050129391
-0.1086479 -0.37131017 0.05011569
-0.10883315 -0.37142035 0.05015501
-0.10899413 -0.37152576 0.050120533
-0.10915232 -0.37162927 0.050087214
-0.10933599 -0.37173945 0.05011962
-0.10949774 -0.37184808 0.050065476
-0.10966116 -0.37195241 0.050049473
-0.10983212 -0.37206244 0.050026476
-0.10999339 -0.37216803 0.049991988
-0.11016831 -0.37227419 0.050014049
-0.11032523 -0.37237918 0.049964562
-0.11051483 -0.37249371 0.049992304
-0.11068811 -0.37259981 0.05000744
-0.11081875 -0.37270072 0.049870282
-0.11099672 -0.37280911 0.049890012
-0.11116818 -0.37291506 0.049898222
-0.11135814 -0.37302998 0.049924798
-0.11151467 -0.37313065 0.049904216
-0.11169432 -0.37324107 0.04991699
-0.11185308 -0.37334949 0.049851321
-0.11201079 -0.37345481 0.049802989
-0.11218779 -0.37356779 0.049785737
-0.11235026 -0.37367398 0.049752392
-0.11253419 -0.37378252 0.049797513
-0.11270556 -0.37389037 0.04979185
-0.11284529 -0.37399256 0.049685851
-0.11300478 -0.37409687 0.049652524
-0.11314776 -0.37419817 0.049567305
-0.11337495 -0.37431785 0.049725406
-0.11351264 -0.37442103 0.049603235
-0.11369653 -0.37453005 0.04964488
-0.11387417 -0.37463936 0.04965651
-0.11404807 -0.37474945 0.049646214
-0.1141948 -0.37485293 0.049562123
-0.11438581 -0.37496638 0.049603734
-0.11455452 -0.37507421 0.049586535
-0.11469329 -0.37517613 0.049478214
-0.11490694 -0.37529156 0.04960636
-0.11506484 -0.37540007 0.049536072
-0.11522201 -0.37550569 0.049483109
-0.11539463 -0.37561449 0.049476296
-0.11556893 -0.37572366 0.049474079
-0.11573221 -0.37583199 0.049429178
-0.11592545 -0.37594521 0.049482327
-0.11607599 -0.37605092 0.049399368
-0.11626568 -0.37616357 0.049440976
-0.11642604 -0.37627003 0.049396101
-0.11659275 -0.37637791 0.049369663
-0.11675923 -0.37648708 0.049332839
-0.11693487 -0.37659693 0.049331769
-0.1171135 -0.37670884 0.049329538
-0.11727738 -0.37681621 0.049293879
-0.11745179 -0.37692595 0.049288198
-0.1176324 -0.37703714 0.049299821
-0.11781038 -0.37714913 0.049294118
-0.1179783 -0.37725756 0.049268838
-0.11813487 -0.37736475 0.049202021
-0.11829881 -0.37747234 0.049165212
-0.11850685 -0.37759143 0.04924253
-0.11866528 -0.37769783 0.049189571
-0.11884777 -0.37780988 0.049203489
-0.11901672 -0.37791881 0.049179353
-0.11919615 -0.37803152 0.049174804
-0.11934062 -0.37813473 0.049082644
-0.11953494 -0.37825108 0.049118441
-0.119679 -0.37835419 0.04902513
-0.11989855 -0.37847805 0.049119711
-0.12003867 -0.37858275 0.048997529
-0.12023298 -0.37869811 0.049040262
-0.12040821 -0.37881017 0.04902187
-0.12058394 -0.37891862 0.049031205
-0.12075315 -0.37903178 0.048978183
-0.12093189 -0.37914357 0.048977107
-0.121093 -0.37925476 0.048902169
-0.1212645 -0.37936234 0.048898827
-0.12144827 -0.37947682 0.048901174
-0.12162565 -0.37958971 0.048886236
-0.039923165 -0.33085224 0.032543078
-0.040105704 -0.33098155 0.032434475
-0.040279113 -0.33110318 0.032339804
-0.040450674 -0.33122075 0.032265946
-0.040617328 -0.33133212 0.032214079
-0.040785667 -0.33144394 0.032166831
-0.040954687 -0.3315568 0.032114942
-0.041116275 -0.33166406 0.032070041
-0.041278429 -0.33176824 0.032049414
-0.041438926 -0.33187237 0.03202185
-0.041599702 -0.33197701 0.031991985
-0.041762214 -0.33208209 0.031966724
-0.041921444 -0.33218494 0.031942647
-0.042084832 -0.3322894 0.03192547
-0.042241067 -0.33239055 0.031900249
-0.042398982 -0.33248997 0.031894669
-0.042557284 -0.33259207 0.031871747
-0.042718694 -0.33269647 0.031846493
-0.042874407 -0.33279532 0.031835154
-0.043030228 -0.33289653 0.031807624
-0.043195028 -0.33300173 0.031791598
-0.043354634 -0.33310416 0.031772137
-0.043509718 -0.33320263 0.031760789
-0.043665048 -0.33330369 0.031732108
-0.043823298 -0.33340463 0.031717274
-0.043979406 -0.33350489 0.031697836
-0.044136919 -0.33360502 0.031685323
-0.044293642 -0.3337042 0.031676281
-0.044452008 -0.33380359 0.03167301
-0.04460407 -0.33390081 0.031657062
-0.044764888 -0.33400613 0.031622566
-0.044919234 -0.33410463 0.031607766
-0.045075834 -0.3342042 0.03159526
-0.04523249 -0.33430398 0.031581588
-0.045388795 -0.33440337 0.031569082
-0.045541957 -0.33450064 0.031557754
-0.045698769 -0.33460101 0.031540617
-0.045852624 -0.33469951 0.031523507
-0.046006724 -0.33479851 0.03150408
-0.046160951 -0.33489546 0.031499673
-0.046318993 -0.33499578 0.031488307
-0.04647208 -0.33509365 0.031472355
-0.046627611 -0.33519289 0.031457547
-0.046778195 -0.33528969 0.031438142
-0.046934925 -0.33539099 0.031414069
-0.047087602 -0.33548874 0.031396966
-0.04724168 -0.33558384 0.031405274
-0.047397956 -0.33568484 0.031381205
-0.047551669 -0.33578455 0.031354848
-0.047700211 -0.33587649 0.031360883
-0.047857564 -0.33597702 0.031344905
-0.04800595 -0.33607149 0.031332444
-0.048160441 -0.33617038 0.031315319
-0.048314091 -0.33626813 0.031302832
-0.048467264 -0.33636522 0.031292658
-0.048617732 -0.33646083 0.031281348
-0.048771329 -0.33655885 0.031266544
-0.048922371 -0.33665559 0.031249441
-0.049075197 -0.33675265 0.031238116
-0.049227901 -0.33684963 0.031226784
-0.049380805 -0.33694705 0.031213146
-0.049531315 -0.33704349 0.031196047
-0.049686536 -0.3371422 0.031183546
-0.049837578 -0.33723977 0.031160671
-0.049989641 -0.33733636 0.031149352
-0.050138995 -0.3374314 0.031136887
-0.05029143 -0.33752885 0.031120937
-0.050440688 -0.33762401 0.031107312
-0.0505924 -0.33772054 0.031094832
-0.050745964 -0.33782032 0.031067323
-0.05089771 -0.33791721 0.03105253
-0.05104588 -0.33801103 0.031043539
-0.051197089 -0.33810723 0.031031065
-0.051348474 -0.33820388 0.031016272
-0.05150117 -0.33830297 0.030989921
-0.051649012 -0.33839673 0.03097978
-0.051799588 -0.33849239 0.030968461
-0.051951312 -0.3385902 0.030946733
-0.052100614 -0.33868703 0.030921554
-0.052253112 -0.33878338 0.030913699
-0.052402806 -0.33887801 0.030905852
-0.052549548 -0.3389706 0.030899186
-0.052700233 -0.33906728 0.030880932
-0.052849151 -0.33916417 0.03085345
-0.053000227 -0.33926192 0.030829413
-0.053145751 -0.33935279 0.030829687
-0.053297862 -0.33944941 0.030818356
-0.053446908 -0.33954376 0.030809371
-0.053596988 -0.33964026 0.030789958
-0.053746317 -0.33973545 0.030776341
-0.053893581 -0.33983034 0.030755803
-0.054042324 -0.33992466 0.030745648
-0.05419131 -0.34001964 0.030732034
-0.054334946 -0.34011143 0.030717289
-0.054486051 -0.34020725 0.030707128
-0.054633893 -0.34030414 0.030675024
-0.054782763 -0.34039953 0.030657943
-0.054927837 -0.34049109 0.030651277
-0.055077828 -0.34058523 0.030648056
-0.055225942 -0.3406795 0.030635599
-0.055373959 -0.3407737 0.030623142
-0.055517606 -0.3408668 0.03059916
-0.055666044 -0.34096226 0.030579768
-0.055816289 -0.34105772 0.030568451
-0.055963978 -0.34115186 0.030554844
-0.056107052 -0.34124446 0.030532017
-0.056255333 -0.3413403 0.030509148
-0.05640173 -0.34143642 0.0304759
-0.056551233 -0.34153107 0.030466903
-0.05669377 -0.34161878 0.030476442
-0.056840453 -0.34171167 0.03046746
-0.056987416 -0.34180537 0.030453857
-0.057134852 -0.34190035 0.030433308
-0.057278864 -0.34199208 0.030420877
-0.057425804 -0.34208626 0.030403808
-0.057570346 -0.3421796 0.030382125
-0.057716973 -0.34227341 0.03036621
-0.057863511 -0.3423672 0.030350296
-0.05801053 -0.34246242 0.030326292
-0.058153287 -0.34255204 0.030323107
-0.058299027 -0.34264433 0.030314129
-0.058445483 -0.34273872 0.030293597
-0.058591522 -0.34283218 0.030277686
-0.058733724 -0.34292096 0.030277979
-0.058879662 -0.34301451 0.030260917
-0.059028119 -0.34310967 0.030243829
-0.059171051 -0.3432067 0.030188639
-0.059313945 -0.3432982 0.030172747
-0.059458934 -0.34339002 0.030163776
-0.059601065 -0.34348574 0.030114371
-0.059747573 -0.34357023 0.030164337
-0.059892684 -0.34366298 0.030149583
-0.060037509 -0.34375501 0.030138308
-0.06018047 -0.34384802 0.030112006
-0.060328048 -0.34394261 0.030094933
-0.060469553 -0.34403145 0.030091764
-0.060611412 -0.34412163 0.030080497
-0.060752321 -0.34421596 0.030035719
-0.060896486 -0.34430727 0.030026764
-0.061042108 -0.34439641 0.030039741
-0.061187595 -0.34449276 0.030000718
-0.061325125 -0.34458417 0.029961742
-0.06147268 -0.34467304 0.029985119
-0.061612044 -0.34476379 0.029958848
-0.061756149 -0.34485638 0.029940633
-0.061897904 -0.34494862 0.029914347
-0.062041193 -0.34503856 0.02991117
-0.062185325 -0.34513214 0.02988602
-0.062328789 -0.34522334 0.029874744
-0.062469721 -0.34531346 0.029860025
-0.062613159 -0.34540513 0.029845282
-0.062759168 -0.34549856 0.029829372
-0.062899612 -0.3455874 0.02982158
-0.063042901 -0.34567928 0.029804533
-0.063186556 -0.34577337 0.029773608
-0.063323893 -0.34585896 0.029775091
-0.063464656 -0.34595075 0.02974765
-0.063609831 -0.34604204 0.029743306
-0.063750342 -0.34613335 0.029718179
-0.063888945 -0.34622753 0.02966417
-0.064033814 -0.3463183 0.029662132
-0.064175725 -0.34640545 0.029672828
-0.064319231 -0.34650317 0.029615331
-0.064458199 -0.34658685 0.029637598
-0.064603016 -0.34667873 0.029627474
-0.064738661 -0.34677333 0.029557299
-0.064886168 -0.34686917 0.029530978
-0.065025046 -0.34695327 0.029549789
-0.065166786 -0.34704161 0.029551238
-0.065304086 -0.34713385 0.029505331
-0.065447941 -0.34722009 0.029531043
-0.065591618 -0.34730425 0.029570624
-0.065732695 -0.34738585 0.029617157
-0.065875553 -0.34745732 0.029743422
-0.066012613 -0.34754941 0.029697515
-0.066154495 -0.34764141 0.029673545
-0.0663075 -0.34770897 0.029872563
-0.066438735 -0.3477852 0.029913381
-0.06657818 -0.34787765 0.029875547
-0.066720322 -0.34798005 0.029778752
-0.066855267 -0.34811324 0.029431187
-0.066994011 -0.34820926 0.029364469
-0.067137636 -0.34829798 0.029371688
-0.06727355 -0.34838527 0.029354684
-0.067417152 -0.34847021 0.029388487
-0.067555517 -0.34856033 0.02936222
-0.067693621 -0.34865746 0.029285099
-0.067828834 -0.34875616 0.029183725
-0.067969449 -0.34884575 0.029171314
-0.068113133 -0.34892571 0.029240943
-0.068256304 -0.34897235 0.029545207
-0.068398565 -0.34904218 0.029680725
-0.068540029 -0.3491261 0.029712234
-0.068681374 -0.3492119 0.029729867
-0.068822637 -0.34929866 0.029740568
-0.068961158 -0.34938562 0.029737417
-0.069102228 -0.34947386 0.029736564
-0.06924317 -0.349563 0.02972877
-0.06938266 -0.34966275 0.029638924
-0.069525748 -0.34979421 0.029339854
-0.069652446 -0.34989962 0.029153004
-0.069786921 -0.34998861 0.029117513
-0.069927156 -0.35007635 0.029116668
-0.070061632 -0.35016435 0.029088112
-0.070201784 -0.35025203 0.029087255
-0.070341572 -0.35034141 0.029072544
-0.070484549 -0.35042906 0.029084386
-0.070621289 -0.35051864 0.029054664
-0.070758022 -0.35060793 0.029027246
-0.070894882 -0.3506963 0.02900677
-0.071034998 -0.35078311 0.029011697
-0.0711684 -0.3508729 0.028965812
-0.071307197 -0.35096428 0.028932611
-0.071448557 -0.3510462 0.028977986
-0.071591549 -0.3511332 0.028994448
-0.07172934 -0.35121745 0.029007483
-0.071868993 -0.35130545 0.029002011
-0.072006136 -0.3513917 0.028997716
-0.07214915 -0.35147873 0.029014185
-0.072290115 -0.35156286 0.029042222
-0.072430752 -0.35164806 0.029061021
-0.072568968 -0.35173142 0.02908214
-0.072710179 -0.35181534 0.029112488
-0.072849616 -0.3518959 0.029159039
-0.072994411 -0.35197932 0.029209014
-0.073133714 -0.35206077 0.029248623
-0.073276997 -0.35214081 0.029315941
-0.073420465 -0.3522208 0.029384419
-0.073558167 -0.35229945 0.029436754
-0.073703237 -0.35237688 0.029530644
-0.073848747 -0.35245392 0.02962916
-0.073996529 -0.35253367 0.029718425
-0.07413958 -0.35260996 0.029811174
-0.074290365 -0.35268512 0.02994664
-0.074436128 -0.3527576 0.030078681
-0.074589141 -0.35283023 0.030241879
-0.080707699 -0.35348031 0.052795041
-0.080863014 -0.3535898 0.052706253
-0.08103811 -0.35368162 0.05283118
-0.081204638 -0.35378122 0.052862529
-0.0813419 -0.35386562 0.052872099
-0.081490785 -0.35396689 0.052813411
-0.081638515 -0.35407326 0.052713111
-0.081797458 -0.35417902 0.052667074
-0.081959128 -0.35429105 0.052588645
-0.082137085 -0.35439032 0.052673101
-0.082302935 -0.35450318 0.052607372
-0.082481541 -0.35461879 0.052578546
-0.082633346 -0.35470888 0.052612301
-0.082803622 -0.35481018 0.052648254
-0.082985021 -0.35492787 0.052617099
-0.083140127 -0.35502782 0.052595351
-0.083291925 -0.35512602 0.052571319
-0.083455935 -0.3552278 0.052576102
-0.083612137 -0.35532698 0.052564748
-0.083772607 -0.35543483 0.052510604
-0.083935037 -0.35553384 0.052528121
-0.084087506 -0.35563523 0.052484423
-0.08424893 -0.35574594 0.052414093
-0.084427118 -0.3558504 0.052462716
-0.084569052 -0.35595399 0.052356672
-0.084741421 -0.35605463 0.052406482
-0.084892675 -0.35615283 0.052380137
-0.085075468 -0.35625514 0.05246456
-0.085235283 -0.35635933 0.052433539
-0.085388608 -0.35646337 0.052374817
-0.085551903 -0.35656568 0.052372672
-0.085745171 -0.35669047 0.05234376
-0.085911997 -0.35680115 0.052297674
-0.086071298 -0.3568987 0.052311733
-0.086237207 -0.3569932 0.052376609
-0.086369172 -0.35708046 0.052342288
-0.086525299 -0.35718933 0.052261587
-0.086693384 -0.35730571 0.052180815
-0.086881869 -0.35741952 0.052208565
-0.08702565 -0.35750476 0.052241214
-0.087168321 -0.35761252 0.052108582
-0.08734446 -0.35771587 0.052156065
-0.087500662 -0.35781178 0.052167825
-0.087658815 -0.35791007 0.052171491
-0.087847605 -0.35801807 0.052242011
-0.088005312 -0.35812876 0.052155521
-0.088165283 -0.35822946 0.052149925
-0.088320069 -0.358338 0.052065767
-0.088481061 -0.35842651 0.052151475
-0.088654928 -0.35854307 0.052094948
-0.088811979 -0.35865641 0.051986501
-0.088974938 -0.35875899 0.051980883
-0.089117222 -0.35884815 0.051978875
-0.089260139 -0.3589457 0.051920205
-0.089442983 -0.35904786 0.05200579
-0.089601822 -0.35914901 0.051992107
-0.08978197 -0.35927176 0.051919363
-0.089949876 -0.35937306 0.051944919
-0.090106927 -0.35947472 0.051919691
-0.090255126 -0.35957602 0.051857539
-0.090438284 -0.35968962 0.051863365
-0.09061157 -0.35979509 0.051883109
-0.090780206 -0.35990447 0.051854357
-0.090904221 -0.35999569 0.051756509
-0.091076672 -0.36010405 0.051752001
-0.091243088 -0.36020863 0.05174752
-0.091422126 -0.36030778 0.051837746
-0.091573961 -0.36041576 0.051744357
-0.09171097 -0.36051658 0.05163604
-0.091871858 -0.36061981 0.051616564
-0.092053108 -0.36072391 0.051681347
-0.092212133 -0.36082762 0.05165033
-0.092393748 -0.36093441 0.051697776
-0.09253452 -0.36102423 0.051684201
-0.092704795 -0.36112344 0.051735185
-0.092867814 -0.36123142 0.051691428
-0.093040124 -0.36134017 0.051683456
-0.093189061 -0.36144081 0.051629379
-0.09336631 -0.36153916 0.051717304
-0.093526214 -0.36165479 0.051605374
-0.093687601 -0.36175817 0.051587053
-0.093845315 -0.36185977 0.051565301
-0.094012097 -0.36196473 0.051559664
-0.09416417 -0.36206946 0.051490542
-0.094332188 -0.36217195 0.051508024
-0.094498187 -0.36227709 0.051497765
-0.094651625 -0.36237922 0.051452912
-0.094816789 -0.36248222 0.051454216
-0.094986141 -0.3625893 0.051445108
-0.095171377 -0.36269686 0.051502924
-0.095320411 -0.36279953 0.051434986
-0.095466673 -0.36290237 0.051353194
-0.095635846 -0.3630051 0.051374126
-0.095805779 -0.36310345 0.05142973
-0.095993586 -0.36320466 0.051544175
-0.096162453 -0.36331648 0.051499225
-0.096307918 -0.36343232 0.051321503
-0.096473679 -0.36353129 0.051354017
-0.096645623 -0.36364275 0.051325232
-0.096798763 -0.36374488 0.051279232
-0.096953973 -0.36384895 0.051228587
-0.097124033 -0.36395207 0.051250674
-0.097288683 -0.36405978 0.051216155
-0.097441316 -0.36415982 0.051182859
-0.097601801 -0.36426151 0.051172644
-0.097767822 -0.36436501 0.051173944
-0.097934633 -0.36446854 0.051178716
-0.098096639 -0.36457232 0.051160395
-0.098253153 -0.36467835 0.051101658
-0.098414332 -0.36478016 0.051093742
-0.098590806 -0.36488956 0.05109961
-0.098755598 -0.36499134 0.051107854
-0.098906495 -0.36509547 0.051037587
-0.099071719 -0.36520126 0.051019244
-0.099249683 -0.36530885 0.051044751
-0.099421397 -0.36541268 0.051069133
-0.099585794 -0.36552054 0.051032312
-0.099751249 -0.36562455 0.051027834
-0.099910013 -0.36573049 0.050979484
-0.10007976 -0.36583263 0.051007356
-0.10022436 -0.36594045 0.050882801
-0.10039546 -0.36604455 0.050902568
-0.10056377 -0.36614871 0.050909638
-0.10072039 -0.36625463 0.050852049
-0.10089042 -0.36635888 0.050866053
-0.10106687 -0.36646518 0.050893873
-0.10122742 -0.3665731 0.05083973
-0.10139112 -0.3666755 0.050838742
-0.10156135 -0.3667818 0.050838858
-0.10173066 -0.36688998 0.050821654
-0.10190497 -0.36699837 0.05082522
-0.10205068 -0.36709845 0.050760765
-0.10224431 -0.36720949 0.050831247
-0.10238533 -0.36731118 0.050734468
-0.10254333 -0.36741537 0.05069536
-0.10271344 -0.36752194 0.050693177
-0.10287007 -0.3676261 0.050648309
-0.10304855 -0.36773318 0.050679583
-0.10322282 -0.36784366 0.05066812
-0.10337671 -0.36794594 0.050624426
-0.10355707 -0.36805159 0.050674185
-0.10371348 -0.36815757 0.050615449
-0.10387975 -0.36826417 0.050595939
-0.10405006 -0.36837283 0.050579883
-0.10420316 -0.36847508 0.050532725
-0.10438435 -0.3685863 0.050546654
-0.10455617 -0.36869344 0.05054792
-0.10472408 -0.36879864 0.050545745
-0.10486514 -0.36890167 0.050439704
-0.10505046 -0.36900669 0.050516028
-0.10521176 -0.36911312 0.050475746
-0.10538863 -0.36922261 0.050482765
-0.10554666 -0.3693288 0.050429799
-0.10571102 -0.36943388 0.050412614
-0.10588041 -0.36954111 0.050402343
-0.10603534 -0.36964536 0.050349396
-0.10621104 -0.3697533 0.050362192
-0.10638095 -0.3698591 0.050364632
-0.10652748 -0.36996081 0.05029209
-0.10670693 -0.37006932 0.050317578
-0.10689187 -0.37018177 0.050339576
-0.10705393 -0.37028688 0.050312005
-0.10721529 -0.37039512 0.050259016
-0.10738028 -0.37050059 0.050241828
-0.10754848 -0.37060809 0.050224632
-0.10772038 -0.37071449 0.05023168
-0.10788452 -0.37082154 0.050199479
-0.10802419 -0.3709271 0.050069172
-0.10820671 -0.37103492 0.050113145
-0.10837534 -0.37114108 0.050107501
-0.10855131 -0.37124822 0.050127238
-0.10871651 -0.37135398 0.050108895
-0.10888676 -0.37146357 0.050085906
-0.10904343 -0.37156823 0.050037567
-0.10923909 -0.37167987 0.050112665
-0.10939476 -0.37178296 0.050071266
-0.1095766 -0.37189588 0.050075941
-0.10973687 -0.37200117 0.050039131
-0.10988729 -0.372105 0.049968876
-0.11007142 -0.37221238 0.050023235
-0.11024471 -0.37232274 0.050008319
-0.11040422 -0.37242949 0.049957648
-0.11057965 -0.37253875 0.049960047
-0.11073019 -0.37264413 0.04987938
-0.11089702 -0.37275058 0.049863346
-0.11108179 -0.37285998 0.049906146
-0.111251 -0.3729699 0.049876228
-0.11138636 -0.37306836 0.049777158
-0.11158147 -0.3731797 0.049852259
-0.1117402 -0.37328792 0.049787723
-0.11191896 -0.37339666 0.049808599
-0.11209042 -0.37350276 0.049815647
-0.11223743 -0.37360755 0.049723454
-0.11240567 -0.37371606 0.04969931
-0.11260162 -0.37382805 0.049773254
-0.1127844 -0.37393782 0.049804505
-0.11293988 -0.37404418 0.049738839
-0.11310922 -0.37414882 0.049747057
-0.1132813 -0.37425822 0.0497333
-0.11340874 -0.3743594 0.049579963
-0.11360028 -0.3744711 0.049636588
-0.11376379 -0.37457758 0.049605541
-0.11393522 -0.37468565 0.049598727
-0.11409418 -0.3747927 0.04954344
-0.1142929 -0.37490612 0.049619671
-0.11446792 -0.37501639 0.049612835
-0.11462694 -0.37512222 0.049566787
-0.11479987 -0.37523216 0.049553026
-0.11495516 -0.37533727 0.049495447
-0.11511773 -0.37544385 0.049459789
-0.1152842 -0.37555122 0.049435657
-0.1154813 -0.37566492 0.04950266
-0.11566487 -0.3757773 0.049518887
-0.11580966 -0.37588167 0.049419761
-0.11600104 -0.3759931 0.04947754
-0.1161733 -0.37610328 0.049459167
-0.11633739 -0.37621179 0.049416553
-0.11649669 -0.37631792 0.049369361
-0.11668417 -0.37643015 0.049404047
-0.11684363 -0.3765364 0.049356844
-0.11702594 -0.37664899 0.049366146
-0.11719114 -0.37675655 0.049335089
-0.11738782 -0.37687242 0.049384762
-0.11754639 -0.37697861 0.049334094
-0.11769366 -0.37708226 0.049251135
-0.11787827 -0.37719432 0.049274288
-0.11805329 -0.37730557 0.049260519
-0.11821412 -0.37741235 0.049215622
-0.11839222 -0.37752312 0.049219161
-0.11855195 -0.3776297 0.049170807
-0.11874311 -0.37774488 0.049200855
-0.11893372 -0.37785873 0.049237836
-0.11909495 -0.37796706 0.049183689
-0.11925167 -0.37807307 0.049126104
-0.11940965 -0.37817937 0.049071975
-0.11961649 -0.37829736 0.049151633
-0.11976564 -0.37840414 0.049054794
-0.1199467 -0.37851611 0.049062937
-0.12014196 -0.37863156 0.049109146
-0.1203313 -0.37874821 0.049120706
-0.12048873 -0.37885711 0.049045779
-0.1206374 -0.37896129 0.048965126
-0.12080944 -0.37907004 0.048955992
-0.12097568 -0.37917989 0.048913375
-0.1211728 -0.37929749 0.048952632
-0.12134032 -0.37940651 0.048921563
-0.12152216 -0.37952042 0.048919305
-0.030198373 -0.32124481 0.057662189
-0.030400913 -0.32137799 0.057614706
-0.030580338 -0.32148129 0.057677187
-0.030812226 -0.32165039 0.057504669
-0.030989114 -0.32175079 0.057576418
-0.031180765 -0.32187134 0.057570621
-0.031380914 -0.32200027 0.057542801
-0.031555399 -0.32209998 0.057608787
-0.031778552 -0.32225746 0.057480253
-0.031961601 -0.32236788 0.057508033
-0.032157101 -0.32249165 0.057496432
-0.032378763 -0.32265013 0.057354026
-0.032552395 -0.32274702 0.057436202
-0.032748435 -0.32287404 0.057403788
-0.032957621 -0.32301548 0.057327356
-0.033168498 -0.32315925 0.057241678
-0.044043489 -0.33344361 0.032418106
-0.044218451 -0.33356997 0.032296807
-0.044387355 -0.33369252 0.032175541
-0.044555549 -0.33380991 0.032087803
-0.044725876 -0.33393061 0.031986181
-0.044893596 -0.33404788 0.031897295
-0.045058168 -0.33416089 0.031824611
-0.045220055 -0.3342703 0.031765811
-0.045384109 -0.33437845 0.031725504
-0.045543522 -0.33448467 0.031678282
-0.045701742 -0.33458933 0.031636856
-0.045861177 -0.33469361 0.031603508
-0.046013866 -0.33479285 0.031575974
-0.046171769 -0.33489519 0.03154958
-0.04633382 -0.33500144 0.031513907
-0.046488199 -0.33510128 0.031489838
-0.046645015 -0.33520246 0.031466909
-0.046802223 -0.33530435 0.031440511
-0.046952225 -0.33540046 0.031423412
-0.047110587 -0.33550197 0.031405091
-0.047266211 -0.33560193 0.031385645
-0.047415771 -0.33569774 0.031368542
-0.047572173 -0.33579916 0.031342149
-0.047725379 -0.33589581 0.031335432
-0.047876105 -0.33599383 0.031307917
-0.048031986 -0.33609229 0.031300023
-0.048185349 -0.33619213 0.031271342
-0.04833699 -0.33628681 0.031271569
-0.048491944 -0.33638683 0.031248651
-0.048645049 -0.33648407 0.031237308
-0.048794776 -0.3365787 0.031229459
-0.048948459 -0.3366771 0.03121233
-0.049097605 -0.33677107 0.03120679
-0.049255095 -0.33687314 0.031180389
-0.049403705 -0.3369692 0.03115752
-0.04955925 -0.33706844 0.031142693
-0.049706765 -0.337163 0.0311256
-0.049858514 -0.33725905 0.031116579
-0.050007723 -0.33735386 0.031105258
-0.050161116 -0.33745289 0.031082358
-0.050313272 -0.33755001 0.031067552
-0.050463758 -0.33764449 0.031064318
-0.050613552 -0.33774078 0.031044899
-0.050766394 -0.33783945 0.031022001
-0.050915159 -0.33793432 0.03100837
-0.051066086 -0.33803001 0.0309982
-0.051216379 -0.33812776 0.030970681
-0.051368512 -0.33822587 0.030948941
-0.051517613 -0.33831879 0.030950345
-0.051667921 -0.33841395 0.030941332
-0.051816825 -0.33850986 0.030920764
-0.051968016 -0.33860686 0.030902497
-0.052116092 -0.33870161 0.030886553
-0.052266486 -0.33879748 0.030872921
-0.052413099 -0.33888984 0.030867398
-0.052562587 -0.33898431 0.030859541
-0.052711274 -0.33908075 0.030834354
-0.052860804 -0.33917558 0.030824194
-0.05300805 -0.33926964 0.030809417
-0.053158779 -0.339367 0.030786525
-0.053305663 -0.33946067 0.030772913
-0.053454608 -0.33955497 0.030763909
-0.053601019 -0.33964804 0.030752605
-0.05375088 -0.33974436 0.030733183
-0.053898662 -0.33984038 0.030706851
-0.054047659 -0.33993536 0.030693216
-0.054193456 -0.34003145 0.030657638
-0.054342046 -0.34012228 0.03067176
-0.054487452 -0.34021419 0.03066393
-0.054639272 -0.34031177 0.030644506
-0.054784097 -0.3404066 0.030613564
-0.054932158 -0.34049678 0.030629992
-0.055077739 -0.34058961 0.030616388
-0.055224542 -0.34068519 0.030588891
-0.055369899 -0.3407779 0.030575287
-0.055517167 -0.34087083 0.030568607
-0.055662118 -0.34096298 0.030557312
-0.055812187 -0.34105814 0.030547148
-0.055954166 -0.34114826 0.030537022
-0.056103028 -0.34124526 0.030508369
-0.056247968 -0.34133804 0.030492444
-0.056396268 -0.34143424 0.030467262
-0.056540798 -0.34152642 0.030453663
-0.05668807 -0.34162065 0.030437725
-0.056833997 -0.34171194 0.030436834
-0.056979276 -0.34180638 0.030410508
-0.057123967 -0.34189966 0.030389976
-0.057271469 -0.34199518 0.030365949
-0.057413578 -0.34208259 0.030375481
-0.0575606 -0.34217733 0.030354924
-0.057705488 -0.34227186 0.030326296
-0.057847518 -0.34236446 0.030298837
-0.057994958 -0.34245586 0.030303707
-0.058137737 -0.34254566 0.030299369
-0.058283657 -0.34263855 0.030286904
-0.058426932 -0.34272996 0.030273315
-0.05857259 -0.34282255 0.030262016
-0.058716621 -0.34291637 0.030234544
-0.058862243 -0.34300926 0.030220941
-0.059003495 -0.3431015 0.030192323
-0.059151091 -0.34319466 0.03018564
-0.059294388 -0.34328738 0.030162793
-0.059439112 -0.34337854 0.030157289
-0.059579089 -0.34347409 0.030099783
-0.059726428 -0.3435612 0.030134713
-0.059870794 -0.34365183 0.030131517
-0.060014412 -0.34374672 0.030094801
-0.060153633 -0.34384125 0.030040765
-0.060299054 -0.34392929 0.030060688
-0.060441837 -0.34401569 0.030080616
-0.060585193 -0.34411091 0.030040434
-0.060728673 -0.34419984 0.030045338
-0.060871258 -0.34429309 0.030015562
-0.061013162 -0.34438428 0.029997351
-0.061160013 -0.3444781 0.029982578
-0.061302654 -0.34457251 0.029944714
-0.061443668 -0.34466138 0.029939223
-0.061587166 -0.34475163 0.02993487
-0.061730959 -0.34484321 0.029922429
-0.061872415 -0.34493446 0.029901907
-0.062013976 -0.3450264 0.029876763
-0.062154911 -0.3451162 0.029864341
-0.062297828 -0.34520528 0.029865783
-0.062438935 -0.34529629 0.029845262
-0.062584586 -0.34538805 0.029839743
-0.062725231 -0.34547767 0.029827321
-0.06286601 -0.34556815 0.029809117
-0.063006818 -0.34565917 0.029787447
-0.063150242 -0.3457523 0.029762283
-0.063288853 -0.34584451 0.029722128
-0.063433439 -0.34593284 0.029736275
-0.063574329 -0.34602603 0.029699575
-0.063716345 -0.34611323 0.029710259
-0.063856415 -0.34620264 0.029696688
-0.063996948 -0.34629524 0.029662305
-0.064138949 -0.34638309 0.029668372
-0.064281471 -0.34647453 0.029651308
-0.0644214 -0.34656483 0.029630795
-0.064561516 -0.34665701 0.029597566
-0.06470108 -0.34674579 0.029586313
-0.06484551 -0.34683597 0.029586583
-0.064984933 -0.34692448 0.029576473
-0.065125078 -0.34701994 0.029520128
-0.065264292 -0.34710801 0.029512335
-0.065406375 -0.34720126 0.029480256
-0.065547794 -0.34728825 0.029489791
-0.065687597 -0.34738529 0.029420724
-0.065828592 -0.34746829 0.029456856
-0.065970197 -0.34755948 0.029437495
-0.066109009 -0.34764662 0.029434331
-0.066250525 -0.34773871 0.029408026
-0.066389292 -0.34782732 0.029394465
-0.066530585 -0.34791765 0.029379725
-0.066669375 -0.34801096 0.029332627
-0.066815421 -0.34809646 0.029373355
-0.066953965 -0.34818491 0.029359784
-0.067089923 -0.34827679 0.029310398
-0.067228302 -0.34836629 0.029288743
-0.067371748 -0.34845617 0.029286705
-0.067510024 -0.34854314 0.029282391
-0.06765081 -0.34863266 0.029271122
-0.067791604 -0.34871992 0.029276043
-0.067935139 -0.34880388 0.029316777
-0.068073578 -0.34888542 0.029351762
-0.06821347 -0.34894285 0.029564776
-0.068352364 -0.34902224 0.029617103
-0.068496287 -0.34910756 0.029649749
-0.068634808 -0.34919339 0.029654684
-0.068772763 -0.34928522 0.029614534
-0.068910524 -0.34937772 0.029568603
-0.069056891 -0.34946555 0.029594291
-0.069198035 -0.34955123 0.029611927
-0.069335602 -0.34964329 0.029568303
-0.069476396 -0.34973121 0.029568594
-0.069616772 -0.34982178 0.029548088
-0.069755055 -0.34990731 0.029554177
-0.069894902 -0.35000029 0.029514015
-0.07003206 -0.35009179 0.029472707
-0.070169158 -0.35018292 0.029433716
-0.070308439 -0.35027686 0.029384308
-0.070454523 -0.35036516 0.029405382
-0.070593499 -0.35045958 0.029351346
-0.070732392 -0.3505536 0.029299628
-0.070881933 -0.35065153 0.029267505
-0.071006559 -0.35075435 0.029089866
-0.071140528 -0.35085362 0.028979212
-0.071279228 -0.35094523 0.028943688
-0.07141111 -0.35103944 0.028859638
-0.071553916 -0.35112634 0.028876109
-0.071691744 -0.35120979 0.028894916
-0.07182686 -0.35130194 0.028839752
-0.071963817 -0.35138795 0.0288366
-0.072108231 -0.35147908 0.028829928
-0.072245374 -0.35156438 0.028832557
-0.072385393 -0.35165033 0.028843263
-0.072523594 -0.35174116 0.028811198
-0.072654873 -0.35183337 0.028738726
-0.072799072 -0.35191643 0.028788704
-0.072934471 -0.35200566 0.028755505
-0.073073305 -0.35209414 0.028743092
-0.073210523 -0.35217884 0.02875034
-0.073357917 -0.35226259 0.028809559
-0.073499911 -0.35235122 0.028809844
-0.073631667 -0.35244063 0.028759319
-0.073772162 -0.35252544 0.028780423
-0.073906347 -0.35261619 0.02873105
-0.074050203 -0.35270098 0.028767163
-0.07419192 -0.35278362 0.028809071
-0.074328795 -0.35286906 0.028809387
-0.074473307 -0.35295311 0.028853582
-0.074617915 -0.35303724 0.028897788
-0.074759446 -0.35312089 0.028931601
-0.074904874 -0.35320404 0.028986193
-0.075041719 -0.35328427 0.029023511
-0.075183496 -0.35336807 0.029057324
-0.075332932 -0.3534458 0.029168541
-0.075480625 -0.35352662 0.029249718
-0.075625718 -0.35360634 0.029327437
-0.075774416 -0.35368651 0.029417858
-0.075921401 -0.3537643 0.029517528
-0.076069683 -0.3538408 0.029632229
-0.076218389 -0.35391724 0.029749231
-0.076369055 -0.35399163 0.029889349
-0.076527461 -0.35406649 0.03006063
-0.082690701 -0.35474798 0.052589037
-0.082862519 -0.35484815 0.05264001
-0.083026692 -0.35493782 0.052731492
-0.083171219 -0.35502529 0.052751407
-0.083320864 -0.35513288 0.05265107
-0.083482146 -0.35523263 0.052658174
-0.083641805 -0.35534111 0.052595928
-0.083800137 -0.35544649 0.052549865
-0.08396665 -0.3555505 0.052550003
-0.084134758 -0.35565728 0.052537411
-0.084301554 -0.35577217 0.052461248
-0.084465466 -0.35587764 0.052439429
-0.084634595 -0.35598734 0.052410655
-0.084794879 -0.35609117 0.052384235
-0.084958069 -0.35618985 0.052407507
-0.085121855 -0.3562918 0.052409977
-0.085276023 -0.35639879 0.052333888
-0.085437804 -0.35650519 0.052295897
-0.085609175 -0.35660669 0.052335314
-0.085773356 -0.35669833 0.052412916
-0.085939445 -0.35681948 0.052289363
-0.086097419 -0.3569209 0.052269891
-0.086276524 -0.35703227 0.052273422
-0.086435996 -0.35712975 0.052288629
-0.086603992 -0.35723644 0.05227603
-0.086751834 -0.35733268 0.052248538
-0.086936712 -0.35744491 0.052271686
-0.087117784 -0.35755882 0.052265946
-0.087274522 -0.35767329 0.05214823
-0.087416813 -0.35776848 0.052103426
-0.0875879 -0.35787079 0.0521359
-0.087753147 -0.35797545 0.052125644
-0.087926202 -0.3580772 0.052170821
-0.08810135 -0.35819033 0.052144311
-0.088238865 -0.35829309 0.052024398
-0.088408336 -0.3583903 0.052085787
-0.088557824 -0.35848871 0.052050188
-0.08874134 -0.358596 0.052102245
-0.088913858 -0.35871285 0.052037608
-0.0890598 -0.35880661 0.052019373
-0.089243919 -0.35891965 0.052033268
-0.089391425 -0.35901859 0.051984966
-0.089554489 -0.359124 0.051959693
-0.089704983 -0.35921359 0.051991139
-0.089881107 -0.3593291 0.051951908
-0.090053827 -0.35944009 0.051930036
-0.090227067 -0.35955089 0.051911637
-0.090383686 -0.35965261 0.051884089
-0.090526417 -0.35974985 0.051826566
-0.090682916 -0.35984352 0.051855661
-0.090849906 -0.35995853 0.051779494
-0.091007181 -0.36006001 0.051756572
-0.091168031 -0.36016062 0.051755581
-0.091342591 -0.3602607 0.051819254
-0.091518827 -0.36036575 0.051855162
-0.091687493 -0.36047253 0.051844876
-0.091847658 -0.36058119 0.051783781
-0.092005685 -0.36069271 0.051692642
-0.092175178 -0.36079678 0.051705476
-0.092328332 -0.36091161 0.051569283
-0.09246359 -0.36100483 0.051507175
-0.092659503 -0.36110151 0.051689796
-0.092796497 -0.36120185 0.051584907
-0.092962734 -0.36130422 0.051595453
-0.093140677 -0.36140707 0.051654477
-0.093298249 -0.36151344 0.051598016
-0.093467027 -0.36161315 0.051638599
-0.093656704 -0.36171213 0.051777318
-0.093812734 -0.36182827 0.051644579
-0.093976378 -0.36193371 0.051621605
-0.094145671 -0.36203602 0.051646005
-0.09429729 -0.36213851 0.051590733
-0.094461381 -0.36224392 0.051570073
-0.094619691 -0.36235464 0.051485874
-0.094784178 -0.36245999 0.051467527
-0.094940618 -0.36255947 0.051454999
-0.095122889 -0.36266956 0.051481634
-0.095268264 -0.36277482 0.051379006
-0.095430396 -0.36287817 0.051364139
-0.095607042 -0.36298233 0.051408142
-0.095790334 -0.36309698 0.051407017
-0.09594211 -0.36319485 0.05138528
-0.096092701 -0.36329719 0.051326558
-0.096247956 -0.36340341 0.051260862
-0.096419185 -0.36350399 0.051306058
-0.096590787 -0.36360469 0.051352404
-0.096760131 -0.3637163 0.051310904
-0.096917436 -0.36382023 0.051270638
-0.097082987 -0.36392361 0.051270768
-0.097251475 -0.36402479 0.051299803
-0.097401515 -0.36412498 0.051253796
-0.097580746 -0.364234 0.051274657
-0.097742073 -0.36434191 0.051223956
-0.097928718 -0.36446303 0.051191598
-0.09808322 -0.36456504 0.051152512
-0.098235384 -0.36466104 0.051145792
-0.098399863 -0.36476475 0.051139005
-0.098563299 -0.3648665 0.051141467
-0.098732717 -0.36497214 0.051142748
-0.098886855 -0.36507618 0.051087461
-0.099047288 -0.36518207 0.051047176
-0.099209197 -0.36528596 0.051027693
-0.099373691 -0.36539179 0.051005866
-0.099545121 -0.36549559 0.051029101
-0.099716157 -0.36560145 0.051036142
-0.099877223 -0.36570543 0.051012035
-0.10004218 -0.36581138 0.050991371
-0.10020845 -0.36591735 0.050976478
-0.10036527 -0.36602518 0.050906148
-0.100527 -0.36612734 0.050898228
-0.10069144 -0.36622953 0.050901841
-0.10085948 -0.36633563 0.050893873
-0.1010308 -0.36644182 0.050899751
-0.10118712 -0.36654773 0.050840996
-0.10135492 -0.36665204 0.050844595
-0.10152237 -0.36675826 0.050833162
-0.1016918 -0.36686456 0.050829813
-0.10185772 -0.36697078 0.050811458
-0.10202623 -0.36707896 0.050790772
-0.10218661 -0.36718139 0.050774753
-0.10233787 -0.36728528 0.050707933
-0.10251736 -0.36739218 0.050744984
-0.10267705 -0.36749825 0.050700072
-0.1028664 -0.36760759 0.050763655
-0.10303329 -0.36771408 0.050747599
-0.10317857 -0.36781764 0.050656535
-0.10335058 -0.36792621 0.050648544
-0.10350068 -0.36802822 0.050589822
-0.10367788 -0.36813372 0.050626889
-0.10384293 -0.36824021 0.050602756
-0.10402128 -0.36834592 0.05064328
-0.1041859 -0.36845246 0.050616838
-0.10435484 -0.36856106 0.050594997
-0.10451315 -0.36866546 0.050555877
-0.10467237 -0.36876994 0.050520219
-0.10482305 -0.36887541 0.050439522
-0.10501198 -0.36898237 0.050518136
-0.10517424 -0.36909053 0.050469745
-0.10534002 -0.36919731 0.05044676
-0.10549962 -0.36930025 0.050423816
-0.10566635 -0.36940551 0.050415855
-0.10584827 -0.36951393 0.050452888
-0.10601804 -0.36962128 0.050443761
-0.1061792 -0.36972776 0.050402306
-0.10635033 -0.36983368 0.050409351
-0.106515 -0.36994222 0.050369039
-0.10667281 -0.37004516 0.050338015
-0.10682461 -0.37015066 0.050261945
-0.10701755 -0.37025917 0.050347459
-0.10718276 -0.37036625 0.050319858
-0.10734773 -0.37047172 0.050302662
-0.1075063 -0.37057805 0.050250825
-0.10768136 -0.3706848 0.050269403
-0.1078538 -0.37079445 0.05025563
-0.10800454 -0.3708967 0.050198056
-0.10817252 -0.37100583 0.050168127
-0.10835437 -0.37111211 0.050220191
-0.10851773 -0.37121919 0.050184511
-0.10869618 -0.37132981 0.050190356
-0.10886413 -0.37143603 0.050181232
-0.109008 -0.37154049 0.050077453
-0.10918452 -0.37164944 0.050086778
-0.10935467 -0.37175605 0.05008458
-0.10951436 -0.37185967 0.050057013
-0.10970411 -0.37197071 0.050110184
-0.10986228 -0.37207419 0.050076846
-0.11002792 -0.37218335 0.050036527
-0.11019926 -0.37229034 0.050036635
-0.11036059 -0.37239289 0.050024081
-0.11052799 -0.37249941 0.050010346
-0.11069623 -0.37260756 0.049988497
-0.11085652 -0.37271449 0.049940117
-0.11101716 -0.37282148 0.049892895
-0.11119044 -0.37292758 0.049908012
-0.11136211 -0.3730379 0.049886156
-0.11151937 -0.37314147 0.049848191
-0.11171569 -0.37325597 0.049905952
-0.11187984 -0.3733637 0.049869101
-0.1120391 -0.37346771 0.049836919
-0.11221416 -0.37357593 0.049845088
-0.11237247 -0.37367982 0.049809437
-0.1125235 -0.37378389 0.049740311
-0.1127065 -0.37389362 0.04977271
-0.11288887 -0.37400478 0.049792401
-0.11305494 -0.37411305 0.049760167
-0.11320215 -0.37421507 0.049688749
-0.1133636 -0.37432107 0.049651925
-0.11356276 -0.3744356 0.049722373
-0.11369815 -0.37453538 0.049614035
-0.11387993 -0.37464535 0.049639508
-0.1140664 -0.37475631 0.049678825
-0.11421435 -0.37485993 0.049599305
-0.11440075 -0.37497097 0.049637467
-0.11454777 -0.37507579 0.049545243
-0.11473028 -0.3751862 0.049570709
-0.11488971 -0.37529212 0.049525801
-0.11505798 -0.37539983 0.049507432
-0.11520365 -0.37550297 0.049420998
-0.11541423 -0.37562072 0.049519118
-0.11557935 -0.37572789 0.04949037
-0.11574882 -0.37583601 0.049474295
-0.11593099 -0.37594816 0.0494859
-0.11608502 -0.37605315 0.04942368
-0.11625792 -0.37616211 0.049416844
-0.11642147 -0.37626913 0.04938231
-0.11661161 -0.37638187 0.04942508
-0.11679126 -0.37649247 0.049436688
-0.11694445 -0.37659869 0.049361769
-0.11709788 -0.37670231 0.049306497
-0.1172992 -0.37681913 0.049369998
-0.11744234 -0.37692183 0.04927548
-0.11762346 -0.37703434 0.049280148
-0.11778401 -0.37713963 0.049244482
-0.11796702 -0.37725264 0.049253765
-0.11814613 -0.37736353 0.049260762
-0.11833442 -0.37747791 0.049283881
-0.1184892 -0.37758332 0.049221668
-0.11866668 -0.37769404 0.04922289
-0.11881655 -0.37779835 0.049146827
-0.11901256 -0.37791348 0.04919881
-0.11916962 -0.37801951 0.049142353
-0.11935008 -0.3781324 0.049141243
-0.1195132 -0.37823868 0.049110189
-0.11969267 -0.37835142 0.049105618
-0.11985758 -0.37845945 0.049069926
-0.12003486 -0.3785705 0.049067684
-0.12019441 -0.37867731 0.04901699
-0.12038977 -0.37879413 0.049053945
-0.12054178 -0.37889913 0.048982501
-0.12072676 -0.37901354 0.048990611
-0.12090646 -0.3791292 0.048966393
-0.12108556 -0.37924352 0.048949108
-0.12125416 -0.37935027 0.048938822
-0.12140641 -0.37945542 0.048867375
-0.1216144 -0.37957349 0.048951648
-0.030055046 -0.32113701 0.05779206
-0.030257881 -0.32127038 0.057744566
-0.030451432 -0.32139063 0.057749152
-0.030673653 -0.32154787 0.057618305
-0.03088212 -0.32168654 0.05755806
-0.031073555 -0.32180679 0.057553403
-0.031258825 -0.32191959 0.05757422
-0.031441256 -0.32202899 0.057606623
-0.031644106 -0.32216141 0.057566062
-0.031822775 -0.32226634 0.057613511
-0.032042772 -0.32242021 0.057496555
-0.032237835 -0.32254565 0.057471067
