# .PCD v0.7 - Point Cloud Data file format
VERSION 0.7
FIELDS x y z
SIZE 4 4 4
TYPE F F F
COUNT 1 1 1
WIDTH 1312
HEIGHT 1
VIEWPOINT 0 0 0 1 0 0 0
POINTS 1312
DATA ascii
-0.092875674 -0.33109263 0.053635068
-0.093034536 -0.33119255 0.053635385
-0.093206137 -0.33130017 0.053637944
-0.093388796 -0.33140472 0.053707413
-0.093566023 -0.33151639 0.053706482
-0.093695007 -0.33161673 0.053578816
-0.093855061 -0.33172107 0.053554893
-0.094027601 -0.33182666 0.053574763
-0.094186991 -0.33193108 0.053547375
-0.094350457 -0.33203739 0.053524584
-0.094498768 -0.33214039 0.053460315
-0.094671756 -0.33224195 0.053509042
-0.094867319 -0.3323487 0.053617693
-0.095046632 -0.33246067 0.053623676
-0.095177345 -0.33256245 0.053493693
-0.095332056 -0.33266515 0.053458251
-0.095508881 -0.33277518 0.053466558
-0.095678687 -0.33287942 0.053484134
-0.095796123 -0.33298132 0.053297661
-0.095993623 -0.33309487 0.053369351
-0.096156463 -0.33319938 0.053355806
-0.096325405 -0.33329579 0.053421874
-0.096483216 -0.33340651 0.053346001
-0.096659616 -0.33351487 0.053363554
-0.096822575 -0.33362746 0.053296894
-0.096966296 -0.33372444 0.053253427
-0.097117499 -0.33382526 0.05321569
-0.09727329 -0.33392414 0.053210258
-0.097441509 -0.33403274 0.053192057
-0.097605772 -0.33413556 0.053195808
-0.097792625 -0.33423856 0.053292964
-0.097964503 -0.33435121 0.053263191
-0.098143145 -0.33446014 0.053286504
-0.098296061 -0.33455926 0.053267226
-0.098472267 -0.33467585 0.053229362
-0.098619178 -0.33477867 0.053160474
-0.098791234 -0.33488014 0.053205758
-0.098940939 -0.3349849 0.053135704
-0.099105358 -0.33508816 0.053137153
-0.09924069 -0.33518869 0.053034846
-0.099439196 -0.33529869 0.05313424
-0.099594697 -0.33540362 0.053087249
-0.099746525 -0.33551386 0.052989487
-0.099880241 -0.33561599 0.052869879
-0.10004835 -0.3357141 0.052920938
-0.10026091 -0.33582169 0.053095303
-0.10041358 -0.33593196 0.053000987
-0.10055111 -0.33603597 0.052884825
-0.1007418 -0.33614105 0.05298426
-0.10093002 -0.3362515 0.053037535
-0.10109025 -0.33636391 0.052960496
-0.10125052 -0.33646923 0.052930798
-0.10142964 -0.33657932 0.052948326
-0.10158221 -0.33667895 0.052924443
-0.10175968 -0.33678558 0.052958142
-0.10190058 -0.33689135 0.052844275
-0.10206009 -0.33699501 0.052822657
-0.10223091 -0.33710298 0.052819446
-0.10240024 -0.33721089 0.052810479
-0.10257496 -0.33732274 0.052798018
-0.10272122 -0.33742028 0.052761458
-0.10290201 -0.3375276 0.052804381
-0.10305294 -0.33763069 0.052750487
-0.1032072 -0.33773744 0.052686185
-0.10338448 -0.3378396 0.052748747
-0.10352755 -0.33794364 0.052655645
-0.10368152 -0.33805367 0.052568253
-0.10384879 -0.33816168 0.052550059
-0.10402989 -0.33826452 0.052624151
-0.10418899 -0.33837014 0.052587532
-0.10436666 -0.33847779 0.052615453
-0.10453314 -0.33858755 0.052582256
-0.10470387 -0.33869618 0.052574433
-0.10487121 -0.33880284 0.052565478
-0.10504819 -0.33890742 0.052610721
-0.10522658 -0.33902037 0.052606322
-0.10538121 -0.33912888 0.052531626
-0.10555778 -0.33923686 0.05255264
-0.10571574 -0.3393442 0.052499861
-0.10588086 -0.33945087 0.052481677
-0.10602634 -0.33955345 0.052408181
-0.10622762 -0.33966643 0.052499484
-0.10638329 -0.33977354 0.052438639
-0.10653503 -0.33987227 0.052417062
-0.10669385 -0.3399767 0.052387372
-0.10685271 -0.34008271 0.052347288
-0.10702113 -0.34019005 0.052338317
-0.10719781 -0.34029859 0.052355863
-0.10736536 -0.34040749 0.052333053
-0.10756306 -0.34051922 0.052417435
-0.1077107 -0.34062684 0.052319698
-0.10786013 -0.34073314 0.052238103
-0.10804066 -0.34084255 0.052266013
-0.10818789 -0.34094852 0.052177504
-0.10838534 -0.34106219 0.052248046
-0.10853186 -0.34116805 0.052157231
-0.10872285 -0.34127939 0.052216254
-0.10888253 -0.34138432 0.052186556
-0.10903197 -0.34148318 0.052154601
-0.10920422 -0.34159172 0.052153699
-0.10936989 -0.34169924 0.052132059
-0.10955045 -0.34181076 0.052146114
-0.10972476 -0.3419213 0.052140582
-0.1099043 -0.34203133 0.05216042
-0.11008739 -0.34214497 0.052171007
-0.11023767 -0.34225008 0.052100949
-0.11041153 -0.34235927 0.05210235
-0.11057995 -0.34246904 0.052077219
-0.11072372 -0.34257299 0.05198757
-0.11090222 -0.34268028 0.052021265
-0.11105604 -0.34278604 0.05196159
-0.11123762 -0.3428998 0.051965248
-0.11139188 -0.34300566 0.051906724
-0.11155114 -0.34311104 0.051872406
-0.11172927 -0.34322 0.051893409
-0.11190569 -0.34333014 0.051899411
-0.11207997 -0.34344134 0.051889256
-0.11226025 -0.34355235 0.051905632
-0.11243166 -0.34366453 0.051877026
-0.1125972 -0.343777 0.051821891
-0.11277387 -0.34388605 0.051835977
-0.11294635 -0.34399855 0.051809676
-0.11313827 -0.34411362 0.051847912
-0.1132879 -0.34421605 0.051792875
-0.11345012 -0.34432244 0.051764317
-0.11362788 -0.34443617 0.051751841
-0.11379316 -0.34454188 0.051740583
-0.11393104 -0.34464195 0.051652126
-0.11412023 -0.34475684 0.051679987
-0.11427868 -0.34486398 0.05163068
-0.11446372 -0.34497675 0.051655099
-0.11466299 -0.3450954 0.051700234
-0.11477759 -0.3451905 0.051547248
-0.11497213 -0.34530821 0.051578555
-0.11516616 -0.34542459 0.051616784
-0.11532085 -0.34553111 0.051555943
-0.11549176 -0.34563982 0.05154812
-0.11566129 -0.34575099 0.051518369
-0.11584114 -0.3458645 0.051516272
-0.11600202 -0.34596848 0.051498108
-0.11619517 -0.34608778 0.051513258
-0.11636731 -0.34619972 0.051489271
-0.1165334 -0.34630767 0.051466465
-0.11670287 -0.34641775 0.051443636
-0.11688085 -0.34652594 0.051469255
-0.11706568 -0.346641 0.051477522
-0.11721785 -0.34674853 0.05139938
-0.11739151 -0.34685847 0.051395003
-0.11758758 -0.34697768 0.051422838
-0.026391022 -0.28828529 0.060055062
-0.026611973 -0.28844118 0.059943106
-0.026791871 -0.28854758 0.059988365
-0.026952479 -0.2886273 0.060130715
-0.027132645 -0.28876129 0.059993565
-0.027383283 -0.28892857 0.059929933
-0.027579743 -0.28905654 0.05990123
-0.027764369 -0.28916717 0.059938386
-0.02797519 -0.28931385 0.059844952
-0.028161746 -0.28942952 0.059856702
-0.028364845 -0.2895667 0.059794471
-0.028559446 -0.2896907 0.059784245
-0.028748181 -0.2898072 0.059799448
-0.028951894 -0.28994337 0.059746452
-0.029141624 -0.2900638 0.059739716
-0.029329326 -0.29017928 0.059757225
-0.029520474 -0.29030183 0.059742406
-0.029725183 -0.29043999 0.059680164
-0.029913627 -0.29055926 0.059675738
-0.030106358 -0.29068193 0.059666678
-0.030289274 -0.29079407 0.059686534
-0.030504938 -0.29094765 0.059567668
-0.030680384 -0.29105005 0.059621044
-0.030887108 -0.29119211 0.059541471
-0.031068351 -0.2913025 0.059565954
-0.031251755 -0.2914134 0.059596188
-0.031452317 -0.29155016 0.059525892
-0.031652447 -0.29168409 0.059472919
-0.031821724 -0.291776 0.059570193
-0.032015145 -0.29190102 0.059548423
-0.032201901 -0.29201955 0.059541702
-0.032411069 -0.29216662 0.059439041
-0.032601029 -0.29228997 0.059413828
-0.032792613 -0.29241312 0.059396684
-0.032985549 -0.29254094 0.059354134
-0.033168614 -0.29265246 0.059378605
-0.033353072 -0.29276869 0.059377663
-0.033556569 -0.29290923 0.05929466
-0.033735111 -0.29301742 0.05932261
-0.03392772 -0.29314294 0.059293918
-0.034124915 -0.29327518 0.059239805
-0.034311432 -0.29339236 0.059241168
-0.034493968 -0.29350668 0.059244849
-0.034675699 -0.29361722 0.059270479
-0.034870319 -0.29374921 0.059207141
-0.035063162 -0.29387611 0.059170373
-0.0352377 -0.29398209 0.05919604
-0.035430409 -0.2941063 0.059176572
-0.035609566 -0.29421642 0.05919414
-0.035805747 -0.2943489 0.05913426
-0.035993997 -0.29447272 0.059098661
-0.036181331 -0.2945925 0.059086166
-0.036364734 -0.29470944 0.059075989
-0.03655313 -0.2948311 0.05905541
-0.036730636 -0.29493949 0.059077591
-0.036921471 -0.2950651 0.05904083
-0.037107151 -0.2951861 0.059013322
-0.037300844 -0.29531649 0.058956917
-0.037487451 -0.29543927 0.058921341
-0.037668753 -0.29555109 0.058936574
-0.037850417 -0.29566661 0.058928721
-0.038029049 -0.29577449 0.058958981
-0.038219795 -0.29590127 0.05891414
-0.038406402 -0.29602492 0.058872782
-0.038592245 -0.29614446 0.058855668
-0.038768724 -0.29625255 0.05887555
-0.038966075 -0.29639059 0.058783337
-0.03915352 -0.29651323 0.058752362
-0.039333336 -0.29662704 0.058747984
-0.039508916 -0.29673421 0.05877018
-0.039699379 -0.29686221 0.058716096
-0.039878931 -0.29697603 0.058710568
-0.040056631 -0.29708368 0.05873853
-0.040241797 -0.29720694 0.058693714
-0.040422879 -0.29732037 0.058697402
-0.040604949 -0.29743889 0.05867108
-0.040786095 -0.2975527 0.058672458
-0.040971797 -0.29767421 0.058641501
-0.041159444 -0.29779923 0.05859552
-0.041337021 -0.29791096 0.058595765
-0.041527841 -0.29804176 0.05852437
-0.041699626 -0.29814395 0.058563899
-0.041876741 -0.29825175 0.058588393
-0.042060979 -0.29837546 0.058536664
-0.042246372 -0.29849783 0.05849877
-0.042434976 -0.29862967 0.058411218
-0.04261665 -0.29874608 0.058397591
-0.042785741 -0.29884413 0.058453299
-0.042972527 -0.29896981 0.058399245
-0.043151889 -0.2990863 0.058375236
-0.043327652 -0.2991927 0.058403201
-0.043497309 -0.29929197 0.058453139
-0.043678284 -0.29940793 0.058439516
-0.043862864 -0.29953066 0.058395863
-0.044057563 -0.29967225 0.05826902
-0.044238657 -0.29979312 0.058223072
-0.044413358 -0.29989836 0.058254518
-0.044584092 -0.30000022 0.058291737
-0.044757351 -0.3001028 0.058334731
-0.044915512 -0.30021372 0.058258876
-0.045098796 -0.30033565 0.058215231
-0.045280993 -0.30044317 0.058262788
-0.045482077 -0.30058306 0.058174022
-0.0456542 -0.30068821 0.058195077
-0.045834702 -0.3008056 0.058169916
-0.046011291 -0.30091983 0.058149386
-0.046190068 -0.30103421 0.058136933
-0.046363235 -0.30114195 0.058145285
-0.046542659 -0.30125794 0.05812474
-0.046719205 -0.30137283 0.058099598
-0.046896864 -0.30148566 0.058092915
-0.047072165 -0.30159837 0.058077019
-0.047251254 -0.30171451 0.058054164
-0.047429584 -0.30183399 0.058005922
-0.047614403 -0.30196276 0.057923004
-0.047785953 -0.30206844 0.0579383
-0.047960646 -0.30217609 0.057953566
-0.048137587 -0.30229366 0.05791226
-0.04831221 -0.30240142 0.057926375
-0.048482589 -0.30250499 0.057950914
-0.04866112 -0.30262163 0.057922289
-0.048833512 -0.3027299 0.057923723
-0.049015574 -0.30285504 0.057853527
-0.049185939 -0.30295908 0.057874594
-0.049363792 -0.30307516 0.057847131
-0.049538705 -0.30319005 0.057815071
-0.049710028 -0.30329126 0.05785922
-0.049873576 -0.30339622 0.057845682
-0.05006741 -0.30353466 0.057736173
-0.050240077 -0.30364519 0.057723746
-0.050415434 -0.30375674 0.05771593
-0.050587129 -0.30386525 0.057712741
-0.050759755 -0.3039763 0.057696849
-0.050932001 -0.30408657 0.057684436
-0.051074229 -0.3041814 0.057649076
-0.05122688 -0.30427861 0.057641365
-0.051454928 -0.30442232 0.057640202
-0.051626209 -0.30453095 0.057634711
-0.051802602 -0.30464697 0.057601489
-0.051972762 -0.30475298 0.057608701
-0.052149784 -0.30487126 0.057562768
-0.052321054 -0.30498075 0.057551507
-0.052495848 -0.3050935 0.057533301
-0.052665357 -0.3051984 0.057545133
-0.052839115 -0.30530858 0.057539634
-0.053012863 -0.30542621 0.057484485
-0.05318309 -0.30553383 0.057481311
-0.053352665 -0.30563965 0.057487369
-0.053523399 -0.30574152 0.057524599
-0.053697996 -0.30586314 0.057446361
-0.053844851 -0.30595344 0.057460617
-0.054042585 -0.3060855 0.057409968
-0.054217152 -0.30620036 0.057376746
-0.054388165 -0.30631226 0.057348169
-0.054560412 -0.30642012 0.05735191
-0.054731376 -0.30653253 0.057319857
-0.054902516 -0.3066459 0.057282045
-0.055061981 -0.30674571 0.057285853
-0.055245966 -0.30686891 0.057236426
-0.055390075 -0.3069604 0.057231076
-0.055564057 -0.30706659 0.057253275
-0.055752318 -0.30718747 0.057237308
-0.055926055 -0.30730319 0.057194851
-0.05609595 -0.30741456 0.057165131
-0.056260478 -0.30750453 0.057255499
-0.056431819 -0.3076224 0.057188816
-0.056604877 -0.30773699 0.057150986
-0.05677072 -0.30784392 0.05713398
-0.056932222 -0.30795574 0.057066195
-0.057069395 -0.30803075 0.057141691
-0.057277828 -0.30816138 0.057145249
-0.057428822 -0.3082763 0.057012867
-0.057606895 -0.30839232 0.056986555
-0.057780888 -0.30850196 0.056985669
-0.057923749 -0.3085776 0.057080768
-0.058109913 -0.30870861 0.056988619
-0.058275092 -0.30880055 0.057068594
-0.058464535 -0.30893639 0.056957945
-0.05862651 -0.30904227 0.056931719
-0.058793642 -0.3091462 0.056940101
-0.05894614 -0.30924612 0.056913927
-0.059116136 -0.30935097 0.056928068
-0.059308644 -0.30947557 0.05690515
-0.059467275 -0.30958074 0.056869704
-0.059643228 -0.30968884 0.056887276
-0.059811935 -0.30980781 0.056802139
-0.059978053 -0.30990642 0.056841705
-0.060116477 -0.30998826 0.056876786
-0.060296595 -0.31010973 0.056822754
-0.060476165 -0.31022722 0.056792982
-0.06064339 -0.31033832 0.056754027
-0.060816303 -0.310449 0.056741606
-0.060986504 -0.31056353 0.056692243
-0.06115298 -0.31066912 0.056686789
-0.061319474 -0.31077579 0.056674391
-0.061485849 -0.3108815 0.056667767
-0.061652012 -0.3109841 0.056680769
-0.06181844 -0.31109333 0.05665106
-0.06198743 -0.31119269 0.056697536
-0.062153865 -0.3113066 0.056636654
-0.062320024 -0.31141561 0.056606941
-0.062486 -0.31151882 0.05661533
-0.062645838 -0.31162232 0.056596044
-0.062790237 -0.31171158 0.056606859
-0.062986799 -0.31184012 0.05657468
-0.063149378 -0.31195158 0.056513816
-0.063311934 -0.31205747 0.0564899
-0.063483745 -0.31216419 0.05649941
-0.063652478 -0.31226894 0.056508943
-0.063800029 -0.31235394 0.056561306
-0.063983344 -0.31248245 0.056473773
-0.064147413 -0.31260875 0.056320541
-0.064316683 -0.3127017 0.056410883
-0.064482056 -0.31280538 0.056413505
-0.064625576 -0.31290016 0.056383915
-0.064792626 -0.31301945 0.056289546
-0.064953029 -0.31310597 0.056385711
-0.065117352 -0.31321767 0.056330606
-0.065303616 -0.31333712 0.056315802
-0.065468095 -0.31344545 0.056283794
-0.065638505 -0.31355804 0.056248285
-0.065787867 -0.31365421 0.056233667
-0.065968439 -0.3137649 0.05625353
-0.066123821 -0.31386489 0.05623889
-0.066300489 -0.31397846 0.056222975
-0.066465564 -0.31408057 0.056234844
-0.06663011 -0.31418547 0.056225922
-0.06679187 -0.31428689 0.056228556
-0.066943303 -0.31438801 0.056189686
-0.067124911 -0.31450921 0.056143735
-0.067288682 -0.31461623 0.056117497
-0.067437559 -0.31471196 0.056104034
-0.067611083 -0.31482163 0.056100842
-0.067757867 -0.31491137 0.05611857
-0.067937002 -0.31502649 0.056102641
-0.068090536 -0.31513053 0.05605337
-0.068256266 -0.31522924 0.056090631
-0.068405412 -0.31533518 0.056010209
-0.068539396 -0.3154425 0.055857129
-0.068725869 -0.31555566 0.055885047
-0.06892141 -0.3156749 0.055910602
-0.069095567 -0.31578118 0.055932797
-0.069242962 -0.31586868 0.055967841
-0.069413602 -0.31597462 0.055977367
-0.069574863 -0.31607556 0.055981163
-0.069744162 -0.31619471 0.055897173
-0.069913253 -0.31630421 0.055876683
-0.07006263 -0.31639642 0.055888623
-0.070214562 -0.31648263 0.055951342
-0.07040827 -0.31661543 0.055878781
-0.070571616 -0.31671992 0.055867553
-0.07073313 -0.31682831 0.055822857
-0.070886508 -0.3169286 0.05579783
-0.071038529 -0.31702334 0.055803981
-0.07121481 -0.31713337 0.055810012
-0.071382225 -0.31724513 0.055767588
-0.071546093 -0.31735566 0.055718273
-0.071680516 -0.31744522 0.055685259
-0.071841359 -0.31754589 0.055689059
-0.072004803 -0.31764922 0.055685919
-0.072188266 -0.31776795 0.055664204
-0.072349496 -0.31787491 0.055627581
-0.072503686 -0.3179726 0.055623338
-0.072670661 -0.31807676 0.05562941
-0.072860703 -0.31819808 0.055618055
-0.073021539 -0.31830513 0.055579133
-0.073186442 -0.31841236 0.055556357
-0.073338345 -0.3185195 0.055479385
-0.073485993 -0.3186011 0.05555483
-0.073676527 -0.31872135 0.055552706
-0.073825136 -0.31882644 0.055475749
-0.07396628 -0.31892335 0.055421919
-0.074147977 -0.31901947 0.055543374
-0.074301764 -0.31912902 0.055458315
-0.074485645 -0.31924021 0.055488545
-0.074643858 -0.31934944 0.055424243
-0.074803397 -0.31944564 0.055452287
-0.074949481 -0.31953594 0.055463091
-0.075103231 -0.31964999 0.055348013
-0.075283453 -0.31976011 0.055370178
-0.075442091 -0.31986803 0.055316262
-0.075613469 -0.31997222 0.055340786
-0.075777426 -0.32007936 0.055314552
-0.075946398 -0.32018617 0.055311382
-0.076097034 -0.32027674 0.055339482
-0.076249644 -0.32038036 0.05528906
-0.076413982 -0.32048687 0.055268589
-0.076589823 -0.32059178 0.055306952
-0.076750152 -0.32069731 0.055276111
-0.076906845 -0.32080144 0.055239525
-0.077090979 -0.32092232 0.055206262
-0.077244245 -0.32101542 0.055228572
-0.077397704 -0.32112217 0.05516082
-0.077569582 -0.32123083 0.055157647
-0.077737644 -0.3213338 0.055176415
-0.077899195 -0.32143784 0.055160582
-0.078051187 -0.32153657 0.055140175
-0.078212202 -0.32163665 0.055148587
-0.078373373 -0.3217538 0.055043869
-0.078540564 -0.32184476 0.055138834
-0.078697324 -0.32195237 0.055079155
-0.078874476 -0.32206124 0.055096731
-0.079027079 -0.32216346 0.055055544
-0.079182111 -0.32226792 0.055009726
-0.079350375 -0.32237101 0.055028491
-0.079518415 -0.32246631 0.055098068
-0.079717524 -0.32255259 0.055357978
-0.079870708 -0.32266244 0.055268295
-0.080027357 -0.32276985 0.055209767
-0.080203228 -0.32286471 0.055315088
-0.080362439 -0.32296661 0.055303883
-0.080530308 -0.32305172 0.055440415
-0.080688275 -0.32315457 0.055417676
-0.080845006 -0.32326928 0.055310659
-0.080996841 -0.32337552 0.055239461
-0.081147686 -0.32348222 0.055161335
-0.081307314 -0.32359457 0.055082019
-0.081457809 -0.32370466 0.054979652
-0.081614003 -0.32381141 0.054923438
-0.081768312 -0.32391906 0.05485338
-0.081922188 -0.32402676 0.05478102
-0.082086064 -0.32413611 0.054739773
-0.082244292 -0.32424137 0.054702025
-0.082397133 -0.32434583 0.05464698
-0.08254467 -0.32445613 0.054530773
-0.082708932 -0.32456154 0.054517239
-0.082867332 -0.32466638 0.054482952
-0.08302933 -0.32477608 0.054431323
-0.083187006 -0.32487789 0.054414358
-0.083349802 -0.32498065 0.054412372
-0.083515719 -0.32508206 0.054432314
-0.083679803 -0.32518753 0.054417618
-0.08386559 -0.32528397 0.054554068
-0.08404506 -0.32538649 0.05462357
-0.084228098 -0.3254784 0.054778501
-0.084385112 -0.32559642 0.054650702
-0.084537968 -0.32571268 0.05451715
-0.084702946 -0.32581803 0.054507077
-0.084866896 -0.32592377 0.054490078
-0.085037827 -0.32603598 0.054459192
-0.085196972 -0.32614043 0.054430667
-0.085357517 -0.3262473 0.054391745
-0.08549948 -0.32634875 0.054311365
-0.085667163 -0.32644728 0.054357842
-0.085840747 -0.32655564 0.054363884
-0.085995138 -0.32665291 0.054363105
-0.086154684 -0.3267543 0.054356515
-0.086337119 -0.32686007 0.054416776
-0.086501457 -0.32697144 0.054363988
-0.086658992 -0.32706794 0.054381654
-0.086824946 -0.32717043 0.054394662
-0.086973451 -0.32727787 0.054301545
-0.087144457 -0.32738996 0.054271806
-0.087302104 -0.32749745 0.054216746
-0.087457001 -0.3275975 0.054199789
-0.087613069 -0.32770258 0.054153964
-0.087776795 -0.32780039 0.054188922
-0.08795093 -0.32791167 0.054177646
-0.088115342 -0.32801476 0.054180276
-0.088264473 -0.32811359 0.05414718
-0.088427939 -0.32821953 0.054126725
-0.088593498 -0.32831728 0.054169748
-0.088770665 -0.32842803 0.054174621
-0.088919304 -0.3285321 0.054104596
-0.089097768 -0.32864267 0.054116379
-0.0892509 -0.32875076 0.054038249
-0.089404479 -0.32884616 0.054046705
-0.089572512 -0.32894632 0.054083947
-0.089733168 -0.32905293 0.054047339
-0.089884505 -0.32915625 0.053993456
-0.090048276 -0.32925981 0.053990312
-0.090209924 -0.32936132 0.053991795
-0.090389252 -0.32946479 0.054054387
-0.090552792 -0.32957095 0.054032765
-0.090708137 -0.3296808 0.053952314
-0.090867415 -0.32978758 0.053908784
-0.09102992 -0.32989624 0.05386639
-0.091174304 -0.3299886 0.053856425
-0.091360807 -0.3301056 0.053858936
-0.091527991 -0.3302066 0.053886946
-0.091684423 -0.33031142 0.053844586
-0.091825873 -0.33040887 0.05378845
-0.091998011 -0.33051631 0.053794492
-0.092158534 -0.33061832 0.053787906
-0.092327796 -0.33072844 0.053763952
-0.092493787 -0.33083218 0.053768877
-0.092658907 -0.33093604 0.05376919
-0.092818625 -0.3310405 0.053742979
-0.092973769 -0.33114764 0.053679843
-0.093116671 -0.3312448 0.053631779
-0.093307555 -0.33135086 0.053725474
-0.093450479 -0.3314546 0.053633548
-0.093624003 -0.33155581 0.053686917
-0.093798518 -0.33167654 0.053614452
-0.093946822 -0.33177328 0.053591762
-0.094123892 -0.33186802 0.053702842
-0.094287649 -0.33198094 0.053637356
-0.094481781 -0.33209616 0.053683702
-0.094618343 -0.33220005 0.05356409
-0.094775245 -0.33230484 0.05352404
-0.09492752 -0.33240354 0.053504791
-0.095088765 -0.33250603 0.05349819
-0.095254444 -0.33260834 0.053511202
-0.095420733 -0.33271068 0.053526517
-0.095585383 -0.3328214 0.053479496
-0.095749535 -0.33292186 0.053498294
-0.095899731 -0.33302692 0.053428248
-0.096062675 -0.33313358 0.053400867
-0.096226119 -0.33323622 0.053402342
-0.096382447 -0.33333907 0.053372681
-0.096534356 -0.33344796 0.053284168
-0.096708924 -0.33355051 0.053332921
-0.096870385 -0.33365729 0.053298622
-0.097037807 -0.33375812 0.053328931
-0.097205974 -0.33386683 0.053309612
-0.097307682 -0.33396405 0.053088576
-0.097496472 -0.3340669 0.053194985
-0.09772642 -0.33417588 0.0534328
-0.097874403 -0.33428857 0.053302735
-0.098024651 -0.33439347 0.053233851
-0.098190546 -0.33450234 0.053204142
-0.098354831 -0.33460361 0.053218313
-0.098531343 -0.33471084 0.053243972
-0.098688945 -0.33481589 0.053205065
-0.098869242 -0.33492896 0.05320761
-0.098999977 -0.33502954 0.053085718
-0.099130414 -0.33512631 0.052988071
-0.099315956 -0.3352285 0.05308526
-0.099501655 -0.33533821 0.053132813
-0.099643983 -0.3354409 0.053045493
-0.099802986 -0.33554786 0.052999653
-0.099989921 -0.33565786 0.05305066
-0.10017408 -0.33577147 0.053065889
-0.10030451 -0.3358717 0.052945148
-0.10050207 -0.33598787 0.05299956
-0.1006499 -0.33609071 0.052934155
-0.10081272 -0.33619261 0.052937943
-0.10096636 -0.33629048 0.052930232
-0.10113826 -0.33639482 0.052955903
-0.10128564 -0.33650294 0.052853562
-0.1014263 -0.33660528 0.052761633
-0.1016215 -0.3367078 0.052896872
-0.10179355 -0.33681414 0.052909851
-0.10195888 -0.33692354 0.052874368
-0.10211799 -0.33702725 0.05285047
-0.10226139 -0.33713323 0.052745827
-0.10244007 -0.33723852 0.052793406
-0.10260595 -0.33734289 0.052793715
-0.10274577 -0.33744678 0.052687939
-0.1029138 -0.33754796 0.052718259
-0.10310888 -0.33766013 0.05278885
-0.10325605 -0.33776468 0.052709591
-0.10341825 -0.33786723 0.05270645
-0.10357635 -0.33797777 0.052632917
-0.10375623 -0.33808714 0.052658547
-0.10392235 -0.33819684 0.052624222
-0.10405734 -0.33829507 0.052535787
-0.10422561 -0.33840007 0.052541863
-0.10440546 -0.33850473 0.052598674
-0.10456917 -0.33861101 0.052577052
-0.10474251 -0.33871678 0.052599266
-0.10491063 -0.33882201 0.052603025
-0.10508223 -0.33893257 0.052585989
-0.10525711 -0.33904034 0.052601255
-0.10538825 -0.33914292 0.052467819
-0.10554951 -0.33924747 0.052447371
-0.10573763 -0.33935699 0.052506439
-0.10590817 -0.33946604 0.052495185
-0.1060594 -0.33957103 0.052429758
-0.10623556 -0.33967927 0.05244733
-0.10639933 -0.33978435 0.052433796
-0.10655792 -0.33988881 0.052402977
-0.10671692 -0.33999646 0.052352522
-0.10689531 -0.34010366 0.052386247
-0.10705972 -0.34021211 0.052353084
-0.10720541 -0.34031484 0.052279606
-0.10738622 -0.34042722 0.052289076
-0.10752441 -0.3405273 0.052201778
-0.10770719 -0.34064004 0.052217014
-0.10789143 -0.34074849 0.052266873
-0.10805381 -0.34085378 0.052246414
-0.1082288 -0.34096405 0.05224552
-0.10839938 -0.34107065 0.05225043
-0.10854568 -0.34117204 0.052188493
-0.10873653 -0.34128344 0.052246399
-0.10889825 -0.34139335 0.052192464
-0.10907543 -0.34150273 0.052206568
-0.10922357 -0.34160596 0.052140009
-0.10938659 -0.34171164 0.052119553
-0.1095527 -0.34181786 0.05210831
-0.10972057 -0.34192294 0.052112084
-0.10989725 -0.34203255 0.052122727
-0.1100508 -0.34213969 0.052052669
-0.11023089 -0.34225145 0.052063294
-0.11040413 -0.34236062 0.052062415
-0.11057803 -0.34247142 0.05205344
-0.11072989 -0.34257543 0.051997252
-0.11089085 -0.34268397 0.051949099
-0.11106619 -0.34279081 0.051972453
-0.11125264 -0.34290552 0.051989969
-0.11140195 -0.34300914 0.051925711
-0.11157469 -0.34311712 0.051930599
-0.1117314 -0.34322074 0.051897477
-0.11188942 -0.34332603 0.05185857
-0.1120712 -0.34343588 0.051888816
-0.11223898 -0.34354454 0.051868334
-0.11240605 -0.34365311 0.051845543
-0.11258437 -0.34376395 0.051855028
-0.11274976 -0.34387648 0.051798772
-0.11291145 -0.34398407 0.051759847
-0.113076 -0.34409091 0.051738225
-0.11326821 -0.34420472 0.051785737
-0.11339808 -0.34430319 0.051674239
-0.11357225 -0.34441209 0.051679131
-0.11375798 -0.34452757 0.051688574
-0.11393654 -0.34464025 0.051686503
-0.11410213 -0.34474754 0.051666033
-0.11426541 -0.34485164 0.051657118
-0.1144308 -0.34495899 0.051635496
-0.11461867 -0.34507251 0.051666863
-0.11477427 -0.34517783 0.051617589
-0.11494976 -0.34529155 0.051595904
-0.11511224 -0.34540382 0.051529266
-0.11530985 -0.34552243 0.051567513
-0.11546804 -0.34562576 0.051542468
-0.115637 -0.34573552 0.05151967
-0.11579271 -0.3458437 0.051451918
-0.11597321 -0.34595343 0.051477544
-0.11615579 -0.34606642 0.051490467
-0.11633036 -0.34617764 0.0514815
-0.116494 -0.34628507 0.051451802
-0.11666068 -0.34639063 0.051447485
-0.1168306 -0.34649962 0.051433917
-0.11699547 -0.34661007 0.05138921
-0.1171411 -0.34671348 0.05131112
-0.11734488 -0.34683183 0.051377043
-0.11752764 -0.34694925 0.051361095
-0.02635365 -0.28826052 0.060063392
-0.026531704 -0.28836423 0.060119059
-0.026722535 -0.28848413 0.060120396
-0.026934355 -0.28863078 0.060031563
-0.027121216 -0.28874591 0.060047939
-0.02730665 -0.28885704 0.060085095
-0.027531702 -0.28902122 0.059935004
-0.02772196 -0.28914112 0.059934042
-0.027921807 -0.28927347 0.059890293
-0.028102472 -0.28938124 0.059929792
-0.028301857 -0.28951329 0.059886061
-0.028498635 -0.28964213 0.059852719
-0.028684046 -0.28975636 0.059869103
-0.028879605 -0.28988394 0.059839241
-0.029078756 -0.29001635 0.059792034
-0.029274818 -0.29014492 0.05975756
-0.029458765 -0.29025772 0.059777413
-0.029644575 -0.29037064 0.059804171
-0.029833537 -0.29049024 0.059799753
-0.030047651 -0.29064336 0.059677422
-0.030226246 -0.29074949 0.059719235
-0.030423705 -0.29087842 0.059688214
-0.030612089 -0.2909978 0.059682637
-0.030813161 -0.29113442 0.059615802
-0.03100016 -0.29125223 0.059614848
-0.031192508 -0.29137743 0.059587307
-0.031381294 -0.29149795 0.059575964
-0.031582832 -0.29163346 0.059518356
-0.031765297 -0.29174563 0.059535906
-0.031961236 -0.29187641 0.059486412
-0.032146417 -0.29199257 0.05948893
-0.032329343 -0.29210314 0.059519179
-0.032527603 -0.29223761 0.059454661
-0.032720059 -0.29236427 0.059417892
-0.03290638 -0.29248253 0.059411176
-0.03309799 -0.2926057 0.059394028
-0.033291806 -0.29273477 0.059346862
-0.033480227 -0.29285645 0.059326269
-0.03365982 -0.2929658 0.059350759
-0.033850219 -0.29308787 0.059335932
-0.034029372 -0.29319677 0.059361588
-0.034207277 -0.29330122 0.059411492
-0.034404419 -0.29343602 0.059340052
-0.034604423 -0.29357246 0.059269749
-0.034771312 -0.2936641 0.059358973
-0.034976579 -0.29381132 0.059238993
-0.03516838 -0.29393929 0.059190676
-0.035358083 -0.2940616 0.059171237
-0.035544217 -0.29418164 0.059151821
-0.035734165 -0.29430464 0.059128907
-0.03590294 -0.29439938 0.059205417
-0.036098171 -0.29453331 0.059131689
-0.036293093 -0.29466707 0.059057947
-0.036471028 -0.29477277 0.059099764
-0.0366547 -0.29489008 0.059088439
-0.036847118 -0.29501772 0.059044741
-0.037030242 -0.29513451 0.059034564
-0.037214607 -0.29525033 0.059035938
-0.037402842 -0.2953752 0.058993418
-0.03758996 -0.29549554 0.058976293
-0.037768606 -0.29560602 0.058989249
-0.037954658 -0.29572499 0.058976758
-0.038144153 -0.29585254 0.058921516
-0.038328711 -0.29596955 0.058915962
-0.038511258 -0.29608664 0.058901183
-0.038698267 -0.29620779 0.058878288
-0.038876474 -0.29631835 0.058888935
-0.039064601 -0.29644156 0.0588568
-0.039254583 -0.29657117 0.058790013
-0.039434414 -0.29668152 0.058808729
-0.039621457 -0.29680684 0.058758136
-0.039795078 -0.29690742 0.058816142
-0.03998559 -0.29703873 0.058740113
-0.040166505 -0.29715136 0.058748432
-0.04035547 -0.29728064 0.058679346
-0.040536426 -0.29739362 0.058685351
-0.040717002 -0.29750949 0.05867058
-0.040894207 -0.29761648 0.05870086
-0.041077502 -0.29773718 0.05866529
-0.041262582 -0.29785761 0.058638938
-0.041443087 -0.2979705 0.058643796
-0.041618731 -0.29807875 0.058659069
-0.041805748 -0.29820299 0.05861539
-0.041998278 -0.29833698 0.058530122
-0.042171128 -0.29844087 0.058562726
-0.042358 -0.29856557 0.058515597
-0.042530373 -0.2986688 0.058550514
-0.042714439 -0.29878896 0.058521867
-0.042888805 -0.29889587 0.058540612
-0.043074071 -0.2990185 0.058500409
-0.043270931 -0.29916596 0.05834353
-0.043435082 -0.2992512 0.058463931
-0.043621384 -0.29939184 0.058308259
-0.043806516 -0.29950362 0.058339648
-0.043985613 -0.29962012 0.058314495
-0.044158824 -0.29972199 0.058362111
-0.044352792 -0.29986641 0.058213323
-0.044517253 -0.29995218 0.058331415
-0.044689566 -0.30005661 0.058358256
-0.0448699 -0.30017215 0.058344636
-0.045052953 -0.3002972 0.058279037
-0.045237519 -0.3004213 0.058226146
-0.04541342 -0.30053318 0.058218323
-0.045593098 -0.3006483 0.058204703
-0.045771364 -0.30076516 0.058173776
-0.045943528 -0.30087018 0.058195997
-0.046127044 -0.30099344 0.058144256
-0.046268664 -0.30108631 0.058119297
-0.046421088 -0.30118322 0.058112741
-0.046578649 -0.30125007 0.058327869
-0.046825133 -0.30142969 0.058164962
-0.047007579 -0.30155194 0.058115534
-0.047181915 -0.3016623 0.058111183
-0.047363393 -0.30178308 0.058067538
-0.047537602 -0.30189353 0.058062039
-0.047719087 -0.30201483 0.058014922
-0.047891431 -0.3021217 0.058025599
-0.048073359 -0.30224448 0.057970401
-0.048244387 -0.30234879 0.057992626
-0.048423097 -0.30246505 0.057967469
-0.048600301 -0.30258331 0.057922695
-0.048772134 -0.30268463 0.057968006
-0.048946302 -0.30279645 0.057953268
-0.049123175 -0.30291468 0.057907332
-0.049298719 -0.30303016 0.057874106
-0.049478523 -0.30315039 0.057827007
-0.049650099 -0.30325711 0.057835374
-0.049823798 -0.30336344 0.057855271
-0.049998693 -0.30347833 0.057823211
-0.050175931 -0.30359349 0.057799213
-0.050350808 -0.30370888 0.057763681
-0.050529547 -0.30382827 0.057717748
-0.050697017 -0.30392581 0.057770006
-0.05086467 -0.30403581 0.05774029
-0.051046528 -0.30415785 0.057689711
-0.051223751 -0.30427456 0.057655327
-0.051389389 -0.30437389 0.057687972
-0.051562838 -0.30448112 0.057700943
-0.051742263 -0.30460441 0.057631902
-0.051918529 -0.30471963 0.0576033
-0.052088682 -0.30482513 0.057613984
-0.052261051 -0.30493686 0.057592317
-0.052433379 -0.30504873 0.057569511
-0.052606545 -0.30515629 0.057579018
-0.052776493 -0.30526182 0.057588547
-0.052936919 -0.30536136 0.057598129
-0.053130932 -0.30550894 0.057428554
-0.053297244 -0.30560437 0.057490066
-0.053469352 -0.30571732 0.057459161
-0.053640276 -0.30582693 0.057445589
-0.053813621 -0.30593652 0.057442404
-0.053984556 -0.30604666 0.057425372
-0.054156933 -0.30615354 0.057436034
-0.054329041 -0.30626807 0.057394754
-0.054499209 -0.30637649 0.057385802
-0.054671295 -0.3064917 0.057339899
-0.054843463 -0.30659878 0.057348259
-0.054992832 -0.30669829 0.05731171
-0.055188105 -0.30682376 0.05729454
-0.05535692 -0.30692875 0.057302926
-0.05552759 -0.30704081 0.057272039
-0.05569192 -0.30714905 0.057240024
-0.05584342 -0.30723843 0.057279669
-0.056020927 -0.30735776 0.057229117
-0.056193039 -0.30746654 0.057225931
-0.056381654 -0.30758905 0.057200722
-0.056551576 -0.30770046 0.057170991
-0.05672124 -0.30781117 0.057144724
-0.056892585 -0.30791792 0.057151943
-0.0570627 -0.30803153 0.057108358
-0.057234548 -0.3081412 0.057098247
-0.05740235 -0.30824488 0.057111245
-0.05757219 -0.30835867 0.057065349
-0.057744123 -0.30846995 0.057044849
-0.057901639 -0.30857787 0.05698631
-0.058075849 -0.30868781 0.056984268
-0.058242403 -0.30880144 0.056925692
-0.058391623 -0.30888003 0.057027698
-0.058590218 -0.30900344 0.05703824
-0.058751158 -0.30911854 0.056946196
-0.058931604 -0.3092345 0.05693027
-0.05909954 -0.30934259 0.056914404
-0.059266686 -0.30944565 0.056928568
-0.059409369 -0.30953574 0.05692669
-0.059567936 -0.30963877 0.056905098
-0.059774447 -0.30978364 0.056805901
-0.059944339 -0.30988774 0.056824669
-0.060112558 -0.31000277 0.056763764
-0.060264144 -0.31009847 0.056761838
-0.060449451 -0.31021297 0.056775909
-0.060619202 -0.31031698 0.056794677
-0.060786664 -0.31042859 0.056753416
-0.060935348 -0.31052697 0.056721479
-0.061086781 -0.31062394 0.05671031
-0.061293662 -0.31075516 0.056703493
-0.061459839 -0.31085208 0.056754604
-0.061630119 -0.31096977 0.05668446
-0.061796948 -0.31108183 0.056637429
-0.061963193 -0.3111814 0.056671221
-0.06212968 -0.31128803 0.056658834
-0.0622993 -0.31140238 0.056608316
-0.062459499 -0.31150869 0.056571707
-0.062625691 -0.31161255 0.056576639
-0.062767245 -0.31170973 0.056522802
-0.062930398 -0.31178895 0.056679007
-0.063083895 -0.31191549 0.056479625
-0.063286275 -0.3120628 0.056346957
-0.063443631 -0.31213439 0.056529753
-0.063639693 -0.31227353 0.056424838
-0.063805908 -0.31236839 0.05648981
-0.063956238 -0.31246552 0.056472875
-0.064115636 -0.31256962 0.056447815
-0.064308204 -0.3127017 0.05637525
-0.06445694 -0.31281555 0.056240551
-0.06462428 -0.31289741 0.056396738
-0.064795896 -0.31300607 0.056392401
-0.064970329 -0.31311858 0.056374196
-0.065132126 -0.31322607 0.056336429
-0.06528841 -0.31332371 0.056341406
-0.065472499 -0.31343657 0.056361247
-0.065622613 -0.31353047 0.056365106
-0.065792277 -0.31365058 0.056276485
-0.065947771 -0.3137522 0.056251448
-0.066141039 -0.3138698 0.056278177
-0.066304997 -0.31398058 0.056227699
-0.066470213 -0.31408364 0.056233786
-0.06663841 -0.31418896 0.056237549
-0.066806063 -0.31429684 0.056221679
-0.066953227 -0.31440309 0.056130871
-0.067124233 -0.31451052 0.056132317
-0.067300446 -0.31462553 0.056104861
-0.067468032 -0.31473216 0.056097075
-0.067636341 -0.31483582 0.056112386
-0.067798123 -0.31493723 0.056115031
-0.067949578 -0.31503716 0.056084238
-0.068111673 -0.31513724 0.056097269
-0.068285905 -0.31525761 0.056025952
-0.068462372 -0.31536984 0.056018129
-0.068630151 -0.31547469 0.056023046
-0.068770044 -0.31556371 0.056016564
-0.068952724 -0.31566808 0.056087226
-0.069124214 -0.3157945 0.055963956
-0.069290459 -0.31590325 0.055936553
-0.069448918 -0.3160024 0.055940367
-0.06961415 -0.31611347 0.055893347
-0.06975814 -0.31621063 0.055849887
-0.069929741 -0.31631458 0.055876724
-0.07008002 -0.31641465 0.055840161
-0.070236236 -0.31651863 0.055802427
-0.07042636 -0.3166334 0.055834934
-0.070602261 -0.31674528 0.055827115
-0.070775725 -0.31685391 0.055830859
-0.070930563 -0.31695181 0.055827767
-0.071090557 -0.3170554 0.055808477
-0.071270041 -0.31717581 0.055759065
-0.071434155 -0.31727886 0.055760533
-0.071598813 -0.3173885 0.055720441
-0.071760483 -0.31749594 0.055682674
-0.071921334 -0.31758982 0.055731501
-0.072092168 -0.31770268 0.055695999
-0.072257586 -0.31781039 0.055672057
-0.072420731 -0.31791475 0.05566084
-0.072577022 -0.31801653 0.055638108
-0.072740242 -0.31811383 0.055674229
-0.072892942 -0.31822115 0.055599555
-0.073070042 -0.31834313 0.055529363
-0.073234737 -0.31844467 0.055543542
-0.073395312 -0.31853962 0.055584293
-0.073566496 -0.31865078 0.05556149
-0.07372278 -0.3187581 0.055501804
-0.073888972 -0.31885761 0.055535596
-0.074040882 -0.31895855 0.055500187
-0.074211419 -0.31907606 0.055432353
-0.0743673 -0.31917152 0.055450033
-0.074555062 -0.31928983 0.055449076
-0.074691586 -0.31938106 0.055413745
-0.074852809 -0.31948125 0.055422161
-0.075008959 -0.31957653 0.055442151
-0.075203456 -0.31969789 0.055449244
-0.075347453 -0.31979105 0.055432346
-0.075515643 -0.31991002 0.055344895
-0.075656287 -0.32001182 0.055256423
-0.075814329 -0.32010502 0.055298336
-0.07599391 -0.32022145 0.055275492
-0.076154277 -0.32031748 0.055308163
-0.076322787 -0.32042521 0.055296917
-0.07649266 -0.32052672 0.055333
-0.076648548 -0.32062736 0.055316046
-0.076821312 -0.32074544 0.055253968
-0.076999478 -0.32085353 0.055280767
-0.077170618 -0.32096815 0.055234872
-0.077332079 -0.32107282 0.055214416
-0.077478744 -0.32117218 0.055167481
-0.077638589 -0.32126909 0.055192079
-0.077799574 -0.3213785 0.055138141
-0.077966452 -0.32148731 0.05511304
-0.078120202 -0.32158488 0.055107649
-0.078272149 -0.32168391 0.055084933
-0.078447662 -0.32179433 0.055085201
-0.078616165 -0.32190174 0.055076256
-0.078769915 -0.32199931 0.055070855
-0.078931205 -0.32210788 0.055023856
-0.079088964 -0.32220659 0.055027671
-0.079242945 -0.32230398 0.055024572
-0.07942836 -0.32241958 0.055031713
-0.079580657 -0.32251817 0.055013619
-0.079741448 -0.32262677 0.054964308
-0.079900466 -0.32273251 0.054926544
-0.080072604 -0.32284516 0.054897964
-0.08022245 -0.32294893 0.054834846
-0.080379076 -0.32304832 0.05482943
-0.08054027 -0.3231487 0.054836694
-0.080721751 -0.32325923 0.054861173
-0.080898531 -0.32337633 0.054822177
-0.081052646 -0.3234809 0.054771736
-0.081203237 -0.32357648 0.054766353
-0.081377052 -0.32368428 0.054777022
-0.081527077 -0.32377309 0.054814361
-0.081716359 -0.32389393 0.054803006
-0.081873074 -0.3239899 0.054820683
-0.082038492 -0.32409883 0.054788664
-0.082181878 -0.32420167 0.0547048
-0.082325667 -0.32429731 0.054670583
-0.082499973 -0.32441181 0.054638516
-0.082660392 -0.32450944 0.054660797
-0.082831427 -0.32463211 0.054560632
-0.082982644 -0.32472742 0.054559857
-0.083137542 -0.32482761 0.054541752
-0.083300091 -0.32493091 0.054535151
-0.083440147 -0.32503113 0.05445477
-0.083604112 -0.32514018 0.054415829
-0.083756298 -0.32524458 0.054358475
-0.083918057 -0.32534492 0.054368049
-0.084080532 -0.32544819 0.054361448
-0.084254682 -0.3255468 0.054434456
-0.084404595 -0.3256489 0.05438289
-0.084574312 -0.32575256 0.054403972
-0.084739268 -0.32585201 0.054433156
-0.084895961 -0.32595456 0.05440696
-0.085058182 -0.3260611 0.054377258
-0.085224599 -0.32616612 0.054375261
-0.085396044 -0.32627243 0.054385934
-0.085562579 -0.32637164 0.054423198
-0.085729413 -0.32647088 0.05446161
-0.085898936 -0.32657805 0.054458436
-0.08605437 -0.32668397 0.054404527
-0.086224176 -0.32678819 0.054422144
-0.086397052 -0.32690006 0.054401636
-0.086545952 -0.327005 0.054326981
-0.086720601 -0.32711071 0.054354962
-0.086887777 -0.32722422 0.054299843
-0.087046564 -0.32732618 0.054286323
-0.0872069 -0.32742772 0.054282051
-0.087369218 -0.3275288 0.054289307
-0.087530844 -0.3276355 0.054256156
-0.08767803 -0.32773778 0.054191902
-0.087847024 -0.3278479 0.05416679
-0.088019334 -0.32795459 0.054178618
-0.088173196 -0.32805777 0.054136269
-0.088332057 -0.3281624 0.054105435
-0.088481188 -0.3282536 0.054123152
-0.088649593 -0.32836387 0.05409459
-0.088799879 -0.32846776 0.054032624
-0.088959895 -0.32856444 0.05405952
-0.089124911 -0.32867032 0.054045983
-0.089282006 -0.32878283 0.053955119
-0.089447543 -0.32888106 0.053994689
-0.089630172 -0.32898366 0.054076903
-0.089804605 -0.329083 0.054146454
-0.089948647 -0.32920271 0.053952888
-0.090113103 -0.32930636 0.053952053
-0.090283915 -0.32941139 0.053968504
-0.090445906 -0.32951069 0.053986154
-0.090627998 -0.3296237 0.053996775
-0.090775929 -0.32973009 0.053908262
-0.090931401 -0.3298305 0.053891312
-0.091087773 -0.32993788 0.053831622
-0.091255307 -0.33004361 0.053829625
-0.091427095 -0.33014646 0.053864546
-0.091576882 -0.33024538 0.05383376
-0.091757111 -0.33035424 0.053864025
-0.091904953 -0.33046493 0.053746644
-0.092063293 -0.33056507 0.05374353
-0.092233151 -0.33066845 0.053766921
-0.092395879 -0.33077273 0.053754546
-0.092583813 -0.33088785 0.05377553
-0.092706203 -0.3309896 0.05361094
-0.092870273 -0.33108258 0.053679384
-0.093049124 -0.33118537 0.053744301
-0.093192428 -0.33129597 0.053608466
-0.093366332 -0.33139497 0.053678021
-0.093557715 -0.3315036 0.053756721
-0.093721867 -0.33162975 0.053604621
-0.093868285 -0.33172897 0.053557687
-0.094031103 -0.33182913 0.053573031
-0.094200149 -0.33193323 0.053588338
-0.09436325 -0.33204415 0.053533237
-0.094522119 -0.33214894 0.053501252
-0.09468402 -0.33225355 0.053483106
-0.094835423 -0.33234826 0.053486958
-0.095011458 -0.33245641 0.053504542
-0.095166072 -0.33256146 0.05345295
-0.095338166 -0.33266783 0.053465929
-0.095512621 -0.33277828 0.053461578
-0.095657744 -0.33287755 0.053408876
-0.095818132 -0.33298033 0.053396523
-0.095999494 -0.33309272 0.053408302
-0.096123859 -0.33319449 0.053251781
-0.096286297 -0.33328921 0.053301767
-0.096485034 -0.33339536 0.053427774
-0.096597642 -0.33351105 0.053129286
-0.096728563 -0.3336024 0.053069733
-0.096944563 -0.33370471 0.053293794
-0.097156525 -0.33381328 0.053459
-0.097335957 -0.33393207 0.053419977
-0.097452193 -0.33403724 0.053206924
-0.097611442 -0.33414227 0.053174939
-0.097804077 -0.33424944 0.053268649
-0.097968727 -0.33434883 0.053296681
-0.098131053 -0.33445978 0.053238124
-0.098280631 -0.33457053 0.053127661
-0.098452188 -0.33467776 0.053132564
-0.098607332 -0.33478472 0.053070579
-0.098727182 -0.33487204 0.05299145
-0.098937318 -0.33498034 0.053150889
-0.0991413 -0.33509621 0.053234138
-0.099295504 -0.3352088 0.053130586
-0.099445492 -0.3353101 0.053084794
-0.099577919 -0.33541071 0.052969798
-0.099733092 -0.33551213 0.052944772
-0.099913709 -0.33562195 0.052970409
-0.10008069 -0.33572942 0.052954547
-0.10025655 -0.33583555 0.052984834
-0.10041812 -0.33594465 0.052935518
-0.10059322 -0.33605444 0.052938089
-0.10074598 -0.33616129 0.05286688
-0.10091382 -0.33626187 0.052900661
-0.10108948 -0.33637184 0.052904394
-0.10123408 -0.33648169 0.052778952
-0.10138268 -0.33657411 0.052786272
-0.10159007 -0.33668989 0.052884527
-0.10176063 -0.33680671 0.052821308
-0.10189212 -0.33689982 0.052752513
-0.10206419 -0.3370046 0.052775882
-0.10224204 -0.33711338 0.052796919
-0.10240966 -0.33721796 0.052802995
-0.10256997 -0.33732885 0.052736361
-0.10272564 -0.3374325 0.052698627
-0.10288659 -0.33753321 0.052702427
-0.10306947 -0.33764273 0.052739602
-0.10323168 -0.33774877 0.052713376
-0.10340529 -0.33786094 0.052694015
-0.10358579 -0.3379738 0.052698869
-0.10373865 -0.33807567 0.052661143
-0.10391209 -0.33818462 0.052662574
-0.1040736 -0.33829072 0.052632887
-0.10419977 -0.33838981 0.05250176
-0.10438563 -0.33850017 0.052545846
-0.10457939 -0.33860824 0.052638397
-0.10471541 -0.33871162 0.052519929
-0.10488552 -0.33881882 0.052519068
-0.10505169 -0.3389256 0.052504361
-0.10525112 -0.3390412 0.052570313
-0.10539348 -0.33914688 0.052463364
-0.10556664 -0.33925304 0.052482113
-0.10573478 -0.33935863 0.052483574
-0.10588206 -0.33946168 0.052414693
-0.10606518 -0.33957881 0.052402217
-0.10623407 -0.33968937 0.052373644
-0.10640671 -0.33979419 0.052399322
-0.10659155 -0.33991015 0.052401852
-0.10675748 -0.34001261 0.052414864
-0.10690593 -0.34011275 0.052370235
-0.10709184 -0.34022591 0.052395843
-0.10725702 -0.3403331 0.052374221
-0.1074179 -0.34044436 0.052307583
-0.10758011 -0.34054503 0.052317154
-0.10773402 -0.34064913 0.052269027
-0.1079248 -0.34076637 0.052287683
-0.10806976 -0.34086916 0.052210741
-0.10824721 -0.34097993 0.052216772
-0.10844351 -0.3410922 0.052291982
-0.10858653 -0.34119776 0.052188482
-0.10874337 -0.3413009 0.052158821
-0.10891883 -0.3414146 0.052137148
-0.10910684 -0.34153187 0.052144278
-0.1092564 -0.34163097 0.052111179
-0.10943067 -0.34173712 0.052134547
-0.10959581 -0.34184483 0.052109458
-0.10972564 -0.34194362 0.051995639
-0.10992401 -0.34206292 0.052032731
-0.11007571 -0.34216544 0.051985778
-0.11025763 -0.3422747 0.052020647
-0.11042513 -0.34238735 0.051972449
-0.11060462 -0.34249923 0.051979624
-0.11078567 -0.34261003 0.052000642
-0.11095314 -0.34271988 0.051970925
-0.11113502 -0.34282809 0.052012719
-0.11128367 -0.34293458 0.051926516
-0.11145359 -0.34304357 0.051912952
-0.11160149 -0.34314561 0.051853307
-0.11180516 -0.34326386 0.051919252
-0.11198308 -0.34337738 0.051909104
-0.11213092 -0.34348232 0.051829845
-0.11231917 -0.34359366 0.051877379
-0.11248608 -0.34369954 0.051871911
-0.1126424 -0.34380618 0.051816843
-0.11281405 -0.34391868 0.051787104
-0.11299702 -0.34403068 0.051808115
-0.11316361 -0.34413946 0.051781863
-0.11333799 -0.34425128 0.051768284
-0.11351655 -0.34436256 0.051775452
-0.11368754 -0.34447238 0.051760729
-0.11385658 -0.34458184 0.051740244
-0.11403388 -0.34469584 0.051724326
-0.11419694 -0.34480414 0.051686551
-0.11435011 -0.34491035 0.051621106
-0.11451299 -0.34501457 0.051609889
-0.11467712 -0.3451218 0.051583655
-0.11485079 -0.34523383 0.051565453
-0.1150528 -0.34535071 0.051633708
-0.11521417 -0.34546021 0.051580928
-0.11538878 -0.34557128 0.051573101
-0.11554995 -0.34567943 0.051528413
-0.11573713 -0.34579337 0.051554017
-0.11589779 -0.34590417 0.051489688
-0.11608174 -0.34601885 0.051496841
-0.11623749 -0.34612724 0.051427923
-0.11638696 -0.34622887 0.051377513
-0.11658005 -0.34634846 0.051390387
-0.11678855 -0.3464717 0.051443592
-0.11695469 -0.34657863 0.051427744
-0.11712594 -0.3466855 0.051433802
-0.11730114 -0.34679729 0.051423669
-0.11746748 -0.34690836 0.051381256
-0.11763962 -0.3470208 0.051353823
-0.026291888 -0.2882199 0.060075067
-0.026490144 -0.288349 0.060046315
-0.026679941 -0.28846756 0.060052253
-0.026889689 -0.28861153 0.059972625
-0.027075246 -0.28872722 0.059979748
-0.027263641 -0.28884438 0.059989154
-0.027461525 -0.28897375 0.059956945
-0.027642917 -0.28908217 0.059995268
-0.027844869 -0.28921705 0.059943393
-0.028051257 -0.28935787 0.059870712
-0.028234255 -0.28946868 0.059899788
-0.028424706 -0.28958923 0.059895333
-0.028636724 -0.28973791 0.059793744
-0.028830033 -0.28986248 0.059774257
-0.029020317 -0.28998327 0.059767492
-0.029202264 -0.29009324 0.059797723
-0.029408921 -0.29023579 0.059714645
-0.029589798 -0.29034457 0.059748355
-0.029780351 -0.29046619 0.05973696
-0.029966962 -0.29058275 0.059742928
-0.030174475 -0.2907272 0.0596506
-0.030359194 -0.29084152 0.059663489
-0.030553088 -0.29096821 0.059632462
-0.030737747 -0.29108268 0.0596442
-0.030933391 -0.29121202 0.05960276
-0.031120121 -0.29132953 0.059602939
-0.031313859 -0.29145664 0.059568435
-0.031498335 -0.29157132 0.059577867
-0.031684801 -0.29168883 0.059576891
-0.03187814 -0.29181588 0.05954124
-0.032074753 -0.29194757 0.059488244
-0.03225391 -0.29205543 0.059520803
-0.032432791 -0.29216814 0.059519872
-0.032600131 -0.29229355 0.059386186
-0.032822352 -0.29242247 0.059458941
-0.033027273 -0.29256669 0.059357394
-0.033202291 -0.29267195 0.059389975
-0.033393834 -0.29279786 0.059354324
-0.03358338 -0.29292113 0.05932793
-0.033763219 -0.2930308 0.059351247
-0.03394638 -0.29314259 0.059374548
-0.03415326 -0.29329097 0.05925335
-0.0343359 -0.29340503 0.059259333
-0.034525502 -0.29352918 0.059227154
-0.034696303 -0.29362643 0.059295565
-0.034878373 -0.29373991 0.059302695
-0.035060313 -0.29385337 0.059309836
-0.035266217 -0.29400185 0.059184026
-0.03545149 -0.29412052 0.059170358
-0.03563226 -0.29423267 0.059180971
-0.035828516 -0.29436779 0.05910372
-0.036005266 -0.29447433 0.059135132
-0.036191221 -0.29459167 0.059133012
-0.036373846 -0.29470712 0.059129752
-0.036557928 -0.29482484 0.059117243
-0.036754742 -0.29496187 0.059029594
-0.036936827 -0.29507697 0.059026338
-0.037122287 -0.29519731 0.059002265
-0.037308332 -0.29531869 0.058973581
-0.037492253 -0.29543701 0.058956455
-0.037669685 -0.29554552 0.058977477
-0.037854642 -0.29566574 0.058952246
-0.03803426 -0.29577476 0.058979027
-0.038212895 -0.29588541 0.058990814
-0.038398683 -0.29600734 0.058957502
-0.038593676 -0.29614392 0.058865242
-0.038782824 -0.29627159 0.058807664
-0.038961716 -0.29638329 0.058813669
-0.039137866 -0.29648754 0.058857791
-0.039328925 -0.29661885 0.05878403
-0.03951649 -0.29674485 0.058731079
-0.039691649 -0.29685107 0.058757886
-0.039893314 -0.29699704 0.058630951
-0.040056199 -0.29708356 0.058737509
-0.040232804 -0.29719242 0.05875276
-0.040419742 -0.29731837 0.058697499
-0.040596619 -0.29742792 0.058709282
-0.040780947 -0.29754996 0.058669053
-0.040971376 -0.29767898 0.058608003
-0.041146666 -0.29778633 0.058627881
-0.041323841 -0.29789692 0.058633886
-0.041508734 -0.29802072 0.058584414
-0.041686781 -0.29813311 0.058582328
-0.041870292 -0.29825497 0.0585398
-0.042054981 -0.29837552 0.058511108
-0.042226151 -0.29847646 0.058556415
-0.042412575 -0.29860398 0.058488458
-0.04258097 -0.29870021 0.05855342
-0.042772729 -0.29883388 0.058466949
-0.042951412 -0.29895219 0.058427908
