# .PCD v0.7 - Point Cloud Data file format
VERSION 0.7
FIELDS x y z
SIZE 4 4 4
TYPE F F F
COUNT 1 1 1
WIDTH 1230
HEIGHT 1
VIEWPOINT 0 0 0 1 0 0 0
POINTS 1230
DATA ascii
-0.11293305 -0.41762355 0.054554604
-0.11311162 -0.41773692 0.054546807
-0.11329137 -0.41784915 0.054550536
-0.11344326 -0.41795722 0.054471347
-0.11363677 -0.4180724 0.054510765
-0.1137907 -0.41817948 0.054445416
-0.11397098 -0.41829208 0.054449141
-0.11415917 -0.41841057 0.054447059
-0.11431924 -0.41851765 0.054405898
-0.11450107 -0.41863215 0.054403841
-0.11466487 -0.41874009 0.054371893
-0.02929445 -0.36779526 0.037797816
-0.029455304 -0.36789694 0.037793547
-0.029623497 -0.3680084 0.037756946
-0.029784784 -0.3681109 0.037749216
-0.029947728 -0.36821777 0.037720717
-0.030112293 -0.36832693 0.037684135
-0.030275777 -0.36842859 0.037690233
-0.030437581 -0.36853439 0.037664041
-0.030599017 -0.36863771 0.037651703
-0.030760016 -0.36874059 0.037640512
-0.030922901 -0.36884612 0.037620086
-0.031084951 -0.36894855 0.037615821
-0.031249482 -0.36905658 0.037586156
-0.031409521 -0.36915869 0.037576124
-0.031569649 -0.369261 0.037564937
-0.031731345 -0.3693656 0.037545677
-0.031894099 -0.36947179 0.037520632
-0.032053445 -0.36957344 0.037510611
-0.032211185 -0.36967519 0.037493668
-0.032371424 -0.36977831 0.037477873
-0.032530032 -0.36987931 0.037469007
-0.032697417 -0.36998823 0.037445087
-0.032857843 -0.37009203 0.037425835
-0.033016138 -0.37019524 0.03740197
-0.0331733 -0.37029698 0.037382722
-0.033333484 -0.37039861 0.037376154
-0.033497162 -0.3705076 0.037337266
-0.033654813 -0.37060818 0.037327245
-0.033814162 -0.37071133 0.037307993
-0.033975057 -0.3708145 0.037294496
-0.034131549 -0.37091377 0.037287947
-0.034293551 -0.37102115 0.037252527
-0.034449939 -0.37112057 0.037244819
-0.03460972 -0.3712227 0.03723364
-0.034760304 -0.37131864 0.037224811
-0.034924414 -0.37142736 0.037189379
-0.035082158 -0.37152928 0.037171286
-0.035237767 -0.37162822 0.037163593
-0.035393238 -0.37172705 0.037155893
-0.035551418 -0.3718276 0.037148178
-0.03570931 -0.37193277 0.037110478
-0.035868224 -0.3720347 0.037096988
-0.036025409 -0.37213665 0.037076589
-0.036183048 -0.37223944 0.037052728
-0.036334958 -0.37233624 0.037043896
-0.036497112 -0.37244111 0.037024621
-0.036648948 -0.37253806 0.037014637
-0.036807112 -0.37263969 0.037
-0.036960676 -0.37273696 0.036994621
-0.037116729 -0.3728382 0.036974225
-0.037272222 -0.37293872 0.036956146
-0.037429765 -0.37303999 0.036941513
-0.037580546 -0.37313604 0.036932684
-0.037737213 -0.37323621 0.036921516
-0.037894808 -0.37334064 0.036887277
-0.038047969 -0.37343821 0.036878437
-0.03820201 -0.37354004 0.036846515
-0.038357303 -0.37363857 0.036839973
-0.038511544 -0.37373832 0.036821898
-0.0386675 -0.37383819 0.036809575
-0.038821615 -0.3739408 0.036773041
-0.038974278 -0.37403843 0.036761895
-0.039124612 -0.37413239 0.036764607
-0.039279811 -0.37423161 0.036753446
-0.03943317 -0.37433079 0.036735374
-0.039586015 -0.37442926 0.036719617
-0.039739959 -0.37452975 0.036695775
-0.039896533 -0.37463185 0.036671918
-0.040046476 -0.37472594 0.036672324
-0.040199105 -0.37482464 0.036654256
-0.040352099 -0.37492415 0.036632717
-0.040505417 -0.37502736 0.036589272
-0.040655866 -0.37512287 0.036582753
-0.040812083 -0.37522236 0.036573898
-0.040963799 -0.37532032 0.036556985
-0.041117694 -0.37542224 0.036523916
-0.041269802 -0.37552431 0.036482774
-0.041425623 -0.37563002 0.036433544
-0.041575246 -0.37572503 0.036427028
-0.041722313 -0.37581876 0.036418218
-0.041873198 -0.37591305 0.036420919
-0.042023271 -0.37600279 0.036449008
-0.042170987 -0.37609804 0.036433276
-0.042322066 -0.37619302 0.036432523
-0.04247196 -0.37628594 0.036439847
-0.042619787 -0.37638184 0.036420655
-0.042769469 -0.37647796 0.03640721
-0.042923458 -0.3765755 0.036401827
-0.043075029 -0.37667891 0.03635031
-0.043222349 -0.37676764 0.036373802
-0.043369383 -0.37686285 0.036355764
-0.043520458 -0.37695542 0.036370002
-0.04366326 -0.37704629 0.036362372
-0.043814648 -0.37714681 0.036328152
-0.043959588 -0.37723497 0.036345888
-0.04410499 -0.37732047 0.036382079
-0.044251777 -0.37741238 0.036383651
-0.044397794 -0.37750655 0.036367927
-0.044539042 -0.37758392 0.036438745
-0.044682644 -0.37766588 0.036489945
-0.044821568 -0.37774211 0.036558464
-0.044960443 -0.37781817 0.036628146
-0.045099799 -0.37789115 0.036718592
-0.045235656 -0.37796068 0.036817122
-0.045371413 -0.37802976 0.036917962
-0.045510888 -0.37809843 0.037036095
-0.045640782 -0.37815866 0.037169274
-0.045777109 -0.37821996 0.037320875
-0.045908391 -0.37827832 0.037471343
-0.046039812 -0.37833655 0.03762297
-0.046170808 -0.37838915 0.037808057
-0.04630227 -0.37844226 0.037991978
-0.046434738 -0.37849265 0.038196668
-0.046563394 -0.37854269 0.038388684
-0.046689779 -0.37859148 0.038579561
-0.046817847 -0.37862986 0.038841963
-0.046946891 -0.37867424 0.039070889
-0.047082879 -0.37872463 0.039289407
-0.047212515 -0.3787688 0.039521795
-0.047350772 -0.37882784 0.039695308
-0.047358848 -0.37622237 0.056001045
-0.047510073 -0.3762925 0.056156032
-0.047647592 -0.37636325 0.056253407
-0.047808852 -0.37645924 0.056286059
-0.047970023 -0.37655503 0.056319855
-0.048131272 -0.37665105 0.056352511
-0.048293307 -0.37674922 0.056374773
-0.048460815 -0.37684932 0.056406237
-0.04862665 -0.37695155 0.056418102
-0.050256178 -0.3805331 0.040437583
-0.050407052 -0.38061464 0.040519893
-0.050531484 -0.38067514 0.040630016
-0.050680593 -0.3807506 0.040743485
-0.052004933 -0.38026989 0.04893937
-0.052159369 -0.38034999 0.049044728
-0.05265167 -0.37888744 0.06011045
-0.052817613 -0.37897995 0.060183451
-0.052977867 -0.37908271 0.060169961
-0.053129632 -0.37917167 0.060209583
-0.05329074 -0.37927884 0.060171857
-0.053469397 -0.37940556 0.060080983
-0.053650588 -0.3795191 0.06008238
-0.053841233 -0.37965316 0.059992597
-0.054002106 -0.37973341 0.060122151
-0.054171361 -0.37984279 0.06010285
-0.054343298 -0.37995216 0.060093921
-0.05449269 -0.38004422 0.060104705
-0.054653712 -0.38017187 0.059938923
-0.054844528 -0.38027924 0.06001642
-0.055021122 -0.38038471 0.060050152
-0.055190515 -0.38049823 0.060005464
-0.055359598 -0.38061062 0.059966549
-0.055519875 -0.38072172 0.059901137
-0.055687532 -0.38082564 0.059909534
-0.055843361 -0.38092655 0.059890293
-0.056018144 -0.38104251 0.059851348
-0.056172665 -0.38113391 0.059886336
-0.056331232 -0.38123545 0.059874009
-0.056506157 -0.3813552 0.059812002
-0.056677103 -0.38146618 0.059789222
-0.05686466 -0.38156858 0.059885189
-0.057039648 -0.38169315 0.059793174
-0.057203118 -0.38178724 0.059846587
-0.057377744 -0.38191143 0.05975572
-0.057544455 -0.38200995 0.059794113
-0.057711992 -0.38212118 0.059756357
-0.05787918 -0.38222849 0.05974168
-0.05804646 -0.38233918 0.059706233
-0.058213569 -0.38244849 0.059678867
-0.058377266 -0.38254991 0.059687272
-0.058531921 -0.38265377 0.059644967
-0.058680043 -0.38274339 0.059666149
-0.058837548 -0.38284591 0.05964344
-0.059019648 -0.38296315 0.059625227
-0.059195485 -0.38307738 0.059601277
-0.059374265 -0.38320103 0.059530009
-0.059553046 -0.3833077 0.059564874
-0.059719302 -0.38341886 0.059522517
-0.05986708 -0.38351324 0.059512548
-0.060036749 -0.38360974 0.059575152
-0.060220756 -0.38374352 0.059461173
-0.060387254 -0.38384023 0.059509948
-0.060550153 -0.38394541 0.059491828
-0.060706593 -0.3840504 0.059449516
-0.060851313 -0.38413769 0.059471868
-0.061017029 -0.38424554 0.059447967
-0.061173435 -0.38434759 0.05942411
-0.061367426 -0.38446417 0.059456594
-0.061533593 -0.38456547 0.059475377
-0.061709296 -0.3846994 0.059327982
-0.061884455 -0.38480672 0.059344411
-0.06204826 -0.38489917 0.05940935
-0.062203728 -0.38500503 0.059357814
-0.062351797 -0.38511494 0.059252087
-0.062533706 -0.38522097 0.059303097
-0.062697783 -0.38533372 0.059242282
-0.062870428 -0.38543469 0.059288718
-0.063013986 -0.38552752 0.059271857
-0.063177049 -0.38564387 0.059184514
-0.063367642 -0.38575852 0.059215866
-0.063523509 -0.38585761 0.059208162
-0.063673027 -0.38595363 0.059194721
-0.063841805 -0.38607267 0.059113123
-0.064009905 -0.38617831 0.059112288
-0.064162388 -0.38627565 0.059102289
-0.064335875 -0.38638785 0.059081811
-0.064500116 -0.38649425 0.059061378
-0.064662494 -0.38659391 0.059075568
-0.064832322 -0.38670567 0.059043571
-0.065003611 -0.38681188 0.059051938
-0.065164536 -0.38691637 0.059030369
-0.065329127 -0.38702056 0.059024937
-0.065496035 -0.3871288 0.059003338
-0.065658189 -0.38722891 0.05901406
-0.065822497 -0.38734457 0.05893594
-0.065983988 -0.38744625 0.058933981
-0.066141337 -0.38753852 0.058974721
-0.066298112 -0.38765314 0.058873575
-0.066475831 -0.38776135 0.058894612
-0.06663765 -0.38784221 0.059024163
-0.066804826 -0.38795841 0.058954097
-0.066976026 -0.38806418 0.058964789
-0.067137271 -0.3881478 0.059074733
-0.067294568 -0.38826829 0.058938969
-0.06745816 -0.38838241 0.058867775
-0.067616805 -0.38851556 0.058658168
-0.067810133 -0.38860661 0.058847561
-0.067954034 -0.38868636 0.058913756
-0.068108052 -0.3888109 0.05873993
-0.068281569 -0.38892734 0.058692925
-0.068449639 -0.38903061 0.058707081
-0.068620108 -0.38913703 0.05871084
-0.068782069 -0.3892442 0.058676571
-0.068957649 -0.38934866 0.058712613
-0.069118395 -0.38945046 0.058707193
-0.069291197 -0.3895528 0.058745552
-0.069448397 -0.38966769 0.058644406
-0.069612712 -0.38977024 0.058648199
-0.06975998 -0.38989368 0.058454797
-0.069937259 -0.38999534 0.058515057
-0.070093937 -0.39008957 0.058540806
-0.070265256 -0.39020079 0.05851803
-0.070424847 -0.39029723 0.058541462
-0.070589691 -0.39040509 0.058514096
-0.070756905 -0.39050949 0.058517877
-0.07091973 -0.39061385 0.05850438
-0.071081966 -0.39071289 0.058522023
-0.071253166 -0.39081794 0.058537319
-0.071427606 -0.39093646 0.058481067
-0.071593359 -0.39105433 0.058394879
-0.071764477 -0.39117077 0.058338642
-0.071924999 -0.39126614 0.058372453
-0.072083727 -0.39136943 0.058349736
-0.0722427 -0.39147231 0.058330476
-0.072380342 -0.39156199 0.058310185
-0.072560757 -0.3916778 0.058294281
-0.072725907 -0.39178419 0.058277301
-0.072886497 -0.3918798 0.058309961
-0.07304126 -0.39198706 0.058246888
-0.073214352 -0.39208996 0.058282945
-0.0733862 -0.39220446 0.058241706
-0.073539689 -0.39231259 0.058168251
-0.073696792 -0.39240691 0.058195159
-0.073872305 -0.39250764 0.058254268
-0.074031129 -0.39261025 0.058236171
-0.074193299 -0.39271921 0.058191523
-0.07433565 -0.39282292 0.058101982
-0.074505724 -0.39291486 0.058194578
-0.074661441 -0.39302015 0.058147646
-0.074820213 -0.39312714 0.058101866
-0.074982904 -0.39323515 0.058065291
-0.075155191 -0.39334384 0.058062114
-0.075323798 -0.39344224 0.058108572
-0.07548061 -0.3935506 0.05804665
-0.075646155 -0.3936604 0.058010053
-0.075812973 -0.39376047 0.058039218
-0.07597661 -0.3938674 0.058013022
-0.076138504 -0.39397138 0.057998367
-0.076314807 -0.39407706 0.058029789
-0.076479942 -0.39418694 0.057990894
-0.076643586 -0.39428964 0.057991229
-0.07680203 -0.3943961 0.057947747
-0.076961964 -0.39449328 0.057967722
-0.077120826 -0.39460331 0.057903469
-0.077291615 -0.39471698 0.057863396
-0.077448308 -0.3948164 0.057856835
-0.077611066 -0.39491963 0.057850257
-0.077791616 -0.39502296 0.057912804
-0.077944756 -0.39513624 0.057805907
-0.078099295 -0.39523318 0.057806287
-0.078256994 -0.39533952 0.057760511
-0.078438006 -0.39545035 0.05777806
-0.078598797 -0.39555478 0.057756491
-0.078752346 -0.39566699 0.057657659
-0.07890901 -0.39576271 0.057674181
-0.079078086 -0.39586234 0.057714865
-0.079255417 -0.39596829 0.057748593
-0.079419032 -0.39607114 0.057747778
-0.079604521 -0.39619753 0.057685703
-0.079766355 -0.3963013 0.057672203
-0.079895489 -0.39639762 0.057576962
-0.080065966 -0.39650035 0.057603799
-0.080231301 -0.39659894 0.057636425
-0.080402508 -0.39670491 0.057645954
-0.080547079 -0.39680353 0.057596769
-0.08070755 -0.39691123 0.057553288
-0.080867693 -0.39700916 0.057569791
-0.081026234 -0.39711767 0.057513628
-0.081182681 -0.39722377 0.057464387
-0.081360035 -0.39732069 0.057554636
-0.081508391 -0.39742705 0.057471987
-0.081697829 -0.39754781 0.057460658
-0.081858009 -0.39764592 0.057476014
-0.08200717 -0.39774856 0.057419885
-0.082166843 -0.39785004 0.057412174
-0.082335949 -0.39796022 0.057387099
-0.082497135 -0.39806727 0.057350531
-0.082669325 -0.39817017 0.05738312
-0.082818858 -0.39826638 0.057368528
-0.082983196 -0.39837226 0.057351552
-0.083156422 -0.39848098 0.057351843
-0.083316401 -0.39857951 0.057363737
-0.083481558 -0.39868814 0.057332918
-0.083644576 -0.39879745 0.057289414
-0.083793513 -0.39889681 0.05725291
-0.083957285 -0.39900291 0.057232477
-0.084120259 -0.39910921 0.057207432
-0.084256701 -0.39921236 0.057098314
-0.084421948 -0.3993094 0.057140168
-0.084590554 -0.39940837 0.057183165
-0.084752768 -0.39951774 0.057136208
-0.084932894 -0.39961639 0.057226449
-0.085090265 -0.39972991 0.05713452
-0.085259959 -0.39983991 0.05711291
-0.085422747 -0.3999463 0.057086714
-0.085580476 -0.40004858 0.05706631
-0.085760728 -0.40015858 0.057086177
-0.085923135 -0.40025973 0.057091136
-0.086084582 -0.4003692 0.057040721
-0.086243004 -0.40046343 0.057073381
-0.086404063 -0.40056503 0.05707027
-0.086569823 -0.40067607 0.057026759
-0.086726613 -0.40078127 0.056984436
-0.086886406 -0.4008832 0.056974415
-0.087051637 -0.40099427 0.056928597
-0.087204702 -0.40109253 0.056915138
-0.087361 -0.40119523 0.056886673
-0.087530367 -0.40129781 0.056910053
-0.08770939 -0.40140113 0.056966834
-0.087874077 -0.40150982 0.056933712
-0.08805567 -0.4016079 0.05703317
-0.088210732 -0.40173328 0.056858197
-0.088359766 -0.40183729 0.056792844
-0.088516511 -0.40193748 0.056781676
-0.088672116 -0.40203792 0.056764744
-0.088861197 -0.40214014 0.056867637
-0.089033231 -0.40225253 0.056840245
-0.08916755 -0.40235397 0.056733429
-0.089333788 -0.40246716 0.056678377
-0.089498833 -0.4025639 0.056721393
-0.08966627 -0.40267691 0.056672107
-0.089837417 -0.40277767 0.056713931
-0.090013608 -0.40288952 0.056706131
-0.090160102 -0.402989 0.056659255
-0.090315141 -0.40308738 0.056652706
-0.09048333 -0.40319571 0.056635711
-0.090644836 -0.40329796 0.056630291
-0.090806544 -0.4034048 0.056597181
-0.090960667 -0.40351018 0.056543339
-0.091137357 -0.40361091 0.056607068
-0.091302708 -0.40371966 0.056576248
-0.091441318 -0.40382877 0.056438264
-0.091594525 -0.40393192 0.056394815
-0.091771632 -0.40403068 0.056472376
-0.091965958 -0.40413475 0.056584463
-0.092119217 -0.40424681 0.056485642
-0.092300341 -0.40435436 0.056523956
-0.092442982 -0.40445843 0.05643326
-0.092604049 -0.40456542 0.056396693
-0.09276776 -0.40467224 0.056371644
-0.092954025 -0.4047797 0.056430701
-0.093089744 -0.40487981 0.056337737
-0.093252994 -0.40498668 0.056310389
-0.093426809 -0.40509298 0.056327973
-0.093605086 -0.40519914 0.056364004
-0.093770236 -0.40530813 0.056330867
-0.093923174 -0.40541351 0.056272425
-0.094097793 -0.40551588 0.056317702
-0.09425886 -0.40562508 0.056267288
-0.094416521 -0.40573233 0.056215741
-0.094576091 -0.40583745 0.05618494
-0.094735116 -0.40594053 0.056164533
-0.094912522 -0.40604523 0.056206338
-0.095089793 -0.40615207 0.056234293
-0.095246926 -0.40626135 0.056167752
-0.095402382 -0.40636668 0.056119673
-0.095572211 -0.40647176 0.056129199
-0.095759124 -0.40657875 0.056194022
-0.09593787 -0.40669185 0.056188516
-0.096064389 -0.40679538 0.056037914
-0.096232712 -0.40689677 0.056064755
-0.096416652 -0.40700021 0.056139983
-0.096561491 -0.4071075 0.056037731
-0.096730128 -0.40721297 0.056040354
-0.096896425 -0.40732232 0.056009524
-0.097051531 -0.40742961 0.055947609
-0.097215727 -0.4075332 0.055944473
-0.097412489 -0.40763932 0.056053095
-0.097568385 -0.40774861 0.055981938
-0.097710907 -0.40785187 0.055895858
-0.097886235 -0.40795967 0.055909976
-0.098062962 -0.40806949 0.05591717
-0.098229885 -0.4081772 0.055899031
-0.098384708 -0.40828079 0.055859026
-0.098562315 -0.40839449 0.055845458
-0.09871906 -0.40849817 0.055812374
-0.09889596 -0.40860459 0.055841479
-0.099083103 -0.40871337 0.055895917
-0.099221885 -0.40882 0.055774089
-0.099386483 -0.40892237 0.055780191
-0.099543698 -0.40902802 0.055736713
-0.099717215 -0.40913635 0.055740461
-0.099881269 -0.40924245 0.05572119
-0.10002764 -0.40934572 0.055650078
-0.10021267 -0.4094567 0.055682618
-0.10037414 -0.40956447 0.055642579
-0.10053113 -0.40966669 0.055619873
-0.10070914 -0.40977561 0.055637449
-0.10088679 -0.40988287 0.055664241
-0.10103817 -0.40999004 0.055588499
-0.1012138 -0.41010246 0.055574939
-0.1013947 -0.41020843 0.055622485
-0.10156865 -0.41031742 0.055623919
-0.10172998 -0.41042197 0.0556035
-0.10189113 -0.41052827 0.055571545
-0.10207013 -0.41063783 0.055589113
-0.10222252 -0.41074342 0.055527203
-0.10237143 -0.41084868 0.055453781
-0.10253644 -0.4109537 0.055444881
-0.10271582 -0.41106349 0.055462439
-0.10285951 -0.41116825 0.055371735
-0.10304046 -0.41127664 0.055404294
-0.10320197 -0.41138315 0.055372335
-0.10336107 -0.4114911 0.055321932
-0.10354629 -0.41160014 0.055367157
-0.10372715 -0.41170886 0.055397395
-0.10388826 -0.41181549 0.055363137
-0.10406294 -0.41192532 0.055362262
-0.10420945 -0.41203034 0.055280771
-0.10438326 -0.41213849 0.055286828
-0.10455683 -0.41224667 0.055291727
-0.10472937 -0.41235644 0.05528279
-0.10488464 -0.41246253 0.055228945
-0.10504657 -0.41256785 0.055206213
-0.10524906 -0.41268146 0.05529058
-0.10541949 -0.41279119 0.055273574
-0.10555995 -0.41289389 0.055182885
-0.10575137 -0.41300482 0.055240758
-0.10589598 -0.41311124 0.055143129
-0.10606718 -0.4132196 0.05513766
-0.10623626 -0.41332772 0.055125281
-0.10641184 -0.4134368 0.055132478
-0.10659529 -0.41354862 0.055153478
-0.10673438 -0.41365269 0.055048957
-0.10693482 -0.41376704 0.055120636
-0.10708457 -0.41387263 0.055048361
-0.10726114 -0.41398215 0.055056714
-0.1074068 -0.4140887 0.054962538
-0.1076017 -0.41420105 0.055025011
-0.10775541 -0.41430727 0.054964248
-0.10794179 -0.41441852 0.055000238
-0.10810271 -0.41452745 0.054950975
-0.10828238 -0.4146378 0.05496623
-0.10844491 -0.41474551 0.054930806
-0.10862052 -0.41485536 0.054933395
-0.10879475 -0.41496655 0.054922141
-0.1089687 -0.41507775 0.054909728
-0.10912676 -0.41518489 0.054860488
-0.10930775 -0.41529882 0.054858431
-0.10949688 -0.41541272 0.054888628
-0.10966162 -0.41552109 0.054857813
-0.10979322 -0.4156208 0.05475102
-0.10998276 -0.41573352 0.054790445
-0.11016112 -0.4158473 0.054779172
-0.11035106 -0.41596317 0.054800149
-0.11047889 -0.41606367 0.054673757
-0.11066085 -0.41617677 0.054680921
-0.11083725 -0.41628748 0.054681197
-0.11101452 -0.4164013 0.05466532
-0.11118834 -0.41651022 0.054666754
-0.11134025 -0.41661364 0.054616384
-0.11153318 -0.41673344 0.054624647
-0.11173128 -0.41684857 0.054682497
-0.11188064 -0.41695595 0.054597534
-0.11203186 -0.41706079 0.054535631
-0.11221269 -0.41717282 0.054545112
-0.11239114 -0.41728443 0.054547675
-0.11256433 -0.41739368 0.054544508
-0.11271691 -0.41750032 0.054476835
-0.11289403 -0.41761184 0.054474797
-0.11309601 -0.41773123 0.05452108
-0.11326814 -0.41784331 0.054495998
-0.11340959 -0.41794497 0.054415684
-0.11359099 -0.41805902 0.054414786
-0.11378087 -0.41817486 0.054435749
-0.11395693 -0.41828793 0.054419879
-0.11410181 -0.41839176 0.054339547
-0.11429705 -0.41850895 0.054373182
-0.11446237 -0.4186199 0.054328516
-0.11464292 -0.41873136 0.054340299
-0.029276859 -0.36779356 0.037739486
-0.029443048 -0.36790025 0.0377248
-0.029603936 -0.36800215 0.037719373
-0.029772151 -0.36811176 0.037694301
-0.029934004 -0.36821517 0.0376831
-0.030094385 -0.36831674 0.037677672
-0.030258257 -0.36842307 0.03765608
-0.030427754 -0.36853498 0.037621774
-0.030593552 -0.36864418 0.037589781
-0.030753441 -0.36874563 0.03758321
-0.030914467 -0.36884871 0.03757086
-0.031081177 -0.36895534 0.037558485
-0.03124069 -0.36905876 0.037538063
-0.031401437 -0.36916184 0.037524566
-0.031565756 -0.36926997 0.037493743
-0.03172389 -0.36936975 0.037490636
-0.031884108 -0.36947247 0.037477132
-0.032049518 -0.36958036 0.037452072
-0.032209374 -0.36968288 0.037438583
-0.032368813 -0.36978495 0.037426241
-0.032527115 -0.36988556 0.037418514
-0.032684289 -0.36998695 0.037401576
-0.032848019 -0.37009543 0.037366137
-0.033006299 -0.3701964 0.037356108
-0.033168722 -0.3703011 0.037339136
-0.033325892 -0.37040305 0.037318736
-0.03348843 -0.37050816 0.03729945
-0.033647899 -0.37061137 0.037280191
-0.033806503 -0.37071347 0.037264396
-0.033966761 -0.37081811 0.037239362
-0.034122501 -0.37091637 0.037236266
-0.034284685 -0.37102407 0.037199687
-0.034443881 -0.37112525 0.037191954
-0.034596112 -0.37122354 0.037175041
-0.034757011 -0.37132746 0.037156925
-0.034910463 -0.37142539 0.037146922
-0.035073217 -0.37152994 0.037132256
-0.035228983 -0.37163153 0.037108392
-0.035386812 -0.37173149 0.037102979
-0.035543367 -0.37183213 0.037088353
-0.035696708 -0.37193057 0.037074883
-0.035855722 -0.37203515 0.037045244
-0.036013149 -0.37213501 0.037038684
-0.036167379 -0.37223771 0.037002139
-0.036325883 -0.37233698 0.037003644
-0.036481969 -0.37244028 0.036970552
-0.036641255 -0.37254354 0.036950141
-0.036797144 -0.37264431 0.036932047
-0.036949631 -0.37274256 0.036916282
-0.037103586 -0.37284064 0.036907427
-0.037258618 -0.37293792 0.036907796
-0.037414297 -0.37303892 0.036887407
-0.037568819 -0.37313828 0.036872778
-0.037722804 -0.37323692 0.036860466
-0.037879366 -0.3733398 0.03683199
-0.038031779 -0.37343892 0.036810454
-0.038187921 -0.37353873 0.036799278
-0.038342975 -0.37363696 0.036793888
-0.038496599 -0.37373576 0.036779266
-0.038648587 -0.37383205 0.036773883
-0.038805477 -0.37393638 0.036737327
-0.038956411 -0.37403405 0.036719266
-0.039114811 -0.37413841 0.036688466
-0.039264403 -0.37423134 0.036694638
-0.039419789 -0.37433678 0.036645401
-0.039572999 -0.3744331 0.036644623
-0.03972213 -0.37452853 0.036633492
-0.039875504 -0.37462825 0.036611952
-0.040030591 -0.37472519 0.03661463
-0.040185235 -0.37482443 0.036601163
-0.040338345 -0.37492421 0.036578462
-0.040489763 -0.37502125 0.036566161
-0.040641047 -0.3751182 0.036553871
-0.040790275 -0.37521476 0.036535811
-0.040945724 -0.37531617 0.03651195
-0.041099794 -0.37542152 0.036458101
-0.041248031 -0.37551379 0.036463123
-0.041399755 -0.37561232 0.036442749
-0.041552957 -0.37571362 0.036410823
-0.041705046 -0.37580997 0.036405448
-0.041859038 -0.37591305 0.036365446
-0.042011507 -0.37601686 0.036315065
-0.042158782 -0.37611145 0.036301631
-0.042309545 -0.37620604 0.036302023
-0.04245884 -0.37629804 0.036312811
-0.042608202 -0.37639028 0.036322434
-0.042757448 -0.3764891 0.036290538
-0.042904533 -0.37657732 0.036316331
-0.043055728 -0.37667328 0.036309801
-0.043203931 -0.37676719 0.036304433
-0.043354757 -0.37686273 0.036299054
-0.043500587 -0.3769559 0.036289088
-0.043650053 -0.37705263 0.036271039
-0.04380054 -0.37714797 0.03626566
-0.043949746 -0.37724453 0.0362476
-0.044098493 -0.37733674 0.036254931
-0.044244744 -0.37743145 0.036236886
-0.04439345 -0.37752384 0.036243055
-0.044536375 -0.3776122 0.03625156
-0.044681955 -0.37770224 0.036260057
-0.044830315 -0.37779421 0.036267389
-0.044975631 -0.37788391 0.036277033
-0.045115974 -0.37796733 0.036306322
-0.045255844 -0.37804195 0.036388684
-0.04539967 -0.37812072 0.036460631
-0.045535192 -0.37819391 0.036534939
-0.045674622 -0.37826717 0.036624223
-0.045810238 -0.37833616 0.036725055
-0.045946002 -0.37840527 0.036825899
-0.046082482 -0.37847146 0.036947496
-0.04621774 -0.3785347 0.037082944
-0.046348289 -0.37859148 0.037240334
-0.046482772 -0.37865219 0.037388477
-0.046615336 -0.37870818 0.037558548
-0.046742667 -0.37876073 0.037729803
-0.046877146 -0.37881553 0.037914861
-0.047010329 -0.37886673 0.038117234
-0.047141172 -0.37891647 0.038319618
-0.047265396 -0.3789641 0.038509347
-0.047393076 -0.37900501 0.038754433
-0.047526196 -0.37905324 0.038975261
-0.047660537 -0.37909871 0.039218005
-0.047795679 -0.37914526 0.039457284
-0.048161458 -0.37672162 0.056030005
-0.048306897 -0.37680104 0.056104261
-0.048470654 -0.37689808 0.056140345
-0.048627503 -0.37698913 0.056186862
-0.048787296 -0.37708163 0.05623566
-0.048955962 -0.37718582 0.05624634
-0.049120151 -0.37728402 0.05627666
-0.0492929 -0.37740058 0.05622619
-0.050852753 -0.38092595 0.040323254
-0.050978258 -0.38098988 0.040416054
-0.051110037 -0.38105944 0.040498458
-0.051257163 -0.38112828 0.04064538
-0.052496221 -0.38059178 0.048855472
-0.052635733 -0.38067061 0.048910141
-0.052785303 -0.38076019 0.048937075
-0.05332838 -0.37931925 0.06006711
-0.053497173 -0.37942535 0.060066253
-0.053631887 -0.37951154 0.060056351
-0.053792708 -0.37961927 0.060014009
-0.053972259 -0.37973952 0.059966952
-0.054153975 -0.37985745 0.059942964
-0.054348864 -0.37998775 0.059893522
-0.054491058 -0.3800557 0.060026631
-0.054661453 -0.38017353 0.05995886
-0.054850452 -0.38028681 0.059992522
-0.054995034 -0.38036752 0.060055234
-0.055166289 -0.3805114 0.059828259
-0.055348132 -0.38061592 0.059888482
-0.055503145 -0.38071039 0.059906155
-0.055703033 -0.38084236 0.059865922
-0.055858038 -0.3809374 0.059880137
-0.056039903 -0.38106444 0.059799626
-0.056205135 -0.38117424 0.059761867
-0.056366391 -0.38127524 0.059763368
-0.056527529 -0.38137561 0.059768319
-0.056704964 -0.38149399 0.059724741
-0.056851286 -0.38159299 0.059680168
-0.057014652 -0.38168758 0.059730101
-0.057206638 -0.38180825 0.059729129
-0.057366736 -0.38189763 0.059798695
-0.057524305 -0.38199189 0.059827901
-0.057704959 -0.38212246 0.059720844
-0.057881501 -0.38223767 0.059693418
-0.058039233 -0.38233832 0.059683397
-0.058215942 -0.38246232 0.059601754
-0.05837949 -0.38256201 0.059620537
-0.058549188 -0.38266462 0.059645064
-0.058716059 -0.38277709 0.059596919
-0.058876514 -0.38287851 0.059592649
-0.059046179 -0.38298738 0.059577949
-0.059206538 -0.38309982 0.059504464
-0.059357498 -0.38319916 0.059476011
-0.059529956 -0.38330907 0.059465908
-0.059702586 -0.38340688 0.059531957
-0.059890099 -0.38353747 0.059451405
-0.060062405 -0.38364598 0.059449375
-0.060231809 -0.38374767 0.059478521
-0.060394283 -0.38386145 0.059405014
-0.060544956 -0.38395545 0.059408873
-0.060732339 -0.3840749 0.059397548
-0.060895361 -0.38417479 0.059412874
-0.061051678 -0.38427785 0.059382088
-0.06122043 -0.38438579 0.059369706
-0.061373353 -0.3844884 0.059328564
-0.061529249 -0.38459268 0.059288539
-0.061692994 -0.38468415 0.059359238
-0.061857361 -0.38479948 0.059283432
-0.062032379 -0.38490731 0.059296392
-0.062197395 -0.38501528 0.059269022
-0.062381506 -0.38512918 0.059279628
-0.062538341 -0.38522369 0.059304215
-0.062690236 -0.38532823 0.05924692
-0.06285838 -0.38543579 0.059234537
-0.063031271 -0.38555464 0.059170213
-0.063205563 -0.38566494 0.059164718
-0.063368201 -0.38576421 0.059182361
-0.063517764 -0.38586009 0.059170067
-0.063681282 -0.38597158 0.059115022
-0.063847132 -0.38607177 0.059139565
-0.064019732 -0.38618839 0.059087932
-0.064186268 -0.3863003 0.059042104
-0.064341761 -0.38639915 0.059034389
-0.064520881 -0.38651636 0.059004642
-0.064675733 -0.38661721 0.058981948
-0.064833537 -0.38672012 0.058958072
-0.065001488 -0.38682497 0.058961838
-0.065169424 -0.38694197 0.058889471
-0.065324582 -0.38702881 0.058955595
-0.065500356 -0.38714337 0.058929335
-0.065662213 -0.38724402 0.058935441
-0.065828063 -0.38735473 0.058894221
-0.065992326 -0.38745892 0.058887627
-0.066155501 -0.3875556 0.058923721
-0.066319108 -0.38767174 0.058839828
-0.066491306 -0.38777444 0.058873571
-0.066637747 -0.38788515 0.058756314
-0.066787392 -0.38799658 0.058647115
-0.066967413 -0.38810772 0.058658898
-0.067133516 -0.38818794 0.058809184
-0.067288548 -0.38829485 0.058749564
-0.067467302 -0.38840038 0.058791351
-0.067627124 -0.38848755 0.058873609
-0.067784704 -0.38859695 0.058808211
-0.067947872 -0.3887108 0.05873701
-0.068115629 -0.38883102 0.058643878
-0.068297371 -0.38892275 0.058783699
-0.068447836 -0.3890214 0.058757562
-0.068597071 -0.38914531 0.058568761
-0.068766549 -0.38926074 0.058512527
-0.068945795 -0.38935807 0.058607385
-0.069108829 -0.38947737 0.058501579
-0.069268465 -0.38957331 0.058528461
-0.069439188 -0.38967878 0.058539137
-0.069601022 -0.38977125 0.058596
-0.069764696 -0.38988155 0.058549024
-0.069941826 -0.38998365 0.05860582
-0.070099734 -0.39009604 0.058523111
-0.070271403 -0.39021319 0.058464557
-0.070441008 -0.39033312 0.058380648
-0.070602469 -0.3904202 0.058469813
-0.070754692 -0.39052716 0.058398671
-0.070916176 -0.39063311 0.058370166
-0.071078621 -0.39073765 0.058354348
-0.07124234 -0.39084038 0.058354676
-0.071405299 -0.39094412 0.05834578
-0.071567222 -0.39104334 0.058361113
-0.071728118 -0.39114392 0.058363762
-0.071895577 -0.39124769 0.058372147
-0.072074369 -0.3913601 0.058371242
-0.072255678 -0.39148054 0.058329955
-0.072415277 -0.39158809 0.05828416
-0.072566718 -0.39168328 0.058283396
-0.072728679 -0.39179322 0.058231819
-0.072892226 -0.3919012 0.05819869
-0.073053546 -0.39200112 0.05820711
-0.073221989 -0.39210889 0.058194712
-0.073379315 -0.39220795 0.058192771
-0.073526353 -0.39231259 0.058115888
-0.073695838 -0.39241415 0.058146182
-0.073870309 -0.3925207 0.058164913
-0.0740292 -0.39263275 0.058087964
-0.074203543 -0.39273942 0.058105543
-0.074356809 -0.39282799 0.058153227
-0.074515864 -0.39292079 0.058197413
-0.074679099 -0.3930378 0.058106612
-0.074832104 -0.39314526 0.058035459
-0.074991107 -0.39323819 0.058078494
-0.075143076 -0.39334628 0.057999287
-0.075302191 -0.39345258 0.057959262
-0.075468674 -0.39356151 0.057931878
-0.075633235 -0.39366752 0.057914902
-0.075810343 -0.39376354 0.058009762
-0.075965576 -0.39388126 0.057883225
-0.076134577 -0.39398381 0.057905454
-0.076289088 -0.39408481 0.057880439
-0.076453984 -0.39419052 0.05786692
-0.076621756 -0.3942982 0.057852231
-0.076788962 -0.39439407 0.057909071
-0.076959424 -0.39449993 0.057916284
-0.07712023 -0.39460453 0.057893559
-0.077284239 -0.39471483 0.057847731
-0.077442929 -0.39481682 0.05783309
-0.07760594 -0.39492372 0.057804577
-0.077773973 -0.39503121 0.05779219
-0.077940375 -0.39513969 0.05776713
-0.078092143 -0.39524212 0.05772252
-0.078253552 -0.39534229 0.057729788
-0.078421041 -0.39544261 0.05776009
-0.078588605 -0.39556143 0.05767503
-0.078760095 -0.39566311 0.057712235
-0.078915715 -0.39577037 0.057652608
-0.079081722 -0.39587528 0.057648312
-0.079245701 -0.39598131 0.05762903
-0.079409376 -0.39609104 0.057585511
-0.079564542 -0.39618066 0.057634335
-0.079727471 -0.3962768 0.057672739
-0.07989341 -0.39638537 0.057645369
-0.080060624 -0.39649326 0.057627223
-0.080230519 -0.3966032 0.057606749
-0.080386229 -0.39671326 0.057529826
-0.080536917 -0.39682221 0.057440236
-0.08072415 -0.39692384 0.057539657
-0.080874115 -0.39702311 0.057507753
-0.081045859 -0.39712885 0.057520729
-0.081193656 -0.39723229 0.057454221
-0.081368648 -0.39733991 0.05746834
-0.081515372 -0.39744046 0.057415687
-0.081682838 -0.39755127 0.057380229
-0.081829011 -0.39763927 0.057403721
-0.081993259 -0.39774197 0.057406351
-0.082165241 -0.39784789 0.05741933
-0.082340851 -0.39796788 0.057358451
-0.082496598 -0.39807391 0.057306904
-0.082663842 -0.39818165 0.057289906
-0.082806416 -0.39828032 0.057232663
-0.082989201 -0.39838839 0.057274424
-0.083151728 -0.39849186 0.057265528
-0.083305568 -0.39859539 0.057222065
-0.083466761 -0.39869931 0.057205096
-0.08362934 -0.39879987 0.05721467
-0.083792366 -0.3989003 0.057226527
-0.083953366 -0.39900726 0.05718996
-0.084110916 -0.3991181 0.057115328
-0.084285349 -0.39922649 0.057122521
-0.084448695 -0.39932695 0.057135537
-0.084614806 -0.3994323 0.057128932
-0.084760636 -0.39954078 0.05702322
-0.084905431 -0.39963549 0.056999411
-0.085062586 -0.39973503 0.056993999
-0.08521913 -0.39983749 0.056967836
-0.085391372 -0.39994392 0.056978498
-0.085569486 -0.40004075 0.057072204
-0.085743889 -0.40015224 0.057059791
-0.085925356 -0.40025929 0.057102714
-0.086088583 -0.40037096 0.057045359
-0.086244673 -0.40047368 0.057015728
-0.086401418 -0.40057889 0.056973405
-0.086563088 -0.40068293 0.056957591
-0.086718708 -0.40078831 0.056909505
-0.086866878 -0.40088499 0.056886837
-0.087043397 -0.40099096 0.056917101
-0.087212384 -0.40109608 0.05692317
-0.087360367 -0.40120554 0.056819744
-0.087524675 -0.40131161 0.056801613
-0.087697752 -0.40141597 0.056828432
-0.08784724 -0.40151495 0.056796521
-0.087998599 -0.40162098 0.056727696
-0.088162325 -0.40172225 0.056737252
-0.088344246 -0.40182775 0.056791712
-0.088509791 -0.40192884 0.056809328
-0.088670328 -0.40203089 0.056801602
-0.088841766 -0.40214327 0.056771893
-0.089010611 -0.40225607 0.05672951
-0.089151874 -0.40235871 0.056642275
-0.089311987 -0.40245846 0.05664723
-0.089487605 -0.40256071 0.056697112
-0.089669041 -0.40266702 0.056744646
-0.089812502 -0.40277863 0.0566101
-0.089974955 -0.40288058 0.056610432
-0.090159498 -0.40299362 0.056627963
-0.090307876 -0.40309283 0.056590289
-0.090469353 -0.40319729 0.056571022
-0.090628698 -0.40329745 0.056570217
-0.090783849 -0.40340498 0.056507133
-0.09095259 -0.40350643 0.056535125
-0.09111163 -0.40360898 0.056518175
-0.091275536 -0.40371332 0.056509271
-0.091429852 -0.40382308 0.056428891
-0.091597624 -0.40392262 0.056464955
-0.091748297 -0.40402603 0.056409981
-0.091930643 -0.40413105 0.056469053
-0.092077263 -0.40424353 0.056341406
-0.092210449 -0.4043439 0.056236904
-0.092379153 -0.40444145 0.056289122
-0.092587046 -0.40454924 0.056431126
-0.092751041 -0.40465602 0.056407221
-0.092908792 -0.40476111 0.056369513
-0.093068674 -0.40486604 0.056341022
-0.093226135 -0.40497112 0.056302153
-0.093387857 -0.40508017 0.056255195
-0.093560055 -0.40518659 0.056265861
-0.093710363 -0.40528995 0.056209728
-0.093878984 -0.40539244 0.056230791
-0.094039798 -0.4054974 0.056205753
-0.094220012 -0.40560165 0.056261372
-0.094374344 -0.40571105 0.056183301
-0.094523489 -0.40581238 0.056135248
-0.094714455 -0.40591857 0.056220811
-0.094861954 -0.40602607 0.056127779
-0.095026374 -0.40613109 0.056116562
-0.095191129 -0.40623614 0.056106504
-0.095340773 -0.40634149 0.05603537
-0.095506579 -0.40644258 0.056054141
-0.095694222 -0.40654945 0.056122422
-0.095862284 -0.40665862 0.056099653
-0.095998406 -0.40676597 0.055962831
-0.096187167 -0.40687114 0.056046095
-0.096356615 -0.40697452 0.056064852
-0.096522495 -0.40708768 0.056008641
-0.096663624 -0.40719098 0.05591679
-0.096814394 -0.40728855 0.055898722
-0.096997216 -0.40739608 0.055943951
-0.097151741 -0.40749952 0.055903949
-0.097318538 -0.40760696 0.05588695
-0.097491689 -0.40771267 0.055905689
-0.097647667 -0.40781993 0.05584722
-0.097807109 -0.40792164 0.055837188
-0.097985737 -0.40802583 0.055887047
-0.098151393 -0.40813717 0.055841219
-0.098311104 -0.40824273 0.055808112
-0.098473012 -0.40834653 0.055794608
-0.098648421 -0.40845829 0.055784486
-0.098807022 -0.40856022 0.055769838
-0.098977521 -0.40867183 0.055741295
-0.099143162 -0.40877596 0.055740464
-0.099298716 -0.40887964 0.055702757
-0.099484585 -0.40898672 0.055762969
-0.099640504 -0.40909231 0.055714875
-0.09979932 -0.40919805 0.055677161
-0.099954695 -0.40930182 0.055638306
-0.10011765 -0.40940961 0.055604029
-0.10030543 -0.40951899 0.055657301
-0.10044783 -0.40962198 0.055572372
-0.10061401 -0.40972829 0.055559989
-0.10079317 -0.40983558 0.055592544
-0.10095856 -0.40994194 0.055576716
-0.10111135 -0.41004741 0.055517104
-0.10128132 -0.41015592 0.055505861
-0.10141975 -0.4102568 0.05541864
-0.10161532 -0.41037089 0.055473033
-0.1017755 -0.41047525 0.055449151
-0.10195681 -0.41058147 0.055496685
-0.10213295 -0.41068909 0.055515409
-0.10227601 -0.41079378 0.055422399
-0.10244092 -0.41089875 0.055413492
-0.10260528 -0.41100538 0.055391897
-0.10277876 -0.41111463 0.055389866
-0.10291575 -0.41121867 0.055277266
-0.10309245 -0.41132662 0.055295989
-0.10325667 -0.41143337 0.055273242
-0.10342624 -0.41154069 0.055267774
-0.10360052 -0.41164693 0.055287655
-0.10377774 -0.41175851 0.055285607
-0.10394479 -0.41186574 0.055270918
-0.10410912 -0.41197109 0.055257402
-0.10428636 -0.41208121 0.055264581
-0.10445443 -0.41218871 0.055252198
-0.10461064 -0.41229486 0.055201806
-0.10478966 -0.41240537 0.055213589
-0.10494266 -0.41251117 0.055152826
-0.10513958 -0.41262239 0.055230279
-0.10527286 -0.41272575 0.055107318
-0.10545158 -0.41283643 0.055116802
-0.10562296 -0.41294307 0.05512286
-0.1058083 -0.41305476 0.055151917
-0.10595371 -0.41315967 0.055066973
-0.10611627 -0.41326684 0.055035003
-0.10631306 -0.41337875 0.055107847
-0.10646547 -0.41348618 0.055034395
-0.10662694 -0.41359174 0.055008195
-0.1068101 -0.41370356 0.055028047
-0.10698298 -0.41381243 0.055026017
-0.10714824 -0.41392332 0.054981343
-0.10730313 -0.41402811 0.05493442
-0.10749377 -0.4141413 0.054974988
-0.10765511 -0.41424862 0.054937251
-0.10782204 -0.41435838 0.054906417
-0.10798347 -0.41446576 0.054868687
-0.10817517 -0.41457945 0.054910403
-0.108325 -0.41468507 0.054838125
-0.10850485 -0.41479704 0.054844134
-0.10868159 -0.41490704 0.054850165
-0.10884784 -0.41501689 0.054815874
-0.10901131 -0.41512483 0.054782744
-0.10918967 -0.41523677 0.054782998
-0.10936981 -0.41535056 0.054778624
-0.10954162 -0.41546154 0.054759305
-0.10972525 -0.41557458 0.054773372
-0.10992162 -0.41568989 0.054823142
-0.11007392 -0.41579616 0.054756612
-0.11022335 -0.4159019 0.054682028
-0.11035759 -0.4160035 0.054574061
-0.11055695 -0.41612253 0.054612279
-0.11074556 -0.41623536 0.054647088
-0.1109148 -0.41634914 0.054600094
-0.11108258 -0.41645831 0.054576173
-0.11124929 -0.4165659 0.054558028
-0.111448 -0.41668525 0.05459163
-0.11162916 -0.4167971 0.054603409
-0.11176278 -0.41689569 0.054511592
-0.11195432 -0.41701537 0.054515243
-0.11212654 -0.41712567 0.054501683
-0.1123163 -0.41724515 0.05449957
-0.11248495 -0.41735485 0.054475646
-0.11264257 -0.41746244 0.054421786
-0.11283419 -0.41757682 0.054458883
-0.11299299 -0.41768327 0.05441656
-0.11316361 -0.41779497 0.054388005
-0.11333539 -0.41790554 0.054370984
-0.11352234 -0.41802067 0.054385044
-0.11370137 -0.41813284 0.054386444
-0.113842 -0.41823992 0.054269221
-0.11403223 -0.41835451 0.054299403
-0.11421166 -0.41846693 0.054300811
-0.11438815 -0.4185788 0.054294147
-0.11455271 -0.41869372 0.054221787
-0.11473216 -0.41880357 0.054239344
-0.029373188 -0.36786145 0.037693296
-0.02954077 -0.36797011 0.037671693
-0.029702775 -0.36807361 0.037660502
-0.029868603 -0.3681823 0.037631989
-0.030027557 -0.36828405 0.037619662
-0.030191701 -0.36838871 0.037609607
-0.030354559 -0.36849385 0.037591502
-0.030518007 -0.36859995 0.037569921
-0.030679964 -0.36870417 0.037554108
-0.030841116 -0.36880952 0.03752793
-0.031006005 -0.36891374 0.037523642
-0.031170711 -0.36902207 0.037492838
-0.031332932 -0.36912718 0.037472412
-0.031494707 -0.36923185 0.037453152
-0.031656459 -0.36933446 0.03744657
-0.031814147 -0.36943376 0.037444625
-0.031974163 -0.36953637 0.037431143
-0.032139651 -0.3696467 0.037391093
-0.032300971 -0.36974922 0.037383363
-0.032458268 -0.36984846 0.037380271
-0.032618549 -0.36995199 0.037362166
-0.032775514 -0.37005326 0.037345238
-0.032944333 -0.37016454 0.037312094
-0.033102866 -0.37026605 0.037299767
-0.033257592 -0.37036684 0.03727708
-0.033419549 -0.37047344 0.037246279
-0.033579059 -0.37057444 0.037240867
-0.033741191 -0.37067932 0.037221603
-0.03389854 -0.37078214 0.037196595
-0.034055963 -0.37088054 0.037199263
-0.034216978 -0.37098655 0.037168466
-0.034379307 -0.37109229 0.03714459
-0.034531664 -0.37118843 0.037141524
-0.034692079 -0.37129167 0.037125718
-0.034849688 -0.37139335 0.037108786
-0.035009757 -0.37149638 0.037092991
-0.035166804 -0.37159988 0.037062217
-0.035327613 -0.37170431 0.037040651
-0.035480168 -0.3718015 0.037031811
-0.035637211 -0.37190059 0.037028722
-0.035798378 -0.37200597 0.037002534
-0.035951339 -0.37210417 0.036989085
-0.036107838 -0.37220532 0.036970999
-0.036264494 -0.37230435 0.036966752
-0.036423169 -0.37240908 0.036934815
-0.03657959 -0.37251055 0.036914431
-0.036735639 -0.37261158 0.036895197
-0.036890291 -0.37271068 0.036882877
-0.037047435 -0.37281111 0.03687172
-0.037203599 -0.37291279 0.036849014
-0.037359178 -0.37301633 0.036812484
-0.037515678 -0.3731136 0.036818627
-0.037670176 -0.37321311 0.036802851
-0.037823435 -0.37330818 0.03681016
-0.037972819 -0.37340522 0.036789808
-0.038132008 -0.37350991 0.03676017
-0.038289666 -0.37361234 0.036738619
-0.038444363 -0.3737129 0.036717091
-0.038595691 -0.37380823 0.03671518
-0.038750648 -0.3739095 0.036690183
-0.038902283 -0.37400559 0.036684807
-0.039057869 -0.37410542 0.036671337
-0.03921254 -0.37420669 0.036645189
-0.039369278 -0.37430874 0.036622494
-0.039519388 -0.37440568 0.036605589
-0.039675452 -0.37450695 0.036585204
-0.039827924 -0.37460816 0.036550991
-0.039984152 -0.3747071 0.036545597
-0.040135235 -0.37480336 0.036536764
-0.040291019 -0.37491366 0.036458708
-0.040438872 -0.37500182 0.036487959
-0.040593415 -0.37509546 0.0365091
-0.040742572 -0.37519199 0.036491051
-0.040898636 -0.37529454 0.036462586
-0.0410496 -0.37539145 0.036449138
-0.041200258 -0.37548801 0.036436852
-0.04135162 -0.37558594 0.036418799
-0.041505419 -0.37568521 0.036401875
-0.04166019 -0.37578952 0.036357272
-0.041811928 -0.37588546 0.036353059
-0.041962545 -0.37598273 0.03633615
-0.042114433 -0.37608245 0.03630887
-0.042265546 -0.37618095 0.036286201
-0.042419437 -0.37628472 0.036241598
-0.042570524 -0.37638357 0.03621662
-0.042720094 -0.37648314 0.036181271
-0.042867605 -0.37657237 0.036202446
-0.043015372 -0.37666211 0.036221307
-0.043165505 -0.37675983 0.036199793
-0.043316297 -0.37685201 0.036215194
-0.043463871 -0.37694517 0.036212139
-0.043613791 -0.37704292 0.036189474
-0.043762598 -0.37713516 0.036196806
-0.04391434 -0.37722963 0.036201809
-0.044064302 -0.37732798 0.036175687
-0.04421353 -0.37742141 0.036177244
-0.044361182 -0.37751552 0.03616843
-0.044511572 -0.37761521 0.036135387
-0.044657513 -0.37770623 0.036139268
-0.044808466 -0.37780371 0.036122359
-0.044951871 -0.37788981 0.036147013
-0.045100033 -0.37798184 0.036153197
-0.045246296 -0.37807783 0.03612709
-0.045391358 -0.37816367 0.036159806
-0.04553584 -0.3782523 0.036172926
-0.045677386 -0.37833074 0.036237951
-0.045819126 -0.3784095 0.036301829
-0.045958862 -0.37848386 0.036385324
-0.04609745 -0.37855974 0.036454987
-0.046237484 -0.37863022 0.036563847
-0.04637311 -0.37869921 0.036664661
-0.046511821 -0.37877053 0.036763158
-0.046647251 -0.37883425 0.03689627
-0.046781771 -0.37889555 0.037040912
-0.046914533 -0.37895244 0.037206329
-0.04704871 -0.37901205 0.037360206
-0.04718326 -0.37906745 0.037541755
-0.047313798 -0.37912217 0.037711795
-0.047446314 -0.37917632 0.037893362
-0.047578841 -0.37922508 0.038108367
-0.047710739 -0.37927642 0.038304929
-0.047837421 -0.37931931 0.038533811
-0.047968298 -0.3793667 0.038751133
-0.048105706 -0.37941429 0.038992643
-0.0482403 -0.37945902 0.03924109
-0.048376843 -0.37951291 0.039439939
-0.048675843 -0.37707222 0.055857375
-0.048815541 -0.37714249 0.055966236
-0.048971198 -0.37723073 0.056025438
-0.049128123 -0.37732255 0.056067321
-0.049290664 -0.37741661 0.056117248
-0.049456254 -0.37751979 0.056122184
-0.049625888 -0.37762052 0.056158248
-0.049793113 -0.37772897 0.056136649
-0.05130747 -0.38123554 0.040172614
-0.051440634 -0.38130301 0.040273439
-0.051564734 -0.38136941 0.040345471
-0.051705189 -0.38143814 0.040467031
-0.052976631 -0.3809059 0.048777379
-0.054018807 -0.37976384 0.059997611
-0.054159191 -0.37985229 0.059995756
-0.054311395 -0.37996033 0.059917714
-0.054493804 -0.38008368 0.059862599
-0.054678269 -0.3802039 0.059835143
-0.054871395 -0.3803266 0.059826098
-0.055011101 -0.38039538 0.059944198
-0.055175059 -0.38051119 0.059863791
-0.055357099 -0.38061714 0.059915934
-0.055512223 -0.38071263 0.059927844
-0.055678792 -0.38085058 0.05971941
-0.055860344 -0.380954 0.059785388
-0.056018502 -0.38105267 0.059789211
-0.056217283 -0.38117948 0.059776679
-0.05638501 -0.38128734 0.059760846
-0.056559525 -0.38140535 0.059708077
-0.056721337 -0.38151407 0.059663441
-0.056885347 -0.38161644 0.059667222
-0.05704299 -0.38171333 0.059680279
-0.057220228 -0.38183489 0.059615955
-0.057366125 -0.38193384 0.059570245
-0.05753231 -0.38202852 0.059630543
-0.057711419 -0.3821387 0.059644632
-0.057874646 -0.38223153 0.059704944
-0.058031965 -0.38232434 0.05974222
-0.058218189 -0.38245985 0.059625946
-0.058397342 -0.38257524 0.059607752
-0.058545593 -0.38267252 0.059581637
-0.058737129 -0.38280621 0.059497632
-0.058897346 -0.38290325 0.059519898
-0.059066817 -0.38300589 0.059543274
-0.059233226 -0.38311696 0.059502073
-0.059390306 -0.38321644 0.05949666
-0.059556533 -0.38332427 0.059475068
-0.059722513 -0.38343987 0.059403889
-0.059873201 -0.38353553 0.059397362
-0.060045287 -0.3836472 0.059374593
-0.060217895 -0.38374391 0.059447534
-0.060395569 -0.38386908 0.059362456
-0.060570572 -0.38398093 0.059350044
-0.060733479 -0.38408113 0.059363067
-0.060905084 -0.38419417 0.059329916
-0.061052077 -0.38429102 0.059301496
-0.06123627 -0.38440552 0.059308644
-0.061411329 -0.38451335 0.059321605
-0.061567135 -0.38461775 0.059280463
-0.061723161 -0.38471898 0.05926007
-0.061885212 -0.38482437 0.059237346
-0.062040534 -0.38492993 0.059186973
-0.062201016 -0.38502085 0.059248455
-0.062367368 -0.38514149 0.059147283
-0.062542722 -0.38524508 0.059187919
-0.062710509 -0.38535425 0.059164017
-0.062897369 -0.38547024 0.059172299
-0.063050918 -0.38556308 0.059194602
-0.063202485 -0.38566667 0.059141945
-0.063367404 -0.38577142 0.059134196
-0.063537024 -0.38588673 0.05907914
-0.063701279 -0.38599387 0.059054099
-0.06387648 -0.3860983 0.05908896
