# .PCD v0.7 - Point Cloud Data file format
VERSION 0.7
FIELDS x y z
SIZE 4 4 4
TYPE F F F
COUNT 1 1 1
WIDTH 1240
HEIGHT 1
VIEWPOINT 0 0 0 1 0 0 0
POINTS 1240
DATA ascii
-0.25737646 -0.13345438 0.039911374
-0.25758535 -0.13337463 0.039821979
-0.2577948 -0.13329631 0.039721049
-0.25799182 -0.13321862 0.039653588
-0.25819448 -0.13313822 0.039587263
-0.25838181 -0.1330611 0.039545197
-0.25857165 -0.13298269 0.039504275
-0.25875804 -0.1329058 0.03946336
-0.25894484 -0.13282636 0.03943859
-0.25911623 -0.13275139 0.039430015
-0.25929573 -0.13267095 0.039434079
-0.25946519 -0.13259618 0.039430115
-0.25964165 -0.13251862 0.039423823
-0.25980562 -0.13244271 0.039444085
-0.25997147 -0.13236547 0.0394678
-0.26013523 -0.13228829 0.039497279
-0.2603029 -0.13221107 0.039515231
-0.26045597 -0.13213408 0.039575875
-0.26061216 -0.13205706 0.039627284
-0.26075944 -0.13197874 0.039714471
-0.26090443 -0.13190177 0.039799344
-0.26105645 -0.13182473 0.03986346
-0.2612012 -0.13174769 0.039949484
-0.26134384 -0.13166924 0.040051665
-0.26148573 -0.13159212 0.040146936
-0.26162457 -0.13151635 0.04024221
-0.26177138 -0.13143773 0.04033285
-0.2619099 -0.13136329 0.040420059
-0.26205406 -0.13128313 0.040529154
-0.26218477 -0.13120709 0.040650975
-0.26232535 -0.13112819 0.04076238
-0.26245159 -0.13105191 0.040899202
-0.26257718 -0.13097407 0.041048698
-0.2627036 -0.13089468 0.041206274
-0.26282606 -0.13081653 0.041367315
-0.26294261 -0.13073812 0.041547965
-0.26306048 -0.13065812 0.041735537
-0.26316977 -0.13057922 0.041941587
-0.25887787 -0.12961163 0.061502054
-0.25907534 -0.12952337 0.061504923
-0.25928062 -0.12943555 0.061481245
-0.25949085 -0.12934808 0.061440267
-0.25964695 -0.12926686 0.061520502
-0.25988075 -0.12917365 0.061447162
-0.26006854 -0.12909243 0.061431617
-0.26026422 -0.1290009 0.061462164
-0.260501 -0.12891011 0.061363455
-0.26067436 -0.12882461 0.061420575
-0.26088887 -0.12873997 0.061347306
-0.26103052 -0.12866889 0.061402213
-0.26126039 -0.12858185 0.061298918
-0.26147786 -0.12848862 0.06127521
-0.2616905 -0.12838957 0.061305702
-0.26190439 -0.12829995 0.061268169
-0.26210961 -0.12821352 0.061235271
-0.26230299 -0.12812623 0.061243914
-0.26250657 -0.12803985 0.061215635
-0.26271281 -0.12795381 0.061176963
-0.26290897 -0.12786698 0.061174076
-0.26309741 -0.12777953 0.061198868
-0.2632893 -0.12769817 0.061171785
-0.26343873 -0.12762432 0.061222062
-0.26368564 -0.12753698 0.061069131
-0.26388702 -0.12744531 0.061083518
-0.26406741 -0.12737092 0.061043784
-0.26427931 -0.12727661 0.061044298
-0.26445082 -0.12719752 0.061063379
-0.26466799 -0.12710984 0.061002783
-0.26485834 -0.12702119 0.061029885
-0.26504895 -0.12693261 0.061055832
-0.26525337 -0.12685569 0.060960673
-0.26541999 -0.12677029 0.061037418
-0.26564643 -0.12667833 0.060977943
-0.2658155 -0.12659931 0.061003957
-0.26604971 -0.12650864 0.060912173
-0.26621038 -0.12642249 0.061011996
-0.26643941 -0.12633345 0.060924836
-0.26661521 -0.1262494 0.060964666
-0.26685452 -0.12615596 0.060876325
-0.26706797 -0.12606722 0.060834177
-0.267261 -0.12599011 0.060774803
-0.26743743 -0.12591477 0.060753517
-0.26764145 -0.12581445 0.060818627
-0.26779577 -0.12573572 0.060887337
-0.26799124 -0.1256509 0.060872912
-0.26819736 -0.12557644 0.060755864
-0.26839951 -0.12549086 0.060726427
-0.2685912 -0.12540789 0.06071087
-0.26878831 -0.12531301 0.060759854
-0.26902014 -0.12522002 0.060691133
-0.26920456 -0.1251469 0.060630627
-0.26941779 -0.12505299 0.060624227
-0.26957804 -0.12498213 0.060621437
-0.26977366 -0.12490047 0.060585115
-0.26999983 -0.1248005 0.060580976
-0.2701672 -0.1247268 0.060575858
-0.27034533 -0.12465087 0.060553417
-0.2705479 -0.12455528 0.060590863
-0.27074352 -0.1244809 0.060504954
-0.27092069 -0.12440049 0.060515955
-0.27109921 -0.12431355 0.060567301
-0.27129859 -0.12423581 0.060492918
-0.27150816 -0.12415591 0.060402364
-0.27170792 -0.12406936 0.060386781
-0.27189612 -0.12397318 0.060471535
-0.27210367 -0.12388623 0.060435168
-0.27230883 -0.12380355 0.060376912
-0.2724742 -0.12372787 0.060391404
-0.27267411 -0.12363937 0.060388491
-0.27289641 -0.12354943 0.06032788
-0.27307472 -0.12347004 0.060328498
-0.27326456 -0.12339129 0.060289875
-0.27344894 -0.12329902 0.060359657
-0.27365404 -0.12321721 0.060295634
-0.27384675 -0.12313464 0.060274303
-0.27400506 -0.1230599 0.060303804
-0.274212 -0.12297404 0.060261674
-0.27440205 -0.12289096 0.060251877
-0.2745851 -0.12280843 0.060259402
-0.27478588 -0.12272109 0.060246114
-0.27497104 -0.12264697 0.060190223
-0.27514651 -0.12256747 0.060200077
-0.27534002 -0.12248845 0.060152225
-0.27554899 -0.12239372 0.060164288
-0.27571064 -0.12232038 0.060174167
-0.27593589 -0.1222337 0.060082421
-0.27610111 -0.12215112 0.060144179
-0.27629155 -0.12207431 0.060090579
-0.27648088 -0.1219973 0.060041584
-0.27668023 -0.12191314 0.060011018
-0.27686664 -0.12182997 0.060012758
-0.27706319 -0.12174502 0.059996031
-0.27726513 -0.12165666 0.0599862
-0.27742583 -0.12158626 0.059978805
-0.2776421 -0.12149509 0.059944723
-0.27783558 -0.12141777 0.059885338
-0.27801496 -0.12134079 0.059866354
-0.27818432 -0.12126281 0.059884295
-0.27838159 -0.12117314 0.059897535
-0.27857086 -0.12109175 0.059878521
-0.27877191 -0.12100665 0.059849106
-0.27894267 -0.12093231 0.059838213
-0.27912807 -0.12084959 0.05983996
-0.27925882 -0.12076709 0.06000559
-0.279439 -0.1207028 0.059897825
-0.27966809 -0.12061253 0.059818737
-0.27988186 -0.12052771 0.059748933
-0.28007925 -0.12044172 0.059736803
-0.28025648 -0.12036484 0.059723593
-0.28045121 -0.12028086 0.059705719
-0.28063756 -0.1202023 0.059676342
-0.28082499 -0.12012123 0.059660781
-0.28099975 -0.1200529 0.059596851
-0.28119579 -0.11996054 0.059632007
-0.28136823 -0.11988495 0.059624568
-0.28156886 -0.11979495 0.059629735
-0.28173393 -0.11972211 0.059625782
-0.28192094 -0.11964461 0.059587177
-0.28209576 -0.11956728 0.059584349
-0.28228229 -0.11949305 0.059524983
-0.28246537 -0.11940712 0.059555568
-0.28265932 -0.11933061 0.059489273
-0.28286076 -0.11924161 0.059485205
-0.28303334 -0.11916681 0.059472002
-0.28321826 -0.11908209 0.059488751
-0.28337425 -0.11901143 0.059497498
-0.28357443 -0.11892893 0.059453085
-0.28376743 -0.11884928 0.059411004
-0.28395841 -0.11876494 0.059406973
-0.28414628 -0.11869672 0.059302658
-0.28432748 -0.11860637 0.059368975
-0.28449059 -0.1185334 0.059371952
-0.28467637 -0.11844593 0.059404824
-0.28484976 -0.11837245 0.059380092
-0.28504229 -0.11829709 0.059310347
-0.28523052 -0.11821141 0.059323609
-0.28542116 -0.11813129 0.059291907
-0.28561309 -0.11804837 0.059275202
-0.28579527 -0.11797015 0.059256211
-0.28597218 -0.11788815 0.059278734
-0.28616315 -0.11780873 0.059241265
-0.28632939 -0.1177347 0.059241921
-0.28652498 -0.11765508 0.059191763
-0.28671449 -0.11757495 0.059163518
-0.28689709 -0.1174977 0.059136458
-0.28709471 -0.11741193 0.059122033
-0.28728101 -0.11733375 0.059090346
-0.28745401 -0.11726162 0.059057545
-0.28763509 -0.1171793 0.059069686
-0.28782624 -0.11709266 0.059080642
-0.2880182 -0.11701993 0.058994744
-0.28818041 -0.11694311 0.059026547
-0.28835392 -0.11685855 0.059076756
-0.28854689 -0.11677824 0.059039284
-0.288706 -0.11670297 0.059069932
-0.28892568 -0.11662062 0.058965508
-0.28909901 -0.1165358 0.059018027
-0.28925222 -0.11646892 0.059009492
-0.28942704 -0.11640464 0.058917895
-0.28962681 -0.11631282 0.058938045
-0.28981736 -0.11623104 0.058917869
-0.28999585 -0.11615649 0.058885057
-0.29015818 -0.11607978 0.058915697
-0.2903451 -0.11600452 0.058862112
-0.29052961 -0.11592678 0.058832727
-0.29072371 -0.11583918 0.05884137
-0.29090786 -0.11576127 0.058814306
-0.29109192 -0.11568338 0.058787234
-0.29124585 -0.11562923 0.058689926
-0.29142874 -0.11553932 0.058748178
-0.29160854 -0.11545654 0.058767244
-0.29180238 -0.11538025 0.058699794
-0.29198059 -0.11529548 0.058737308
-0.29216647 -0.11521492 0.058722913
-0.29236484 -0.11512764 0.05871655
-0.2925314 -0.11505668 0.058695301
-0.2927008 -0.11498988 0.05863715
-0.29287678 -0.11490797 0.058661982
-0.29306114 -0.11482571 0.058663733
-0.29325038 -0.11474435 0.058644723
-0.29342118 -0.11466744 0.058651119
-0.29361564 -0.11458781 0.058604427
-0.29379749 -0.11450854 0.058593504
-0.29396623 -0.11443526 0.058581468
-0.29414836 -0.11435655 0.058565937
-0.29432687 -0.11427892 0.058553871
-0.29451632 -0.11419881 0.058525633
-0.29469982 -0.11412288 0.058487035
-0.29488319 -0.11403954 0.058499165
-0.29505181 -0.11396665 0.05848483
-0.29523268 -0.11388629 0.058484286
-0.2954067 -0.11380829 0.058488376
-0.29558155 -0.11373197 0.058478631
-0.29576737 -0.11366178 0.058393911
-0.29594669 -0.11357854 0.058417588
-0.29613093 -0.11349718 0.058413573
-0.29632679 -0.11341541 0.058377251
-0.29649696 -0.11333795 0.058389418
-0.29670155 -0.11325873 0.058309253
-0.29689273 -0.11317583 0.058294844
-0.29705867 -0.11309769 0.05832433
-0.2972343 -0.11301457 0.058358386
-0.2973915 -0.11295336 0.058299117
-0.29759291 -0.11287777 0.058203973
-0.29776663 -0.1127894 0.058279544
-0.29793918 -0.11271884 0.058237523
-0.29810974 -0.11264271 0.058239318
-0.29828161 -0.11257058 0.058209985
-0.29845792 -0.1125009 0.058150657
-0.29863295 -0.11241534 0.058203161
-0.29881656 -0.11233325 0.058206066
-0.29899824 -0.11225726 0.058173243
-0.29917935 -0.11217951 0.058154255
-0.29936287 -0.11209728 0.058158319
-0.29955137 -0.11202014 0.058112793
-0.29975688 -0.11192375 0.05814676
-0.29994422 -0.1118422 0.058134671
-0.30012384 -0.11175834 0.058161795
-0.3003056 -0.11168435 0.05811514
-0.30048499 -0.11159905 0.05815265
-0.30065057 -0.11151564 0.058219023
-0.30084699 -0.11146398 0.057976317
-0.30102295 -0.11137936 0.058019605
-0.3011913 -0.11129048 0.058114789
-0.30135238 -0.1112211 0.058099322
-0.30152282 -0.11114403 0.058108032
-0.30168632 -0.11109224 0.057965729
-0.30187538 -0.11102637 0.057841808
-0.30206698 -0.11095548 0.057744388
-0.3022677 -0.11084409 0.057894815
-0.3024205 -0.11076315 0.057983138
-0.30258369 -0.11068165 0.058043752
-0.3027682 -0.11060899 0.057979785
-0.3029733 -0.11054194 0.057815455
-0.30314335 -0.11046079 0.057852991
-0.30331445 -0.11039662 0.05777178
-0.30350479 -0.11031783 0.057732008
-0.30369499 -0.1102384 0.057696849
-0.30389142 -0.11014688 0.057725087
-0.30405873 -0.11008187 0.057661168
-0.30423567 -0.11000495 0.057649117
-0.30440927 -0.10992341 0.057678569
-0.3045567 -0.10986807 0.057608947
-0.30475989 -0.10977118 0.057653308
-0.30494639 -0.10970256 0.057555903
-0.3051171 -0.10961314 0.057647619
-0.30530396 -0.10952995 0.057648219
-0.30550051 -0.10944618 0.057623416
-0.30566785 -0.10936929 0.05764021
-0.3058323 -0.10928842 0.057692744
-0.30598944 -0.10922351 0.057658844
-0.30617815 -0.10916001 0.057519928
-0.30639461 -0.10906247 0.057528507
-0.30657458 -0.10898659 0.057500295
-0.30675185 -0.10890561 0.057514753
-0.30693331 -0.1088155 0.057578765
-0.3071121 -0.10875013 0.057482541
-0.3072921 -0.10867337 0.057460096
-0.30745932 -0.1085994 0.057457291
-0.30764887 -0.10852046 0.057420984
-0.30781871 -0.10844973 0.057388194
-0.30799425 -0.10838174 0.057319645
-0.30816814 -0.10830396 0.057322584
-0.30834928 -0.10821942 0.057349704
-0.30852354 -0.10814013 0.057361871
-0.30872142 -0.10806424 0.057279415
-0.30889937 -0.10798126 0.057305407
-0.30906856 -0.1078978 0.057361387
-0.30923849 -0.10781127 0.057435814
-0.30942756 -0.10773404 0.057389136
-0.30960876 -0.10767947 0.057212193
-0.30976367 -0.10760827 0.057227872
-0.30996391 -0.10751964 0.057224959
-0.31014782 -0.10743809 0.057223257
-0.31031218 -0.1073649 0.057223927
-0.31047165 -0.10729963 0.057185397
-0.31065738 -0.10722271 0.057146795
-0.31084266 -0.10713614 0.057175063
-0.3110134 -0.10706113 0.057168789
-0.31121823 -0.10697757 0.057117447
-0.3113865 -0.10690112 0.057128474
-0.31156713 -0.10682172 0.05712216
-0.31175295 -0.10674424 0.057087015
-0.31194517 -0.10665475 0.057114113
-0.31210199 -0.10658847 0.057090584
-0.31230071 -0.10650594 0.057050787
-0.31247491 -0.1064382 0.056984551
-0.3126522 -0.10636061 0.056975946
-0.31283224 -0.10628334 0.056956962
-0.3130042 -0.10621337 0.056912642
-0.31319132 -0.10613158 0.056902852
-0.31335124 -0.10605612 0.056932352
-0.31353769 -0.10596871 0.056962922
-0.31373489 -0.10588244 0.056953106
-0.31388161 -0.10582116 0.056926146
-0.31406483 -0.10574295 0.056903694
-0.31422743 -0.10565393 0.057017349
-0.31442308 -0.10558666 0.056883022
-0.31461692 -0.10550241 0.056869753
-0.31480899 -0.10542266 0.056831136
-0.31496578 -0.10536317 0.056761488
-0.3151243 -0.10527917 0.05685325
-0.31530151 -0.1051962 0.05688154
-0.31551376 -0.10511986 0.056758694
-0.31568357 -0.10504186 0.056775481
-0.31584132 -0.10497347 0.056763474
-0.31604055 -0.10488953 0.056731753
-0.31620699 -0.10480744 0.056786589
-0.31639352 -0.10472829 0.056760669
-0.31659499 -0.10464539 0.056715105
-0.31675661 -0.1045746 0.056707695
-0.31690413 -0.10453448 0.056534324
-0.3170591 -0.10448343 0.056412797
-0.31727347 -0.10437241 0.056519378
-0.31747988 -0.10427324 0.056569487
-0.31764519 -0.10419486 0.056602426
-0.31782627 -0.1041217 0.056552313
-0.317992 -0.10404281 0.056587555
-0.31817356 -0.10395824 0.056613524
-0.31837162 -0.10387702 0.05656682
-0.31856275 -0.10379922 0.056517817
-0.31873682 -0.10372967 0.056464262
-0.31891179 -0.10364836 0.056487955
-0.31908402 -0.10357253 0.056482822
-0.31924826 -0.10350226 0.056463882
-0.31943202 -0.10342875 0.056407992
-0.31961298 -0.10335564 0.056357879
-0.31978709 -0.10328117 0.056337751
-0.31996852 -0.10319326 0.056386791
-0.32016802 -0.10310021 0.056416169
-0.3203603 -0.10302037 0.056377538
-0.32053873 -0.10294736 0.056334347
-0.32070065 -0.1028683 0.056382291
-0.32088035 -0.10280184 0.056290671
-0.32106125 -0.10273318 0.05621057
-0.32125938 -0.10263886 0.056252636
-0.32143593 -0.10256907 0.056193311
-0.32161966 -0.10248286 0.056223892
-0.32178062 -0.10241032 0.056230329
-0.32195425 -0.10234131 0.056174468
-0.32208243 -0.10232336 0.055908911
-0.32230002 -0.10219751 0.05610656
-0.32250684 -0.10209799 0.056157816
-0.32270393 -0.10201059 0.056156076
-0.32285544 -0.10194598 0.056137182
-0.32305411 -0.10186008 0.05612044
-0.3232463 -0.1017769 0.05610488
-0.3234345 -0.1016887 0.056135438
-0.32359737 -0.10162532 0.056073852
-0.32377052 -0.10154957 0.056065261
-0.32393956 -0.10146921 0.056100491
-0.32412836 -0.1013916 0.056057274
-0.3243193 -0.1013071 0.056054387
-0.32448876 -0.10123722 0.056016989
-0.3246896 -0.10114154 0.056060199
-0.32485837 -0.10107283 0.056017037
-0.32502416 -0.10100154 0.0560004
-0.32523361 -0.10091441 0.055959411
-0.32541129 -0.10082919 0.056001544
-0.32558388 -0.10076522 0.055914551
-0.32571331 -0.10071976 0.055832308
-0.32588053 -0.10066664 0.055687696
-0.32607892 -0.10055527 0.055845048
-0.32628009 -0.1004603 0.055882499
-0.32647473 -0.10038126 0.055831186
-0.32664979 -0.10030383 0.055828355
-0.32683879 -0.10021985 0.055827789
-0.32703125 -0.10013434 0.055827208
-0.3272126 -0.100058 0.055797845
-0.32738784 -0.099986918 0.055751204
-0.32756594 -0.099908806 0.05574375
-0.32773623 -0.09983518 0.0557294
-0.32792121 -0.099753991 0.055721935
-0.32808527 -0.099688902 0.055668399
-0.3282527 -0.099616207 0.055656377
-0.32843438 -0.099533625 0.05566851
-0.32861724 -0.099443562 0.055727914
-0.32881087 -0.099363282 0.055688139
-0.32899952 -0.099283703 0.055658743
-0.3291682 -0.099212646 0.055631727
-0.32937598 -0.09911406 0.055673763
-0.32954332 -0.099056497 0.055559117
-0.3297219 -0.098984271 0.05551016
-0.32990161 -0.098899171 0.05554536
-0.33006892 -0.098818727 0.055586372
-0.33026421 -0.098742291 0.055515461
-0.33045918 -0.098657876 0.055499882
-0.33061954 -0.098597646 0.055424467
-0.33079872 -0.098516501 0.055434301
-0.33101064 -0.098419286 0.055454418
-0.33117396 -0.098349951 0.055432022
-0.33135927 -0.098266929 0.055436078
-0.3315317 -0.09819185 0.055425189
-0.33171451 -0.098120108 0.055360079
-0.33190036 -0.098044656 0.055311099
-0.33209023 -0.097956397 0.055337049
-0.33227143 -0.097878769 0.055316899
-0.332461 -0.09778589 0.055375133
-0.33264279 -0.097712904 0.055321556
-0.33281475 -0.097643971 0.055270307
-0.33300009 -0.097559072 0.055287052
-0.33317876 -0.097484775 0.055251926
-0.33337495 -0.097392358 0.055287082
-0.3335498 -0.097325176 0.055215076
-0.33374587 -0.097230598 0.055265214
-0.33393133 -0.097151078 0.055245053
-0.33410382 -0.097081728 0.055194963
-0.33427012 -0.097004779 0.055215217
-0.33445269 -0.096933663 0.055146649
-0.33466098 -0.09684027 0.055151794
-0.33485913 -0.096753761 0.055140823
-0.33500686 -0.096693546 0.055103488
-0.33522347 -0.096595779 0.055113215
-0.33539304 -0.096525177 0.055080425
-0.33555573 -0.096455261 0.055063799
-0.33574921 -0.096372016 0.055044763
-0.33595577 -0.096276499 0.055069514
-0.33612856 -0.096207194 0.055018265
-0.33632681 -0.09612114 0.055003837
-0.33650318 -0.096043281 0.054999854
-0.3366918 -0.095965758 0.054956626
-0.3368704 -0.095885538 0.054961853
-0.33704975 -0.095811456 0.054923266
-0.3372342 -0.095727302 0.054937705
-0.33741122 -0.095653549 0.054903746
-0.33762902 -0.095557965 0.054895021
-0.33779013 -0.095490456 0.054866862
-0.33797914 -0.095401727 0.054898575
-0.33818048 -0.095315322 0.054877222
-0.33835423 -0.095236592 0.054887082
-0.33851627 -0.095181383 0.054772452
-0.33871579 -0.095090523 0.054786846
-0.33889866 -0.095004536 0.054818578
-0.33909535 -0.094921201 0.054790322
-0.33928642 -0.094841734 0.054752853
-0.33947206 -0.094757393 0.054764979
-0.33966064 -0.094678514 0.054730974
-0.33984214 -0.094600752 0.054710835
-0.34002423 -0.094526619 0.05466418
-0.34022242 -0.094429582 0.054724686
-0.34039667 -0.094363682 0.054645762
-0.34060067 -0.094267115 0.054685503
-0.34079036 -0.094183341 0.054681472
-0.3409794 -0.094106466 0.054632489
-0.34117287 -0.094023049 0.054614615
-0.34135351 -0.093944654 0.054601394
-0.34153453 -0.09386795 0.054575488
-0.34169877 -0.093802273 0.054525424
-0.34191269 -0.093700439 0.054570891
-0.34209275 -0.093626872 0.054526538
-0.34229892 -0.093535103 0.054527082
-0.34249133 -0.093455195 0.05448845
-0.34267321 -0.093374044 0.05449022
-0.34285101 -0.093300991 0.054449331
-0.34305373 -0.093209043 0.054461408
-0.34324577 -0.093131684 0.054406643
-0.34344533 -0.093027599 0.054510958
-0.34360904 -0.092972487 0.054390565
-0.3438108 -0.092885733 0.054370359
-0.34399059 -0.092809059 0.054347917
-0.34418982 -0.092719182 0.054356545
-0.34437078 -0.092639625 0.054350242
-0.3445676 -0.092556082 0.054323133
-0.34477097 -0.09246622 0.054319065
-0.34494263 -0.092397749 0.054265507
-0.34512085 -0.092321113 0.054247689
-0.34533024 -0.092227563 0.05425052
-0.25731784 -0.13348031 0.039912369
-0.25752312 -0.13340198 0.039824177
-0.25772607 -0.13332519 0.039732531
-0.25792536 -0.13324477 0.039676636
-0.25812167 -0.13316721 0.039610378
-0.25832158 -0.13308702 0.039551023
-0.25850505 -0.13301145 0.039510161
-0.25869334 -0.13293184 0.039481964
-0.25887296 -0.13285525 0.039459553
-0.2590524 -0.13277873 0.039437149
-0.25922555 -0.13270113 0.039441273
-0.25939932 -0.13262355 0.039443094
-0.25957578 -0.13254601 0.039436832
-0.25974092 -0.13247009 0.039453663
-0.25990796 -0.13239281 0.039473943
-0.26006815 -0.1323157 0.039513838
-0.26023579 -0.13223849 0.03953182
-0.26039079 -0.13216013 0.039595935
-0.26054263 -0.13208452 0.039650843
-0.26069495 -0.13200615 0.039723042
-0.26083946 -0.13193059 0.039799884
-0.260988 -0.13185219 0.039883617
-0.26113111 -0.13177659 0.039965071
-0.26127943 -0.13169813 0.040049955
-0.26141784 -0.13162103 0.040155627
-0.26156217 -0.13154249 0.040253207
-0.26169994 -0.13146669 0.040351965
-0.26184592 -0.13138945 0.040435709
-0.26198465 -0.13131356 0.040532153
-0.26212329 -0.13123332 0.040658578
-0.26225448 -0.13115722 0.040779255
-0.26238531 -0.1310796 0.040911455
-0.26251119 -0.1310018 0.041059814
-0.26263657 -0.13092387 0.041210484
-0.26276284 -0.13084437 0.041369215
-0.26287669 -0.13076597 0.04155796
-0.26299486 -0.13068601 0.041744381
-0.26310983 -0.13060728 0.041931972
-0.25880387 -0.12964039 0.061530344
-0.25901243 -0.12955262 0.061496329
-0.25921318 -0.12946461 0.06148769
-0.25941858 -0.1293769 0.061462902
-0.25959331 -0.1292913 0.061516598
-0.25978452 -0.12921192 0.061478026
-0.26001841 -0.12911528 0.061427791
-0.26019821 -0.12902828 0.061475705
-0.26041898 -0.12893832 0.061419751
-0.26060629 -0.12885186 0.061441131
-0.26080966 -0.12877013 0.061381765
-0.26097262 -0.12869315 0.061412431
-0.26119056 -0.1286163 0.061275788
-0.26140854 -0.1285176 0.061287861
-0.2616322 -0.12841567 0.061304517
-0.26183629 -0.12832904 0.061276276
-0.26203015 -0.12824172 0.061283797
-0.26223037 -0.12815496 0.061268255
-0.26242495 -0.12806782 0.061272316
-0.26263571 -0.12798214 0.061217543
-0.26284936 -0.12789686 0.061151236
-0.26302475 -0.12780824 0.061223373
-0.26323012 -0.12772241 0.061185904
-0.26336738 -0.12765124 0.061254684
-0.26361072 -0.12756738 0.061089151
-0.26383504 -0.12746838 0.061083913
-0.26400536 -0.12739488 0.061068445
-0.26422876 -0.12729597 0.061065521
-0.26438546 -0.12722701 0.061060462
-0.26460147 -0.12713528 0.061031044
-0.26478741 -0.12705401 0.061021294
-0.26498556 -0.12696239 0.061044946
-0.26517466 -0.12688363 0.061008673
-0.2653563 -0.12680207 0.061013933
-0.26558155 -0.12671199 0.060945284
-0.26577112 -0.12662758 0.060945902
-0.26597849 -0.12653951 0.060917653
-0.26616514 -0.12645283 0.06094249
-0.26636085 -0.12635723 0.061000735
-0.26655346 -0.12627962 0.06094601
-0.26673013 -0.12620398 0.060925916
-0.26698864 -0.12609489 0.060885999
-0.26719624 -0.12601162 0.060824312
-0.26737812 -0.12594335 0.060738496
-0.26757818 -0.12584038 0.060833618
-0.26771599 -0.12577169 0.06088395
-0.26792595 -0.12568077 0.06086722
-0.26813751 -0.12560508 0.060742125
-0.26830721 -0.12552476 0.060775083
-0.26853845 -0.12543352 0.060696043
-0.26869875 -0.12535381 0.060753237
-0.26892984 -0.1252542 0.060731828
-0.26911837 -0.12516873 0.060742836
-0.26933905 -0.1250827 0.060660366
-0.26951826 -0.12500663 0.060635656
-0.26968879 -0.12493119 0.06063287
-0.26992321 -0.12483059 0.060608003
-0.27010155 -0.12475016 0.060615569
-0.27028641 -0.12468006 0.060533199
-0.2704711 -0.12458985 0.060588017
-0.27066725 -0.1245088 0.060545966
-0.2708376 -0.1244292 0.060571998
-0.27103573 -0.12434421 0.060550693
-0.27121937 -0.12426532 0.060531735
-0.27142835 -0.12418756 0.060428549
-0.27164155 -0.12409248 0.060430251
-0.27180579 -0.12400476 0.060530081
-0.27201885 -0.12391907 0.060468387
-0.27224025 -0.12382849 0.060414739
-0.27241397 -0.12375485 0.060390048
-0.27261016 -0.12367022 0.060372204
-0.27281606 -0.12357856 0.060372774
-0.27301338 -0.12349682 0.060331874
-0.27319416 -0.12342057 0.060303695
-0.27337199 -0.12333391 0.060355075
-0.27356437 -0.12324623 0.060369521
-0.27377495 -0.12316605 0.060277849
-0.27394393 -0.12308689 0.060305044
-0.27412319 -0.12301064 0.060281493
-0.27433077 -0.1229201 0.060269378
-0.27451521 -0.12284051 0.060252719
-0.27470815 -0.12275088 0.060278699
-0.27490422 -0.12267493 0.060202055
-0.27507016 -0.12259765 0.060225807
-0.27528107 -0.12251631 0.060141057
-0.27546513 -0.12243451 0.060140539
-0.27563718 -0.12234892 0.060202308
-0.27585906 -0.12226897 0.060074873
-0.27603495 -0.12218472 0.060115881
-0.27621055 -0.12211093 0.060086563
-0.27641231 -0.12202483 0.06006179
-0.27661142 -0.1219406 0.060032416
-0.27679506 -0.12185917 0.060030743
-0.27698901 -0.12177604 0.06000945
-0.27717721 -0.12168546 0.060056191
-0.27735457 -0.12161564 0.059994593
-0.27755815 -0.12152806 0.059974421
-0.27775314 -0.12144293 0.059963502
-0.27794793 -0.12136623 0.059896085
-0.27811944 -0.12128627 0.059920974
-0.27829778 -0.12120619 0.05992623
-0.2785002 -0.1211215 0.059889928
-0.27867103 -0.12104423 0.059898667
-0.27886921 -0.12096093 0.05986584
-0.27905017 -0.12088221 0.059853792
-0.27918041 -0.12079959 0.060021743
-0.27935985 -0.12073494 0.059918638
-0.27957207 -0.12065217 0.059839651
-0.27978936 -0.1205629 0.059789475
-0.27998376 -0.12047857 0.059775084
-0.28018606 -0.12039494 0.059731871
-0.28036934 -0.12031485 0.059722129
-0.28055477 -0.12023585 0.059698552
-0.28073496 -0.12015444 0.059707273
-0.28093708 -0.1200775 0.059619088
-0.2811152 -0.11999208 0.059661247
-0.28129613 -0.11991441 0.059642289
-0.28148028 -0.11982885 0.059667133
-0.28165418 -0.11975412 0.059649352
-0.28184432 -0.11967827 0.059590027
-0.2820099 -0.11960589 0.059581496
-0.28219479 -0.11952423 0.059577517
-0.28238001 -0.11944278 0.059571236
-0.28258184 -0.11936395 0.059496883
-0.2827678 -0.1192764 0.059529796
-0.28294539 -0.11920105 0.05950509
-0.28312126 -0.11912138 0.059514973
-0.28329182 -0.11904898 0.059491433
-0.28347322 -0.11896922 0.05948516
-0.28367314 -0.11889023 0.059417732
-0.28386229 -0.11880483 0.059426427
-0.28406167 -0.11872589 0.059360161
-0.28423595 -0.118642 0.059403472
-0.28440371 -0.11857204 0.059371874
-0.28458187 -0.11849067 0.059386358
-0.28476462 -0.11841236 0.059366256
-0.28495315 -0.1183418 0.059275798
-0.28514478 -0.11825106 0.059313305
-0.28533602 -0.11816761 0.059302397
-0.28551912 -0.11808998 0.059276521
-0.28570962 -0.11800618 0.059270225
-0.28587934 -0.11793076 0.059269749
-0.28606689 -0.11784488 0.059286512
-0.2862424 -0.11777385 0.059238754
-0.28643781 -0.11769413 0.059189789
-0.28661674 -0.11760988 0.059221566
-0.28680131 -0.11753415 0.059178386
-0.2869969 -0.11745504 0.059124812
-0.28718171 -0.11736731 0.059162337
-0.28736871 -0.11729406 0.059094943
-0.28754827 -0.11721477 0.059090987
-0.28773737 -0.11713075 0.059090454
-0.28792414 -0.11704912 0.059080705
-0.28810534 -0.11697589 0.05903063
-0.28825033 -0.11690588 0.059068266
-0.28845778 -0.11681183 0.059080362
-0.28861946 -0.11674812 0.059024572
-0.28880835 -0.11666894 0.058991767
-0.28900576 -0.11657478 0.059035018
-0.2891691 -0.11650846 0.058991909
-0.28934473 -0.11644501 0.058892272
-0.28953359 -0.11635194 0.058953993
-0.28971779 -0.11626856 0.058963854
-0.28990173 -0.11619479 0.058909152
-0.29008117 -0.11611642 0.058899425
-0.29025099 -0.11604792 0.058851682
-0.29044548 -0.11596082 0.058855742
-0.29063618 -0.11587472 0.058864437
-0.29081351 -0.11579423 0.058875464
-0.2909998 -0.11571892 0.058824215
-0.29116932 -0.1156563 0.058737278
-0.29135078 -0.11557567 0.058736771
-0.29151997 -0.115491 0.058800846
-0.29171133 -0.11541156 0.058762267
-0.2918871 -0.11533514 0.058750253
-0.29207265 -0.11525422 0.058739357
-0.29226276 -0.11516772 0.058752656
-0.29242977 -0.11509147 0.058766022
-0.29262009 -0.11502336 0.058653664
-0.29279175 -0.11494776 0.058648571
-0.29297817 -0.11486238 0.058665335
-0.29316181 -0.11477925 0.058675196
-0.29333448 -0.11470523 0.058656268
-0.29352915 -0.11462603 0.058606148
-0.29370612 -0.11455248 0.05857107
-0.29388136 -0.11446953 0.058605161
-0.29405209 -0.11439282 0.058610447
-0.29424095 -0.11431856 0.0585442
-0.29441771 -0.11423815 0.058556393
-0.29462358 -0.11415091 0.058526985
-0.2948004 -0.11407065 0.058538027
-0.29495928 -0.11400242 0.058521442
-0.29513392 -0.11392567 0.058515184
-0.29531741 -0.11385041 0.058472015
-0.29549396 -0.11376975 0.058486506
-0.29568455 -0.11370117 0.058376454
-0.29586378 -0.11361798 0.058400162
-0.29604346 -0.1135356 0.058416948
-0.29623151 -0.11345423 0.058401428
-0.29640207 -0.11337778 0.05840556
-0.29661459 -0.11328978 0.058361165
-0.29680645 -0.11320859 0.058332957
-0.29697037 -0.11313508 0.058337107
-0.29714152 -0.11306038 0.058327407
-0.29731441 -0.11299018 0.058281958
-0.2975091 -0.11290706 0.058258355
-0.29767504 -0.11282892 0.058287866
-0.29786301 -0.11274844 0.05826658
-0.29803422 -0.1126744 0.058252268
-0.29819939 -0.11260491 0.058225296
-0.29838014 -0.11253747 0.058137171
-0.29855633 -0.11245614 0.058157429
-0.2987265 -0.11236696 0.058249176
-0.29891673 -0.11229498 0.058163337
-0.2990936 -0.1122157 0.058167446
-0.2992774 -0.11213471 0.058162317
-0.29947859 -0.11205039 0.058127165
-0.29966277 -0.11195636 0.05820965
-0.29984999 -0.11187435 0.05820106
-0.30002308 -0.11179371 0.058225937
-0.30021387 -0.11171148 0.058208108
-0.30040428 -0.11162755 0.058202956
-0.30054721 -0.11155624 0.05825559
-0.30076849 -0.11148503 0.058070518
-0.30094773 -0.11139895 0.058113828
-0.30108964 -0.1113208 0.05821602
-0.30125514 -0.11125659 0.058152154
-0.30144063 -0.11118688 0.058065176
-0.30162352 -0.11112494 0.057933237
-0.30181578 -0.11105765 0.057809345
-0.30203256 -0.1109676 0.057766087
-0.30218801 -0.11088293 0.057871714
-0.30234471 -0.11080805 0.057907008
-0.30251542 -0.11073576 0.05788232
-0.30269247 -0.11065861 0.057871446
-0.30290958 -0.11057433 0.057787828
-0.30306995 -0.11050171 0.057796605
-0.30325046 -0.11042728 0.057756897
-0.30347008 -0.11033427 0.057725158
-0.3036502 -0.11025475 0.057721194
-0.30383021 -0.11017121 0.057744898
-0.30401051 -0.11009853 0.057693668
-0.30418086 -0.11002573 0.057673588
-0.3043479 -0.10995405 0.05765583
-0.30451164 -0.10990028 0.057526261
-0.30472127 -0.10978713 0.057661701
-0.30489796 -0.10971844 0.057594337
-0.30506194 -0.10963677 0.057653829
-0.30524516 -0.10956316 0.057600282
-0.30544844 -0.10946807 0.057631984
-0.30560887 -0.10940002 0.057609636
-0.30577278 -0.10932565 0.057619553
-0.30594239 -0.10926318 0.057531461
-0.30613831 -0.10918442 0.057474427
-0.30634528 -0.10908499 0.057524562
-0.30652553 -0.10900508 0.057522908
-0.30670321 -0.10891917 0.057569679
-0.30687785 -0.10883394 0.057621066
-0.30706567 -0.10877151 0.057477586
-0.30724567 -0.10869372 0.057462089
-0.30742571 -0.10861593 0.057446603
-0.30760652 -0.1085322 0.057469152
-0.30778602 -0.10845837 0.0574283
-0.30796164 -0.10838948 0.057365559
-0.30814129 -0.10831372 0.057337377
-0.30831477 -0.10823834 0.057325363
-0.30847782 -0.10817099 0.057290323
-0.30868116 -0.10808028 0.057292055
-0.30886263 -0.1079944 0.057327289
-0.3090179 -0.10792031 0.057361439
-0.30917913 -0.10784698 0.05737251
-0.30936533 -0.10776848 0.057343163
-0.30957788 -0.10769184 0.057221524
-0.3097342 -0.10762729 0.05718765
-0.3099322 -0.10753489 0.057217073
-0.31010661 -0.10745587 0.05722696
-0.31027639 -0.10738416 0.057201117
-0.31044111 -0.10732115 0.057131488
-0.31062502 -0.10723925 0.057132121
-0.31081271 -0.10715415 0.057143122
-0.31098726 -0.10707524 0.057151858
-0.31118256 -0.10699457 0.05710981
-0.3113541 -0.10691632 0.057123162
-0.31153029 -0.10684209 0.057094991
-0.31171739 -0.10675979 0.05708871
-0.31190184 -0.10667699 0.057093948
-0.31209108 -0.10659731 0.057063445
-0.31227636 -0.10651211 0.057082526
-0.31245285 -0.10644588 0.056999031
-0.31263304 -0.10636785 0.056984693
-0.31281346 -0.10628922 0.056973811
-0.31298804 -0.1062196 0.056919135
-0.31317103 -0.10613337 0.056952052
-0.31334102 -0.10606886 0.056876637
-0.31351107 -0.10598822 0.056910746
-0.31370199 -0.10589591 0.056960937
-0.31386712 -0.10583696 0.056862481
-0.31403852 -0.10576063 0.056863159
-0.31419626 -0.10569155 0.056855801
-0.31440613 -0.10560067 0.056839071
-0.31459141 -0.10551699 0.056847766
-0.31478786 -0.10543274 0.056826465
-0.31495398 -0.10536333 0.056796025
-0.31509674 -0.10530481 0.056762204
-0.31527731 -0.10521984 0.056793969
-0.31550059 -0.10511655 0.056821011
-0.31565988 -0.10505714 0.056743324
-0.31583428 -0.1049871 0.056692105
-0.31602472 -0.10489841 0.05671924
-0.31618828 -0.10482878 0.056698032
-0.3163659 -0.10474546 0.05672751
-0.31655997 -0.10466108 0.056714281
-0.31672627 -0.10459719 0.056645796
-0.31689852 -0.10455456 0.056414753
-0.31709349 -0.10445657 0.056491442
-0.31729993 -0.10435687 0.056545045
-0.31746912 -0.10426998 0.056624115
-0.31765613 -0.10419519 0.056567099
-0.31782648 -0.10412256 0.056545869
-0.31799382 -0.10405074 0.05652811
-0.31815833 -0.10397951 0.056514967
-0.31836995 -0.10387598 0.056578934
-0.31855392 -0.10380203 0.056525379
-0.31872848 -0.10373142 0.056477636
-0.31889907 -0.10365359 0.05649098
-0.31907907 -0.10357733 0.056465119
-0.31924117 -0.10351581 0.056393187
-0.31944627 -0.1034162 0.056450255
-0.31964475 -0.1033387 0.056377064
-0.31979713 -0.10327623 0.056340903
-0.31997284 -0.10318951 0.056399204
-0.32016239 -0.10310529 0.056398675
-0.32033816 -0.10303244 0.056362439
-0.3205294 -0.10294984 0.056345761
-0.32069993 -0.10287305 0.056352198
-0.32090801 -0.1027872 0.056306656
-0.32108396 -0.10271833 0.056242764
-0.32127008 -0.10262766 0.056296416
-0.32145542 -0.102547 0.056284372
-0.32161856 -0.10248741 0.056196295
-0.32177722 -0.10241859 0.056184329
-0.32195145 -0.10236474 0.056023594
-0.32215232 -0.10227448 0.056029946
-0.3223286 -0.10218072 0.056134354
-0.32252672 -0.10209132 0.056143027
-0.32269841 -0.10201351 0.056152921
-0.32286993 -0.10193612 0.056160506
-0.32305697 -0.10186096 0.056105796
-0.32326287 -0.10176354 0.056145571
-0.32343325 -0.1016958 0.05609091
-0.32361344 -0.10162014 0.05606043
-0.32376748 -0.10155169 0.056059998
-0.32394806 -0.10147553 0.056031823
-0.32414198 -0.10138987 0.056027822
-0.32431164 -0.10131227 0.056042328
-0.32450607 -0.10122604 0.056040637
-0.3246859 -0.10114767 0.056029748
-0.32486191 -0.10107505 0.055991214
-0.3250379 -0.1009955 0.055999946
-0.32524568 -0.10090723 0.055971697
-0.32539761 -0.10083567 0.055998936
-0.32559183 -0.10077072 0.055853128
-0.32575324 -0.10070918 0.05578351
-0.32591522 -0.10064669 0.055718496
-0.32611549 -0.10053261 0.055888556
-0.32628757 -0.10046581 0.055822354
-0.32649219 -0.10037252 0.055837922
-0.32666257 -0.10029834 0.055827074
-0.32685164 -0.10021737 0.055805791
-0.32703191 -0.10013913 0.055792604
-0.32723293 -0.10004812 0.055803563
-0.32741567 -0.099976063 0.0557408
-0.32757714 -0.099904999 0.055735741
-0.32776037 -0.099829175 0.055697177
-0.32793382 -0.099757358 0.055660956
-0.32810807 -0.099687561 0.055608593
-0.32828423 -0.099606067 0.055629998
-0.3284435 -0.09953817 0.055609953
-0.32861665 -0.099469885 0.055550672
-0.3288179 -0.099373341 0.055598527
-0.32901418 -0.099286452 0.05559567
-0.32920957 -0.099197939 0.055606648
-0.32938635 -0.099119224 0.055607311
-0.32956725 -0.099046804 0.05555262
-0.32975078 -0.098965257 0.055552106
-0.32990891 -0.098902114 0.055503234
-0.33009207 -0.098826833 0.05546122
-0.33030227 -0.098725632 0.055513669
-0.33049372 -0.098648362 0.055460095
-0.33066046 -0.098574445 0.055458479
-0.33083534 -0.098495878 0.055463746
-0.33102876 -0.09841349 0.055438995
-0.3311975 -0.098340042 0.055428147
-0.33137593 -0.098265514 0.055395365
-0.33155996 -0.098184071 0.055392548
-0.33175784 -0.098104447 0.055335499
-0.33192939 -0.098030426 0.055320039
-0.33212131 -0.09794227 0.055339091
-0.33230224 -0.097859673 0.055353567
-0.33249128 -0.097772621 0.055373788
-0.33267227 -0.097697966 0.055334087
-0.3328405 -0.097630844 0.055281743
-0.33302832 -0.09754806 0.055276599
-0.33321375 -0.097465664 0.055276077
-0.33339906 -0.09738604 0.055257119
-0.33357242 -0.097317994 0.055195533
-0.33377418 -0.097219184 0.055257216
-0.33396149 -0.097142398 0.055212881
-0.33411631 -0.097083598 0.055144429
-0.33430058 -0.097000539 0.05515198
-0.33449671 -0.096916102 0.055132989
-0.33468691 -0.096831247 0.055134755
-0.33488598 -0.096746005 0.055112299
-0.33502972 -0.096690282 0.055056561
-0.33524975 -0.096578941 0.055148162
-0.33541906 -0.096515752 0.055065837
-0.33559921 -0.096440271 0.055034205
-0.33579415 -0.09635061 0.055054411
-0.33597001 -0.096277714 0.055018183
-0.33616713 -0.096190475 0.055015322
-0.33636099 -0.096109249 0.054981343
-0.33654666 -0.096027933 0.054972749
-0.33673063 -0.095943972 0.054987226
-0.33688289 -0.095883608 0.054937221
-0.33708811 -0.095792428 0.054936647
-0.33725578 -0.095719792 0.054923493
-0.33746204 -0.095627621 0.054926377
-0.33765221 -0.09554635 0.054903943
-0.33781487 -0.095481522 0.054852761
-0.33801323 -0.095391527 0.05486488
-0.33819318 -0.095316984 0.054827493
-0.33839613 -0.095226638 0.054828074
-0.33855659 -0.095162123 0.054781504
-0.33873466 -0.095085368 0.054764874
-0.33892444 -0.095002741 0.054752808
-0.33911759 -0.094912335 0.054783393
-0.33932835 -0.09481208 0.054827761
-0.3395018 -0.094742626 0.054775398
-0.339683 -0.094671436 0.05471148
-0.33988917 -0.094580501 0.054706294
-0.3400518 -0.094514005 0.054666638
-0.34023851 -0.094422564 0.054723758
-0.34041891 -0.09435647 0.054627568
-0.34062386 -0.094254725 0.054699618
-0.34081209 -0.094176501 0.054662198
-0.34100306 -0.094097584 0.054621313
-0.34119204 -0.094016671 0.054600034
-0.34136993 -0.093938984 0.054590311
-0.34154847 -0.093864731 0.054555226
-0.34173718 -0.093782231 0.05454547
-0.34193882 -0.093690768 0.054557592
-0.34211797 -0.093616076 0.054523654
-0.34232494 -0.093523435 0.054527681
-0.34250614 -0.093446828 0.054500658
-0.3426891 -0.093370438 0.054466721
-0.34287232 -0.093291909 0.054446604
-0.3430855 -0.093193457 0.054471366
-0.3432875 -0.093094543 0.054533053
-0.34344038 -0.093038484 0.05445192
-0.34364018 -0.092961222 0.054372977
-0.34383324 -0.092875272 0.054373585
-0.34402588 -0.092791699 0.054359213
-0.34421647 -0.092710242 0.054336771
-0.34440586 -0.092629984 0.054309722
-0.34460089 -0.092531115 0.054392178
-0.34478062 -0.092460409 0.054329421
-0.34496719 -0.092383102 0.054290857
-0.34516299 -0.092296958 0.054284543
-0.25714317 -0.13354953 0.039970048
-0.25734863 -0.13347246 0.039872617
-0.25755274 -0.13339432 0.039786715
-0.25775814 -0.13331628 0.039696202
-0.25794944 -0.1332389 0.039643779
-0.25814298 -0.13316156 0.039584424
-0.25832427 -0.13308473 0.039558548
-0.25851229 -0.13300779 0.039513044
-0.25869721 -0.13293105 0.039475631
-0.25886926 -0.13285477 0.039473988
-0.25904286 -0.13277984 0.03945851
-0.25921333 -0.1327024 0.039469559
-0.25938773 -0.13262625 0.039459832
-0.25956163 -0.13255152 0.039442055
-0.25971934 -0.13247585 0.039479654
-0.25987858 -0.13239883 0.039521858
-0.26003858 -0.13232315 0.039552547
-0.26019934 -0.13224748 0.039580911
-0.26034549 -0.13217068 0.039661206
-0.26049989 -0.13209511 0.039708041
-0.26064536 -0.13201827 0.039790656
-0.26078776 -0.13194279 0.039873268
-0.26093102 -0.13186727 0.039953571
-0.26107708 -0.13179033 0.040035024
-0.26121366 -0.13171336 0.040145319
-0.26135764 -0.13163634 0.040233694
-0.2614992 -0.13156207 0.04031055
-0.2616407 -0.13148494 0.040407002
-0.26178157 -0.13140777 0.040505759
-0.26191223 -0.13133191 0.040626459
-0.26204273 -0.13125594 0.040748306
-0.26217657 -0.1311785 0.040870145
-0.2623052 -0.13110235 0.040998913
-0.26243073 -0.13102318 0.041157678
-0.26254874 -0.13094667 0.041321073
-0.26266801 -0.13086857 0.041491378
-0.26278579 -0.13079031 0.041667458
-0.26290241 -0.13071187 0.041848145
-0.26300669 -0.13063297 0.04206923
-0.25870222 -0.12968288 0.061548717
-0.25889695 -0.12959637 0.06154817
-0.2591117 -0.12950908 0.061492212
-0.25930229 -0.12942253 0.061504364
-0.25946844 -0.12934904 0.061501581
-0.25970632 -0.12925437 0.061425969
-0.25991827 -0.12916204 0.061412685
-0.26007238 -0.12908271 0.061486036
-0.2602821 -0.12899038 0.06147968
-0.260465 -0.12891097 0.061466485
-0.26069885 -0.12882215 0.061363205
-0.26083168 -0.12875244 0.061435461
-0.26108852 -0.12866545 0.061250255
-0.26129168 -0.12856586 0.0613131
-0.26149607 -0.12847741 0.061296385
-0.26169926 -0.12838711 0.061295807
-0.26189229 -0.12829982 0.061305642
-0.26208651 -0.12821454 0.061298169
-0.26228732 -0.12813175 0.061253786
-0.26248574 -0.12804325 0.06125553
-0.26269037 -0.12795724 0.06122151
-0.26288012 -0.1278719 0.061227895
-0.26306742 -0.12779021 0.061216988
-0.2632089 -0.12771954 0.061269626
-0.26344532 -0.12763502 0.061129451
-0.26367944 -0.1275313 0.061126478
-0.26383516 -0.12746026 0.061138727
-0.26405308 -0.12736665 0.061116204
-0.26423627 -0.12729475 0.061051108
-0.26443678 -0.12720142 0.061079368
-0.26463366 -0.12712342 0.061014242
-0.26482838 -0.1270335 0.061036758
-0.26502424 -0.12695563 0.060973935
-0.26521754 -0.12687957 0.060906518
-0.26543698 -0.12677699 0.060940489
-0.2656329 -0.1266935 0.060915716
-0.26580796 -0.12660944 0.060957879
-0.26601681 -0.12652579 0.060895033
-0.2661531 -0.12644471 0.061034158
-0.26636022 -0.12636098 0.060977072
-0.26658913 -0.12628454 0.060804632
-0.26678962 -0.1261797 0.060911298
-0.26696888 -0.12609851 0.060921162
-0.26721981 -0.12600735 0.060782094
-0.26738727 -0.1259204 0.060866944
-0.26753846 -0.1258539 0.060861908
-0.26775175 -0.12576573 0.060816325
-0.26795912 -0.12568308 0.060751177
-0.26814628 -0.12560788 0.060696457
-0.26836085 -0.12551187 0.060700465
-0.26853022 -0.12543814 0.060689606
-0.26873606 -0.12534074 0.060729381
-0.26890129 -0.12526207 0.060764648
-0.26913008 -0.12516668 0.060721353
-0.26932636 -0.12508726 0.060667753
-0.26949468 -0.12501806 0.06062923
-0.26972488 -0.12491679 0.06062166
-0.26988792 -0.1248357 0.060680002
-0.27009189 -0.12476049 0.060574502
-0.27029103 -0.12467558 0.060549725
-0.270468 -0.12459745 0.060545761
-0.27062836 -0.12452042 0.060584515
-0.27084154 -0.12443418 0.060526263
-0.27102351 -0.1243596 0.060483083
-0.27124929 -0.12427418 0.06038098
-0.27141774 -0.12418307 0.060491197
-0.27160537 -0.12410546 0.060451459
-0.27180511 -0.1240145 0.06046588
-0.2719962 -0.12392857 0.060472265
-0.27221242 -0.12384166 0.060409389
-0.27239078 -0.1237646 0.060393892
-0.27258989 -0.12367138 0.060425621
-0.27279079 -0.12359059 0.060367398
-0.27298468 -0.12351055 0.060325339
-0.27315632 -0.12342969 0.060355987
-0.27331856 -0.12336575 0.060300186
-0.27353522 -0.12326778 0.060311105
-0.27372858 -0.12318067 0.06031863
-0.27391768 -0.12310971 0.060229313
-0.27410525 -0.12302364 0.060247228
-0.27429113 -0.12294461 0.060222488
-0.27445912 -0.12286047 0.060286578
-0.27465215 -0.12278114 0.060242221
-0.27484912 -0.12270312 0.060177095
-0.27504474 -0.12261467 0.060186923
-0.27523705 -0.12253295 0.060161006
-0.2754181 -0.12245555 0.060139738
-0.27562177 -0.12237506 0.060071141
-0.27581888 -0.12228221 0.06010633
-0.27598393 -0.12220769 0.060113925
-0.27617058 -0.12212458 0.060114555
-0.27637485 -0.12204483 0.060039036
-0.27657166 -0.12195738 0.060038473
-0.27675167 -0.12187758 0.060036808
-0.276907 -0.12180262 0.060076725
-0.27711523 -0.1217167 0.060031176
-0.27729872 -0.12164383 0.059971847
-0.27749723 -0.12155187 0.059996661
-0.27769041 -0.12147181 0.059956908
-0.27788207 -0.12138851 0.059943683
-0.27806911 -0.12130913 0.059917785
-0.27825272 -0.12123416 0.059872299
-0.27843478 -0.12114733 0.059912141
-0.27862087 -0.12106498 0.059909314
-0.27880788 -0.12098595 0.059881113
-0.27895454 -0.1209018 0.06000983
-0.27910304 -0.12083581 0.060009412
-0.2793473 -0.1207756 0.059680112
-0.27955285 -0.12066968 0.05977869
-0.27974284 -0.12058357 0.059789684
-0.27992737 -0.12050106 0.059792623
-0.28012854 -0.12042016 0.059734397
-0.2803123 -0.12033748 0.0597408
-0.2805042 -0.12025866 0.059696443
-0.28068036 -0.12017868 0.059707478
-0.28087267 -0.12009408 0.059701167
-0.28104553 -0.12001253 0.059732959
-0.28123987 -0.11993854 0.059648246
-0.28142184 -0.11985853 0.059641965
-0.28160164 -0.1197839 0.05960571
-0.28178433 -0.11970442 0.059593663
-0.28196564 -0.11963081 0.059545878
-0.28213328 -0.11955003 0.059588067
-0.28232357 -0.1194716 0.059546016
-0.28251052 -0.1193848 0.059570856
-0.28270537 -0.11930245 0.059541475
-0.28288388 -0.11922787 0.059508689
-0.2830607 -0.11914559 0.059533555
-0.28324592 -0.11907514 0.059452325
-0.28342807 -0.11899268 0.059462178
-0.28362492 -0.11890861 0.059438568
-0.28380999 -0.11882451 0.059450723
-0.2840009 -0.11874408 0.059420213
-0.28418016 -0.11866359 0.059425466
-0.284365 -0.11858671 0.059389196
-0.28453416 -0.1185107 0.05939449
-0.2847234 -0.11844069 0.059298255
-0.28490371 -0.11835751 0.059318498
-0.28511003 -0.11826584 0.059317909
-0.28529674 -0.11818711 0.059288561
-0.28546885 -0.11810588 0.059320353
-0.28565294 -0.11802545 0.059310615
-0.28583014 -0.1179557 0.059248995
-0.28600565 -0.11787704 0.059253123
-0.2861993 -0.11780014 0.059190311
-0.28637958 -0.11771325 0.059235923
-0.28656512 -0.11763844 0.059183508
-0.28673917 -0.1175589 0.059198003
-0.28695726 -0.11746504 0.059176631
-0.28712347 -0.11739169 0.059172709
-0.28731766 -0.11730779 0.059156012
-0.28749764 -0.11723764 0.059088629
-0.28768677 -0.1171497 0.059114616
-0.28784224 -0.11707164 0.059175283
-0.2880525 -0.11698906 0.059100896
-0.288205 -0.11693045 0.059038207
-0.28838742 -0.1168455 0.059064206
-0.28858393 -0.11676903 0.05898986
-0.28877598 -0.11667946 0.059018143
-0.28894195 -0.11660197 0.059043042
-0.28913218 -0.11652932 0.058961786
-0.28930366 -0.11644787 0.05899705
-0.28947863 -0.1163747 0.058965422
-0.28966337 -0.11629227 0.058967203
-0.28985098 -0.11621282 0.05894015
-0.29003534 -0.11614005 0.058877375
-0.29021555 -0.11606811 0.058821514
-0.29041258 -0.11597921 0.05883019
-0.29058412 -0.1158979 0.058864295
-0.29075074 -0.11582658 0.058845375
-0.29093742 -0.1157416 0.058858678
-0.29111734 -0.1156647 0.05883741
-0.29129335 -0.11559411 0.058785036
-0.2914609 -0.11551882 0.058790319
-0.29164758 -0.11543401 0.058802485
-0.29183817 -0.11535984 0.058730453
-0.29201701 -0.11527646 0.058756471
-0.29219687 -0.11519434 0.058770947
-0.2923789 -0.11512108 0.05871854
-0.29256928 -0.11504158 0.058683418
-0.29274052 -0.11496583 0.058680624
-0.29292354 -0.11488841 0.058653593
-0.29310182 -0.11481054 0.058643863
-0.29328173 -0.11473517 0.05861222
-0.29347855 -0.11464688 0.058617428
-0.29366076 -0.11456879 0.058597319
-0.2938202 -0.11449473 0.058618769
-0.29399568 -0.11442625 0.058553711
