# .PCD v0.7 - Point Cloud Data file format
VERSION 0.7
FIELDS x y z
SIZE 4 4 4
TYPE F F F
COUNT 1 1 1
WIDTH 1312
HEIGHT 1
VIEWPOINT 0 0 0 1 0 0 0
POINTS 1312
DATA ascii
-0.32678905 -0.25536221 0.057874933
-0.32699084 -0.25533387 0.057900529
-0.32720777 -0.2553179 0.057819963
-0.32738328 -0.25529993 0.057792634
-0.32758448 -0.25528264 0.05773636
-0.32777053 -0.25525361 0.057781629
-0.32796174 -0.25524142 0.057696566
-0.32817113 -0.25522146 0.057652943
-0.32834283 -0.25520408 0.057624474
-0.32850987 -0.25519332 0.057551056
-0.32870334 -0.25516802 0.057561699
-0.32889155 -0.25515017 0.05752163
-0.32909429 -0.25511211 0.057618726
-0.32928765 -0.25509179 0.05759247
-0.32948396 -0.25506303 0.057626165
-0.32969022 -0.25502548 0.057716317
-0.32988763 -0.255 0.057724636
-0.33008435 -0.25498822 0.057631481
-0.33027232 -0.25497505 0.057556808
-0.33045977 -0.25495407 0.057540957
-0.3306452 -0.25494382 0.0574467
-0.33082771 -0.25492901 0.05738936
-0.33102763 -0.2548964 0.057448406
-0.33123374 -0.25486043 0.057527028
-0.33143201 -0.25483033 0.057568789
-0.3316296 -0.25480902 0.057545971
-0.33182386 -0.25478023 0.057581987
-0.33202666 -0.25475284 0.057599511
-0.33220655 -0.2547487 0.057464909
-0.33240399 -0.25472012 0.057496291
-0.3326025 -0.25469422 0.057506915
-0.33280545 -0.25468153 0.057414882
-0.33300525 -0.25466859 0.057327479
-0.33318993 -0.25464746 0.0573151
-0.33337197 -0.25462928 0.057283126
-0.33357185 -0.25461248 0.057224546
-0.33375761 -0.25458673 0.057245605
-0.33396056 -0.25455624 0.057286188
-0.33416519 -0.25452757 0.057311773
-0.33435136 -0.25451523 0.05723251
-0.33452728 -0.25451359 0.05708294
-0.3347095 -0.25449184 0.05707749
-0.33490694 -0.25446418 0.057101954
-0.33510652 -0.25443116 0.05716446
-0.33530805 -0.25440612 0.057165839
-0.33551601 -0.25437778 0.05718565
-0.33573419 -0.25435519 0.057153516
-0.33590841 -0.25434184 0.057092741
-0.3360942 -0.25432321 0.05706076
-0.33627978 -0.25429857 0.057073742
-0.3364813 -0.25427383 0.057072822
-0.33668178 -0.25424409 0.057109952
-0.33687422 -0.25422525 0.057073321
-0.33708033 -0.25419933 0.057076991
-0.33726886 -0.25418717 0.056994252
-0.33745649 -0.2541728 0.056928806
-0.33767587 -0.25414047 0.056968164
-0.33785421 -0.25412598 0.05691199
-0.33804733 -0.25410074 0.056922637
-0.33823451 -0.25408098 0.056897569
-0.33843213 -0.2540603 0.056870133
-0.33861959 -0.25404316 0.056825459
-0.33881983 -0.25401455 0.05685452
-0.33899745 -0.25400063 0.056794889
-0.33921769 -0.25396553 0.056853846
-0.33940822 -0.25394848 0.056805685
-0.33958861 -0.25392944 0.056781799
-0.33979148 -0.25389633 0.056841992
-0.33999091 -0.25387168 0.05684223
-0.34019244 -0.25385329 0.056794025
-0.34038839 -0.25382906 0.056794271
-0.3405908 -0.25380731 0.056770287
-0.3407799 -0.25379416 0.056694459
-0.34095278 -0.25377896 0.056648687
-0.34118739 -0.25373822 0.056736413
-0.34138229 -0.25371772 0.056710143
-0.34154862 -0.25370798 0.056629818
-0.34175447 -0.25367603 0.056678459
-0.34191716 -0.25367418 0.056542784
-0.34210664 -0.25365061 0.056544226
-0.3423304 -0.25361198 0.056626223
-0.34253722 -0.25358704 0.05662182
-0.34271678 -0.25357646 0.056535661
-0.34290347 -0.25355291 0.056539416
-0.34310687 -0.25352839 0.05653502
-0.34328106 -0.25351706 0.056459263
-0.34348068 -0.25349319 0.056453735
-0.34370208 -0.25344789 0.056587648
-0.34388131 -0.25344214 0.056465738
-0.34408414 -0.25341597 0.05647403
-0.34426364 -0.25340524 0.05638903
-0.34446108 -0.25337636 0.05642271
-0.34467146 -0.25334248 0.056481719
-0.3448641 -0.25332424 0.056440473
-0.3450627 -0.25330836 0.056376129
-0.34524319 -0.25329906 0.056279588
-0.34541979 -0.25328356 0.05623265
-0.3456344 -0.25324482 0.056323923
-0.34582314 -0.25322506 0.05629769
-0.34605652 -0.25317752 0.05643731
-0.3462303 -0.25317737 0.056278519
-0.34643781 -0.2531465 0.056317937
-0.34663761 -0.25312769 0.056274347
-0.34686238 -0.25309128 0.056339052
-0.34704843 -0.25308219 0.056235563
-0.34725583 -0.25305179 0.056271512
-0.34741771 -0.25304258 0.056191199
-0.34761816 -0.25301501 0.056212191
-0.3477954 -0.25300565 0.056119118
-0.34800562 -0.25297564 0.056149296
-0.3481741 -0.25297013 0.056035511
-0.34839693 -0.2529358 0.056086376
-0.34858212 -0.25292096 0.056026712
-0.34879148 -0.25289184 0.056051128
-0.34899139 -0.25286514 0.056066349
-0.34917328 -0.25285053 0.056007862
-0.34939221 -0.25282335 0.056009158
-0.34958699 -0.25280222 0.055987515
-0.3497912 -0.25277296 0.056017712
-0.34999371 -0.25274888 0.056011017
-0.35019663 -0.25272459 0.056005474
-0.35034651 -0.25272304 0.055879083
-0.35056311 -0.25268996 0.055926528
-0.35077417 -0.25266248 0.055937085
-0.35095364 -0.25264958 0.055868231
-0.35114968 -0.252628 0.055848882
-0.35136181 -0.25260195 0.055847906
-0.35156333 -0.25257891 0.055834293
-0.35177097 -0.25255015 0.055857562
-0.35196781 -0.25253016 0.055825524
-0.35214645 -0.25251782 0.055753201
-0.35235077 -0.25248951 0.055776484
-0.35256183 -0.25246078 0.055796273
-0.35273898 -0.25244755 0.055732034
-0.3529503 -0.25242066 0.055737983
-0.35313538 -0.2524026 0.055702537
-0.35334578 -0.25237459 0.055717714
-0.35355744 -0.25234413 0.055750195
-0.35372049 -0.25234127 0.055621438
-0.3539637 -0.25229734 0.055725262
-0.35414407 -0.25228229 0.055671386
-0.35432521 -0.25227213 0.055580612
-0.35455093 -0.25223544 0.055646461
-0.35474247 -0.2522209 0.055578694
-0.35494924 -0.25219211 0.055603117
-0.35514429 -0.25217202 0.055573393
-0.35535762 -0.25214306 0.05559317
-0.35554928 -0.25212678 0.055538088
-0.35574216 -0.25210637 0.055512995
-0.35594302 -0.25208479 0.055489004
-0.35613817 -0.25206485 0.055458132
-0.35634747 -0.25203684 0.055474468
-0.35654145 -0.25201765 0.05543898
-0.35676181 -0.25198519 0.055478327
-0.35695043 -0.25196913 0.055424418
-0.35714713 -0.25194854 0.055396989
-0.35736695 -0.25191832 0.055420198
-0.35757431 -0.25189516 0.055401959
-0.35775638 -0.25188458 0.055313475
-0.35795566 -0.25186104 0.055305637
-0.35817102 -0.251827 0.055361159
-0.35835856 -0.25181666 0.055265732
-0.35857779 -0.25178233 0.055320084
-0.35877281 -0.25176626 0.055260379
-0.35897884 -0.25174096 0.055259429
-0.35918179 -0.2517142 0.055272344
-0.35939258 -0.25168645 0.055285212
-0.35959804 -0.25166649 0.055245057
-0.35977912 -0.25165015 0.055200409
-0.35997665 -0.25163129 0.055159137
-0.36017886 -0.25161159 0.055120155
-0.36041361 -0.2515761 0.05516867
-0.36058369 -0.2515673 0.05507794
-0.36079663 -0.25153574 0.055117324
-0.36102101 -0.2515029 0.055155508
-0.36118168 -0.25150222 0.055012919
-0.36143255 -0.25145409 0.055140927
-0.36159468 -0.25145105 0.055014491
-0.36179194 -0.25143117 0.054981288
-0.3619971 -0.25140721 0.054971129
-0.3621996 -0.25138623 0.054941364
-0.36241171 -0.25135878 0.054950774
-0.36258534 -0.25135124 0.054847345
-0.36281002 -0.25131747 0.054892443
-0.36303693 -0.25128418 0.054931752
-0.36323103 -0.25126624 0.054887049
-0.36343631 -0.25124413 0.054863039
-0.3636544 -0.25121409 0.054886255
-0.36384663 -0.25119868 0.054824263
-0.36408287 -0.25116116 0.054886598
-0.25630352 -0.26332188 0.06337624
-0.2564764 -0.26328221 0.063512698
-0.25671777 -0.26325721 0.063477039
-0.25697339 -0.26323572 0.063402116
-0.25720221 -0.26320949 0.063387267
-0.25745153 -0.26318675 0.063327365
-0.25766867 -0.26315638 0.063354075
-0.2578879 -0.26312807 0.063363492
-0.25815055 -0.26310897 0.063264318
-0.25836006 -0.26307842 0.063299134
-0.2585794 -0.26304886 0.063317776
-0.25882685 -0.26302791 0.06324634
-0.25906932 -0.26300433 0.063199148
-0.25924641 -0.26296586 0.063322902
-0.25951019 -0.26294786 0.063214496
-0.25974077 -0.26292309 0.063186966
-0.25993979 -0.26288876 0.063259885
-0.26021692 -0.26287624 0.063098378
-0.26040593 -0.26283941 0.063199021
-0.26063997 -0.26281592 0.06315878
-0.26088136 -0.26279294 0.063108131
-0.26113036 -0.26277211 0.063034385
-0.26136032 -0.26274633 0.063014925
-0.26155713 -0.26271334 0.063079782
-0.26176116 -0.26268071 0.063135386
-0.26203275 -0.2626681 0.062979668
-0.26225784 -0.26264137 0.062971756
-0.26250315 -0.26262194 0.062891118
-0.26267013 -0.26257929 0.063055262
-0.26296324 -0.26257178 0.06284181
-0.26315516 -0.26253614 0.062930904
-0.2633782 -0.2625109 0.062913775
-0.26361832 -0.26248899 0.062856212
-0.26382875 -0.26246038 0.062876038
-0.26406717 -0.26243821 0.062821954
-0.26429415 -0.26241452 0.062789805
-0.26450878 -0.26238567 0.062807314
-0.264736 -0.26236227 0.06277287
-0.26495624 -0.26233521 0.062771901
-0.26516345 -0.26230606 0.062798664
-0.2653808 -0.26227829 0.062805772
-0.26561952 -0.26225701 0.062744752
-0.26586732 -0.26223865 0.06265372
-0.2660825 -0.26221222 0.062652774
-0.26628423 -0.26218003 0.06270723
-0.26650631 -0.26215583 0.062683195
-0.26671645 -0.26212633 0.062709935
-0.26696441 -0.26211041 0.062600449
-0.26720595 -0.26209098 0.062523283
-0.26739883 -0.26205799 0.06259162
-0.26762792 -0.2620348 0.062553704
-0.26786217 -0.26201516 0.062484637
-0.26806745 -0.26198456 0.062524095
-0.26828438 -0.26195776 0.062524289
-0.26850528 -0.26193231 0.062510625
-0.26873776 -0.26191258 0.062443879
-0.26895851 -0.26188734 0.06242907
-0.26917785 -0.2618635 0.062405039
-0.26938707 -0.26183456 0.062428333
-0.26959285 -0.26180449 0.062463164
-0.26984259 -0.26178944 0.062345602
-0.27004844 -0.2617614 0.06236545
-0.27027956 -0.26174027 0.062310234
-0.27049857 -0.26171693 0.062282745
-0.27072555 -0.26169464 0.062240236
-0.27094927 -0.26167133 0.062208116
-0.27114818 -0.26163933 0.062263735
-0.27137315 -0.26161849 0.062212013
-0.27157798 -0.26158869 0.062245697
-0.27179673 -0.26156586 0.062214758
-0.27200964 -0.2615391 0.062218428
-0.27222797 -0.2615163 0.062187485
-0.27243018 -0.26148576 0.062229253
-0.27268642 -0.26147532 0.062071308
-0.2728858 -0.26144388 0.062122319
-0.27309552 -0.26141828 0.062120236
-0.27331913 -0.26139608 0.062080048
-0.27351475 -0.26136523 0.062129915
-0.27374038 -0.26134405 0.062080495
-0.2739706 -0.26132473 0.062012605
-0.27419266 -0.26130241 0.061974723
-0.27440163 -0.26127708 0.061971493
-0.27461016 -0.2612496 0.061984412
-0.27484196 -0.26123351 0.061891139
-0.27506164 -0.26121071 0.061859038
-0.27526933 -0.2611832 0.061873108
-0.27547285 -0.26115403 0.061903346
-0.2756806 -0.26112866 0.061901271
-0.27590621 -0.2611087 0.06184262
-0.27610585 -0.26108015 0.061871722
-0.276319 -0.26105523 0.061861556
-0.27653638 -0.26103425 0.061817937
-0.2767545 -0.26101163 0.061785832
-0.27696007 -0.26098377 0.061804533
-0.27717534 -0.2609601 0.061782829
-0.27739185 -0.26093924 0.061739206
-0.27760836 -0.26091638 0.061710577
-0.27781209 -0.26089013 0.061718911
-0.27802035 -0.26086375 0.061723746
-0.27824041 -0.26084277 0.06167781
-0.27845216 -0.26081815 0.061666496
-0.27865857 -0.26079342 0.061660979
-0.27886248 -0.26076761 0.06166584
-0.27908859 -0.26074991 0.061589889
-0.27929386 -0.2607227 0.061603975
-0.27951789 -0.26070431 0.061534964
-0.2796948 -0.26067963 0.061556086
-0.27991912 -0.26064807 0.061585084
-0.28013921 -0.26063049 0.061513767
-0.28035739 -0.26060987 0.061466675
-0.28056043 -0.26058665 0.061453093
-0.28075251 -0.2605488 0.061558336
-0.28096998 -0.26053047 0.06149511
-0.28117698 -0.26050472 0.061496496
-0.28139862 -0.26048881 0.061411351
-0.28160113 -0.260461 0.061432362
-0.28182262 -0.26044294 0.061363354
-0.28202707 -0.26041627 0.061373986
-0.28223059 -0.26039159 0.061370783
-0.28243628 -0.260373 0.061320286
-0.28264457 -0.2603437 0.061347045
-0.2828289 -0.26031393 0.06139927
-0.28303766 -0.26030469 0.061276127
-0.28326818 -0.26027021 0.061321229
-0.28347769 -0.26024926 0.061284564
-0.28368637 -0.2602255 0.061269797
-0.28389093 -0.26020208 0.061256222
-0.28410634 -0.26018226 0.061205681
-0.28431478 -0.26015869 0.061189778
-0.28452417 -0.26013577 0.06116809
-0.28472745 -0.26011202 0.061157975
-0.28493172 -0.26008633 0.061161682
-0.28514069 -0.26006609 0.061120402
-0.28534341 -0.26003963 0.061131038
-0.28550687 -0.26001662 0.061152235
-0.2857644 -0.25999892 0.061047308
-0.28596526 -0.25997162 0.061066031
-0.2861712 -0.25994742 0.061057046
-0.28637514 -0.25992486 0.061037701
-0.28657436 -0.25989667 0.061064497
-0.28678265 -0.25987419 0.061040513
-0.28700036 -0.2598578 0.060962304
-0.28719845 -0.25983194 0.060972955
-0.28739998 -0.2598055 0.060984746
-0.28761116 -0.25978822 0.06091924
-0.28780019 -0.25977105 0.060873434
-0.28799388 -0.25973675 0.060950994
-0.28819764 -0.25971201 0.060947791
-0.28839913 -0.2596947 0.060891554
-0.2886042 -0.25967106 0.060879122
-0.28880829 -0.25964987 0.060849391
-0.2890389 -0.25962311 0.060836837
-0.28921551 -0.25960109 0.060838368
-0.28942248 -0.25957924 0.060810931
-0.28962436 -0.25955692 0.060791597
-0.28984949 -0.25952974 0.060787141
-0.2900511 -0.25950745 0.0607678
-0.29021892 -0.2594825 0.060799345
-0.29045299 -0.25945902 0.060759112
-0.29066253 -0.2594398 0.06070976
-0.29085803 -0.2594133 0.060727343
-0.29106861 -0.25939518 0.060668759
-0.2912688 -0.25937247 0.060654037
-0.29147634 -0.25936228 0.06053897
-0.2916804 -0.2593329 0.060570352
-0.29186961 -0.25930178 0.060628325
-0.2920818 -0.25928578 0.060552441
-0.29225442 -0.25926518 0.060547058
-0.29248673 -0.25924191 0.060506836
-0.29268584 -0.25921562 0.060519792
-0.29288146 -0.259197 0.060478568
-0.2930482 -0.2591753 0.060487062
-0.29327857 -0.25914374 0.060510263
-0.29349199 -0.25912651 0.060442436
-0.29367182 -0.25910923 0.060405895
-0.29387036 -0.25908282 0.060420014
-0.2940549 -0.25905505 0.060457252
-0.29426193 -0.25904402 0.060349096
-0.29444095 -0.25901508 0.060400195
-0.29465559 -0.25898856 0.060400411
-0.29483929 -0.25897172 0.06035693
-0.29509234 -0.25894684 0.060309693
-0.29528469 -0.25891888 0.060341127
-0.29546431 -0.25889853 0.060327653
-0.29563937 -0.25888184 0.060291126
-0.29584056 -0.25887105 0.060186461
-0.29604903 -0.25885567 0.06010944
-0.29625377 -0.25883254 0.060093544
-0.29649884 -0.25880089 0.060104001
-0.29664701 -0.25877371 0.060170222
-0.29685199 -0.25875536 0.060118578
-0.29709706 -0.25873268 0.060062155
-0.29726529 -0.2587142 0.060045268
-0.29748583 -0.25867796 0.060112327
-0.29765022 -0.25864616 0.060198084
-0.29785502 -0.25863293 0.060108393
-0.29803464 -0.25860006 0.060188316
-0.29826349 -0.25856853 0.060212668
-0.29848039 -0.25857052 0.059998401
-0.29867396 -0.25854489 0.060011376
-0.29887033 -0.25851783 0.060032427
-0.29906613 -0.25849503 0.060022335
-0.2992394 -0.25846881 0.060058463
-0.29941064 -0.25845522 0.06000236
-0.29964164 -0.25844261 0.059883729
-0.2998513 -0.25841269 0.059913937
-0.30005473 -0.25840086 0.059815027
-0.30025452 -0.25836828 0.05987411
-0.30042607 -0.25834537 0.059887189
-0.30065003 -0.25831908 0.059876978
-0.30082461 -0.25828931 0.059938472
-0.30104288 -0.25827193 0.059867166
-0.30123252 -0.2582587 0.059791379
-0.30139196 -0.2582413 0.05977454
-0.30161104 -0.25820819 0.059819695
-0.301828 -0.25818387 0.059801441
-0.30200535 -0.25815821 0.059829485
-0.30216438 -0.25814039 0.059816096
-0.30236641 -0.25812364 0.059755251
-0.30257654 -0.25809488 0.059776228
-0.30281174 -0.25807622 0.059699081
-0.30300671 -0.25804794 0.059730515
-0.30320343 -0.25802967 0.059685826
-0.30339369 -0.25799978 0.059733417
-0.3035914 -0.25798371 0.059671428
-0.30378824 -0.25795907 0.059674021
-0.30395538 -0.25794333 0.059637532
-0.30412918 -0.25792602 0.059606791
-0.30431458 -0.25790155 0.059618652
-0.30450872 -0.25786379 0.059721574
-0.30475602 -0.25784996 0.059597105
-0.3049551 -0.25783077 0.059557024
-0.30512914 -0.25781497 0.059514746
-0.30535421 -0.25778687 0.059517212
-0.30554801 -0.25776494 0.059502512
-0.30574155 -0.25774255 0.059491284
-0.30593967 -0.25772241 0.059459276
-0.30613631 -0.25769871 0.059454948
-0.30633077 -0.25767916 0.0594218
-0.30650628 -0.25764909 0.059484452
-0.30668309 -0.25762227 0.05952172
-0.30691421 -0.25761217 0.059384637
-0.30710807 -0.2575919 0.059357263
-0.30730394 -0.25756678 0.059364464
-0.3074975 -0.2575461 0.059340559
-0.30768457 -0.25751647 0.059389312
-0.30787876 -0.2574982 0.059346944
-0.30803338 -0.25748384 0.059311673
-0.30825076 -0.25745684 0.059313014
-0.30843446 -0.2574417 0.059256859
-0.30866498 -0.25742361 0.059179738
-0.30885863 -0.25739056 0.059248071
-0.3090508 -0.25736618 0.059252981
-0.30924749 -0.25734559 0.059225589
-0.30944192 -0.25733206 0.059147481
-0.30963776 -0.25730848 0.05914316
-0.30982241 -0.25728363 0.059158482
-0.31002131 -0.25725704 0.059173752
-0.31021014 -0.25723508 0.059163693
-0.31041414 -0.25721732 0.059108596
-0.31058854 -0.25719666 0.059102066
-0.31075379 -0.25718799 0.059014849
-0.31094834 -0.25715682 0.059068188
-0.31115484 -0.25713363 0.059051134
-0.31132936 -0.25711513 0.059028458
-0.31152508 -0.25709295 0.059013762
-0.31172764 -0.25706807 0.059012856
-0.31193823 -0.2570529 0.058932368
-0.31212971 -0.25702503 0.058963805
-0.31234655 -0.25700042 0.058947865
-0.31254914 -0.25697741 0.058933135
-0.31273413 -0.25696212 0.058876973
-0.31289348 -0.25692984 0.05897082
-0.31309268 -0.25691482 0.058899596
-0.31327745 -0.25689942 0.058844596
-0.3134762 -0.25686741 0.058900215
-0.31367144 -0.25685444 0.058817483
-0.31388089 -0.25682685 0.058830399
-0.31405494 -0.25680161 0.058858454
-0.31425363 -0.25678062 0.058832213
-0.31446278 -0.25676095 0.058786314
-0.31465387 -0.2567471 0.058713987
-0.31485993 -0.25671715 0.058747672
-0.31505215 -0.2566855 0.058806781
-0.31526083 -0.25666854 0.058741286
-0.31545213 -0.25664827 0.05871623
-0.31562477 -0.25663838 0.058631286
-0.31582081 -0.25660563 0.058695
-0.31604064 -0.25657973 0.058685962
-0.31621379 -0.25656357 0.058647137
-0.31641924 -0.25654003 0.058633555
-0.31661525 -0.25650993 0.058677651
-0.31680587 -0.25649256 0.058631841
-0.31697565 -0.25647449 0.058610339
-0.3171849 -0.25644895 0.058608267
-0.31738359 -0.2564244 0.058608539
-0.31758681 -0.25641182 0.058515396
-0.31778246 -0.2563847 0.058537599
-0.31798473 -0.25632781 0.058775395
-0.31817764 -0.25631464 0.058696132
-0.31833485 -0.25630602 0.058615878
-0.31852973 -0.25626925 0.058710717
-0.31875288 -0.25627109 0.058491804
-0.31894526 -0.25625736 0.058417149
-0.31912512 -0.25623867 0.058390994
-0.31930426 -0.2562224 0.058347534
-0.3194961 -0.25619745 0.058357067
-0.31968957 -0.2561672 0.058404643
-0.31988773 -0.2561554 0.058310371
-0.32006538 -0.25614303 0.058239244
-0.32025361 -0.25610828 0.058324903
-0.32045144 -0.25608617 0.058307886
-0.32065701 -0.25606123 0.058304671
-0.32084963 -0.25604424 0.058254234
-0.32103923 -0.25602591 0.058216508
-0.32122853 -0.25599909 0.058242187
-0.32141739 -0.25597373 0.058257502
-0.32161534 -0.25595111 0.058243942
-0.32180142 -0.25594142 0.058145106
-0.32201886 -0.2559039 0.058224868
-0.32219219 -0.25589189 0.058154918
-0.32238981 -0.25586206 0.058195546
-0.32257131 -0.25584641 0.058145173
-0.32276639 -0.2558302 0.058086656
-0.3229692 -0.25580403 0.05809499
-0.3231529 -0.2557832 0.058081493
-0.32334167 -0.25576574 0.058037989
-0.32356575 -0.25573015 0.058096968
-0.32378057 -0.25570717 0.058070648
-0.32394725 -0.25569382 0.058016874
-0.32413295 -0.25566235 0.058080621
-0.32432494 -0.25564498 0.058033656
-0.3245132 -0.2556282 0.057985548
-0.32474127 -0.25559878 0.057994921
-0.32493496 -0.25557795 0.057972152
-0.32511121 -0.25555259 0.057999048
-0.32530707 -0.25553378 0.057958983
-0.32550624 -0.25552079 0.057872776
-0.32570335 -0.25549954 0.057849992
-0.32588995 -0.25547367 0.057871085
-0.3261013 -0.25544509 0.057889748
-0.32628495 -0.25541896 0.057915464
-0.32647306 -0.25539106 0.057950377
-0.32669392 -0.25537959 0.057832941
-0.32687882 -0.2553674 0.057753712
-0.32704186 -0.25534815 0.057747226
-0.32724512 -0.2553173 0.057790153
-0.32743812 -0.25530243 0.057723574
-0.32762223 -0.2552959 0.057602841
-0.32779533 -0.2552762 0.057590552
-0.32799041 -0.25524327 0.057656564
-0.32818478 -0.25521165 0.057713356
-0.32838961 -0.25518402 0.057730909
-0.32858983 -0.25516313 0.057702344
-0.32878366 -0.25513747 0.057715327
-0.32898328 -0.25511745 0.057681017
-0.32918185 -0.25510779 0.057570595
-0.3293803 -0.25508031 0.057592776
-0.32955495 -0.25505885 0.057592005
-0.32975331 -0.25503606 0.057579603
-0.3299273 -0.25502414 0.057508491
-0.33013788 -0.25499377 0.057541009
-0.33032706 -0.25497037 0.057541326
-0.33052528 -0.2549479 0.057526611
-0.33072439 -0.25491616 0.057579923
-0.33090818 -0.2548998 0.057532996
-0.33110711 -0.25487256 0.057552874
-0.33129165 -0.25485921 0.057482876
-0.33149725 -0.25483179 0.057498105
-0.33168653 -0.25481641 0.057438467
-0.33189029 -0.25478753 0.057466391
-0.33208317 -0.25476786 0.057435557
-0.33226141 -0.25475404 0.057374816
-0.33245885 -0.25472528 0.057407387
-0.33267611 -0.25469598 0.057426028
-0.33285958 -0.25468707 0.057323739
-0.33302438 -0.25467378 0.057271127
-0.33322805 -0.25464198 0.057320967
-0.333424 -0.25462595 0.057260137
-0.33360958 -0.25461075 0.057202823
-0.3338255 -0.25456938 0.057312567
-0.33401877 -0.25454935 0.057284042
-0.33420488 -0.25453022 0.057255547
-0.33440426 -0.25450373 0.057269655
-0.33459035 -0.25448799 0.057215787
-0.3347922 -0.25446892 0.057172239
-0.33497527 -0.25445294 0.057123002
-0.33516851 -0.25442967 0.057118692
-0.33536854 -0.25440279 0.057135098
-0.33557588 -0.25437498 0.057151478
-0.33577383 -0.25436306 0.057058357
-0.3359648 -0.25434223 0.05703792
-0.33615384 -0.25432336 0.057004794
-0.336326 -0.25430563 0.056978673
-0.33651653 -0.25428224 0.056977831
-0.33672124 -0.25425428 0.056997672
-0.33692351 -0.25422883 0.057001401
-0.33712155 -0.25420451 0.057000529
-0.33732152 -0.25418136 0.05698926
-0.33751115 -0.25416502 0.056936536
-0.3377105 -0.2541396 0.056942578
-0.33791393 -0.25411341 0.056950908
-0.33808786 -0.25411433 0.05678409
-0.33824393 -0.25410569 0.056704998
-0.33845556 -0.25406638 0.056803223
-0.33868209 -0.25401396 0.056985565
-0.33890015 -0.25398904 0.056970768
-0.33907166 -0.25398886 0.056814346
-0.33926094 -0.25396731 0.056800827
-0.3394748 -0.25393516 0.056843702
-0.33968145 -0.25390947 0.056845091
-0.3398478 -0.25389987 0.056763649
-0.34003156 -0.25388056 0.056738622
-0.34025025 -0.25384736 0.056784928
-0.34044397 -0.2538276 0.056754094
-0.34058306 -0.25383821 0.056547076
-0.34080416 -0.25379279 0.056682169
-0.34101629 -0.25375515 0.056767717
-0.34121946 -0.2537277 0.056785267
-0.34145996 -0.25366971 0.056996368
-0.3416644 -0.25365931 0.056885924
-0.3418065 -0.25367931 0.056606248
-0.34199274 -0.25365829 0.056591593
-0.34220129 -0.25363174 0.05659759
-0.34239015 -0.25361118 0.056577154
-0.3425889 -0.25358769 0.05656936
-0.34277353 -0.25357541 0.056491293
-0.34296924 -0.25354952 0.056504268
-0.34316972 -0.25352243 0.056521833
-0.34337169 -0.253499 0.05651056
-0.34355587 -0.25348225 0.056465931
-0.34375 -0.25346261 0.056433942
-0.34395137 -0.25343508 0.056453802
-0.34414318 -0.25341958 0.056392998
-0.3443526 -0.25338843 0.056432437
-0.34454399 -0.25337097 0.056386612
-0.34474835 -0.25334153 0.056418005
-0.34494543 -0.25331765 0.056414828
-0.34513265 -0.25330332 0.056349427
-0.34532684 -0.25327715 0.05636587
-0.34553504 -0.25324973 0.056378789
-0.34572986 -0.25322551 0.056380227
-0.34590858 -0.25321513 0.056292959
-0.34612617 -0.25317898 0.056362338
-0.34632033 -0.25316411 0.056294605
-0.34649026 -0.25315997 0.056169324
-0.34671262 -0.2531164 0.05628942
-0.34690213 -0.2530984 0.056249373
-0.34707659 -0.25309306 0.056128681
-0.34729132 -0.25306374 0.056149639
-0.34747404 -0.25304627 0.056111943
-0.34767091 -0.25302318 0.056102995
-0.34786749 -0.25300243 0.056076765
-0.34805983 -0.25297633 0.056094363
-0.34825557 -0.25295216 0.05609465
-0.34846723 -0.25292337 0.056114472
-0.34865683 -0.25290549 0.056073278
-0.34885156 -0.25288421 0.056052815
-0.34905538 -0.25285685 0.05606921
-0.34924313 -0.25284231 0.056004971
-0.34945354 -0.25281075 0.056046702
-0.34964818 -0.25279567 0.05598012
-0.34983441 -0.25277621 0.055953924
-0.3500461 -0.25274602 0.055984125
-0.35025978 -0.25271466 0.056021236
-0.35044718 -0.25270048 0.055954684
-0.35065287 -0.25267446 0.055959545
-0.35084102 -0.25265783 0.055910278
-0.35104582 -0.25262865 0.055939358
-0.35124484 -0.25260901 0.055902742
-0.35142797 -0.25259566 0.055833898
-0.35164827 -0.2525607 0.055891734
-0.35184699 -0.2525357 0.055895466
-0.35203683 -0.25252384 0.0558093
-0.35221997 -0.25250861 0.055754296
-0.35243547 -0.2524789 0.055777561
-0.3526234 -0.25246078 0.055739831
-0.35282168 -0.25243998 0.055712432
-0.35303706 -0.25240874 0.055747233
-0.35324553 -0.25238732 0.055715173
-0.35341659 -0.25237775 0.055629097
-0.35362607 -0.25234491 0.055681214
-0.35382664 -0.25231934 0.055687249
-0.35402325 -0.25229985 0.055651791
-0.35423422 -0.25227177 0.055666998
-0.35442758 -0.25225252 0.055632703
-0.35461906 -0.25223085 0.055618022
-0.35482669 -0.25220674 0.05560673
-0.35502025 -0.25218219 0.055611648
-0.35522866 -0.25216123 0.055576123
-0.35542333 -0.25213966 0.055557974
-0.35563719 -0.25211215 0.055566255
-0.35583922 -0.25208643 0.055572286
-0.356029 -0.25207812 0.055459592
-0.35622546 -0.2520625 0.055395313
-0.3564474 -0.25202721 0.055454291
-0.35662028 -0.25201154 0.055412017
-0.35683507 -0.25198051 0.055445664
-0.357034 -0.25196028 0.055413645
-0.35724774 -0.2519317 0.055429999
-0.35743201 -0.2519148 0.055386528
-0.35763475 -0.25189254 0.055366028
-0.35784745 -0.2518664 0.055365089
-0.35806581 -0.25184053 0.05535721
-0.3582584 -0.25182569 0.055290636
-0.35845271 -0.25180337 0.055278242
-0.35867468 -0.25176916 0.055329151
-0.35888037 -0.25174883 0.055291343
-0.35906637 -0.25173128 0.055251323
-0.35927999 -0.25170347 0.05526191
-0.35946625 -0.25168741 0.055210352
-0.35967505 -0.25165761 0.055240564
-0.35985374 -0.25164726 0.055153295
-0.36008382 -0.25161251 0.055200711
-0.36027792 -0.25159237 0.055172183
-0.36053124 -0.25153914 0.055335946
-0.36063373 -0.25156787 0.055027626
-0.3608717 -0.25152457 0.055131502
-0.36107051 -0.25150836 0.05506951
-0.36128083 -0.25147989 0.055088192
-0.36145163 -0.25147378 0.054976743
-0.36168736 -0.25143522 0.055047188
-0.36188734 -0.25141391 0.055022091
-0.36207259 -0.25140029 0.05495324
-0.36229739 -0.25136775 0.054989152
-0.36249691 -0.2513468 0.054961748
-0.36270955 -0.25132069 0.054960813
-0.36289942 -0.25130478 0.054904629
-0.3631323 -0.25126845 0.054961249
-0.36330196 -0.25126293 0.054846346
-0.36352205 -0.25123328 0.054864984
-0.36374578 -0.25120038 0.054904349
-0.36394325 -0.25118232 0.054857358
-0.3641479 -0.25115919 0.054841459
-0.25619537 -0.26330435 0.063606232
-0.25647721 -0.26329032 0.063451603
-0.25670838 -0.26326457 0.063430965
-0.25690237 -0.26324198 0.063420884
-0.25717971 -0.26321396 0.063374668
-0.2574054 -0.26318717 0.063366756
-0.25764444 -0.26316369 0.063321874
-0.25784051 -0.26312986 0.063393667
-0.25807434 -0.26310378 0.063373014
-0.2583088 -0.26307946 0.063338533
-0.25852042 -0.2630496 0.063366428
-0.25876227 -0.26302734 0.063309997
-0.25899255 -0.26300076 0.063296288
-0.25923747 -0.26297951 0.063229464
-0.2594454 -0.26294747 0.063276991
-0.25968969 -0.26292628 0.063210167
-0.2599124 -0.26289973 0.063203417
-0.26016855 -0.26288188 0.063100785
-0.26037943 -0.26285088 0.063137911
-0.26062834 -0.26283145 0.063053772
-0.26083922 -0.26280215 0.06307821
-0.26105714 -0.26277477 0.063081861
-0.26128173 -0.26274765 0.063077398
-0.26150483 -0.26272181 0.063064881
-0.26172781 -0.26269442 0.063063897
-0.26196769 -0.26267332 0.063000552
-0.26218787 -0.26264536 0.063006505
-0.26239836 -0.2626164 0.063028626
-0.26264629 -0.26259789 0.062938727
-0.2628749 -0.26257414 0.062905423
-0.26309842 -0.26254746 0.062898666
-0.2633433 -0.26252854 0.062814541
-0.2635667 -0.26250201 0.062806636
-0.26380479 -0.26248145 0.062740996
-0.26403409 -0.26245686 0.062713452
-0.26424861 -0.26242974 0.062718272
-0.26446259 -0.26240253 0.06272424
-0.26468006 -0.26237473 0.062731348
-0.2648752 -0.2623421 0.062795065
-0.26509875 -0.2623179 0.062769867
-0.26534224 -0.26229808 0.062693819
-0.2655378 -0.26226568 0.062755235
-0.26582578 -0.26225957 0.062535986
-0.26600686 -0.26222295 0.062642433
-0.26622447 -0.26219577 0.062644929
-0.26643154 -0.26216537 0.062680922
-0.26666814 -0.26214591 0.062608369
-0.26688379 -0.26211834 0.062615484
-0.26711273 -0.26209503 0.062578715
-0.26732689 -0.2620689 0.062576622
-0.267555 -0.2620455 0.062541001
-0.26776701 -0.26201886 0.062544674
-0.26797554 -0.26198938 0.062572591
-0.2682122 -0.26197085 0.062493116
-0.26843792 -0.26194715 0.062462129
-0.26864067 -0.26191777 0.06249468
-0.26887077 -0.26189569 0.062447526
-0.26908073 -0.26186883 0.062454671
-0.2693201 -0.26185012 0.062374033
-0.26952496 -0.26182169 0.062397346
-0.26975304 -0.26179942 0.062353656
-0.26995727 -0.26177093 0.062378131
-0.27017528 -0.26174539 0.062367935
-0.27040994 -0.26172757 0.06228501
-0.2706278 -0.26170221 0.062273674
-0.27085951 -0.26168367 0.062198825
-0.27106816 -0.26165524 0.062218662
-0.27127248 -0.26162723 0.062239677
-0.27148575 -0.26160055 0.062242188
-0.27170938 -0.2615796 0.06219276
-0.2719363 -0.26155809 0.062144466
-0.27214259 -0.26153105 0.062156245
-0.27233028 -0.26149529 0.062249973
-0.27257469 -0.26148248 0.062120885
-0.27279565 -0.2614592 0.062091067
-0.27299267 -0.26142895 0.062135179
-0.27322009 -0.2614083 0.062079959
-0.273424 -0.26138079 0.062097508
-0.27364543 -0.26135808 0.062063091
-0.27385628 -0.26133141 0.062067918
-0.27407607 -0.26130831 0.062038109
-0.27427962 -0.26128685 0.062010683
-0.27453384 -0.2612716 0.061890773
-0.27472967 -0.26124135 0.061936028
-0.27493939 -0.26121467 0.061942022
-0.27514929 -0.26119012 0.061931871
-0.27536196 -0.26116478 0.061925158
-0.27557445 -0.26114148 0.061903454
-0.2757946 -0.2611194 0.061865583
-0.27601185 -0.26109827 0.061823092
-0.27621439 -0.26106906 0.061854493
-0.27642852 -0.2610448 0.061838545
-0.27663884 -0.26101896 0.061837617
-0.2768333 -0.26099277 0.061854057
-0.27706665 -0.26097277 0.061788432
-0.27727601 -0.26094893 0.061773673
-0.2774868 -0.26092365 0.061768126
-0.2776964 -0.26090008 0.061751045
-0.27791101 -0.26087666 0.061728187
-0.27812511 -0.26085314 0.061706476
-0.27834663 -0.26083308 0.061652444
-0.27855039 -0.26080728 0.061657302
-0.27875462 -0.26077956 0.06167601
-0.27898532 -0.26076409 0.061579265
-0.27919769 -0.26074031 0.061561022
-0.27939904 -0.26071373 0.061573975
-0.27959603 -0.26068288 0.061622694
-0.27980697 -0.26065868 0.061609067
-0.28002733 -0.26063904 0.061552737
-0.2802293 -0.26061302 0.061561067
-0.28045654 -0.26059702 0.061471254
-0.28065288 -0.26056609 0.061521128
-0.2808663 -0.26054361 0.061492503
-0.28107178 -0.26051959 0.06148237
-0.28127196 -0.26049069 0.06151377
-0.28149176 -0.26047406 0.061435528
-0.28168952 -0.26044405 0.061477333
-0.2819199 -0.26043078 0.061364442
-0.28212181 -0.26040304 0.061385453
-0.28232473 -0.26037827 0.0613834
-0.28253987 -0.26035759 0.061339773
-0.28274253 -0.26033285 0.061337721
-0.28295445 -0.26031068 0.061307952
-0.28316712 -0.26028907 0.061273564
-0.28337589 -0.26026544 0.061257645
-0.28358331 -0.26024368 0.06122905
-0.28377712 -0.26021197 0.061287012
-0.2840071 -0.26020047 0.061161436
-0.28420123 -0.26016903 0.061217092
-0.28440803 -0.26014736 0.061188493
-0.28462753 -0.26013047 0.061112553
-0.2848213 -0.26010156 0.061149754
-0.28502959 -0.26007846 0.061130375
-0.28522724 -0.26005185 0.061146803
-0.28544265 -0.26003313 0.061088186
-0.28565669 -0.26001382 0.061035335
-0.28585643 -0.25998604 0.06105867
-0.28604567 -0.2599546 0.061118953
-0.28626388 -0.25993818 0.061040718
-0.28647721 -0.25991893 0.060987882
-0.28667438 -0.25988978 0.061023902
-0.28688899 -0.2598744 0.060941078
-0.28708723 -0.25984603 0.060970176
-0.28728661 -0.25982124 0.060971607
-0.28749463 -0.25979927 0.060944155
-0.28770167 -0.25977677 0.060921326
-0.28790462 -0.25975168 0.060921587
-0.28810653 -0.25972891 0.060905688
-0.28831613 -0.25970843 0.060865551
-0.28850421 -0.25968239 0.060886629
-0.28870609 -0.25966287 0.06084653
-0.28890139 -0.25962991 0.060912557
-0.28913248 -0.25961885 0.060782366
-0.28933489 -0.25959709 0.060758397
-0.28951266 -0.25957015 0.060795665
-0.28973052 -0.25954109 0.060812004
-0.28993231 -0.259516 0.060813412
-0.29013759 -0.25949666 0.060768679
-0.29034418 -0.25947532 0.060737774
-0.29054695 -0.25945443 0.060706899
-0.29076079 -0.25943887 0.060626373
-0.29095605 -0.25940931 0.060667023
-0.29115254 -0.2593807 0.060699601
-0.29135171 -0.25935748 0.060689487
-0.29156563 -0.25934264 0.060603201
-0.29175207 -0.25930953 0.06067849
-0.29196644 -0.25929543 0.06058643
-0.29216096 -0.25927573 0.06055443
-0.29234311 -0.25925291 0.060557082
-0.2925714 -0.25923014 0.060516857
-0.29277208 -0.25920549 0.060515963
-0.29294959 -0.259186 0.060497887
-0.29313701 -0.25915727 0.060539719
-0.29337609 -0.25913718 0.060469471
-0.29357785 -0.25911379 0.060458198
-0.29378673 -0.25910053 0.060365006
-0.29397774 -0.25906777 0.060433358
-0.29418385 -0.25904867 0.060386311
-0.29436812 -0.2590248 0.060394719
-0.29458192 -0.25900164 0.060370713
-0.29476783 -0.25899103 0.060278773
-0.29498988 -0.25896052 0.060302008
-0.29519519 -0.2589415 0.060254972
-0.2953853 -0.25891179 0.060301416
-0.29556617 -0.25887287 0.06042517
-0.29570925 -0.25884476 0.060502954
-0.29590967 -0.25884572 0.060311772
-0.29614589 -0.25883821 0.060150418
-0.29638937 -0.25880522 0.060172409
-0.29658329 -0.25877535 0.060216524
-0.29677925 -0.25875193 0.060211044
-0.29697654 -0.25872567 0.060225159
-0.297185 -0.2587117 0.060137741
-0.29738042 -0.2586835 0.060168013
-0.2975769 -0.25866109 0.06015446
-0.29777914 -0.25864074 0.060120117
-0.29797691 -0.25861537 0.06012731
-0.2981776 -0.2585935 0.060105667
-0.2983712 -0.25856802 0.060117498
-0.29857367 -0.25854859 0.060076233
-0.29876739 -0.2585234 0.060085751
-0.29897359 -0.25850889 0.060004108
-0.29917008 -0.25848246 0.060020536
-0.29936588 -0.25845516 0.06004389
-0.29956287 -0.25843453 0.060016491
-0.29976848 -0.25842026 0.0599337
-0.29995993 -0.2583873 0.060003199
-0.30015177 -0.25836545 0.059989657
-0.30031377 -0.25834572 0.059987795
-0.30051315 -0.25832912 0.059928089
-0.3007212 -0.25830853 0.059890263
-0.30092415 -0.25828639 0.059868604
-0.30109832 -0.25825632 0.059932418
-0.30127999 -0.25822565 0.059993885
-0.30150327 -0.25820506 0.059942152
-0.30172175 -0.25818333 0.05990313
-0.30193833 -0.25817114 0.05979491
-0.30213705 -0.25814936 0.059774429
-0.30232874 -0.25812241 0.059798948
-0.30249381 -0.25810245 0.059795909
-0.30269468 -0.2580781 0.059792716
-0.30289769 -0.25807095 0.05965919
-0.30311182 -0.25804341 0.059667468
-0.30328166 -0.25799796 0.059850089
-0.30344623 -0.25799137 0.059747867
-0.30367416 -0.25796816 0.059711106
-0.3038823 -0.25794384 0.059700951
-0.30410179 -0.25792712 0.059623864
-0.30427495 -0.25790909 0.059598885
-0.30447236 -0.25788671 0.059584171
-0.30468318 -0.25786081 0.059583232
-0.3048532 -0.25784475 0.059546728
-0.30506793 -0.25781944 0.059537709
-0.30524957 -0.25779605 0.059544973
-0.30544183 -0.2577799 0.059488766
-0.30565175 -0.25776154 0.059432477
-0.30586201 -0.25773525 0.05943501
-0.30603376 -0.2577157 0.059422713
-0.30622524 -0.25768924 0.059443772
-0.30643409 -0.25765941 0.059473988
-0.30663475 -0.25763756 0.05945234
-0.30683136 -0.25762549 0.059361514
-0.30703229 -0.25759432 0.059409056
-0.30722821 -0.25757009 0.059409343
-0.30741468 -0.25755107 0.059379689
-0.30761522 -0.25751808 0.059441071
-0.30781114 -0.25750625 0.059349097
-0.30799797 -0.25748935 0.059303291
-0.30815288 -0.25746411 0.059348732
-0.30837187 -0.2574442 0.05929587
-0.30858856 -0.25741619 0.059305288
-0.30876344 -0.25739688 0.059288364
-0.30893755 -0.25737458 0.059294514
-0.30912995 -0.25735217 0.05928443
-0.30936775 -0.25733739 0.059176125
-0.30956441 -0.25731912 0.059131429
-0.30975443 -0.25728616 0.059202086
-0.30995014 -0.25726339 0.059191994
-0.3101432 -0.25724632 0.059141546
-0.31031781 -0.25722814 0.059116561
-0.31048471 -0.25720733 0.059118129
-0.31069437 -0.25718221 0.059112586
-0.31091103 -0.2571559 0.059109319
-0.31110722 -0.25713879 0.059056547
-0.31128335 -0.25710523 0.059144571
-0.31146923 -0.2570937 0.05905956
-0.31164744 -0.25707924 0.059003409
-0.31182835 -0.25705624 0.059008379
-0.31205219 -0.25703293 0.058976252
-0.31225741 -0.25699908 0.059039921
-0.31242433 -0.25698075 0.05902303
-0.31259838 -0.2569623 0.059000347
-0.31280494 -0.25695783 0.058843743
-0.31299254 -0.25692645 0.058905192
-0.31317687 -0.25689992 0.058933202
-0.31339324 -0.25687972 0.058884963
-0.31358826 -0.25685406 0.05889678
-0.31381163 -0.25682771 0.058887716
-0.31399941 -0.25681022 0.058845367
-0.3141802 -0.25678676 0.05885379
-0.31438139 -0.25678298 0.058697209
-0.31455231 -0.25674355 0.058833696
-0.31471914 -0.25671887 0.058864091
-0.31492782 -0.25670069 0.058807805
-0.31513262 -0.25668484 0.05873771
-0.31530687 -0.25665599 0.058792289
-0.31549194 -0.25662538 0.058850288
-0.31569219 -0.25661796 0.058721386
-0.31588158 -0.25661096 0.05859945
-0.3161023 -0.25657424 0.058669981
-0.31631091 -0.25655112 0.058650594
-0.31649959 -0.25652161 0.058697052
-0.31666875 -0.25650638 0.058654778
-0.31684914 -0.25648594 0.058641296
-0.31704757 -0.25646111 0.058643881
-0.31725129 -0.25644523 0.058574926
-0.31743523 -0.25642371 0.058566041
-0.31761998 -0.25639808 0.058587141
-0.31779954 -0.25638101 0.058549438
-0.31798741 -0.25635713 0.05855437
-0.31818485 -0.25633678 0.058524664
-0.31838745 -0.25630879 0.058546826
-0.31857318 -0.25629389 0.058487192
-0.31876048 -0.25627226 0.058475979
-0.31895551 -0.2562474 0.058482036
-0.3191579 -0.25622067 0.058494974
-0.31937227 -0.25620022 0.0584502
-0.31954303 -0.25618839 0.058381401
-0.31972769 -0.25616401 0.058393274
-0.31992814 -0.25613275 0.05844197
-0.32012254 -0.25611025 0.058430739
-0.32031855 -0.25609314 0.058377966
-0.3205075 -0.25606656 0.058402497
-0.32070991 -0.25604045 0.058410831
-0.32088563 -0.2560133 0.058451571
-0.32107833 -0.25599566 0.058405738
-0.32126936 -0.25596416 0.058464862
-0.32146302 -0.2559616 0.058306005
-0.32163328 -0.25593156 0.058373291
-0.32181776 -0.2559171 0.058311351
-0.32203197 -0.25589544 0.058275804
-0.32221392 -0.25588655 0.058174666
-0.32238492 -0.25587916 0.058072418
-0.3225832 -0.2558471 0.058129199
-0.32277748 -0.25581688 0.058175623
-0.32298166 -0.25579473 0.05815281
-0.323163 -0.25577852 0.05810703
-0.32335824 -0.2557539 0.058110777
-0.32354185 -0.25573972 0.058047682
-0.32372862 -0.255712 0.05808261
-0.32391778 -0.25569311 0.058049478
-0.32412699 -0.2556541 0.058147732
-0.32431841 -0.2556439 0.058047701
-0.32450753 -0.25563136 0.057967283
-0.32469162 -0.25560921 0.057963014
-0.3249051 -0.25558177 0.057971291
-0.32508081 -0.25556901 0.057904772
-0.32526663 -0.25554973 0.057877429
-0.32545272 -0.25552997 0.057853535
-0.32565016 -0.25550187 0.057881501
-0.32585505 -0.25547808 0.057870209
-0.32604086 -0.2554644 0.057801344
-0.32622504 -0.25544226 0.057797063
-0.32641807 -0.25542179 0.057771988
-0.32660946 -0.2553986 0.057768837
-0.3268005 -0.25538135 0.057721853
-0.32700133 -0.25534847 0.057782099
-0.32718956 -0.25533047 0.057743195
-0.3273752 -0.25531632 0.057677791
-0.32757038 -0.25528756 0.057712685
-0.32776737 -0.25525627 0.057764854
-0.32796496 -0.255234 0.057748988
-0.32815281 -0.25521171 0.057742391
-0.32834253 -0.25519615 0.057683885
-0.32853502 -0.2551719 0.057687648
-0.32873479 -0.25514656 0.057692528
-0.32893774 -0.25511235 0.057760827
-0.32913861 -0.25508586 0.057773769
-0.32933715 -0.25507584 0.057665639
-0.32951865 -0.25505805 0.057631385
-0.32972211 -0.25502813 0.05766739
-0.32989278 -0.2550118 0.057632037
-0.33008498 -0.25499687 0.057566606
-0.33027667 -0.25497827 0.05752885
-0.33046663 -0.25495774 0.057507247
-0.33065179 -0.25493917 0.057475287
-0.33083802 -0.25491521 0.057482533
-0.33104911 -0.25489238 0.057458542
-0.33124772 -0.25486523 0.057478413
-0.33144492 -0.25484377 0.057456776
-0.3316237 -0.25482523 0.057430614
-0.33181703 -0.25480458 0.057406697
-0.33200982 -0.25477704 0.057434671
-0.33219492 -0.25475866 0.057401564
-0.33239025 -0.25473946 0.057364941
-0.33259395 -0.25471428 0.057365194
-0.3328 -0.25469378 0.057328533
-0.33297274 -0.25467134 0.05733699
-0.33316621 -0.25464711 0.057339597
-0.33335343 -0.2546334 0.057269566
-0.33356825 -0.25459975 0.057322819
-0.33376375 -0.25457698 0.057312727
-0.33394888 -0.25455517 0.057304986
-0.33413225 -0.25453869 0.057259198
-0.33432394 -0.25451669 0.057246815
-0.33452669 -0.2545031 0.057161722
-0.33471164 -0.25447822 0.057177052
-0.33490971 -0.25445619 0.057158872
-0.33510372 -0.25443843 0.057113037
-0.33529559 -0.25440991 0.057149094
-0.33547685 -0.2543923 0.057113692
-0.33568171 -0.25436357 0.057139307
-0.3358829 -0.25434181 0.057116505
-0.33607194 -0.25432897 0.057038397
-0.33627689 -0.25430039 0.057062861
-0.33646199 -0.25427905 0.057051659
-0.33664519 -0.25425655 0.05705085
-0.33683997 -0.25423804 0.057009622
-0.3370131 -0.25422823 0.056923505
-0.33723298 -0.25418887 0.057014797
-0.33742571 -0.25416642 0.05700472
-0.33760688 -0.25415486 0.056924339
-0.33779278 -0.25413588 0.056894686
-0.33798987 -0.25411525 0.056867287
-0.33817187 -0.2541056 0.056771904
-0.33837351 -0.25407511 0.056813687
-0.33859721 -0.25404173 0.05685652
-0.33880109 -0.25402072 0.05682563
-0.33898523 -0.25399518 0.056846723
-0.33919823 -0.25396344 0.056887306
-0.33938015 -0.25394821 0.056833446
-0.33957589 -0.25392094 0.056856796
-0.33976808 -0.25389951 0.056839794
-0.33995363 -0.25388384 0.05678593
-0.34016198 -0.25385129 0.056836899
-0.34035331 -0.25382811 0.056833744
-0.3405498 -0.25380847 0.056799427
-0.34075707 -0.25378239 0.056803122
-0.34093714 -0.2537739 0.056700833
-0.34112856 -0.25374821 0.056716137
-0.34132153 -0.25372389 0.056719895
-0.34153184 -0.25369808 0.056718957
-0.34171677 -0.25368294 0.056661624
-0.34189016 -0.25367713 0.056545541
-0.34210032 -0.25364652 0.056580354
-0.34231985 -0.25360858 0.056661271
-0.34252119 -0.2535902 0.056613091
-0.34270078 -0.25357202 0.056583457
-0.34287551 -0.25356248 0.056493886
-0.34306762 -0.25354165 0.056472275
-0.34328786 -0.25350377 0.056552026
-0.34347662 -0.25348571 0.056513134
-0.34366488 -0.25346801 0.056471933
-0.34387833 -0.25343809 0.056498665
-0.34406283 -0.2534233 0.056439027
-0.34427121 -0.25339276 0.05647501
-0.34446573 -0.25337508 0.056428023
-0.34465113 -0.25336191 0.056355692
-0.3448534 -0.25333613 0.05636172
-0.34505036 -0.25330761 0.056393135
-0.34523728 -0.25329334 0.056327723
-0.34545347 -0.25325981 0.056378663
-0.34563285 -0.25324661 0.056312136
-0.34583056 -0.25322449 0.056295108
-0.34602755 -0.25320509 0.056258488
-0.34622639 -0.25317574 0.056294516
-0.34641728 -0.25315431 0.056278668
-0.34662151 -0.25313851 0.056208573
-0.34681278 -0.2531147 0.056210026
-0.34701416 -0.25309029 0.056206834
-0.3472338 -0.25305524 0.056265831
-0.34741017 -0.2530463 0.056170475
-0.34760559 -0.25302616 0.05614078
-0.34780842 -0.25300094 0.056142185
-0.34802678 -0.25297552 0.056130838
-0.34819964 -0.25296265 0.056067798
-0.34840855 -0.25293142 0.056108389
-0.3485927 -0.252913 0.056076434
-0.34880701 -0.25287631 0.056152754
-0.348988 -0.25286615 0.056061998
-0.3491925 -0.2528463 0.056021873
-0.34940392 -0.25281784 0.056039397
-0.34959236 -0.25279874 0.056008574
-0.34980348 -0.25277266 0.056008793
-0.34999436 -0.25275201 0.055987187
-0.35019928 -0.25273007 0.05596206
-0.35038912 -0.25270632 0.055964671
-0.35056978 -0.25269821 0.055858932
-0.35077447 -0.25266302 0.05593298
-0.35097632 -0.25264132 0.055909026
-0.35112408 -0.25264841 0.055720389
-0.35136834 -0.25259024 0.055929195
-0.35159591 -0.25255623 0.055973172
-0.35177258 -0.25255066 0.055852443
-0.35197517 -0.2525287 0.055829633
-0.35215986 -0.25251052 0.055795368
-0.35236198 -0.25248709 0.055784099
-0.35256734 -0.25246358 0.055770498
-0.3527565 -0.25244823 0.055710845
-0.35300082 -0.2524009 0.055838931
-0.35318345 -0.25240061 0.055673204
-0.35336167 -0.2523829 0.055641275
-0.35357678 -0.25234827 0.055701442
-0.35380125 -0.25231713 0.055726979
-0.35394716 -0.25232261 0.055552185
-0.35416168 -0.25228325 0.055648107
-0.35437164 -0.25226104 0.055620648
-0.35458088 -0.2522375 0.055603579
-0.35477197 -0.25221419 0.055601578
-0.35498989 -0.25218216 0.055639818
-0.35518008 -0.25216129 0.055620525
-0.35538545 -0.25213856 0.055601165
-0.35558355 -0.25212181 0.055543773
-0.35577655 -0.25210631 0.055481799
-0.35600311 -0.25206625 0.055571899
-0.35618433 -0.25205761 0.055469614
-0.35636753 -0.25203589 0.055463038
-0.35657763 -0.252009 0.05547018
-0.35681459 -0.25198549 0.055427607
-0.3569802 -0.25196716 0.055411879
-0.35719219 -0.25193942 0.055423632
-0.35739478 -0.2519187 0.055391587
-0.35761458 -0.25189173 0.055390619
-0.35777968 -0.25188214 0.055310309
-0.35799336 -0.25184876 0.055362415
-0.35820535 -0.25182304 0.055359162
-0.35841379 -0.25179279 0.055392846
-0.35858524 -0.25178629 0.055283673
-0.35880286 -0.25175601 0.055309229
-0.35900509 -0.25173101 0.055309489
-0.3592051 -0.25170892 0.055290151
-0.35940295 -0.25168324 0.055299655
-0.35959035 -0.25166968 0.055228479
-0.35977504 -0.25165597 0.055160768
-0.35999936 -0.25162253 0.055203602
-0.36019745 -0.25160486 0.055153128
-0.36040062 -0.25157821 0.055164911
-0.36058432 -0.25156355 0.055105284
-0.3607727 -0.25154954 0.0550364
-0.36099115 -0.25151807 0.055070039
-0.36118615 -0.25150064 0.055020731
-0.36138541 -0.25147942 0.05499563
-0.36156854 -0.25146666 0.05492216
-0.3618142 -0.25142133 0.055034101
-0.3620092 -0.25140405 0.054983642
-0.36222273 -0.25137565 0.054998837
-0.36244199 -0.25134438 0.055030167
-0.36264098 -0.25132367 0.055001602
-0.36283284 -0.25130814 0.054940782
-0.36303475 -0.251286 0.054920278
-0.36325112 -0.25125802 0.054929703
-0.36343649 -0.2512444 0.05486083
-0.3636606 -0.25121114 0.054902513
-0.36386111 -0.25118992 0.054876253
-0.3640807 -0.25116062 0.054892574
-0.25642219 -0.26330686 0.063378997
-0.25662899 -0.26327386 0.063434593
-0.25684792 -0.26324528 0.063446298
-0.25711533 -0.26322684 0.063337825
-0.25733417 -0.26319841 0.063348375
-0.25757024 -0.26317424 0.063311554
-0.25778484 -0.26314494 0.063332513
-0.25801015 -0.26311681 0.063334964
-0.25824627 -0.26309291 0.063295841
-0.25847614 -0.26306608 0.063284427
-0.25871208 -0.26304236 0.063244149
-0.2589696 -0.26302266 0.063154176
-0.25913337 -0.26299793 0.063188046
-0.25936463 -0.26296565 0.063215837
-0.25964937 -0.26294398 0.063115366
-0.25986215 -0.26291338 0.063147865
-0.26010042 -0.26289093 0.063096032
-0.26028579 -0.26285329 0.063205943
-0.26049581 -0.26282364 0.063233837
-0.26074827 -0.26280364 0.063150808
-0.26099783 -0.2627846 0.063063174
-0.26124066 -0.26276237 0.063005567
-0.26145968 -0.26273546 0.063004583
-0.261666 -0.26270363 0.063052103
-0.26189333 -0.26267913 0.063025713
-0.26212722 -0.2626549 0.062991209
-0.26235789 -0.26263151 0.062953264
-0.26259235 -0.26260769 0.062915295
-0.26281914 -0.26258183 0.062899292
-0.26305109 -0.26255754 0.062867105
-0.26326114 -0.26252881 0.062888071
-0.26348919 -0.26250359 0.062866293
-0.26371184 -0.26247856 0.062847987
-0.26393828 -0.26245308 0.062829673
-0.26414466 -0.26242355 0.062859885
-0.26439202 -0.26240432 0.062775724
-0.26460999 -0.26237833 0.062768981
-0.26483807 -0.26235375 0.062742576
-0.26502758 -0.26231948 0.062823638
-0.26529905 -0.26230797 0.062659763
-0.26548168 -0.26227006 0.062774301
-0.26572642 -0.26225084 0.062692456
-0.26592213 -0.26221859 0.062752716
-0.26620558 -0.2622115 0.062544964
-0.26640522 -0.26218063 0.062591366
-0.26662099 -0.26215306 0.062598474
-0.26685435 -0.26213276 0.062535137
-0.26705945 -0.26210201 0.062575743
-0.26729402 -0.26208234 0.062506631
-0.26752341 -0.26205942 0.06246639
-0.26772517 -0.26202953 0.062503539
-0.26794544 -0.2620039 0.062492173
-0.26815927 -0.26197624 0.062501594
