# .PCD v0.7 - Point Cloud Data file format
VERSION 0.7
FIELDS x y z
SIZE 4 4 4
TYPE F F F
COUNT 1 1 1
WIDTH 1312
HEIGHT 1
VIEWPOINT 0 0 0 1 0 0 0
POINTS 1312
DATA ascii
-0.3933731 -0.25177959 0.056567162
-0.39362058 -0.25173366 0.056681342
-0.39380166 -0.25171974 0.056614678
-0.39402139 -0.25169584 0.056587052
-0.39422524 -0.25166625 0.056618359
-0.3944101 -0.25165349 0.05653898
-0.39462018 -0.25163022 0.056516025
-0.39481914 -0.25160664 0.05650581
-0.39505491 -0.25157276 0.056539275
-0.3952449 -0.25155258 0.056511797
-0.39542624 -0.25153393 0.056480899
-0.3956334 -0.25150934 0.056470651
-0.39585179 -0.2514835 0.056459196
-0.39603764 -0.25146416 0.056429431
-0.39623052 -0.25144574 0.056385778
-0.39647064 -0.25140706 0.056451537
-0.3966741 -0.25138626 0.056415915
-0.39688241 -0.25136909 0.056347948
-0.39703584 -0.25135922 0.056276802
-0.39725849 -0.25132394 0.056333408
-0.39747846 -0.25129926 0.056311563
-0.3976844 -0.25126985 0.056339398
-0.39785761 -0.25125885 0.056257758
-0.39809507 -0.25122687 0.056275062
-0.39831272 -0.25119767 0.056290146
-0.39849871 -0.25117722 0.056268461
-0.39869046 -0.25115985 0.056217894
-0.39887431 -0.25114647 0.056144282
-0.39909297 -0.25112286 0.056115512
-0.39931411 -0.2510893 0.056160595
-0.39952219 -0.25106382 0.056156103
-0.39972147 -0.25103992 0.056148201
-0.39992142 -0.25101867 0.056119516
-0.40012348 -0.25099638 0.056096606
-0.40031976 -0.25097558 0.056067936
-0.40053925 -0.25094476 0.056093402
-0.29243132 -0.2633256 0.06487003
-0.29272759 -0.26331368 0.064678088
-0.29290748 -0.26327419 0.064807579
-0.29316404 -0.2632536 0.064719707
-0.29340038 -0.26322705 0.064696565
-0.2936646 -0.26320851 0.064585574
-0.29386038 -0.26317281 0.064671129
-0.29411203 -0.26315162 0.064592518
-0.29428273 -0.26312491 0.064633191
-0.29456744 -0.26309687 0.06457518
-0.29478246 -0.26306587 0.064606406
-0.29502276 -0.26304245 0.064555541
-0.29524407 -0.26301309 0.064568266
-0.29550308 -0.26299295 0.064474612
-0.29571691 -0.26296195 0.064506993
-0.29596534 -0.262941 0.064429544
-0.29618654 -0.26291195 0.064439945
-0.29640064 -0.26288274 0.064458475
-0.29666144 -0.26286373 0.06435442
-0.29685938 -0.26283062 0.064418048
-0.29708141 -0.26280206 0.064423829
-0.29732949 -0.26278177 0.064341776
-0.29755676 -0.26275787 0.064307146
-0.29776686 -0.26272339 0.064369544
-0.29799318 -0.26269627 0.064360306
-0.29821369 -0.26266927 0.064355716
-0.29842204 -0.26263759 0.064398512
-0.29868218 -0.26262122 0.064274833
-0.29891178 -0.26259536 0.064252891
-0.29912865 -0.26256776 0.0642564
-0.29935706 -0.26254174 0.06423676
-0.299564 -0.26251161 0.06426917
-0.29980034 -0.26248792 0.064224109
-0.29999161 -0.2624552 0.064291224
-0.30020767 -0.26242286 0.064331673
-0.30046633 -0.26240727 0.064203396
-0.30071056 -0.26238626 0.064130589
-0.30093995 -0.26236284 0.06409017
-0.30117121 -0.26233843 0.064055517
-0.30139822 -0.26231456 0.064020887
-0.30162233 -0.26228833 0.064007044
-0.30184257 -0.26226106 0.064004764
-0.30204993 -0.2622301 0.064042941
-0.30227596 -0.26221135 0.063970223
-0.30252847 -0.26218882 0.063900843
-0.30274209 -0.26216164 0.063904367
-0.30295345 -0.26213214 0.063927531
-0.30317423 -0.26210722 0.063906781
-0.30341008 -0.26208529 0.063849017
-0.30363598 -0.26206213 0.063809767
-0.30384529 -0.2620323 0.063837558
-0.30407014 -0.26200733 0.063813329
-0.3043007 -0.26198423 0.063769437
-0.3045049 -0.26195472 0.06379956
-0.30471194 -0.26192442 0.063833117
-0.3049379 -0.26190189 0.063789263
-0.30516377 -0.26187769 0.063758105
-0.30531764 -0.261841 0.063891195
-0.30558079 -0.2618202 0.063798666
-0.30582836 -0.26180691 0.063663527
-0.30605274 -0.26177913 0.063661218
-0.30623603 -0.2617557 0.063664906
-0.30648205 -0.26172629 0.063654408
-0.30669942 -0.26170179 0.06363368
-0.30692279 -0.26167762 0.063604832
-0.307129 -0.26164773 0.063636102
-0.3073259 -0.26162744 0.063602768
-0.30759659 -0.26160887 0.063485973
-0.30778787 -0.261574 0.063569255
-0.30801392 -0.26155314 0.06351269
-0.30819726 -0.26151547 0.063624866
-0.30842578 -0.26149565 0.063557908
-0.3086535 -0.2614738 0.063507125
-0.30887106 -0.26145035 0.063478306
-0.30908766 -0.26142475 0.06346681
-0.30933034 -0.26140875 0.063357078
-0.3095541 -0.26138604 0.063316688
-0.30975756 -0.26135784 0.063337579
-0.30996597 -0.26132962 0.063353829
-0.31016901 -0.26130331 0.063360862
-0.31038055 -0.26128799 0.063275531
-0.31060573 -0.26125467 0.063314781
-0.3108238 -0.26123038 0.063291728
-0.31103072 -0.26120389 0.063296437
-0.31125107 -0.26118067 0.063262999
-0.31145659 -0.26116371 0.06319616
-0.31165987 -0.26112208 0.063319765
-0.31190866 -0.26111242 0.063155763
-0.31213471 -0.26109201 0.063095748
-0.3123486 -0.26106885 0.063068107
-0.31253907 -0.26103833 0.063119069
-0.31276202 -0.26101497 0.063084461
-0.31296629 -0.26098606 0.063109964
-0.31316495 -0.26095694 0.063142419
-0.31339613 -0.26093936 0.063055828
-0.31359762 -0.26091155 0.063075572
-0.31377977 -0.26089236 0.063048095
-0.31404006 -0.26086873 0.062979817
-0.31424552 -0.26084071 0.062997237
-0.31445384 -0.26081616 0.062985778
-0.31466612 -0.26079124 0.062973157
-0.31487548 -0.26076728 0.062955931
-0.31509247 -0.26074466 0.062921345
-0.31530017 -0.26072016 0.062909894
-0.31552202 -0.26069996 0.062852204
-0.31571653 -0.26066968 0.062897384
-0.31592315 -0.26064277 0.062905557
-0.316136 -0.26062095 0.062868685
-0.31635237 -0.26059869 0.062831804
-0.31655353 -0.26057169 0.062845774
-0.31676349 -0.26054889 0.062819317
-0.31697655 -0.26052764 0.062777825
-0.3171804 -0.26049986 0.062795252
-0.31738189 -0.26047325 0.062805764
-0.31760263 -0.26045379 0.06274347
-0.31780526 -0.26043022 0.062729731
-0.31801164 -0.26040393 0.062733293
-0.31822151 -0.26037946 0.062719531
-0.31842026 -0.26035184 0.062740445
-0.31863022 -0.26032996 0.062707044
-0.31881228 -0.26031303 0.062662259
-0.31905401 -0.26028612 0.062636778
-0.31927088 -0.26026577 0.062584899
-0.31946933 -0.26023835 0.062604658
-0.31966627 -0.26021263 0.062612884
-0.31984577 -0.26018998 0.06261427
-0.32006496 -0.2601639 0.062603913
-0.32027516 -0.26014301 0.062562443
-0.32049206 -0.26011842 0.062542871
-0.3206999 -0.26009905 0.062492177
-0.3209222 -0.26007518 0.062462188
-0.32112408 -0.26005018 0.062459998
-0.3213186 -0.26002884 0.06243708
-0.32152602 -0.26001498 0.062344838
-0.321751 -0.25998273 0.062376007
-0.32193738 -0.25994909 0.062454689
-0.32215598 -0.25993428 0.062358931
-0.32234308 -0.25990373 0.062413372
-0.32257155 -0.25988981 0.062301401
-0.32276434 -0.25986007 0.062344275
-0.32298398 -0.25984392 0.062257752
-0.32318625 -0.25982007 0.06224633
-0.32338178 -0.25978938 0.062293798
-0.32359055 -0.25976974 0.062244259
-0.32379752 -0.25974911 0.062203955
-0.32399356 -0.2597217 0.062226035
-0.32420766 -0.25970307 0.062163778
-0.32441258 -0.25968722 0.062088855
-0.3245858 -0.25965372 0.062179148
-0.3247765 -0.25962877 0.062187407
-0.32497799 -0.2596052 0.062174834
-0.32517871 -0.25957823 0.062188819
-0.3253867 -0.25954735 0.062225834
-0.32560378 -0.25953469 0.062115088
-0.32577598 -0.25950027 0.062213454
-0.32595968 -0.25948283 0.062170967
-0.32619619 -0.25946307 0.062095895
-0.32641172 -0.25944093 0.062059019
-0.3266291 -0.2594234 0.061985187
-0.32680973 -0.25940755 0.061933488
-0.32701325 -0.25937709 0.061971687
-0.32722351 -0.25935802 0.061916366
-0.32746822 -0.25934252 0.06180086
-0.32765919 -0.25931573 0.061822958
-0.32786399 -0.25928977 0.061825372
-0.32804656 -0.25925979 0.06187984
-0.32826263 -0.25923941 0.061829101
-0.32846254 -0.25921646 0.061813079
-0.32865208 -0.25919211 0.061817884
-0.3288615 -0.25916681 0.061811045
-0.3290562 -0.25914332 0.061804272
-0.32926956 -0.25912493 0.061740853
-0.32946172 -0.25909254 0.061804503
-0.3296656 -0.2590735 0.061754987
-0.32985675 -0.25905091 0.061744779
-0.33007061 -0.25903004 0.06169983
-0.33025813 -0.25901547 0.061631933
-0.33043301 -0.25898993 0.061659895
-0.33066988 -0.25895664 0.061687529
-0.33086801 -0.25893334 0.06167613
-0.33106583 -0.2589137 0.061637033
-0.33126628 -0.25888512 0.061663706
-0.33147261 -0.25886595 0.061613023
-0.33165115 -0.25884795 0.061579801
-0.33186564 -0.25882518 0.061548688
-0.33206815 -0.25879481 0.061586894
-0.33224884 -0.25877929 0.061532877
-0.33244133 -0.25875124 0.061563052
-0.33259225 -0.25871825 0.061670773
-0.33282498 -0.25873131 0.061348729
-0.3330082 -0.25867704 0.061587855
-0.3331989 -0.25866419 0.061503779
-0.33343422 -0.25867769 0.061175954
-0.33365321 -0.25863093 0.061323725
-0.33387694 -0.25859779 0.061362971
-0.3340663 -0.25858465 0.061282374
-0.33424234 -0.25855213 0.061362255
-0.33441982 -0.25853488 0.06132441
-0.33463135 -0.25850159 0.061376423
-0.33481574 -0.25849271 0.061268143
-0.33499697 -0.25845185 0.061406873
-0.33518609 -0.25842497 0.061431292
-0.33539698 -0.25842488 0.061230555
-0.33559364 -0.25839782 0.061249163
-0.33581981 -0.25839826 0.06102987
-0.33598179 -0.25833195 0.061381057
-0.33619237 -0.25832298 0.061248407
-0.33644041 -0.25831208 0.061094791
-0.33666545 -0.25828663 0.061074018
-0.33684763 -0.2582455 0.061213896
-0.33700874 -0.25822937 0.061183065
-0.33720568 -0.25821984 0.061067801
-0.33739927 -0.25818893 0.061118744
-0.33759832 -0.25816596 0.061103873
-0.33777803 -0.25814918 0.06106025
-0.33799225 -0.25811994 0.061078779
-0.3381739 -0.25809446 0.061099779
-0.33837485 -0.25808108 0.061009876
-0.33858931 -0.25805876 0.060975321
-0.33876529 -0.25802416 0.061071359
-0.33895957 -0.25800693 0.061017275
-0.33916873 -0.25799572 0.060903098
-0.33937794 -0.25796512 0.06093666
-0.33955362 -0.25792253 0.061093867
-0.33974221 -0.25790966 0.061012123
-0.33996266 -0.25789958 0.060878269
-0.34015667 -0.25786909 0.060925744
-0.34035033 -0.25784513 0.060923606
-0.34055728 -0.25783253 0.060822133
-0.34076214 -0.25778541 0.060986128
-0.34095955 -0.25776929 0.060920492
-0.34119716 -0.25775862 0.060775004
-0.34138286 -0.2577346 0.060780976
-0.34156689 -0.25769836 0.060881607
-0.34173623 -0.25767985 0.060861118
-0.34194475 -0.25767401 0.060706548
-0.34215891 -0.25764644 0.060712375
-0.34237626 -0.25761756 0.060725112
-0.3425439 -0.25758612 0.060805049
-0.34273556 -0.25757799 0.060684029
-0.34296542 -0.25755286 0.060656317
-0.34316128 -0.25753725 0.060588375
-0.34335542 -0.25750643 0.060638163
-0.34354851 -0.25748327 0.060630247
-0.34371272 -0.25746283 0.060629405
-0.34393075 -0.2574366 0.060621366
-0.34409034 -0.25741327 0.060647093
-0.34429547 -0.25740632 0.060504094
-0.34450135 -0.25737721 0.06052959
-0.34472153 -0.25734633 0.060555
-0.3449131 -0.25731856 0.060584027
-0.34511235 -0.25730661 0.060484901
-0.34530118 -0.25728279 0.06048625
-0.34550387 -0.25725543 0.060501371
-0.34569335 -0.25723472 0.060478471
-0.34587026 -0.25720635 0.060526043
-0.34604588 -0.25718963 0.060485899
-0.34628373 -0.257175 0.06037043
-0.34647647 -0.25715402 0.060346361
-0.3466709 -0.25712135 0.06041
-0.34684119 -0.25709605 0.060440287
-0.3470186 -0.25709453 0.060282413
-0.34724963 -0.25706443 0.060291618
-0.34744141 -0.25703767 0.060312573
-0.34763306 -0.25700974 0.060342751
-0.34783283 -0.25698972 0.060304794
-0.34803289 -0.25697446 0.060229912
-0.34822097 -0.25694638 0.060264729
-0.3484126 -0.25691661 0.060308758
-0.34858733 -0.25690153 0.060257077
-0.34878647 -0.25687674 0.060256064
-0.34899303 -0.25685903 0.060193837
-0.34919935 -0.2568391 0.060148928
-0.34939483 -0.25681582 0.060139842
-0.34958667 -0.25678936 0.060158484
-0.34977502 -0.25677317 0.060102124
-0.34994909 -0.25675076 0.060107008
-0.3501693 -0.25672576 0.060087409
-0.35036111 -0.25670204 0.060085271
-0.35053152 -0.25668278 0.060069397
-0.35071594 -0.25666526 0.06002691
-0.35093236 -0.25664181 0.05999925
-0.35113469 -0.25661707 0.059994757
-0.35132301 -0.25659195 0.060006492
-0.35149691 -0.2565712 0.059998669
-0.35167021 -0.2565566 0.059944697
-0.35187924 -0.25653404 0.059917085
-0.35206696 -0.25651386 0.059891883
-0.35226226 -0.25648865 0.059897806
-0.35245001 -0.2564677 0.059878387
-0.35264048 -0.25645185 0.059817396
-0.35282081 -0.25643301 0.059788778
-0.35300922 -0.25640714 0.05980628
-0.35321772 -0.25638571 0.05977058
-0.35344255 -0.25635049 0.059824836
-0.35360989 -0.25632691 0.059844755
-0.35379097 -0.25630409 0.059846129
-0.35398641 -0.25627884 0.059852064
-0.3541868 -0.25626251 0.059785251
-0.35438696 -0.2562317 0.059829239
-0.35458508 -0.25620976 0.059807453
-0.35477981 -0.25618747 0.059791446
-0.35497868 -0.25616258 0.059791584
-0.35517234 -0.2561442 0.059746739
-0.35535893 -0.25612628 0.059705388
-0.35554215 -0.25610784 0.059670985
-0.3557291 -0.2560882 0.059642326
-0.35593092 -0.25606444 0.059630908
-0.35612574 -0.25604126 0.059621833
-0.35631537 -0.2560131 0.059655488
-0.35650173 -0.25599504 0.059615292
-0.35670722 -0.25597051 0.059606165
-0.3568801 -0.25595188 0.059583347
-0.35707784 -0.25592998 0.059561566
-0.35727462 -0.25591063 0.059521314
-0.3574588 -0.25588861 0.05951345
-0.35764512 -0.25587842 0.059413243
-0.35783371 -0.25586203 0.059358031
-0.3580392 -0.25582874 0.059415843
-0.35824001 -0.25579906 0.059450597
-0.35843384 -0.2557781 0.059425361
-0.35862532 -0.25575471 0.059420925
-0.35881662 -0.25573182 0.059413016
-0.35900947 -0.25571296 0.059372786
-0.35920659 -0.25569189 0.059345238
-0.3594062 -0.25566554 0.059355762
-0.35959959 -0.25564525 0.059325919
-0.35978103 -0.25562885 0.059277665
-0.35999078 -0.25559562 0.059330843
-0.3601847 -0.2555742 0.059309073
-0.36036056 -0.25554913 0.059332408
-0.36056519 -0.25552639 0.059310593
-0.36074901 -0.25551152 0.059248481
-0.36093721 -0.25549445 0.059199043
-0.36113149 -0.25547221 0.059183046
-0.36132783 -0.25545216 0.059148569
-0.36150971 -0.25542846 0.059155725
-0.36170056 -0.25540078 0.059184756
-0.36190006 -0.25537533 0.059188347
-0.36210215 -0.25535125 0.059179239
-0.36229137 -0.25533205 0.059144795
-0.3624869 -0.25531331 0.05910109
-0.36267501 -0.25529578 0.059055123
-0.36286613 -0.25526822 0.059082992
-0.36307138 -0.25523919 0.059108492
-0.36326662 -0.25522578 0.05902439
-0.36346248 -0.25520125 0.05902455
-0.36364233 -0.25517628 0.059043244
-0.36382651 -0.25515956 0.058994986
-0.36403313 -0.25513852 0.058958147
-0.36421305 -0.2551184 0.058939915
-0.36441547 -0.25508925 0.05896889
-0.36460602 -0.25506794 0.058949452
-0.36480641 -0.25504196 0.058956504
-0.36499298 -0.25503066 0.058864374
-0.36517841 -0.25500745 0.058864579
-0.36537865 -0.25498176 0.058869328
-0.36558127 -0.25495729 0.058862515
-0.36577833 -0.25493169 0.058869589
-0.36596164 -0.25491568 0.058816716
-0.36615235 -0.25488588 0.0588619
-0.36633751 -0.25487161 0.058794014
-0.3665247 -0.25485465 0.058744587
-0.36672047 -0.2548309 0.058738969
-0.36691156 -0.25480497 0.058754146
-0.36711335 -0.25477788 0.05876812
-0.36731291 -0.25474972 0.058792487
-0.36750624 -0.25473306 0.05873495
-0.36769187 -0.25471404 0.058702838
-0.36788332 -0.25469944 0.058631457
-0.36807358 -0.25467861 0.058608554
-0.36826247 -0.25465572 0.05860297
-0.36846066 -0.25462952 0.058613501
-0.36865294 -0.25460649 0.058605589
-0.36884934 -0.25457886 0.05862882
-0.36904696 -0.25455713 0.05860588
-0.36924514 -0.25453126 0.058614098
-0.36942023 -0.25453079 0.058450475
-0.36961898 -0.25450769 0.058436759
-0.36980298 -0.25448692 0.05841966
-0.36999562 -0.25445688 0.058464844
-0.37019908 -0.25442898 0.058483418
-0.37039927 -0.25440466 0.058477778
-0.37059718 -0.25438276 0.058455996
-0.37077484 -0.25436547 0.058418151
-0.37097263 -0.25433722 0.058444835
-0.37117773 -0.2543017 0.058519967
-0.37136835 -0.25429052 0.058423195
-0.37154895 -0.25427347 0.058380727
-0.3717365 -0.2542589 0.058312826
-0.37193123 -0.25423408 0.058316443
-0.3721247 -0.25421664 0.058264665
-0.37231591 -0.25418919 0.058291398
-0.37251917 -0.25415635 0.05834806
-0.37273178 -0.2541267 0.058371209
-0.37292176 -0.25411862 0.058251359
-0.37309149 -0.25410882 0.058163937
-0.37328887 -0.25408185 0.058181394
-0.37349564 -0.25404915 0.058233418
-0.37370583 -0.25401631 0.058283128
-0.3738898 -0.25399628 0.058260266
-0.37409163 -0.2539742 0.058236152
-0.37428451 -0.25395456 0.058201693
-0.37447646 -0.25393853 0.058140691
-0.37464756 -0.2539272 0.058063645
-0.37486032 -0.25389543 0.058102947
-0.375056 -0.25387335 0.058084633
-0.37525779 -0.25384596 0.058100916
-0.37544817 -0.25382587 0.058072243
-0.37564364 -0.25380412 0.058051623
-0.37582916 -0.25379086 0.05797565
-0.37602282 -0.25376537 0.057985056
-0.37621954 -0.25373998 0.057990972
-0.37641892 -0.25370988 0.058030345
-0.3766202 -0.25368601 0.058020085
-0.37680507 -0.25367072 0.057960279
-0.37700126 -0.25364858 0.057941958
-0.37718931 -0.25363061 0.057899449
-0.37738976 -0.25360006 0.057941124
-0.37759835 -0.25358045 0.057891585
-0.37778884 -0.25355807 0.05788023
-0.37797645 -0.25353563 0.05787234
-0.37816715 -0.25352052 0.057805575
-0.37837803 -0.25349185 0.057822965
-0.37856609 -0.25346676 0.057834707
-0.37876892 -0.25343502 0.057883292
-0.37894779 -0.25342441 0.057793513
-0.37914956 -0.25339836 0.057799406
-0.37933472 -0.25338516 0.057723437
-0.37953141 -0.25336307 0.057703961
-0.37972137 -0.25333458 0.057739928
-0.3799195 -0.25331387 0.0577089
-0.38012445 -0.25329033 0.057692852
-0.38032362 -0.25326657 0.057683758
-0.38051704 -0.25324264 0.057681609
-0.38072005 -0.25321844 0.057672493
-0.38092387 -0.25319594 0.057649519
-0.38111389 -0.25317907 0.057596609
-0.38130221 -0.25315684 0.057586417
-0.38151312 -0.2531271 0.05761189
-0.38169554 -0.25310925 0.057574019
-0.38190144 -0.25308543 0.057559118
-0.38209802 -0.25306398 0.057535022
-0.38227868 -0.25304526 0.057505243
-0.38247511 -0.2530261 0.057463843
-0.38267025 -0.2529994 0.057481322
-0.38287634 -0.25296935 0.057513736
-0.38306373 -0.25295448 0.057448138
-0.38326436 -0.25293255 0.057424031
-0.3834585 -0.25291094 0.057403419
-0.3836593 -0.25288278 0.057426628
-0.38386539 -0.25285727 0.057424419
-0.38405353 -0.25283989 0.057377297
-0.3842639 -0.25281158 0.057392381
-0.38445756 -0.25278854 0.05738331
-0.38465703 -0.25276566 0.05736728
-0.38486448 -0.25273955 0.057368532
-0.38506624 -0.25272122 0.057315562
-0.38523611 -0.25270614 0.057268526
-0.3854219 -0.25268844 0.057226025
-0.38562143 -0.25266573 0.057208851
-0.38584465 -0.25262764 0.057286188
-0.38603407 -0.25261164 0.057227511
-0.38622141 -0.25258923 0.057219625
-0.38641444 -0.25257471 0.057145927
-0.38662046 -0.25254998 0.057137955
-0.38681608 -0.25252622 0.057132337
-0.38702652 -0.25249881 0.057140496
-0.38722718 -0.25247201 0.057153314
-0.38744101 -0.25244829 0.057130292
-0.38761094 -0.25243151 0.057095956
-0.3878136 -0.25240552 0.057100683
-0.38801229 -0.25238758 0.057047732
-0.38821426 -0.25236216 0.057049014
-0.38840801 -0.25233999 0.057033021
-0.38860402 -0.25232196 0.056983542
-0.3887929 -0.25230283 0.056949101
-0.38901633 -0.25226638 0.057013746
-0.38919216 -0.25225523 0.056930903
-0.38940632 -0.25222993 0.056919418
-0.38961691 -0.25219798 0.056962203
-0.3898043 -0.25217992 0.056920849
-0.39001 -0.2521528 0.056931332
-0.39021102 -0.25212854 0.056924537
-0.39039409 -0.25211316 0.056867041
-0.3905912 -0.25208953 0.056859117
-0.39079434 -0.2520659 0.056845378
-0.39097881 -0.25204974 0.056792498
-0.3911714 -0.25203061 0.056754578
-0.39137769 -0.25200358 0.056763917
-0.39159656 -0.25196937 0.056815881
-0.39179108 -0.25194758 0.056796428
-0.39199591 -0.25192162 0.056798846
-0.39218941 -0.2519072 0.056723982
-0.39240202 -0.25187862 0.056739051
-0.39258218 -0.25186512 0.05667004
-0.3927837 -0.25183791 0.056685165
-0.39299256 -0.2518166 0.056648321
-0.39318082 -0.25179693 0.056618508
-0.39339769 -0.25176632 0.056645095
-0.39359003 -0.25174448 0.056627952
-0.39381325 -0.25171214 0.056661434
-0.39396957 -0.25170708 0.056550995
-0.39419222 -0.25168645 0.056495607
-0.39441571 -0.25164458 0.0566018
-0.39460081 -0.25163016 0.056535065
-0.39479333 -0.2516101 0.056504074
-0.39501789 -0.25157595 0.056550249
-0.39517891 -0.25156981 0.056443237
-0.39539337 -0.25154281 0.056444455
-0.39560407 -0.25151476 0.056457225
-0.39579278 -0.25149855 0.056400862
-0.39600554 -0.25146797 0.056430932
-0.39621371 -0.25143993 0.056446023
-0.39645517 -0.25140989 0.056444794
-0.39665452 -0.25138205 0.056466863
-0.3968204 -0.25137183 0.056386366
-0.39703956 -0.25135362 0.056315999
-0.39723295 -0.25133514 0.056272306
-0.39746898 -0.25129759 0.056333426
-0.39763454 -0.25128302 0.056286409
-0.39782211 -0.25126013 0.056281991
-0.39801666 -0.25124121 0.056240603
-0.39823747 -0.25120735 0.056287944
-0.39845467 -0.25118592 0.056244131
-0.39865702 -0.25116315 0.056224626
-0.3988789 -0.25113052 0.056261584
-0.39906743 -0.25111341 0.056212142
-0.39926618 -0.2510882 0.05621459
-0.39948228 -0.25106904 0.056154627
-0.39966366 -0.25105265 0.056106374
-0.39986378 -0.25102547 0.056122664
-0.40007654 -0.25100365 0.056085795
-0.40027851 -0.25097716 0.056095157
-0.40045512 -0.2509647 0.056021541
-0.29242647 -0.2633411 0.064756468
-0.29264516 -0.26331022 0.064783037
-0.29285222 -0.26327828 0.064829268
-0.2931166 -0.26325789 0.064732112
-0.2933622 -0.26323488 0.064673133
-0.29359835 -0.26320836 0.064649977
-0.29382035 -0.26318014 0.064653434
-0.29403657 -0.26314914 0.06468346
-0.2942805 -0.26312616 0.064625651
-0.29453239 -0.26310375 0.064556256
-0.29477635 -0.26307958 0.064507663
-0.29496422 -0.26304212 0.064614005
-0.29522181 -0.26302293 0.064514577
-0.29542446 -0.26298907 0.064579293
-0.29564148 -0.26296026 0.064592011
-0.29588124 -0.26293555 0.064551532
-0.29610884 -0.26290947 0.064533032
-0.29633257 -0.26288101 0.064536482
-0.29659846 -0.26286471 0.064407006
-0.29681802 -0.26283541 0.064420871
-0.2970269 -0.26280501 0.064453244
-0.2972669 -0.26278105 0.064406984
-0.29751095 -0.26275823 0.06434802
-0.29772377 -0.2627275 0.064379223
-0.29796195 -0.26270497 0.064323738
-0.29816777 -0.26267254 0.064374596
-0.29840618 -0.26265028 0.064316817
-0.29865062 -0.26262817 0.064252064
-0.29887557 -0.26260257 0.064232431
-0.29908735 -0.26257199 0.064263634
-0.29929268 -0.26254129 0.064301804
-0.29955164 -0.26252356 0.064189672
-0.29976711 -0.26249418 0.064208165
-0.30000177 -0.2624701 0.064167708
-0.30025056 -0.26245168 0.064070627
-0.30047178 -0.26242414 0.06406948
-0.30068693 -0.26240313 0.064024508
-0.30090368 -0.26236796 0.064085692
-0.301137 -0.26234573 0.064032547
-0.30135339 -0.26231712 0.064044118
-0.30157256 -0.2622894 0.064046428
-0.30181676 -0.26226899 0.063968994
-0.30202526 -0.26223999 0.063990995
-0.30223551 -0.26220989 0.064019904
-0.30247232 -0.26218769 0.063963272
-0.30269626 -0.26216176 0.063947111
-0.30290601 -0.26213339 0.063963324
-0.3031306 -0.26210785 0.063943684
-0.30336663 -0.26208588 0.063885912
-0.30358756 -0.26205945 0.063876688
-0.30379906 -0.26203191 0.06388481
-0.30404997 -0.2620149 0.063775033
-0.3042461 -0.26198277 0.063832864
-0.30445451 -0.26195273 0.063862942
-0.30470163 -0.26193497 0.063762404
-0.30491003 -0.2619051 0.063791327
-0.30513686 -0.26188293 0.063743979
-0.30535921 -0.26185766 0.063724354
-0.30557054 -0.26182893 0.063741721
-0.30580291 -0.26180711 0.063686281
-0.30602333 -0.2617833 0.063657433
-0.30623785 -0.26175585 0.063662082
-0.30645224 -0.26173022 0.063652888
-0.30666938 -0.26170379 0.063647136
-0.30689487 -0.26168028 0.063611344
-0.30711392 -0.26165465 0.063597515
-0.30733114 -0.26163036 0.063575603
-0.30756363 -0.26160955 0.063512079
-0.30775183 -0.2615754 0.063593037
-0.30798101 -0.26155367 0.063539907
-0.30819559 -0.26152697 0.063538797
-0.30842048 -0.26150396 0.06349954
-0.30862767 -0.26147667 0.063510001
-0.30880925 -0.26145527 0.063499823
-0.30902964 -0.26143661 0.063431747
-0.30922368 -0.26140475 0.063489586
-0.3094781 -0.26137021 0.063510187
-0.30971214 -0.2613512 0.06343165
-0.30993432 -0.26132989 0.063382022
-0.31015313 -0.26130554 0.063358963
-0.31038141 -0.2612868 0.063283913
-0.31057709 -0.26126167 0.063288666
-0.31077531 -0.26123565 0.063298017
-0.31100941 -0.26120377 0.063317567
-0.31122988 -0.26118255 0.063269109
-0.31142259 -0.26114857 0.06334427
-0.31166399 -0.26113576 0.063211456
-0.31187192 -0.26110789 0.063225374
-0.31206784 -0.26107731 0.063271672
-0.31227848 -0.26105064 0.063274033
-0.31252411 -0.26103821 0.063134268
-0.31274536 -0.26101613 0.063091576
-0.31296065 -0.26099992 0.063009672
-0.31314236 -0.26095551 0.063174903
-0.31338078 -0.26094291 0.063043259
-0.31357104 -0.26091242 0.063094199
-0.31374568 -0.26089418 0.063066743
-0.313999 -0.26086113 0.063076966
-0.31421205 -0.26083839 0.063047007
-0.31443253 -0.26081684 0.06300085
-0.31463817 -0.26079109 0.063000932
-0.31485686 -0.26076901 0.062960565
-0.31505528 -0.26074022 0.062990688
-0.31528366 -0.2607227 0.062906407
-0.31548196 -0.26069179 0.062952682
-0.31569597 -0.26066804 0.062929653
-0.3159039 -0.26064381 0.062915869
-0.31611833 -0.26062045 0.06288936
-0.31633621 -0.26060104 0.062829368
-0.31653798 -0.26057199 0.062858328
-0.31674707 -0.26054868 0.062836468
-0.31696782 -0.26052877 0.062777609
-0.31717801 -0.26050624 0.062748827
-0.31737015 -0.2604728 0.062820531
-0.31757417 -0.26044738 0.062819459
-0.31779829 -0.26043659 0.062687896
-0.31799507 -0.26040787 0.062719174
-0.31818318 -0.26038656 0.062702045
-0.31841764 -0.26035556 0.062714674
-0.31864581 -0.26034045 0.06261193
-0.31884032 -0.2603108 0.062652469
-0.31904712 -0.26028505 0.062651381
-0.31926107 -0.26026553 0.062596031
-0.31946549 -0.26023874 0.062605351
-0.31967118 -0.2602151 0.06258928
-0.31988436 -0.26019311 0.062553547
-0.32009199 -0.26017073 0.062525928
-0.32029775 -0.26014495 0.062526003
-0.32050207 -0.26011848 0.062533021
-0.32071328 -0.26009837 0.062484615
-0.32091117 -0.26006845 0.062523969
-0.32111481 -0.26005459 0.062435202
-0.32134733 -0.26004183 0.062310509
-0.32154125 -0.26000211 0.062428363
-0.32174614 -0.25997904 0.062408835
-0.32195759 -0.25995725 0.062373109
-0.32215557 -0.25993034 0.062389392
-0.32236186 -0.25990573 0.062380239
-0.32256815 -0.25988653 0.062329538
-0.32277787 -0.2598615 0.062320367
-0.32297778 -0.25983602 0.062323943
-0.32319131 -0.25981894 0.06225013
-0.32338724 -0.25979397 0.062253721
-0.32359913 -0.25976789 0.062250309
-0.32380533 -0.25974387 0.062236547
-0.32400542 -0.25971609 0.062257431
-0.32418191 -0.25969306 0.062264591
-0.32435724 -0.25967503 0.062234819
-0.32458264 -0.25966105 0.062126324
-0.32472813 -0.25961784 0.062317133
-0.32499814 -0.25963381 0.061937213
-0.32516432 -0.259572 0.062250242
-0.32536557 -0.25955421 0.062193803
-0.32561398 -0.25954202 0.062049404
-0.32582036 -0.25951618 0.062049478
-0.32599476 -0.25949237 0.062064733
-0.32621232 -0.25947148 0.062016286
-0.32639745 -0.25943998 0.062079944
-0.3266027 -0.25943226 0.061942704
-0.3267884 -0.25939494 0.062050216
-0.32701084 -0.25938767 0.061893262
-0.32719186 -0.25935 0.062007718
-0.32741043 -0.25933716 0.061896957
-0.32763276 -0.25932747 0.06175847
-0.32784823 -0.25929657 0.061788507
-0.3280935 -0.25926241 0.061814923
-0.32822803 -0.25922465 0.061974622
-0.32843101 -0.25922069 0.061810859
-0.32862893 -0.25919956 0.061783284
-0.32880738 -0.25915933 0.061919682
-0.32903546 -0.25915605 0.06172692
-0.32920805 -0.25911084 0.061907202
-0.32941812 -0.25909662 0.061814949
-0.32965022 -0.2590836 0.061692573
-0.3298187 -0.259038 0.061879784
-0.33002177 -0.25902557 0.061780643
-0.33023444 -0.25901088 0.061689526
-0.33042759 -0.25897551 0.061775066
-0.33064336 -0.25896028 0.061685085
-0.3308312 -0.25893509 0.061697952
-0.33106855 -0.25893641 0.0614613
-0.33127677 -0.25889596 0.061570998
-0.33147871 -0.25887656 0.061526105
-0.33166298 -0.25883654 0.061655544
-0.33185893 -0.2588194 0.061599128
-0.33206075 -0.25880426 0.06152191
-0.33227763 -0.25878 0.061500013
-0.33247167 -0.25874934 0.061548624
-0.33266959 -0.25871834 0.061596051
-0.3328861 -0.2586855 0.061639935
-0.33312944 -0.25869346 0.061346706
-0.33329773 -0.25865287 0.061495852
-0.33343759 -0.25862047 0.061609369
-0.33367178 -0.25864199 0.061221555
-0.33387887 -0.25861272 0.061247025
-0.33410746 -0.25856704 0.061377384
-0.33428293 -0.25852448 0.061534569
-0.33441383 -0.25848565 0.061705835
-0.33464885 -0.25850689 0.061319172
-0.33487776 -0.25849399 0.061199125
-0.33507624 -0.25845462 0.061310023
-0.33529842 -0.25843406 0.061254628
-0.3355 -0.25840306 0.061298579
-0.33568224 -0.25839263 0.061204165
-0.33587965 -0.25837153 0.061176591
-0.33609506 -0.25834322 0.061187007
-0.33627114 -0.25831509 0.061233405
-0.33646575 -0.25829056 0.061234701
-0.33668277 -0.25826445 0.061226644
-0.33688942 -0.2582404 0.061212871
-0.33709133 -0.25822085 0.061169125
-0.33727023 -0.25819102 0.061225891
-0.33744869 -0.2581661 0.061245732
-0.33766523 -0.25814548 0.061196141
-0.33789775 -0.25812578 0.061124533
-0.3380681 -0.25811258 0.061062485
-0.33830464 -0.25809386 0.060979314
-0.33847845 -0.25806209 0.061055727
-0.33869445 -0.25804204 0.061002672
-0.3388952 -0.25800979 0.061057016
-0.33908376 -0.25798932 0.061032958
-0.33929375 -0.25796622 0.061008789
-0.3394841 -0.25794253 0.06100779
-0.33966365 -0.25792018 0.061006859
-0.33986056 -0.25790867 0.060906589
-0.34007856 -0.25788713 0.060862757
-0.34028167 -0.25785187 0.060937867
-0.34048498 -0.25783169 0.060897559
-0.34068403 -0.25781086 0.06086652
-0.34085336 -0.25779173 0.060850643
-0.34106416 -0.25776413 0.06085993
-0.34124696 -0.25774971 0.060795508
-0.34144038 -0.25772578 0.06079334
-0.34165069 -0.25769731 0.06080956
-0.34183925 -0.25767097 0.060830504
-0.34200367 -0.25764084 0.060903504
-0.34224063 -0.25765896 0.060538754
-0.34241757 -0.25761366 0.060715556
-0.34262779 -0.25758538 0.060730614
-0.34285313 -0.25756747 0.060652122
-0.34305614 -0.25754023 0.060666069
-0.34322572 -0.25751323 0.060710192
-0.3434183 -0.25749892 0.060635325
-0.34364074 -0.25747424 0.060611092
-0.34382483 -0.2574577 0.060561661
-0.34403411 -0.2574271 0.060595192
-0.34421468 -0.25739932 0.060634647
-0.34439385 -0.25737929 0.060616396
-0.34463182 -0.25735846 0.060548224
-0.34482643 -0.25734177 0.060489513
-0.34499621 -0.2573294 0.06042169
-0.34522158 -0.25728956 0.060510539
-0.34541771 -0.257265 0.060510673
-0.34560749 -0.257245 0.060481988
-0.34577173 -0.25722563 0.060473047
-0.34598634 -0.25720254 0.060444236
-0.34618416 -0.2571876 0.060369346
-0.34637287 -0.25716364 0.060371824
-0.34655195 -0.25714725 0.060325891
-0.34674495 -0.25712791 0.060289111
-0.3469339 -0.25710636 0.060273122
-0.34716105 -0.2570734 0.060307711
-0.34737101 -0.25704652 0.060312394
-0.34758064 -0.25701693 0.060337842
-0.34777728 -0.25700033 0.060276806
-0.34796223 -0.25697625 0.060283925
-0.34813726 -0.256962 0.060225308
-0.34833738 -0.25694951 0.060129642
-0.34853572 -0.25691286 0.060219776
-0.34872416 -0.25688791 0.060230326
-0.34891286 -0.25686818 0.060200501
-0.34909788 -0.25684682 0.060186844
-0.34928665 -0.25683513 0.060095843
-0.34949267 -0.25680101 0.060159396
-0.34968469 -0.25677907 0.060143393
-0.34988025 -0.25675443 0.060144685
-0.35009366 -0.25672197 0.060188577
-0.35027513 -0.25669742 0.060202632
-0.35046279 -0.25669688 0.060027406
-0.35065731 -0.25669217 0.059877526
-0.35085639 -0.25666136 0.05992265
-0.35107642 -0.25663561 0.059908807
-0.35126501 -0.256607 0.059947059
-0.35147414 -0.25658536 0.059912506
-0.35165459 -0.25656939 0.059861936
-0.35186455 -0.25653842 0.059897773
-0.35205996 -0.25651288 0.059905991
-0.35224846 -0.25648731 0.05992116
-0.35243264 -0.25646785 0.059893664
-0.3526378 -0.25644791 0.059849892
-0.35281968 -0.25641999 0.059889343
-0.3530283 -0.25639945 0.05984671
-0.35322335 -0.25637653 0.059835304
-0.35343167 -0.25635666 0.059788063
-0.3536123 -0.2563363 0.059770968
-0.35381138 -0.25631014 0.059780315
-0.3540031 -0.25628614 0.059780467
-0.35420161 -0.25626278 0.059769042
-0.35440812 -0.25623479 0.059785284
-0.3545922 -0.25621417 0.059767012
-0.35477933 -0.25619495 0.059734881
-0.35498142 -0.25617102 0.059724599
-0.35517666 -0.25614685 0.059722424
-0.35537478 -0.25612476 0.059701767
-0.35556561 -0.25610417 0.05967655
-0.35576344 -0.25608274 0.059651278
-0.35594702 -0.25606322 0.059624936
-0.35615143 -0.2560423 0.059589244
-0.35634252 -0.25602034 0.05957441
-0.35653985 -0.25600001 0.059541069
-0.35673437 -0.25596792 0.059600066
-0.35694212 -0.2559469 0.05956205
-0.35712063 -0.2559315 0.059509192
-0.35730904 -0.25590742 0.059512831
-0.35751379 -0.25588498 0.05948868
-0.35770243 -0.25586903 0.059429999
-0.35790095 -0.25583661 0.059487816
-0.35809392 -0.25579354 0.059632219
-0.35827529 -0.25578699 0.05950895
-0.35846958 -0.25577325 0.059428304
-0.3586548 -0.2557337 0.059553131
-0.35885313 -0.2557258 0.059424009
-0.35904777 -0.25570324 0.059410293
-0.35925817 -0.25567552 0.059420742
-0.35945547 -0.25564039 0.059500493
-0.35964376 -0.25561741 0.059496049
-0.3598327 -0.25559995 0.059448905
-0.36002383 -0.25557131 0.059484839
-0.36020687 -0.25555882 0.059405409
-0.36039618 -0.25554675 0.059316717
-0.36058459 -0.25553599 0.059218802
-0.36077774 -0.25552222 0.059139319
-0.36095893 -0.25551796 0.058998749
-0.36116821 -0.25548631 0.059040353
-0.36139312 -0.25545651 0.05905303
-0.36159015 -0.25542942 0.059071627
-0.36178079 -0.25541914 0.058967926
-0.3619701 -0.25538287 0.059063878
-0.36216605 -0.25535244 0.059109017
-0.36234552 -0.25533313 0.059084997
-0.36255994 -0.25530505 0.059094265
-0.36275479 -0.25528216 0.059082869
-0.36295247 -0.25525483 0.059102606
-0.36313868 -0.25524044 0.059034705
-0.36333755 -0.25522143 0.058989819
-0.36353555 -0.25519374 0.059011865
-0.36372438 -0.25517508 0.058973953
-0.3639183 -0.25514883 0.0589891
-0.36411208 -0.25513244 0.058929242
-0.36430007 -0.25511009 0.058920179
-0.36450347 -0.25507978 0.058957197
-0.36469609 -0.25505111 0.058991972
-0.3649025 -0.2550351 0.058917038
-0.36508697 -0.25502226 0.058838762
-0.36526623 -0.25500312 0.058813594
-0.36546892 -0.25496987 0.058873698
-0.36566731 -0.25495124 0.05882651
-0.36584726 -0.25493547 0.058774792
-0.36604401 -0.25491038 0.05877839
-0.36624444 -0.25487652 0.058845431
-0.36645451 -0.25484705 0.058869723
-0.36663908 -0.25483766 0.058764905
-0.36683023 -0.25481585 0.058748905
-0.36702546 -0.25478896 0.058767505
-0.36721781 -0.25476578 0.058760732
-0.36740518 -0.25474867 0.058712438
-0.36759159 -0.25474027 0.058598377
-0.36779886 -0.2547107 0.058626145
-0.36799654 -0.25468504 0.058633197
-0.3681871 -0.25466403 0.05861143
-0.36838281 -0.25463709 0.058630027
-0.36858773 -0.25461432 0.058608189
-0.36878645 -0.25458777 0.058621008
-0.36897868 -0.25456506 0.058610775
-0.36917686 -0.2545428 0.058591269
-0.36937255 -0.25451633 0.058606405
-0.36957413 -0.25448698 0.058637675
-0.36976722 -0.25446355 0.058632046
-0.36994839 -0.25445294 0.058539934
-0.37013596 -0.25443202 0.058520496
-0.37031606 -0.25442564 0.058397233
-0.37051842 -0.25439909 0.058406565
-0.37072346 -0.2543731 0.058408961
-0.37091821 -0.25435129 0.058389485
-0.37112895 -0.25431645 0.058454163
-0.37132475 -0.25429374 0.058440451
-0.3715198 -0.25428125 0.058349419
-0.37170029 -0.25426438 0.058305781
-0.37190095 -0.25423682 0.058324359
-0.37210673 -0.25421363 0.058304816
-0.37229055 -0.25419044 0.058306172
-0.37249282 -0.25416163 0.058332816
-0.3726905 -0.25414035 0.058306392
-0.37289435 -0.25411618 0.058296099
-0.37309265 -0.25408849 0.058318153
-0.3732805 -0.25407356 0.058252543
-0.37346867 -0.25406119 0.058167327
-0.37365708 -0.25404271 0.05812826
-0.37385944 -0.25401148 0.058173366
-0.37406948 -0.25398472 0.058176886
-0.37426823 -0.25395983 0.058177002
-0.3744714 -0.25393108 0.058202494
-0.37467235 -0.25391543 0.058129895
-0.37485766 -0.25389162 0.058134701
-0.37506714 -0.25386569 0.058132455
-0.37524849 -0.25385627 0.058031108
-0.37543902 -0.25383073 0.058043968
-0.37563235 -0.25380817 0.058031421
-0.37582824 -0.25378349 0.058032714
-0.37602192 -0.25376076 0.058021314
-0.37621284 -0.25374562 0.057954535
-0.37640974 -0.25372019 0.057960443
-0.37661168 -0.25369066 0.057992849
-0.37680241 -0.25367054 0.057964161
-0.37699717 -0.25365219 0.057918139
-0.37721199 -0.25362501 0.057920486
-0.37740281 -0.25360489 0.057891797
-0.37760064 -0.25357664 0.057918463
-0.37780136 -0.25355601 0.057883956
-0.37799323 -0.25353518 0.057859872
-0.3781808 -0.2535153 0.057832349
-0.37837955 -0.25349388 0.057805933
-0.37858111 -0.25346789 0.057811804
-0.37878227 -0.25344467 0.057796907
-0.37897825 -0.25342315 0.057773963
-0.37917486 -0.25339881 0.05777178
-0.3793813 -0.25336933 0.057799552
-0.37957445 -0.25335014 0.057761621
-0.3797597 -0.25333691 0.057685643
-0.37996578 -0.25330794 0.057709955
-0.38016576 -0.25328591 0.057686992
-0.38035822 -0.25326723 0.057645604
-0.38053629 -0.25325474 0.057570823
-0.38074204 -0.25322628 0.057591677
-0.3809554 -0.25319457 0.057629794
-0.38115403 -0.2531715 0.05761607
-0.38135338 -0.25315017 0.057588488
-0.38155863 -0.25312024 0.057620879
-0.38174722 -0.25310674 0.057543732
-0.38194534 -0.25309071 0.05747693
-0.38214922 -0.25305548 0.057550874
-0.3823638 -0.25302789 0.057556681
-0.38255069 -0.25300491 0.057553399
-0.3827261 -0.2529985 0.057434782
-0.38292956 -0.25297666 0.057407178
-0.38313994 -0.2529417 0.057473011
-0.38333198 -0.25293201 0.057363529
-0.38354066 -0.25289634 0.057436299
-0.38375947 -0.25286835 0.057440937
-0.38395822 -0.25284588 0.05742259
-0.38414457 -0.25282979 0.057367377
-0.38434637 -0.25280333 0.057376713
-0.38455254 -0.25278205 0.057342175
-0.38476315 -0.2527478 0.057402242
-0.38493982 -0.25273624 0.057321697
-0.38514552 -0.25270945 0.057329848
-0.38532925 -0.25269714 0.057248116
-0.38553056 -0.25267133 0.057252839
-0.38574171 -0.25264505 0.057251737
-0.38593262 -0.25262809 0.057198811
-0.38612363 -0.2526072 0.057175893
-0.38633609 -0.25258407 0.057149395
-0.3865343 -0.25255865 0.057154134
-0.38675821 -0.25252834 0.05717143
-0.38694826 -0.25251013 0.057128903
-0.38713714 -0.25249267 0.057081759
-0.38733354 -0.25247049 0.057063423
-0.38754252 -0.25243676 0.057121187
-0.38775951 -0.25241488 0.057080816
-0.38795331 -0.25239819 0.057023268
-0.38815624 -0.25237218 0.057027977
-0.38835591 -0.2523464 0.057033859
-0.38854921 -0.25232279 0.057029393
-0.38877127 -0.25229621 0.057020158
-0.38896376 -0.25228223 0.056942992
-0.38914818 -0.25226411 0.056905106
-0.38932955 -0.25224608 0.056869533
-0.38956687 -0.25220519 0.05695485
-0.3897599 -0.25218207 0.056946926
-0.38996303 -0.25216359 0.05689393
-0.39014885 -0.25214833 0.056832962
-0.39036885 -0.25211293 0.056892972
-0.39056823 -0.25209326 0.056852698
-0.39079288 -0.25206575 0.056848064
-0.39101037 -0.25203729 0.056857318
-0.39119819 -0.25202101 0.056802109
-0.39139837 -0.25199249 0.056828752
-0.3915886 -0.25197485 0.056781605
-0.39179856 -0.25195777 0.056711271
-0.39198142 -0.25193426 0.056716088
-0.39219534 -0.25190657 0.056723051
-0.3923783 -0.25189319 0.056650553
-0.39260483 -0.2518568 0.056711689
-0.39279997 -0.25183827 0.056666818
-0.39300969 -0.25181156 0.056670338
-0.39321128 -0.25178784 0.056658909
-0.39343062 -0.25176084 0.056655452
-0.39362389 -0.25174507 0.056590982
-0.39383459 -0.2517181 0.056595653
-0.39403501 -0.25169361 0.056591149
-0.39425534 -0.25166151 0.056625772
-0.39444175 -0.25164479 0.056575183
-0.394631 -0.25163138 0.056496873
-0.39484534 -0.25160271 0.056510761
-0.39504263 -0.25158179 0.056482032
-0.39525732 -0.25155312 0.05649592
-0.3954733 -0.25152698 0.056489028
-0.39568821 -0.25149992 0.056490213
-0.39590105 -0.25147402 0.056484491
-0.39611447 -0.25144792 0.056479912
-0.39630148 -0.25143585 0.056393541
-0.39650008 -0.25140989 0.056401741
-0.39671049 -0.25138551 0.056386795
-0.39690831 -0.25136015 0.056391537
-0.39710876 -0.2513411 0.056345485
-0.39731199 -0.25132367 0.05628442
-0.39752096 -0.25129569 0.056298338
-0.39774364 -0.25126374 0.056329489
-0.397948 -0.25124282 0.0562938
-0.39813891 -0.25122434 0.05625242
-0.39834234 -0.251201 0.05623636
-0.39856651 -0.25117308 0.056235187
-0.39876938 -0.25115162 0.05620528
-0.39898357 -0.25112298 0.056219172
-0.39915946 -0.25111818 0.056087848
-0.39935774 -0.2510947 0.056077585
-0.3995958 -0.25105721 0.056136355
-0.39983097 -0.25102568 0.056152441
-0.4000071 -0.25101054 0.05609959
-0.40017092 -0.25100303 0.056000646
-0.40042284 -0.25095758 0.056106653
-0.29259959 -0.26331931 0.064757355
-0.29278913 -0.26328346 0.064849801
-0.2930465 -0.26326156 0.06477116
-0.29329228 -0.26323715 0.064722575
-0.29353344 -0.26321182 0.064685553
-0.29375529 -0.26318362 0.06468901
-0.29399082 -0.26315716 0.064665854
-0.29423454 -0.26313424 0.064608052
-0.29443169 -0.26309896 0.064688936
-0.29465944 -0.26307243 0.064673886
-0.29489478 -0.26304632 0.064648435
-0.29512778 -0.26301974 0.064628758
-0.29536092 -0.26299328 0.064607926
-0.29559955 -0.26296976 0.06455937
-0.29582843 -0.26294249 0.064548939
-0.2960538 -0.26291594 0.064536236
-0.29629642 -0.26289225 0.064485349
-0.29653546 -0.26286778 0.064443722
-0.29676774 -0.26284173 0.064420588
-0.29697683 -0.26281148 0.064451799
-0.29721466 -0.26278701 0.064411327
-0.29743695 -0.26276025 0.064403251
-0.29767853 -0.26273698 0.064350069
-0.29789495 -0.26270732 0.064369701
-0.29811946 -0.26267985 0.064365067
-0.29835418 -0.26265666 0.064317688
-0.29858369 -0.26263067 0.064296879
-0.29880112 -0.26260316 0.064299203
-0.29903284 -0.26257792 0.064270303
-0.29925144 -0.26255089 0.064268008
-0.29948685 -0.26252687 0.064226396
-0.29971817 -0.26250184 0.064196348
-0.29994959 -0.26247698 0.064165145
-0.30017859 -0.26245317 0.064128175
-0.30039033 -0.26242301 0.064155914
-0.30062333 -0.26240051 0.064105086
-0.30084589 -0.26237357 0.06409815
-0.30105752 -0.26234359 0.064124733
-0.30128968 -0.26231954 0.064086601
-0.30151829 -0.26229623 0.064046182
-0.30174515 -0.26227087 0.06402307
-0.30195102 -0.26224115 0.064053148
-0.30217129 -0.26221403 0.064049684
-0.30239427 -0.26218778 0.064036988
-0.3026382 -0.26216784 0.063956097
-0.30285275 -0.26214099 0.063956141
-0.30304828 -0.26211864 0.063940123
-0.30329597 -0.26209006 0.063921511
-0.30352592 -0.26206642 0.063882247
-0.30373234 -0.2620374 0.063906536
-0.30396321 -0.26201427 0.063862644
-0.30419195 -0.26199231 0.063811839
-0.30438694 -0.26195818 0.063885808
-0.30461007 -0.26193464 0.06385234
-0.30482867 -0.26190805 0.063846581
-0.30507383 -0.26189175 0.063736856
-0.30529767 -0.26186705 0.063711464
-0.30551049 -0.26183888 0.063723035
-0.30573964 -0.26181611 0.063677989
-0.30596191 -0.26179299 0.063642226
-0.30617124 -0.2617639 0.063664198
-0.30636755 -0.26173237 0.063717403
-0.30660602 -0.26171312 0.063636549
-0.30682677 -0.26168987 0.063603088
-0.3070417 -0.26166296 0.063603118
-0.30726689 -0.26164144 0.063552327
-0.307475 -0.26161236 0.063575476
-0.30770421 -0.26159063 0.063522354
-0.30790278 -0.26155835 0.063579008
-0.30811623 -0.26153314 0.063567504
-0.30833653 -0.26150858 0.06354443
-0.30855212 -0.26148432 0.063523687
-0.30874085 -0.26145992 0.063529626
-0.30900246 -0.26144111 0.063423276
-0.30921534 -0.26141432 0.063424461
-0.30942193 -0.26138526 0.063448764
-0.30963981 -0.26136044 0.063430317
-0.30986458 -0.26134017 0.063370302
-0.31007347 -0.26131219 0.063384213
-0.31029683 -0.26129165 0.063327663
-0.31049973 -0.26126155 0.063363522
-0.31072891 -0.26124346 0.063282728
-0.3109405 -0.26121682 0.063283928
-0.31115341 -0.26119077 0.063279353
-0.31136501 -0.26116428 0.06327939
-0.31158459 -0.261143 0.063232094
-0.31180137 -0.26111871 0.063210197
-0.31202424 -0.26109898 0.063147888
-0.31222793 -0.26106972 0.063176818
-0.31244043 -0.26104403 0.063169934
-0.31266272 -0.26102239 0.06312263
-0.31286114 -0.26099315 0.063156195
-0.31308416 -0.26097205 0.063104272
-0.31328517 -0.26094401 0.063126296
-0.3135047 -0.26092166 0.063087076
-0.31372038 -0.26089785 0.063062876
-0.31393725 -0.26087463 0.063032903
-0.31413972 -0.26084745 0.063046835
-0.31434917 -0.26082125 0.063046895
-0.314549 -0.26079303 0.063071229
-0.31477702 -0.26077509 0.062990434
-0.31499135 -0.26075128 0.06296739
-0.31519943 -0.26072478 0.062970921
-0.31541464 -0.26070374 0.062925957
-0.31562921 -0.26068035 0.062899448
-0.31581214 -0.26065364 0.06292849
-0.31603107 -0.26063246 0.062881194
-0.31621861 -0.26060352 0.06292291
-0.31646025 -0.26058415 0.062839717
-0.31660992 -0.26055101 0.062949695
-0.31687593 -0.26055706 0.062649503
-0.31707868 -0.26050839 0.062827267
-0.31725913 -0.26049227 0.062777869
-0.31749108 -0.26047596 0.0626809
-0.31769609 -0.26043743 0.062779039
-0.31790355 -0.26040936 0.062795252
-0.31815344 -0.26040241 0.06260936
-0.31832427 -0.26036802 0.06270884
-0.31851494 -0.26035061 0.062659383
-0.31869784 -0.26032227 0.062701121
-0.31891006 -0.26030174 0.062655009
-0.31911519 -0.26027772 0.062642403
-0.31933892 -0.26026106 0.062555857
-0.31961027 -0.26022577 0.062565982
-0.31981659 -0.26020023 0.062563747
-0.3199774 -0.26017267 0.062620588
-0.3201707 -0.26016009 0.062531888
-0.32041281 -0.26013178 0.062516786
-0.32056653 -0.26009783 0.062629044
-0.32081226 -0.260102 0.062362418
-0.32099229 -0.26006749 0.062453762
-0.32119316 -0.26004204 0.062456179
-0.32138261 -0.26000243 0.062577471
-0.32159764 -0.25999033 0.062464438
-0.32183272 -0.25997436 0.062361695
-0.32207614 -0.25994512 0.062352344
-0.32229388 -0.25992212 0.062320054
-0.32246038 -0.25991151 0.062241882
-0.32265419 -0.25987712 0.062319331
-0.32289356 -0.25985396 0.062267311
-0.32310754 -0.25982913 0.062252346
-0.32327911 -0.25981399 0.062204152
-0.32350186 -0.25978929 0.062179916
-0.32373548 -0.25975204 0.062240984
-0.32394671 -0.2597315 0.062196039
-0.32415131 -0.25970966 0.062167279
-0.32433495 -0.25967154 0.062282838
-0.32453239 -0.25965664 0.062207978
-0.32476145 -0.25963673 0.062141016
-0.32491809 -0.25960967 0.062197879
-0.32517418 -0.25959352 0.062076561
-0.32537147 -0.25956744 0.06208707
-0.32557389 -0.25954196 0.062088307
-0.32577664 -0.25951973 0.062064178
-0.32597503 -0.25949156 0.062089674
-0.32617918 -0.25947052 0.062055148
-0.32636026 -0.25944859 0.06204959
-0.32657415 -0.25943482 0.061950415
-0.32679176 -0.25940216 0.061991952
-0.32699004 -0.2593773 0.061992072
-0.32719624 -0.25935528 0.061963305
-0.32737553 -0.25932601 0.062015437
-0.32758144 -0.25931686 0.061888605
-0.32779884 -0.2592842 0.061930157
-0.32800186 -0.25926346 0.061894484
-0.32820737 -0.25924149 0.061865725
-0.32840201 -0.2592144 0.061886624
-0.32860953 -0.25919765 0.061816324
-0.32876751 -0.25917178 0.061862797
-0.32899004 -0.25914696 0.061839707
-0.32921433 -0.2591272 0.061776232
-0.32940832 -0.25909987 0.061799448
-0.32961875 -0.25908291 0.061727975
-0.32980704 -0.25905085 0.061792742
-0.33000222 -0.25903547 0.061723664
-0.33016318 -0.25901228 0.061747048
-0.33037764 -0.2589812 0.06177938
-0.33058456 -0.25896195 0.061728686
-0.33081475 -0.25893766 0.061694026
-0.33101562 -0.25891703 0.061659519
-0.33122036 -0.25890017 0.061592691
-0.33138803 -0.25887582 0.06161835
-0.33160761 -0.25884607 0.061635654
-0.33179581 -0.25882959 0.061581604
-0.33201465 -0.25880328 0.061573539
-0.33221135 -0.25877941 0.061567895
-0.33240783 -0.2587513 0.061594561
-0.33260402 -0.25873944 0.06149777
-0.33280584 -0.2587128 0.061508253
-0.33297941 -0.25869483 0.061479665
-0.33315754 -0.25867748 0.061441816
-0.33337143 -0.25865963 0.061373774
-0.33360198 -0.25862518 0.06141641
-0.33381143 -0.25860289 0.061386473
-0.3339946 -0.25857389 0.061432816
-0.33416048 -0.25856611 0.061333884
-0.33437806 -0.25852147 0.061466582
-0.3345919 -0.25850001 0.06142623
-0.33479437 -0.25847948 0.061389402
-0.3349582 -0.25845593 0.061412781
-0.33514276 -0.25844291 0.061335675
-0.33536476 -0.25842738 0.061242215
-0.33555931 -0.25841269 0.061168522
-0.33574346 -0.25838009 0.061241388
-0.33593878 -0.25835153 0.061272673
-0.33614665 -0.25833413 0.061206974
-0.33634743 -0.25830764 0.061217465
-0.33652037 -0.25829139 0.061176181
-0.33673263 -0.25826997 0.061137006
-0.33691284 -0.25823694 0.061216816
