# .PCD v0.7 - Point Cloud Data file format
VERSION 0.7
FIELDS x y z
SIZE 4 4 4
TYPE F F F
COUNT 1 1 1
WIDTH 1290
HEIGHT 1
VIEWPOINT 0 0 0 1 0 0 0
POINTS 1290
DATA ascii
-0.29047391 -0.20348941 0.048946768
-0.29068297 -0.20347202 0.048955441
-0.29087129 -0.20346291 0.048914567
-0.29105702 -0.20345214 0.048887543
-0.29125679 -0.20343781 0.048878934
-0.29147944 -0.20342448 0.048849497
-0.29169172 -0.20340452 0.048875466
-0.29185292 -0.20339657 0.048841588
-0.29203928 -0.20338716 0.048804175
-0.29225433 -0.20336899 0.048815131
-0.29244164 -0.20335639 0.048800796
-0.29263461 -0.20334692 0.0487599
-0.19764823 -0.21315055 0.030715808
-0.1977921 -0.21312544 0.030819219
-0.19793525 -0.21310008 0.030924939
-0.19807726 -0.21307434 0.031034112
-0.19822294 -0.2130508 0.03112483
-0.19835293 -0.21302149 0.031267494
-0.19847858 -0.21299203 0.031413626
-0.198607 -0.21296206 0.03156206
-0.19873108 -0.21293195 0.031713966
-0.19885753 -0.21289995 0.03187855
-0.19192478 -0.21010515 0.056601033
-0.19213763 -0.2100898 0.056592371
-0.192349 -0.21006943 0.056621782
-0.19258405 -0.21005812 0.056570377
-0.19276151 -0.2100396 0.056605645
-0.19302084 -0.2100331 0.056504585
-0.19323611 -0.2100174 0.056497067
-0.19348413 -0.21000446 0.056450248
-0.19368729 -0.20998505 0.056477372
-0.19390704 -0.20996948 0.056466382
-0.1941307 -0.20995687 0.056431163
-0.19435458 -0.20994285 0.05640633
-0.19456026 -0.20992291 0.056435741
-0.19478749 -0.20991018 0.056399364
-0.19501317 -0.20989867 0.056354914
-0.19523603 -0.20988472 0.05633007
-0.19544241 -0.20986691 0.056343351
-0.19566408 -0.20985276 0.056320824
-0.19585046 -0.20983805 0.056322616
-0.19606575 -0.20982842 0.056270115
-0.19631511 -0.20980932 0.056268275
-0.19651775 -0.20979553 0.056253873
-0.19672687 -0.20978078 0.056242913
-0.19695678 -0.20976178 0.056251511
-0.19715533 -0.20974846 0.056235969
-0.1973787 -0.20974739 0.056115393
-0.1976137 -0.2097238 0.056155115
-0.19783367 -0.20970665 0.056155663
-0.19806325 -0.20970322 0.056048915
-0.19826367 -0.2096792 0.056111801
-0.19847254 -0.20966338 0.056108918
-0.19869244 -0.20964825 0.056094471
-0.19890723 -0.20963478 0.056070808
-0.19908623 -0.20961846 0.056088768
-0.19934548 -0.20960793 0.056017697
-0.19955242 -0.20959008 0.056030966
-0.199766 -0.20957655 0.056008466
-0.19997332 -0.20955898 0.056019425
-0.20020507 -0.20955259 0.055933431
-0.20040786 -0.20953521 0.05594556
-0.20061412 -0.20952457 0.055905774
-0.20081908 -0.20950641 0.055922508
-0.20104995 -0.20949309 0.055888429
-0.20125166 -0.20947377 0.055915553
-0.20146653 -0.20946154 0.055882666
-0.20168528 -0.20944916 0.05584861
-0.2018795 -0.2094343 0.055846922
-0.20205079 -0.20941393 0.055899501
-0.20229378 -0.20941164 0.05577657
-0.20253395 -0.20939371 0.055771299
-0.2027379 -0.20937765 0.055773035
-0.20294836 -0.20936249 0.055764385
-0.20316085 -0.20935012 0.055733811
-0.20337875 -0.20933826 0.055696309
-0.20358641 -0.20932409 0.055681892
-0.20378831 -0.20930757 0.055688255
-0.20399477 -0.20929116 0.055691145
-0.20421275 -0.20927976 0.055650171
-0.20442216 -0.20926671 0.055626526
-0.20463657 -0.20925978 0.055554423
-0.20484468 -0.2092406 0.055576913
-0.20507127 -0.20925482 0.055340998
-0.20526461 -0.20921376 0.055534236
-0.20546308 -0.20919439 0.055563681
-0.2056478 -0.20917873 0.055573545
-0.20588169 -0.20916751 0.055522155
-0.20608148 -0.20915487 0.055500843
-0.20625603 -0.20914078 0.055504967
-0.20649427 -0.20912191 0.055507775
-0.20671198 -0.20911178 0.055457577
-0.2069214 -0.20909996 0.055424705
-0.20712747 -0.20908669 0.055404525
-0.20732969 -0.2090717 0.055399358
-0.20753549 -0.20905642 0.055394176
-0.20773406 -0.20903985 0.055402856
-0.20794544 -0.20902741 0.055373438
-0.20815261 -0.20901515 0.055345178
-0.20836069 -0.20900342 0.055312306
-0.20855762 -0.20898634 0.055325612
-0.20877093 -0.20897532 0.055284649
-0.208976 -0.20896244 0.055262174
-0.20918833 -0.20895116 0.055223525
-0.2093834 -0.20893346 0.055242591
-0.20958531 -0.20891927 0.055231649
-0.20978627 -0.20890468 0.05522418
-0.20999314 -0.20889103 0.055206306
-0.21019173 -0.20887539 0.055208072
-0.21038866 -0.20885894 0.055216756
-0.21060145 -0.20885089 0.055153884
-0.21080512 -0.20883594 0.055147555
-0.21099013 -0.2088201 0.05515857
-0.21122476 -0.2088152 0.055059884
-0.21141975 -0.20879811 0.055074342
-0.21161614 -0.20878185 0.055081878
-0.2118246 -0.20877229 0.055032849
-0.21199423 -0.20874831 0.055113122
-0.2122124 -0.20873737 0.05506869
-0.21241565 -0.20872991 0.055007003
-0.21262391 -0.20871367 0.055007581
-0.21283475 -0.2087061 0.054942414
-0.21303672 -0.20869361 0.054918788
-0.21322219 -0.20867166 0.054974787
-0.21342501 -0.20866221 0.054928094
-0.21362731 -0.20864534 0.054936767
-0.21382804 -0.2086325 0.054916598
-0.21401656 -0.2086198 0.054902244
-0.21416958 -0.20860067 0.054956026
-0.21437293 -0.20857719 0.055013139
-0.21461074 -0.20856722 0.054950193
-0.2148279 -0.20856491 0.054842334
-0.21503797 -0.20855848 0.054769084
-0.21523459 -0.20854127 0.054783538
-0.21543719 -0.20853046 0.054747224
-0.21562119 -0.20851827 0.054731719
-0.21582019 -0.20850538 0.054712716
-0.21601841 -0.20850781 0.054580688
-0.21621138 -0.20847812 0.054689728
-0.21641742 -0.20846486 0.054669548
-0.21662757 -0.2084491 0.054665513
-0.21683033 -0.20843655 0.054641884
-0.2170227 -0.20841981 0.054655187
-0.21720184 -0.20840505 0.05466162
-0.21740764 -0.20839211 0.054639131
-0.21760055 -0.20838702 0.054565936
-0.21781816 -0.20836864 0.054576866
-0.21799591 -0.20835321 0.05458907
-0.21815591 -0.2083337 0.054641686
-0.21838084 -0.20832069 0.054608762
-0.21860546 -0.20831624 0.054512411
-0.21880065 -0.20829931 0.054525718
-0.21900022 -0.20828855 0.054490563
-0.21919563 -0.20827486 0.054479644
-0.21939886 -0.20826709 0.054420259
-0.21959436 -0.20825371 0.054407034
-0.21977586 -0.20822974 0.054480348
-0.219982 -0.2082216 0.05442211
-0.22018175 -0.20821176 0.054380037
-0.22037326 -0.20819868 0.05436682
-0.22057161 -0.20818493 0.054354738
-0.22076824 -0.20816989 0.054353047
-0.22096404 -0.20815741 0.054332897
-0.22115475 -0.20814408 0.054321993
-0.22135335 -0.20813093 0.054305293
-0.22154845 -0.20811819 0.054287449
-0.22173071 -0.20810458 0.054283489
-0.22194284 -0.20809333 0.054244839
-0.22212884 -0.20808643 0.054188967
-0.22233416 -0.20806964 0.054195318
-0.22252226 -0.20805138 0.054222479
-0.22270891 -0.20803867 0.054209277
-0.22288263 -0.20801453 0.05428838
-0.22310124 -0.20800635 0.054223195
-0.22330339 -0.208001 0.054146506
-0.22350326 -0.20799381 0.054084823
-0.22369118 -0.20797572 0.054110836
-0.22388582 -0.20796394 0.054086082
-0.22408047 -0.20795234 0.054060161
-0.22427225 -0.20793441 0.054082707
-0.2244688 -0.20792484 0.054040641
-0.22465387 -0.20790416 0.054087423
-0.22484943 -0.20789388 0.054051124
-0.22504064 -0.20787553 0.054077126
-0.22522818 -0.20785733 0.054104291
-0.22543329 -0.20785719 0.053987227
-0.22560088 -0.20784999 0.053944089
-0.2258084 -0.20782915 0.053979274
-0.22601214 -0.20781638 0.053956803
-0.22618356 -0.20781371 0.053877894
-0.22639744 -0.20779175 0.053917672
-0.22659443 -0.20778026 0.05388945
-0.22678493 -0.20776586 0.053886615
-0.22695851 -0.2077537 0.053876907
-0.22716133 -0.20774068 0.053856738
-0.2273583 -0.20772097 0.053889643
-0.22752778 -0.20772186 0.053785369
-0.22775801 -0.20771077 0.053735137
-0.22793999 -0.20768677 0.053808458
-0.22811861 -0.20768137 0.053745676
-0.22828646 -0.20766747 0.053752135
-0.22849055 -0.20765233 0.053746957
-0.22869991 -0.20763928 0.053723309
-0.22887532 -0.20762572 0.053722825
-0.22904322 -0.20760234 0.05379964
-0.22928222 -0.20759445 0.053720556
-0.22945489 -0.20757739 0.053747758
-0.22964384 -0.20757757 0.053637665
-0.22986633 -0.20756318 0.053616293
-0.23005843 -0.20754772 0.053620372
-0.23024854 -0.20753475 0.053607162
-0.23044096 -0.20751989 0.053606629
-0.23059613 -0.20751537 0.053550836
-0.23080076 -0.20750812 0.053486839
-0.23098969 -0.20749399 0.053482857
-0.23121113 -0.20747347 0.053507622
-0.23139109 -0.20746268 0.053484052
-0.23157786 -0.20744531 0.053505447
-0.23178168 -0.2074319 0.053487584
-0.2319743 -0.20741826 0.053477824
-0.23216236 -0.20740312 0.053481925
-0.23235837 -0.2073956 0.053424865
-0.23254719 -0.20738211 0.053416267
-0.23273963 -0.20736864 0.053405359
-0.23291263 -0.20735295 0.053422183
-0.2331112 -0.20733762 0.053421639
-0.23329048 -0.20732003 0.053448822
-0.23349792 -0.20731506 0.053366363
-0.23366684 -0.20729859 0.053391263
-0.23385507 -0.20729199 0.053331923
-0.23403795 -0.20728968 0.053243756
-0.23423703 -0.2072687 0.053284734
-0.23444495 -0.20725109 0.053295691
-0.23461986 -0.20724815 0.053216781
-0.23482533 -0.20723353 0.053206991
-0.23500453 -0.20721628 0.053231865
-0.23520592 -0.20720056 0.053232465
-0.23538199 -0.20719318 0.053185843
-0.23557848 -0.20717444 0.053211831
-0.23575227 -0.20715231 0.053275935
-0.23593375 -0.20715991 0.053115118
-0.2361414 -0.20713283 0.05319643
-0.23631927 -0.20713183 0.053101361
-0.23653504 -0.20711766 0.053082317
-0.2367302 -0.20710586 0.053057559
-0.23690714 -0.20709297 0.0530513
-0.23707862 -0.20708533 0.053009309
-0.23727386 -0.20706293 0.053062972
-0.23745061 -0.20704959 0.053060181
-0.23767975 -0.20703392 0.05304455
-0.2378519 -0.20701689 0.053071767
-0.23806116 -0.20700648 0.053028505
-0.23824236 -0.20699731 0.052992254
-0.23844054 -0.20698605 0.052961711
-0.23862685 -0.20696934 0.052978501
-0.23877896 -0.20695712 0.052981544
-0.23898283 -0.20695692 0.052865643
-0.23917189 -0.20693703 0.052904338
-0.23938961 -0.20691974 0.052907191
-0.2395765 -0.20690656 0.052897446
-0.2397507 -0.20690134 0.052835837
-0.23995018 -0.20688018 0.052877963
-0.24009804 -0.20686379 0.052914467
-0.24029315 -0.20685992 0.052830886
-0.24047254 -0.20684436 0.052843075
-0.24067011 -0.20683485 0.052799858
-0.24087363 -0.20681711 0.052814282
-0.2410429 -0.2068045 0.052810363
-0.24123006 -0.20679782 0.052752174
-0.24146517 -0.20678495 0.052712306
-0.24162737 -0.20677274 0.052709557
-0.24180351 -0.20676209 0.052687157
-0.24201401 -0.20674723 0.052676193
-0.24219006 -0.20673737 0.052648023
-0.24236929 -0.2067201 0.052672908
-0.24256961 -0.20671754 0.052576624
-0.2427523 -0.20670451 0.052568041
-0.24292117 -0.20669302 0.052556045
-0.24313834 -0.20667191 0.05258774
-0.24335544 -0.20665856 0.05256176
-0.24351013 -0.20666014 0.052460995
-0.24370684 -0.20663485 0.052535418
-0.24391371 -0.20661668 0.052550994
-0.24407871 -0.2066111 0.052497484
-0.24427579 -0.20658562 0.052573062
-0.24445432 -0.20658085 0.052505672
-0.24466419 -0.20656806 0.052479714
-0.24483702 -0.20654881 0.052523073
-0.24501385 -0.20652504 0.052597556
-0.24523222 -0.20652746 0.052453935
-0.24541126 -0.20651425 0.052448824
-0.24560377 -0.20650233 0.052426379
-0.24578936 -0.20649065 0.052406251
-0.2459929 -0.20647275 0.052421849
-0.24617854 -0.2064606 0.052405182
-0.24634288 -0.2064535 0.052363209
-0.24653119 -0.20644471 0.052320011
-0.24671657 -0.20643303 0.052299898
-0.24689816 -0.20642321 0.052268244
-0.24707007 -0.20641071 0.052262012
-0.24725829 -0.20640099 0.052225735
-0.24746105 -0.20637196 0.052324362
-0.24763268 -0.20636104 0.052306592
-0.24781889 -0.20635925 0.052212652
-0.24800672 -0.20635034 0.052170616
-0.24820018 -0.20633261 0.052190837
-0.24838413 -0.20632508 0.052140735
-0.24857798 -0.20630622 0.05216904
-0.24877688 -0.20629334 0.05215003
-0.24897091 -0.20627433 0.052179486
-0.24915653 -0.2062715 0.052093621
-0.24936062 -0.20625262 0.052116122
-0.24953356 -0.20624688 0.052059133
-0.24971239 -0.20623338 0.052056327
-0.24989571 -0.20622623 0.05200392
-0.25009528 -0.20620164 0.052071426
-0.25026143 -0.20617746 0.052155167
-0.25046253 -0.20617622 0.052048501
-0.25064597 -0.20616828 0.052001849
-0.25084057 -0.20615713 0.051972482
-0.25100958 -0.2061433 0.05197778
-0.25122172 -0.20613004 0.051954128
-0.25141487 -0.20611434 0.051959362
-0.25158888 -0.20609686 0.05198887
-0.25179112 -0.20608342 0.051972158
-0.25197589 -0.20607179 0.051952045
-0.25216255 -0.20605613 0.051960759
-0.25234839 -0.20604925 0.051904883
-0.25253874 -0.20603967 0.051866289
-0.25270307 -0.20603569 0.051801257
-0.25289401 -0.20601799 0.05182264
-0.25307134 -0.20600772 0.051796779
-0.25326687 -0.20599417 0.051784705
-0.25344568 -0.2059872 0.051733457
-0.25362638 -0.20597045 0.051753722
-0.25381437 -0.20595858 0.051733598
-0.25399402 -0.20594391 0.051738869
-0.25417182 -0.20592676 0.051763747
-0.25437161 -0.20591165 0.05176089
-0.2545518 -0.20589633 0.051770777
-0.25474066 -0.20588315 0.051759869
-0.25493124 -0.20587263 0.051728204
-0.25513276 -0.20586562 0.051664211
-0.25529724 -0.20585991 0.051611852
-0.25546753 -0.20585002 0.051587168
-0.25565472 -0.20583417 0.051597025
-0.25584617 -0.20580663 0.051691078
-0.25604102 -0.20578443 0.051743589
-0.2562336 -0.20577578 0.051696926
-0.25641945 -0.20576733 0.051652588
-0.2566129 -0.20575722 0.051616296
-0.25680721 -0.20574579 0.051589232
-0.25699356 -0.20573637 0.051551808
-0.25717098 -0.20573029 0.051494807
-0.2573624 -0.20571814 0.051474668
-0.25756669 -0.20570174 0.051478714
-0.25774744 -0.20569089 0.051455151
-0.25791928 -0.20568322 0.051413156
-0.25810221 -0.20566505 0.051442642
-0.25829095 -0.20565654 0.051397137
-0.25848737 -0.20563795 0.051421966
-0.25867915 -0.20562547 0.051404133
-0.258865 -0.20560816 0.051425535
-0.25902748 -0.20559172 0.051453922
-0.25922605 -0.20557903 0.051433772
-0.25940442 -0.20557925 0.051329475
-0.25958985 -0.20556664 0.051316276
-0.25976467 -0.20555905 0.051271956
-0.25995496 -0.2055445 0.051270284
-0.26013473 -0.20553482 0.051238645
-0.26032934 -0.20551528 0.051271558
-0.26051977 -0.20549327 0.051325243
-0.26072499 -0.20547679 0.051329289
-0.26090994 -0.20547605 0.05122843
-0.2610997 -0.20546605 0.051193312
-0.26127613 -0.20545289 0.051189363
-0.26145846 -0.20544395 0.051150791
-0.26164347 -0.20542499 0.051184889
-0.26183906 -0.20540522 0.051218949
-0.26202342 -0.20540451 0.051118091
-0.26220304 -0.20539157 0.051110677
-0.262382 -0.20538615 0.051047895
-0.26258904 -0.20535803 0.051137295
-0.26278862 -0.2053479 0.051097531
-0.26295495 -0.20534547 0.051019795
-0.26313305 -0.20532441 0.05107351
-0.26332963 -0.20529461 0.051181383
-0.2635107 -0.20529991 0.051037863
-0.26368871 -0.20529206 0.050993543
-0.26387194 -0.20528848 0.050914604
-0.26405478 -0.20526955 0.050949857
-0.26424316 -0.20525157 0.050974708
-0.26443577 -0.20524199 0.05093497
-0.26462337 -0.20522797 0.050930984
-0.26484659 -0.20520762 0.050953437
-0.26502332 -0.20519195 0.050967939
-0.26519728 -0.20518489 0.050920174
-0.26539764 -0.20517999 0.05084119
-0.2655541 -0.20518003 0.050750792
-0.26574057 -0.20516144 0.050781421
-0.2659249 -0.20513912 0.050840888
-0.26613107 -0.20511743 0.050882995
-0.26630208 -0.20511015 0.050838698
-0.26649553 -0.20509706 0.050824318
-0.26670206 -0.20508376 0.050804138
-0.26686686 -0.20508456 0.050703343
-0.26705503 -0.20506784 0.050718971
-0.26725379 -0.20504488 0.050774943
-0.26742512 -0.20502916 0.050792921
-0.26761666 -0.20502603 0.050705884
-0.26780927 -0.20502189 0.050625771
-0.26799661 -0.20500882 0.050614879
-0.26821584 -0.2049852 0.050663859
-0.26837951 -0.20498127 0.050598826
-0.26855677 -0.20496617 0.050608709
-0.26873544 -0.20495518 0.050587464
-0.26889551 -0.20495152 0.050522432
-0.26908669 -0.20494065 0.050493062
-0.26931655 -0.20491418 0.050557021
-0.26950395 -0.20489894 0.050562274
-0.26970175 -0.20488802 0.050529428
-0.26988268 -0.20487544 0.050518554
-0.27008674 -0.20485237 0.050572194
-0.27027857 -0.20484129 0.050543983
-0.27045465 -0.204835 0.050489284
-0.27064613 -0.20483141 0.050405715
-0.27081195 -0.20481844 0.050406415
-0.27102551 -0.20479822 0.050433509
-0.27120236 -0.20478424 0.05043532
-0.2714068 -0.20476395 0.050468203
-0.27158362 -0.20475946 0.050399669
-0.27177006 -0.2047502 0.050361097
-0.27196157 -0.20473494 0.050364029
-0.27213818 -0.20472597 0.050328929
-0.27235007 -0.20470525 0.05036065
-0.27254495 -0.20469907 0.050294362
-0.2727108 -0.20468657 0.050291605
-0.27291265 -0.20467098 0.050291039
-0.27310738 -0.20466045 0.050257053
-0.27329049 -0.20465143 0.050218489
-0.27345109 -0.20464711 0.050158072
-0.2736702 -0.20462196 0.050218593
-0.27385497 -0.20460971 0.050203089
-0.27406266 -0.20459476 0.050194439
-0.27425051 -0.20458694 0.05014433
-0.27441311 -0.20458339 0.050076976
-0.27460757 -0.20456262 0.050119117
-0.27480885 -0.20454584 0.050127789
-0.27497831 -0.20454192 0.050059274
-0.27516162 -0.20453086 0.050035704
-0.27538592 -0.20450531 0.05009621
-0.27556419 -0.20450181 0.050019592
-0.27575395 -0.20448668 0.050022528
-0.27597171 -0.20445961 0.050098058
-0.27617061 -0.20445092 0.050047908
-0.27635249 -0.20444109 0.050016265
-0.27653691 -0.20442964 0.049995001
-0.27672198 -0.20441581 0.049991023
-0.27688837 -0.20441975 0.049866002
-0.27707425 -0.20439559 0.049938153
-0.27730933 -0.20437029 0.049990553
-0.2775135 -0.20436043 0.049946167
-0.27769759 -0.20435522 0.049878761
-0.27786523 -0.204337 0.049917512
-0.27806377 -0.20432104 0.049921576
-0.27827036 -0.20431364 0.049857568
-0.27846104 -0.20430638 0.049801681
-0.27864006 -0.204291 0.049812723
-0.27882203 -0.20428145 0.049778771
-0.27903628 -0.20425075 0.049883138
-0.27925211 -0.20424171 0.049826026
-0.27941567 -0.20423763 0.049762141
-0.27958855 -0.20422988 0.049720138
-0.27978516 -0.20421189 0.049740359
-0.28000021 -0.20419419 0.049747836
-0.28018588 -0.20418639 0.049698882
-0.28035408 -0.20417961 0.04965229
-0.28054979 -0.20416062 0.049680579
-0.28073519 -0.20414941 0.049656995
-0.28094053 -0.20413044 0.049679503
-0.28114212 -0.2041155 0.049674332
-0.28133219 -0.20410532 0.049640357
-0.28153795 -0.2040846 0.049675539
-0.28173983 -0.20406793 0.049683064
-0.28191924 -0.20406386 0.0496099
-0.28211132 -0.20405447 0.049569007
-0.28231066 -0.20404281 0.049540766
-0.28248888 -0.20403077 0.049527589
-0.28270924 -0.20401452 0.049521215
-0.28288233 -0.20401049 0.049451541
-0.28309169 -0.2039884 0.049494792
-0.28326628 -0.20398021 0.049455091
-0.28346866 -0.20396209 0.049472988
-0.28365812 -0.20394932 0.049458619
-0.28387767 -0.20392552 0.049508762
-0.28405845 -0.20391919 0.04945175
-0.28423703 -0.20392063 0.049338225
-0.28445193 -0.20389952 0.049371075
-0.28465322 -0.20388569 0.049357835
-0.28483808 -0.20387562 0.049326185
-0.28506041 -0.20385253 0.049369402
-0.28522143 -0.20385331 0.049270917
-0.28544626 -0.20382911 0.049321044
-0.28563705 -0.20381452 0.049319368
-0.28579611 -0.2038195 0.049190901
-0.2860212 -0.20380181 0.049192585
-0.28621542 -0.203784 0.049212813
-0.28639215 -0.20377518 0.049176563
-0.28660697 -0.20375502 0.049202505
-0.28684527 -0.20373257 0.049231835
-0.28703082 -0.2037226 0.049199026
-0.28723189 -0.20370644 0.049203079
-0.28742096 -0.20369634 0.049169108
-0.28760898 -0.20368525 0.049143221
-0.28782168 -0.20366509 0.049170315
-0.28800508 -0.20365636 0.049129445
-0.2881999 -0.20364055 0.049134664
-0.28836906 -0.20363884 0.049050003
-0.28860286 -0.20361783 0.049071267
-0.28879392 -0.203604 0.049063824
-0.28900209 -0.20359553 0.049006734
-0.28920841 -0.20357898 0.049010783
-0.28940576 -0.2035653 0.048998706
-0.28958753 -0.20355313 0.048984356
-0.28977522 -0.20354563 0.048931938
-0.28998762 -0.20352347 0.04897403
-0.2901991 -0.20351072 0.048946917
-0.29040542 -0.20349602 0.048937116
-0.29062885 -0.2034822 0.048911124
-0.29081649 -0.2034705 0.048889853
-0.29101628 -0.2034532 0.048903137
-0.29120702 -0.20344453 0.048857629
-0.29139423 -0.20343319 0.048834048
-0.29160154 -0.20341982 0.048813865
-0.2917822 -0.20341441 0.048749927
-0.29199836 -0.20338994 0.048807006
-0.29221332 -0.20337754 0.048775267
-0.29239985 -0.20336531 0.048758607
-0.29260823 -0.2033489 0.048760336
-0.19757265 -0.2130979 0.031149764
-0.19771321 -0.2130729 0.031254303
-0.19786282 -0.21304923 0.031343821
-0.1980027 -0.21302272 0.03145989
-0.19814104 -0.21299572 0.031580575
-0.19827203 -0.21296772 0.031712811
-0.19840024 -0.21293762 0.031862356
-0.19853334 -0.21290883 0.031999201
-0.19865581 -0.21287684 0.032166056
-0.19877237 -0.21284297 0.03235022
-0.19180363 -0.21011096 0.056627691
-0.19205196 -0.2101036 0.056539364
-0.19224085 -0.21008092 0.056598805
-0.19247335 -0.21006577 0.056577396
-0.19268426 -0.21005321 0.056549139
-0.19288036 -0.21004227 0.056517459
-0.19313534 -0.21002366 0.056508675
-0.19337088 -0.21002086 0.056393873
-0.19359861 -0.20999846 0.05642898
-0.19381893 -0.20998316 0.056415681
-0.19403738 -0.20996892 0.056395479
-0.1942534 -0.2099524 0.05639372
-0.19446951 -0.20993757 0.056379281
-0.19469008 -0.20992272 0.056362525
-0.19485541 -0.20990559 0.056394354
-0.19512144 -0.20989002 0.056356713
-0.19534385 -0.20987767 0.056320347
-0.19555975 -0.20986161 0.056315139
-0.19577977 -0.20984866 0.056284547
-0.19596231 -0.20982789 0.056333624
-0.19617933 -0.20981734 0.056286894
-0.19639227 -0.20980059 0.056288611
-0.19663885 -0.20978901 0.056232579
-0.19686967 -0.20977537 0.056200799
-0.1970835 -0.20976087 0.056185216
-0.19724746 -0.20974216 0.056229725
-0.19746843 -0.20973535 0.056153014
-0.19772816 -0.20972073 0.056111936
-0.19792306 -0.20970148 0.056142516
-0.19813952 -0.20969176 0.056090035
-0.19836994 -0.20967366 0.056091692
-0.19859248 -0.20965788 0.056080699
-0.19880709 -0.20964441 0.056057047
-0.19902499 -0.20963053 0.056034528
-0.19923018 -0.20961376 0.056040872
-0.1994511 -0.20960119 0.056006819
-0.19966997 -0.20958973 0.055965856
-0.19988357 -0.20957464 0.055954881
-0.20007499 -0.20955645 0.055979714
-0.20029655 -0.20954104 0.055966422
-0.20048299 -0.20953162 0.055929001
-0.20074105 -0.20951992 0.055867173
-0.20093819 -0.20950066 0.05589661
-0.20115428 -0.20948708 0.055872943
-0.20136423 -0.20947118 0.055870049
-0.20157892 -0.20945723 0.055849846
-0.20179091 -0.20944414 0.055825043
-0.20201328 -0.20943348 0.055776004
-0.20221931 -0.20941819 0.055770818
-0.20242898 -0.20940262 0.055765614
-0.20264554 -0.2093918 0.055721197
-0.20284225 -0.20937848 0.055706821
-0.2030458 -0.20937552 0.055611704
-0.20324555 -0.20934688 0.05570915
-0.20346946 -0.2093302 0.055703919
-0.20368026 -0.20931749 0.05567681
-0.20388702 -0.20930697 0.055635877
-0.2041001 -0.20928787 0.055654883
-0.20430635 -0.20928687 0.055543616
-0.20454009 -0.2092654 0.055568341
-0.20475617 -0.20926519 0.055445511
-0.20495793 -0.20923764 0.055533737
-0.20514928 -0.2092171 0.055575863
-0.20536372 -0.2092049 0.055542987
-0.20556059 -0.2091928 0.055519372
-0.20576379 -0.20917773 0.055514194
-0.20598787 -0.20917022 0.055440929
-0.20613424 -0.2091454 0.055540845
-0.2063933 -0.20915212 0.055341795
-0.20662084 -0.20912662 0.055399965
-0.20682862 -0.20911214 0.055387858
-0.20703195 -0.20909566 0.055393059
-0.20722467 -0.20907626 0.055425964
-0.20744301 -0.20906702 0.055368856
-0.20765094 -0.20905499 0.055338297
-0.20785734 -0.2090403 0.055328492
-0.20807716 -0.20903219 0.055262163
-0.20826611 -0.2090092 0.055323899
-0.20847002 -0.20899563 0.055307187
-0.20865154 -0.20898379 0.055290543
-0.20888616 -0.2089708 0.055251844
-0.20909673 -0.20895873 0.055220116
-0.20929375 -0.20894212 0.055229951
-0.20950796 -0.2089321 0.05518093
-0.20969707 -0.2089116 0.055224214
-0.20991299 -0.20890269 0.055165961
-0.21012105 -0.20888989 0.05514117
-0.21033618 -0.20888089 0.055084068
-0.21052444 -0.20886013 0.055129673
-0.21072355 -0.20886295 0.054994211
-0.21093446 -0.20883873 0.055052422
-0.21112329 -0.20882291 0.055061128
-0.2113049 -0.2088123 0.055035256
-0.21155497 -0.20879579 0.055013802
-0.21175128 -0.20877969 0.055020176
-0.21196322 -0.20877001 0.054970004
-0.21215732 -0.20875517 0.054968309
-0.21236324 -0.20874238 0.054944672
-0.21257336 -0.20872973 0.054917574
-0.21276015 -0.20870861 0.054966632
-0.21296516 -0.20869559 0.054945305
-0.21316598 -0.20868023 0.054943595
-0.21334119 -0.20866686 0.05494196
-0.21355985 -0.20865728 0.054887149
-0.21376973 -0.20864511 0.054856595
-0.21398346 -0.20864026 0.054769516
-0.21417126 -0.20861021 0.0548843
-0.21438821 -0.20860511 0.054797217
-0.21456812 -0.20859013 0.054804787
-0.21477459 -0.20858398 0.05473157
-0.21497324 -0.20856056 0.054790974
-0.21517552 -0.20855209 0.054737378
-0.2153915 -0.20853961 0.054705635
-0.21558529 -0.2085209 0.054732773
-0.21577492 -0.20850734 0.054724172
-0.21596605 -0.20850006 0.054668296
-0.21616021 -0.20847386 0.05475077
-0.21639328 -0.20847048 0.054641742
-0.21658793 -0.20845529 0.054642357
-0.21679069 -0.2084429 0.054617576
-0.21698263 -0.20842606 0.05463203
-0.21718307 -0.20841229 0.054618787
-0.21734464 -0.2083967 0.054641396
-0.21758786 -0.2083905 0.054547329
-0.21778443 -0.2083744 0.054553695
-0.21796077 -0.20836653 0.054510541
-0.21816309 -0.20835464 0.054482304
-0.2183385 -0.20834637 0.054442611
-0.21858172 -0.20833847 0.054361224
-0.21878207 -0.20831119 0.054448295
-0.21897715 -0.20829736 0.054438531
-0.21917398 -0.20828201 0.054439139
-0.21936791 -0.2082675 0.054435134
-0.21956739 -0.20825426 0.054418441
-0.21975611 -0.20823596 0.054445591
-0.21996127 -0.20822726 0.054391976
-0.22016555 -0.20822112 0.054319918
-0.2203576 -0.20820257 0.054347061
-0.22054659 -0.2081847 0.05437075
-0.22071932 -0.20817572 0.054337982
-0.22091879 -0.20816638 0.054292459
-0.22113666 -0.20815313 0.054265331
-0.22128758 -0.20813945 0.054279905
-0.22153708 -0.20812361 0.054253835
-0.22173385 -0.2081126 0.054222152
-0.221931 -0.20809877 0.054211233
-0.22212631 -0.2080868 0.054187626
-0.22232571 -0.20807514 0.054159395
-0.22251651 -0.20805946 0.054165788
-0.22271176 -0.20804439 0.054165237
-0.22288246 -0.20802468 0.054213196
-0.22309853 -0.20801452 0.054164164
-0.22329758 -0.20800661 0.054108262
-0.22349778 -0.20799643 0.054068506
-0.22369258 -0.20798497 0.054041438
-0.22388846 -0.20797466 0.054005153
-0.22405331 -0.20795321 0.054069273
-0.22422923 -0.20794228 0.054049172
-0.22446044 -0.20792955 0.054010481
-0.22466467 -0.20791674 0.05398801
-0.22485411 -0.2079007 0.053997852
-0.22502731 -0.20788749 0.053996224
-0.22523591 -0.20787556 0.053964511
-0.2254418 -0.20786496 0.053924728
-0.22562513 -0.20784287 0.053983022
-0.22579391 -0.20783326 0.053957194
-0.2259957 -0.20783477 0.053829789
-0.22618847 -0.20781071 0.053897284
-0.22637677 -0.20780224 0.053851791
-0.22655086 -0.20778242 0.05389858
-0.22676891 -0.20777382 0.053836867
-0.22697712 -0.20776287 0.053798236
-0.2271868 -0.20775382 0.05374461
-0.22734925 -0.20775107 0.053671513
-0.22753692 -0.20773424 0.053688288
-0.22773854 -0.2077207 0.053672738
-0.22795461 -0.20769763 0.053719413
-0.22814231 -0.20767629 0.053769626
-0.22830735 -0.20767303 0.05369883
-0.22853273 -0.20766169 0.053653233
-0.22872636 -0.20764798 0.053643472
-0.22891898 -0.20763311 0.053642929
-0.2291104 -0.20762159 0.053618193
-0.22930641 -0.20761143 0.053580742
-0.22948815 -0.2075921 0.053619437
-0.22968277 -0.20757522 0.053632736
-0.22987661 -0.20756754 0.053578001
-0.23007227 -0.20755756 0.053539403
-0.23026411 -0.20754758 0.05350313
-0.23045227 -0.20752698 0.053547572
-0.23064256 -0.20751493 0.053527445
-0.23083457 -0.2075001 0.053526916
-0.23102392 -0.20748687 0.053516008
-0.23120162 -0.20747843 0.053476308
-0.23140052 -0.20746323 0.053474601
-0.23160431 -0.20745604 0.053410612
-0.23179281 -0.20743604 0.05345045
-0.23198211 -0.2074295 0.053389966
-0.2321573 -0.20741785 0.053375639
-0.23236808 -0.20739861 0.053396963
-0.23255591 -0.2073838 0.053398743
-0.23275009 -0.20737393 0.053360149
-0.23292534 -0.20736288 0.053341221
-0.23312218 -0.20735171 0.053310689
-0.23331992 -0.20733552 0.053317063
-0.23350523 -0.20732339 0.053300396
-0.23368309 -0.20731089 0.053290676
-0.23387943 -0.20729946 0.053262457
-0.23406735 -0.20728572 0.053256169
-0.23427169 -0.2072687 0.053264827
-0.23445797 -0.20725152 0.053285062
-0.23462979 -0.20724213 0.053255755
-0.23483707 -0.20724027 0.053150252
-0.23502865 -0.20721909 0.053196996
-0.23520382 -0.20720123 0.053228792
-0.23535331 -0.20717289 0.053352911
-0.23556867 -0.20718376 0.053148221
-0.23575048 -0.20717393 0.053116579
-0.2359695 -0.20715903 0.053100985
-0.23613676 -0.20714891 0.053079765
-0.23632394 -0.20713492 0.053075779
-0.23652664 -0.20712487 0.05303371
-0.23671153 -0.2071151 0.052999757
-0.23688671 -0.20709753 0.053029243
-0.23708993 -0.20707873 0.053051747
-0.23726743 -0.20706843 0.053025883
-0.23745318 -0.20706248 0.0529631
-0.23768868 -0.2070457 0.052952062
-0.23787576 -0.2070328 0.052940018
-0.23805541 -0.20701861 0.052941822
-0.23822449 -0.20700447 0.052949421
-0.23841177 -0.20699281 0.05292815
-0.23860429 -0.20698898 0.052845746
-0.23878227 -0.20696792 0.052899446
-0.23897287 -0.20695631 0.052875847
-0.23915868 -0.20693855 0.052900705
-0.23933886 -0.2069279 0.052875984
-0.23952562 -0.20691518 0.052862786
-0.2397251 -0.20689543 0.052894514
-0.23991922 -0.20688525 0.052858233
-0.24011321 -0.20687509 0.052821942
-0.24032271 -0.20685177 0.052874405
-0.24051434 -0.20685111 0.052768946
-0.24068713 -0.20684071 0.052746553
-0.24086021 -0.20683341 0.052701097
-0.24105671 -0.20681855 0.052698247
-0.24125975 -0.20679928 0.052724201
-0.24143994 -0.20679718 0.052636072
-0.24161237 -0.20678651 0.052615989
-0.24182566 -0.20676522 0.052651145
-0.24202225 -0.2067547 0.052616004
-0.24219787 -0.20674005 0.052623585
-0.2423663 -0.20671554 0.052708436
-0.24254948 -0.20672627 0.052523445
-0.24274564 -0.20670708 0.052552871
-0.2429212 -0.20669322 0.052554697
-0.24314159 -0.20667075 0.052594438
-0.24333769 -0.20666477 0.052525863
-0.24349274 -0.20664705 0.052568097
-0.24368566 -0.20662935 0.052588318
-0.24388203 -0.20661248 0.052600451
-0.24408127 -0.20660564 0.052536473
-0.24427029 -0.20659539 0.052503664
-0.24445912 -0.20658672 0.052459329
-0.24464092 -0.20657906 0.052411541
-0.2448543 -0.20656133 0.052420173
-0.24503665 -0.2065471 0.052420817
-0.24519636 -0.20655155 0.052295845
-0.24540325 -0.20653044 0.052333314
-0.24560645 -0.20651226 0.052351199
-0.24577555 -0.20649517 0.052380711
-0.24596003 -0.206489 0.052320242
-0.24616024 -0.20646888 0.05235428
-0.24632637 -0.20645013 0.052397631
-0.24649701 -0.20646307 0.052203443
-0.24668819 -0.20643711 0.052285928
-0.24687243 -0.20642988 0.052233528
-0.24708544 -0.20641389 0.052229475
-0.2472709 -0.20640035 0.052223194
-0.24744856 -0.2063913 0.052188106
-0.2476507 -0.20637833 0.052167945
-0.24784587 -0.20636605 0.052146643
-0.24803938 -0.20634723 0.052174933
-0.24822661 -0.20633945 0.052124832
-0.24839659 -0.20632073 0.052165866
-0.24858089 -0.20631115 0.052130766
-0.24875766 -0.20630403 0.052081846
-0.24895351 -0.20628907 0.052080147
-0.24914633 -0.20627308 0.05208768
-0.24932666 -0.20626475 0.052045666
-0.24953024 -0.2062467 0.0520624
-0.24970247 -0.20623247 0.052068841
-0.2498998 -0.20622298 0.052025624
-0.25005567 -0.20620784 0.052048251
-0.25026703 -0.20619634 0.052011922
-0.25045565 -0.20619172 0.051937599
-0.25065213 -0.2061666 0.052010849
-0.25081456 -0.20614378 0.052086502
-0.25101191 -0.20615016 0.051925674
-0.25118673 -0.2061379 0.051915962
-0.25139138 -0.20611805 0.05194537
-0.25156876 -0.20611523 0.051864166
-0.25173038 -0.20610276 0.051863715
-0.25191444 -0.20609196 0.051837835
-0.25209534 -0.20608793 0.051763542
-0.25227892 -0.20607795 0.051731896
-0.25248212 -0.20604081 0.051890451
-0.25268665 -0.20602891 0.051861059
-0.25286058 -0.20602511 0.051789083
-0.25303948 -0.20601782 0.051740155
-0.25323603 -0.20601445 0.051651981
-0.25339016 -0.20602867 0.051457837
-0.2535778 -0.20601028 0.051486142
-0.25378633 -0.20598999 0.051516686
-0.25398821 -0.20597595 0.051504597
-0.25418383 -0.20595556 0.051543254
-0.25436842 -0.20593166 0.05161424
-0.25454351 -0.20589623 0.051776327
-0.25474438 -0.2058958 0.051663924
-0.25494829 -0.2058844 0.051631074
-0.25511917 -0.20587866 0.051575251
-0.25531375 -0.20587157 0.051515903
-0.25548092 -0.20586099 0.051498145
-0.2556484 -0.20585504 0.051445786
-0.25586784 -0.20583437 0.051472846
-0.25606424 -0.20581408 0.051510353
-0.25626796 -0.20578295 0.051623944
-0.25644916 -0.20577128 0.051606137
-0.25664914 -0.20575599 0.051604427
-0.25683528 -0.20575608 0.051496681
-0.25701129 -0.20574699 0.051462747
-0.25716379 -0.20574346 0.051401213
-0.25738224 -0.20572503 0.051412139
-0.25757042 -0.20571253 0.051396623
-0.25773609 -0.20570408 0.051363874
-0.25792927 -0.20568481 0.051395621
-0.25811741 -0.20566811 0.051411245
-0.25829861 -0.20566064 0.051362313
-0.25849098 -0.20565122 0.051321413
-0.25870675 -0.20563254 0.051335808
-0.25889161 -0.20561205 0.05138142
-0.25906214 -0.20559344 0.051421296
-0.25924432 -0.20559677 0.051291645
-0.25942022 -0.20558366 0.051287696
-0.25961027 -0.20557302 0.051257193
-0.25979504 -0.20556481 0.051211711
-0.25998768 -0.20555103 0.051203102
-0.26017168 -0.20554365 0.051151861
-0.26036346 -0.20552713 0.051164009
-0.26054639 -0.20551348 0.051160034
-0.26072764 -0.20549807 0.05116991
-0.26091945 -0.20549275 0.051099043
-0.26110628 -0.20548563 0.051044326
-0.26126128 -0.20548157 0.050985094
-0.26145792 -0.20545287 0.051084857
-0.26165152 -0.20543481 0.051107384
-0.26187167 -0.20541953 0.051094089
-0.26206154 -0.20540221 0.051113158
-0.26222581 -0.20539854 0.051045824
-0.26242054 -0.20538303 0.051048744
-0.26261047 -0.20537257 0.051017083
-0.26280198 -0.20535716 0.051021162
-0.26298782 -0.20535089 0.050960679
-0.26315925 -0.20533641 0.050969429
-0.26337045 -0.20531745 0.050988447
-0.2635586 -0.20530882 0.050944112
-0.26374799 -0.20528628 0.051002387
-0.26393634 -0.20527747 0.050959203
-0.26412189 -0.20527139 0.050897572
-0.26430759 -0.20525892 0.050883211
-0.26451331 -0.20523649 0.050931074
-0.26467559 -0.20522816 0.050899491
-0.26484662 -0.20522662 0.050812535
-0.26502815 -0.20522705 0.050704792
-0.26521695 -0.20521465 0.050688125
-0.26539701 -0.20520152 0.050681859
-0.2656363 -0.20516936 0.050782662
-0.26579705 -0.20516239 0.050741859
-0.26598233 -0.20515336 0.05070214
-0.26615798 -0.20514725 0.050646301
-0.26639003 -0.20512219 0.050698698
-0.26657131 -0.20510274 0.050738554
-0.26675853 -0.20508938 0.05072996
-0.26695248 -0.20508124 0.050678682
-0.26713908 -0.20507118 0.05064588
-0.26733559 -0.20505539 0.050649945
-0.26751578 -0.2050427 0.050640222
-0.2677007 -0.20502609 0.050657004
-0.2678808 -0.20500566 0.05070493
-0.26807401 -0.20500085 0.050629441
-0.2682578 -0.20499846 0.050541297
-0.26844239 -0.20498234 0.050554618
-0.26863825 -0.20496489 0.050571375
-0.26882705 -0.20494813 0.050586987
-0.26903027 -0.20494021 0.050528768
-0.269209 -0.20492905 0.050508671
-0.26940304 -0.20490831 0.050550789
-0.26958895 -0.20490158 0.050493777
-0.26978624 -0.20489334 0.050441343
-0.26996332 -0.20488355 0.050412022
-0.27011761 -0.20487426 0.050391987
-0.27031624 -0.20485768 0.050400667
-0.27052134 -0.20484106 0.05040586
-0.27072453 -0.204826 0.050400686
-0.270917 -0.20481192 0.050394379
-0.27109605 -0.20480554 0.05033854
-0.27130598 -0.2047856 0.050365623
-0.27147233 -0.20477928 0.050316729
-0.27165544 -0.2047653 0.050315075
-0.27185959 -0.20474751 0.050329495
-0.27203932 -0.20474295 0.050259814
-0.27222332 -0.20473528 0.050210871
-0.27242103 -0.20472001 0.050210316
-0.27260029 -0.20470896 0.050189067
-0.27279934 -0.20469064 0.050210424
-0.27300686 -0.20467088 0.050237514
-0.27317125 -0.20466161 0.050211694
-0.27335989 -0.20464858 0.050199639
-0.27356407 -0.20463578 0.050177153
-0.27374983 -0.20462267 0.050167415
-0.27394494 -0.20461398 0.050119605
-0.27413183 -0.20460017 0.050114468
-0.27431443 -0.20458934 0.050089743
-0.27451485 -0.20457074 0.050112244
-0.27468485 -0.20456213 0.050078332
-0.27485481 -0.2045577 0.050013293
-0.27507737 -0.20453088 0.050084159
-0.27526483 -0.20452324 0.05003291
-0.27544796 -0.20451018 0.050024327
-0.27563778 -0.20449692 0.050013416
-0.27582058 -0.20448825 0.049972557
-0.27601904 -0.20447354 0.04996739
-0.27621976 -0.20445944 0.049956452
-0.27640051 -0.20445015 0.049921364
-0.27659264 -0.20443562 0.049918514
-0.27679592 -0.20441805 0.049931791
-0.27697706 -0.2044106 0.049882855
-0.27717292 -0.20438801 0.049937658
-0.27735317 -0.20438311 0.049870282
-0.2775507 -0.20436552 0.049887024
-0.27774182 -0.20435776 0.049834605
-0.27791968 -0.20434852 0.049800672
-0.27811754 -0.20433091 0.049817421
-0.27831402 -0.20431994 0.049785741
-0.2785053 -0.20430268 0.049803659
-0.27869722 -0.20429455 0.049753547
-0.27887893 -0.20428687 0.049705759
-0.27908131 -0.20426877 0.049723648
-0.27927697 -0.20425661 0.049701195
-0.27948141 -0.20424113 0.049698316
-0.27967715 -0.20423083 0.049662028
-0.27986646 -0.20421885 0.049641903
-0.28004992 -0.20420484 0.049640235
-0.28025109 -0.20419148 0.049623538
-0.28043181 -0.20417736 0.04962419
-0.28062037 -0.20416778 0.049586762
-0.28077096 -0.20416564 0.049516004
-0.28099743 -0.20413089 0.049643371
-0.28119197 -0.20412691 0.049560964
-0.28136846 -0.20412602 0.049465917
-0.28155625 -0.20410468 0.04951613
-0.28178045 -0.20408581 0.049527034
-0.281959 -0.20407856 0.049478114
-0.28216207 -0.20406117 0.049490232
-0.28233373 -0.20405257 0.049455158
-0.28255558 -0.20403357 0.049468376
-0.28277266 -0.20401043 0.049515046
-0.28295895 -0.20398889 0.049567573
-0.2831198 -0.20399994 0.049393013
-0.2833083 -0.20399083 0.049352128
-0.28351247 -0.20396993 0.049389616
-0.28369358 -0.20395982 0.049360283
-0.2838921 -0.20394714 0.049340133
-0.28408861 -0.20392559 0.049386855
-0.28428096 -0.20391959 0.049320597
-0.28445289 -0.20391285 0.049271688
-0.28467032 -0.20389201 0.049301062
-0.2848542 -0.20388559 0.049242903
-0.2850126 -0.20388594 0.049149066
-0.28522864 -0.20386118 0.049208421
-0.28544053 -0.2038403 0.049241271
-0.28561303 -0.20383662 0.049169306
-0.28579789 -0.20383136 0.049101908
-0.28601164 -0.20381454 0.049103621
-0.28625211 -0.2037826 0.049202111
-0.2864415 -0.20377202 0.049171608
-0.28663373 -0.20375687 0.049173377
-0.2868062 -0.203758 0.049065668
-0.28702247 -0.20372933 0.049153853
-0.28721815 -0.20372355 0.049084119
-0.28740832 -0.20370963 0.049077824
-0.28758901 -0.20369895 0.049053114
-0.28780657 -0.20367779 0.04908479
-0.28798565 -0.20366645 0.049065851
-0.28820831 -0.2036491 0.04906638
-0.28839588 -0.20364285 0.049004741
-0.2885862 -0.20362769 0.049007677
-0.28878722 -0.20361497 0.04898636
-0.28898159 -0.203604 0.048955835
-0.28917718 -0.20358795 0.048962213
-0.2893666 -0.20358095 0.048905183
-0.28958663 -0.20356379 0.04890573
-0.2898041 -0.20354497 0.04892011
-0.28997666 -0.20353274 0.04891156
-0.2901538 -0.20352574 0.048861489
-0.29037362 -0.20350458 0.048892006
-0.29056588 -0.20348909 0.048896085
-0.29076704 -0.20347683 0.048871309
-0.2909801 -0.20346488 0.048837278
-0.29117131 -0.20345587 0.048794083
-0.29136568 -0.20344397 0.048770476
-0.29158658 -0.20341991 0.048821755
-0.29176012 -0.2034177 0.048738252
-0.29194948 -0.20340681 0.048710048
-0.29216251 -0.20338804 0.04872676
-0.29239076 -0.20336667 0.048753794
-0.29257601 -0.2033578 0.048712917
-0.19736263 -0.21306464 0.03151739
-0.19750713 -0.21304058 0.031612702
-0.19764562 -0.21301356 0.031733401
-0.19778439 -0.21298777 0.03184488
-0.19792402 -0.21295972 0.031972494
-0.19806314 -0.2129339 0.032083962
-0.198191 -0.21290475 0.0322266
-0.19831741 -0.21287385 0.032383069
-0.19843867 -0.21284132 0.032554545
-0.19856113 -0.21280777 0.032732934
-0.19171412 -0.21012029 0.056609973
-0.19192842 -0.2101039 0.056608267
-0.19216084 -0.2100917 0.056564998
-0.192385 -0.21007702 0.056544811
-0.19258477 -0.2100594 0.056560434
-0.19282703 -0.21005219 0.056474485
-0.19303471 -0.21002792 0.056535043
-0.19324331 -0.21001957 0.056476861
-0.19348244 -0.21000078 0.056478538
-0.1937055 -0.20998791 0.056445677
-0.19393991 -0.20997725 0.056389719
-0.19414431 -0.20995852 0.056411099
-0.19435403 -0.20993999 0.056427836
-0.19458903 -0.20993146 0.056355752
-0.1948124 -0.20991763 0.056329798
-0.19502482 -0.20990184 0.056324635
-0.19524091 -0.20988578 0.056319453
-0.19546641 -0.20987457 0.056272753
-0.19568022 -0.2098579 0.056273349
-0.19588813 -0.20984744 0.056231301
-0.19610244 -0.20983927 0.056168474
-0.19629335 -0.20981333 0.056250989
-0.19654188 -0.20979585 0.056237668
-0.19675307 -0.20978031 0.05623135
-0.19697012 -0.20976524 0.056218099
-0.19715545 -0.20974907 0.056231454
-0.19736907 -0.20974298 0.05615364
-0.19762179 -0.20972921 0.05611033
-0.19783503 -0.20971149 0.056118991
-0.19805776 -0.20970066 0.05607114
-0.1982601 -0.20968425 0.056076378
-0.19848473 -0.20966923 0.0560585
-0.19870108 -0.20965298 0.05605448
-0.19891617 -0.20964149 0.056015871
-0.19913732 -0.20962721 0.055994533
-0.19933437 -0.20960748 0.056027457
-0.1995441 -0.20959081 0.056030374
-0.19976446 -0.20958172 0.055971
-0.19999132 -0.20956823 0.055940427
-0.20021072 -0.20955905 0.055882208
-0.20041336 -0.20953827 0.055919729
-0.20063107 -0.2095269 0.055878807
-0.200839 -0.20951004 0.055884033
-0.20101584 -0.20949717 0.055877805
-0.20124483 -0.20947979 0.055874899
-0.20147979 -0.20946847 0.055823557
-0.20168641 -0.20945142 0.055831082
-0.20189625 -0.20943755 0.055813245
-0.20209096 -0.20942312 0.055808127
-0.20229687 -0.20941515 0.055748791
-0.20252964 -0.20939623 0.055755105
-0.20273204 -0.20938154 0.055747651
-0.20294817 -0.20936887 0.055717111
-0.20311967 -0.20934708 0.055780083
-0.20334685 -0.20932798 0.055791017
-0.20356901 -0.20931812 0.055736247
-0.20378247 -0.2093066 0.055698793
-0.2039919 -0.20929539 0.05566135
-0.20421638 -0.20928505 0.055608884
-0.20442733 -0.20927092 0.05559219
-0.20463376 -0.20925684 0.055577818
-0.20483831 -0.20924011 0.055584203
-0.20504409 -0.20922592 0.055570982
-0.20525137 -0.20921053 0.055565834
-0.20543472 -0.20919435 0.055580344
-0.20568407 -0.20918815 0.055482849
-0.20588234 -0.20917097 0.055496167
-0.20609947 -0.2091604 0.055449478
-0.20630997 -0.20914896 0.055413194
-0.20650664 -0.20912926 0.055446111
-0.20671131 -0.20911533 0.055431742
-0.20690922 -0.20910437 0.055398948
-0.2071227 -0.20909069 0.05537764
-0.20733607 -0.20908727 0.055280227
-0.20753917 -0.2090607 0.05536041
-0.2077509 -0.20904852 0.05532873
-0.20794192 -0.20903689 0.055305172
-0.20812356 -0.20902285 0.055304699
-0.20836133 -0.20900697 0.055285625
-0.20856522 -0.20898718 0.055315077
-0.20877317 -0.20897578 0.055279948
-0.20898566 -0.20896465 0.055240188
-0.20915759 -0.20894825 0.0552628
-0.20936665 -0.20894206 0.055188462
-0.20956606 -0.20892464 0.055202927
-0.20979801 -0.20890656 0.055203483
-0.20999639 -0.20889527 0.055172987
-0.21019647 -0.20888059 0.055166699
-0.21041676 -0.20886995 0.055118851
-0.21058351 -0.20885567 0.055128798
-0.21082805 -0.20884921 0.055035919
-0.21102387 -0.20882818 0.055079225
-0.21123558 -0.20881571 0.055049844
-0.2114339 -0.20879836 0.055064313
-0.21163946 -0.20878731 0.055028044
-0.21184327 -0.20877312 0.055015974
-0.21204156 -0.20875826 0.055012003
-0.21221872 -0.20873867 0.055055354
-0.21245597 -0.20873651 0.054934829
-0.21265818 -0.20872182 0.054927386
-0.21286117 -0.20871003 0.054898024
-0.21305452 -0.20869043 0.05493211
-0.21326171 -0.20868126 0.054880839
-0.21347019 -0.2086706 0.05483995
-0.21366656 -0.20865294 0.054857884
-0.21385638 -0.20863144 0.054908112
-0.21406308 -0.20862246 0.054855693
-0.21425381 -0.20860897 0.054845966
-0.21446055 -0.20860031 0.054791249
-0.21466962 -0.20858322 0.054797612
-0.2148748 -0.20857391 0.054748654
-0.21507251 -0.20855755 0.054756209
-0.21526937 -0.20854327 0.054748777
-0.21545331 -0.20853372 0.054713711
-0.21566617 -0.20851432 0.054735061
-0.21587387 -0.20850465 0.054687254
-0.2160683 -0.20848916 0.054690208
-0.21626562 -0.20847298 0.054696605
-0.21647066 -0.20846461 0.054640729
-0.21666795 -0.20844859 0.054645985
-0.21684638 -0.20843077 0.05467549
-0.21702929 -0.20842409 0.05461967
-0.21723819 -0.20842707 0.054477315
-0.21741009 -0.20840229 0.054562189
-0.21764465 -0.2083848 0.054556962
-0.21784015 -0.20837079 0.054548386
-0.21807219 -0.20836575 0.054452084
-0.21826777 -0.20834926 0.054461952
-0.21845579 -0.20833021 0.054494891
-0.21864566 -0.20830965 0.054538213
-0.2188495 -0.20830214 0.054476574
-0.21901932 -0.20828435 0.05451072
-0.21924049 -0.2082724 0.054472096
-0.21944562 -0.20826635 0.054398917
-0.21963856 -0.20825128 0.054399572
-0.21982962 -0.20824088 0.05436679
-0.22002555 -0.20821922 0.054414704
-0.22021943 -0.20820811 0.054385379
-0.22042334 -0.20819889 0.054336425
-0.22061563 -0.20818062 0.054361284
-0.22081903 -0.20817439 0.054290421
-0.22101413 -0.20815854 0.054295681
-0.22121066 -0.20814709 0.054267496
-0.22139665 -0.2081335 0.054261245
-0.22158881 -0.20811866 0.054260746
-0.22179954 -0.20810968 0.054206006
-0.22198473 -0.20809242 0.054227427
-0.22215575 -0.20808294 0.054199312
-0.22234845 -0.20807894 0.054118097
-0.22257274 -0.20805554 0.05416248
-0.22276241 -0.20803562 0.054201193
-0.22294903 -0.20801638 0.054236442
-0.22313617 -0.20801498 0.054139107
-0.2233547 -0.20800743 0.054069355
-0.22354512 -0.20799193 0.054074626
-0.22374427 -0.20798105 0.05404067
-0.22393394 -0.207965 0.054050554
-0.22412734 -0.20795254 0.054031607
-0.22431481 -0.20794553 0.053975768
-0.22451293 -0.20793054 0.053972952
-0.22470935 -0.20791769 0.053955138
-0.22490492 -0.20790415 0.053943101
-0.22509503 -0.20788899 0.053946067
-0.2252797 -0.20787224 0.05396403
-0.22546746 -0.20785867 0.053956624
-0.22566915 -0.20785971 0.053832732
-0.22586277 -0.20784071 0.053862207
-0.22605926 -0.20782477 0.053867456
-0.22623824 -0.20781031 0.053871594
-0.22642832 -0.20779982 0.053839974
-0.22661863 -0.20778139 0.05386715
-0.22682478 -0.2077723 0.053815879
-0.2269803 -0.20775282 0.053870816
-0.22716168 -0.20775001 0.053787332
-0.22739032 -0.20773281 0.053783279
-0.227566 -0.20772825 0.053715944
-0.22777946 -0.20770213 0.053786874
-0.22797473 -0.2076945 0.053731024
-0.22816254 -0.20767798 0.053745519
-0.22835188 -0.20766802 0.053710438
-0.22854657 -0.20765562 0.053690329
-0.22874369 -0.20764644 0.053644851
-0.22892766 -0.20763488 0.053624772
-0.22910601 -0.20762095 0.053625464
-0.22931188 -0.20760426 0.053630687
-0.22950359 -0.2075935 0.053600207
-0.22969654 -0.20758465 0.053554744
-0.22985873 -0.20758456 0.053462081
-0.23007731 -0.20756038 0.053515706
-0.23024747 -0.20755111 0.053486433
-0.23045576 -0.20752788 0.053538933
-0.23064396 -0.20751287 0.053541891
-0.23083535 -0.20750274 0.053506806
-0.23101689 -0.20748328 0.053546689
-0.23121527 -0.20747867 0.053466622
-0.23139994 -0.20746426 0.053467289
-0.23159042 -0.20745933 0.053394157
-0.23176049 -0.20743313 0.053490564
-0.23196101 -0.20742713 0.053419705
-0.23216644 -0.20741747 0.053373054
-0.2323406 -0.20739797 0.053417567
-0.2325146 -0.20739089 0.053369842
-0.23268209 -0.20737889 0.053362489
-0.23291594 -0.20736238 0.053350344
-0.23310885 -0.20735075 0.053325631
-0.2332987 -0.20734042 0.053292856
-0.23344216 -0.20731722 0.053382412
-0.23367049 -0.20731901 0.053237699
-0.2338616 -0.20728979 0.053344421
-0.23405541 -0.20728834 0.053243604
-0.23424594 -0.20728046 0.053192377
-0.23441134 -0.2072652 0.0532104
-0.23459964 -0.20725283 0.053193763
-0.23475306 -0.20723476 0.05323948
