# .PCD v0.7 - Point Cloud Data file format
VERSION 0.7
FIELDS x y z
SIZE 4 4 4
TYPE F F F
COUNT 1 1 1
WIDTH 1219
HEIGHT 1
VIEWPOINT 0 0 0 1 0 0 0
POINTS 1219
DATA ascii
-0.10887961 -0.32685518 0.05510544
-0.10905771 -0.32696187 0.05510493
-0.10922238 -0.3270627 0.05509061
-0.10939917 -0.32716772 0.055095866
-0.1095617 -0.32727194 0.055051576
-0.1097326 -0.32738012 0.055014171
-0.10990482 -0.32747987 0.055035584
-0.11008278 -0.32759029 0.055010851
-0.11025152 -0.32768995 0.055019587
-0.11040751 -0.32779044 0.054974154
-0.11060555 -0.32790747 0.05498397
-0.1107699 -0.32800865 0.054966189
-0.11091363 -0.32810324 0.054911565
-0.11108507 -0.32820669 0.054906458
-0.11125956 -0.32831374 0.054889798
-0.11143675 -0.32841611 0.05491351
-0.11159531 -0.32852358 0.054833464
-0.11177482 -0.32862461 0.05487448
-0.11195467 -0.32873562 0.054853197
-0.11212531 -0.3288393 0.054843482
-0.11229318 -0.32894763 0.054793395
-0.11246505 -0.32904989 0.054797515
-0.11262269 -0.32914758 0.054776296
-0.11281523 -0.32926005 0.054794192
-0.11298091 -0.32936347 0.054767184
-0.11313576 -0.3294642 0.054715984
-0.11331302 -0.32957363 0.054694712
-0.11345823 -0.32966858 0.054643542
-0.11368002 -0.3297798 0.054781314
-0.11384071 -0.32989863 0.054636672
-0.1140065 -0.33000067 0.054618895
-0.11418107 -0.33010221 0.054637995
-0.11436276 -0.33021086 0.054638628
-0.11453135 -0.33031493 0.054618526
-0.11466214 -0.33041605 0.054472819
-0.11483422 -0.33051282 0.054512694
-0.11503986 -0.33062464 0.054584768
-0.11520042 -0.33073097 0.054519717
-0.11539522 -0.33084929 0.054508768
-0.11556566 -0.33095232 0.054502513
-0.1157288 -0.33106053 0.054435145
-0.11587909 -0.33115184 0.054426637
-0.11606781 -0.33125895 0.054464154
-0.11624821 -0.33136505 0.054476313
-0.11644182 -0.33148357 0.054459613
-0.11659934 -0.3315866 0.054403789
-0.11675836 -0.33168387 0.054390647
-0.11694831 -0.33179605 0.054400481
-0.1171141 -0.33189738 0.054387309
-0.11730714 -0.33201012 0.054405205
-0.11748407 -0.33212209 0.054366633
-0.11766921 -0.33223826 0.054332651
-0.11782005 -0.33233604 0.054284923
-0.11798917 -0.33243808 0.054279819
-0.11814834 -0.33254156 0.05422746
-0.11831024 -0.3326382 0.054229297
-0.11853106 -0.33276886 0.054239046
-0.11868462 -0.33286285 0.054225907
-0.11882633 -0.33295643 0.054170139
-0.11902623 -0.33307096 0.054203015
-0.11919856 -0.33318394 0.054140229
-0.11937324 -0.33328301 0.054175485
-0.11955661 -0.33339649 0.054151885
-0.11975005 -0.33351454 0.054137483
-0.11993486 -0.3336184 0.054180779
-0.12007807 -0.33371666 0.054100782
-0.1202724 -0.33383363 0.054096766
-0.1204337 -0.33393082 0.054092832
-0.12064333 -0.33405623 0.054093383
-0.12079094 -0.33415532 0.054024901
-0.12096406 -0.33425614 0.054042865
-0.12113161 -0.33436304 0.054000847
-0.12130366 -0.33446938 0.053979591
-0.12145528 -0.33456925 0.053921483
-0.12165071 -0.3346827 0.053943992
-0.12178183 -0.33477193 0.053875554
-0.12195735 -0.33487493 0.053888891
-0.12215754 -0.33499774 0.053869862
-0.12238523 -0.33512586 0.053922266
-0.12254158 -0.33522132 0.053910278
-0.12273315 -0.33533862 0.053893574
-0.12290993 -0.33545178 0.053846925
-0.042007763 -0.29086867 0.029252298
-0.042175509 -0.29098326 0.029161818
-0.04234558 -0.29110125 0.029058635
-0.042510487 -0.2912105 0.028991241
-0.042668261 -0.29131246 0.028943475
-0.042825557 -0.2914139 0.028896861
-0.042979747 -0.29151136 0.028864104
-0.043142382 -0.29161838 0.028802486
-0.043294016 -0.29171264 0.028780114
-0.043448891 -0.29180941 0.028754275
-0.043597899 -0.29190248 0.028729612
-0.043748017 -0.29199296 0.028725713
-0.043898948 -0.29208681 0.028703343
-0.044049457 -0.29217809 0.028695974
-0.044197563 -0.29226828 0.028686313
-0.044343501 -0.29235551 0.028687038
-0.04448887 -0.29244208 0.02869007
-0.044635445 -0.29253259 0.028672334
-0.044778865 -0.29261437 0.028698441
-0.044921927 -0.29269791 0.028711859
-0.045063253 -0.29277682 0.028748363
-0.045202717 -0.29285532 0.028780261
-0.045344956 -0.29293782 0.028797142
-0.045481883 -0.29301047 0.028856725
-0.045617573 -0.29308128 0.02892324
-0.045753986 -0.29315543 0.028971294
-0.045888249 -0.29322177 0.029060878
-0.046019096 -0.29328537 0.029155094
-0.046149425 -0.29335046 0.029237773
-0.04628193 -0.29341629 0.029323906
-0.046412043 -0.29348087 0.029408893
-0.046542302 -0.29354319 0.029508879
-0.046669617 -0.29360339 0.029611185
-0.046801247 -0.29366511 0.029720386
-0.046928257 -0.2937246 0.029826151
-0.047058098 -0.29378575 0.029931907
-0.047185197 -0.29384512 0.030038822
-0.047311656 -0.29390082 0.030166507
-0.047438703 -0.29395726 0.030291878
-0.047565632 -0.29400313 0.030484166
-0.047672499 -0.29403809 0.030669589
-0.047793575 -0.29408967 0.030803058
-0.047914848 -0.29413614 0.030969981
-0.048034564 -0.29417986 0.03114845
-0.048152082 -0.29422247 0.031325765
-0.04491559 -0.28763533 0.061022464
-0.045100164 -0.28775007 0.060995393
-0.045292366 -0.28787768 0.060915217
-0.045464158 -0.28796798 0.060995467
-0.045654088 -0.28809226 0.060927995
-0.04584492 -0.28821471 0.060875513
-0.04602889 -0.28832945 0.060846131
-0.04620441 -0.28842628 0.060898684
-0.046391498 -0.28854668 0.060845055
-0.046576247 -0.28866336 0.060806442
-0.046752378 -0.28876525 0.060828995
-0.046941057 -0.28888535 0.060783453
-0.047119945 -0.28899235 0.060784083
-0.047305077 -0.28911048 0.060737386
-0.047476631 -0.28920478 0.060791101
-0.047664933 -0.28932899 0.060717858
-0.047839828 -0.28942943 0.060745038
-0.047986895 -0.28951555 0.060757294
-0.048219409 -0.28968465 0.060566254
-0.048388407 -0.28977075 0.060662657
-0.048572235 -0.28988811 0.060615979
-0.048749641 -0.28998971 0.06064545
-0.048935555 -0.29011139 0.060579143
-0.049113713 -0.29021886 0.060574006
-0.049289946 -0.29032281 0.06058386
-0.049475051 -0.29043949 0.060546398
-0.049652711 -0.29054648 0.06054242
-0.049839083 -0.29067042 0.060463417
-0.050009567 -0.29076388 0.060518295
-0.050183818 -0.29086468 0.060540855
-0.050362814 -0.29098836 0.06043534
-0.050547674 -0.29109696 0.060448643
-0.050724842 -0.29120401 0.060442343
-0.050901257 -0.29130968 0.060441822
-0.051081613 -0.29142353 0.060404383
-0.051264305 -0.29153767 0.060373843
-0.051440544 -0.29164833 0.060341023
-0.051617391 -0.29175085 0.060362425
-0.051789474 -0.29184836 0.060397677
-0.051971599 -0.29196703 0.060335994
-0.05215241 -0.29208332 0.060284704
-0.05232612 -0.29218468 0.060301498
-0.052495711 -0.29228738 0.060294073
-0.0526774 -0.29240635 0.060228929
-0.052846797 -0.29250386 0.060253814
-0.053030804 -0.29261285 0.060261346
-0.053198755 -0.29271257 0.060266614
-0.053360436 -0.29281974 0.060200382
-0.053532913 -0.29291928 0.060224093
-0.053736541 -0.2930465 0.060190048
-0.053899772 -0.29315823 0.060100734
-0.054076679 -0.29325175 0.060179815
-0.054265309 -0.2933729 0.060127344
-0.054441333 -0.29348162 0.060106054
-0.05461603 -0.29358736 0.060098615
-0.054793559 -0.29370022 0.060056563
-0.054969084 -0.29380846 0.060036432
-0.055132717 -0.29390559 0.060041726
-0.055259414 -0.29396543 0.060144022
-0.055471927 -0.29410556 0.060061485
-0.055663742 -0.29422483 0.060033239
-0.055840332 -0.29433694 0.059992336
-0.056015678 -0.29444617 0.059965283
-0.056190714 -0.29455483 0.059940539
-0.056336619 -0.29463899 0.059960872
-0.056536991 -0.29476264 0.059937213
-0.056709588 -0.29486534 0.059941318
-0.056885481 -0.2949774 0.059898112
-0.057060152 -0.29508638 0.059869908
-0.0572339 -0.29519302 0.059853248
-0.057391878 -0.29529834 0.059784718
-0.057563879 -0.29540047 0.059789974
-0.057750862 -0.29550943 0.059809037
-0.057927277 -0.29561746 0.059793517
-0.058103085 -0.29573184 0.059735321
-0.05827136 -0.2958312 0.059744049
-0.058424085 -0.29592234 0.059745912
-0.058613148 -0.29603887 0.059724584
-0.058788478 -0.29614481 0.059718303
-0.058963787 -0.29625961 0.059655488
-0.059128828 -0.29634911 0.059714988
-0.05930499 -0.29645863 0.05968909
-0.059478037 -0.29656681 0.059659738
-0.059652902 -0.29668188 0.059593469
-0.05982212 -0.2967867 0.059571043
-0.059980091 -0.29686996 0.059643254
-0.060158148 -0.29698837 0.059567746
-0.060339622 -0.29710019 0.059547599
-0.060503244 -0.29720545 0.05950097
-0.060672902 -0.29730311 0.059525847
-0.06082866 -0.29739913 0.059508085
-0.061013177 -0.29751384 0.05948101
-0.06119293 -0.29762027 0.059488557
-0.061362199 -0.29771683 0.059519202
-0.061537482 -0.29784024 0.059401013
-0.061706554 -0.2979365 0.059432816
-0.061843403 -0.29801053 0.059483178
-0.062048536 -0.2981607 0.059308372
-0.062214989 -0.29825845 0.059320565
-0.062382936 -0.29834968 0.059380058
-0.062560193 -0.29846022 0.059351847
-0.062712036 -0.29855499 0.059327174
-0.06289006 -0.29867104 0.059266664
-0.063055858 -0.29876623 0.059292704
-0.063213073 -0.29886076 0.059289936
-0.063374467 -0.29896396 0.05924793
-0.063557789 -0.29908085 0.059202392
-0.063715935 -0.29916403 0.059275761
-0.06391722 -0.29928735 0.059257865
-0.064084567 -0.29939485 0.059211224
-0.064244218 -0.29948869 0.059222288
-0.06439358 -0.29957005 0.059273764
-0.064593017 -0.29970488 0.059175115
-0.06476254 -0.29980987 0.059152693
-0.064931341 -0.29990885 0.059166037
-0.065100081 -0.3000074 0.059181694
-0.065269515 -0.30011362 0.059151202
-0.065436319 -0.30022493 0.059078027
-0.065604672 -0.30032074 0.059109829
-0.065773442 -0.30042204 0.059108179
-0.065942124 -0.30052274 0.059109997
-0.066111386 -0.30063373 0.059048351
-0.066280596 -0.30074704 0.058971718
-0.066430077 -0.30083191 0.059001267
-0.06661725 -0.30094495 0.058994941
-0.066776186 -0.30103764 0.059010625
-0.066941515 -0.30114084 0.058983602
-0.067113034 -0.30125046 0.058939259
-0.067278162 -0.30135375 0.058911081
-0.067452505 -0.30145857 0.058908261
-0.067626774 -0.30156875 0.05887083
-0.067776099 -0.30165786 0.058872703
-0.067928523 -0.30174792 0.058880329
-0.068086773 -0.30185825 0.058780644
-0.068279713 -0.30196393 0.058843527
-0.068441071 -0.30206692 0.058802672
-0.068630449 -0.30218238 0.058789421
-0.068798207 -0.30228144 0.058798157
-0.068965368 -0.30238953 0.058746904
-0.069121227 -0.30247244 0.058813352
-0.069284938 -0.30258098 0.058745965
-0.069457769 -0.30269518 0.05867739
-0.069628686 -0.30279273 0.058708034
-0.069783598 -0.30288625 0.058702964
-0.069953457 -0.3029938 0.058665544
-0.070129991 -0.30309993 0.05866272
-0.070305809 -0.30321124 0.058624119
-0.070462018 -0.30329344 0.058696344
-0.070635237 -0.30339867 0.058686603
-0.07080093 -0.30350861 0.058618046
-0.070955522 -0.30360195 0.058612987
-0.071120165 -0.3037163 0.058512129
-0.07130415 -0.30381641 0.058576189
-0.07145185 -0.30390906 0.058549225
-0.071601026 -0.30399373 0.058578774
-0.071769118 -0.30410492 0.058511369
-0.071933746 -0.30421513 0.058437049
-0.072123751 -0.30432031 0.058491863
-0.072286218 -0.30442342 0.058454469
-0.072462223 -0.3045285 0.058456257
-0.07263156 -0.30463177 0.058444213
-0.072787695 -0.30473071 0.058409151
-0.072974011 -0.30483693 0.058443204
-0.073112816 -0.30492011 0.058442801
-0.073275268 -0.30503404 0.058336187
-0.073447928 -0.30513713 0.058337983
-0.073613331 -0.30524004 0.058313265
-0.073801287 -0.30535245 0.058313865
-0.073962055 -0.30544659 0.058327235
-0.074116051 -0.30553886 0.058326785
-0.074285656 -0.30563977 0.058330901
-0.074428193 -0.30573258 0.058283176
-0.074605644 -0.30584249 0.058259584
-0.074769698 -0.30594766 0.058215261
-0.074950792 -0.30605742 0.058206651
-0.075110428 -0.30614457 0.0582604
-0.075281881 -0.30624983 0.058243744
-0.075433612 -0.30635589 0.058146387
-0.075601913 -0.30644122 0.058245108
-0.075757042 -0.30653036 0.058268871
-0.075903185 -0.30664772 0.058078095
-0.076083235 -0.30676714 0.058003731
-0.076257996 -0.30685613 0.058103576
-0.076422907 -0.30697355 0.05798427
-0.076604567 -0.30708092 0.057992961
-0.076781899 -0.30718124 0.058030508
-0.076942705 -0.30727467 0.058048494
-0.077092931 -0.30736524 0.05804459
-0.077280082 -0.30748495 0.05799558
-0.077433512 -0.30758411 0.057948984
-0.077580042 -0.30766648 0.057983164
-0.077750616 -0.30777156 0.057964198
-0.077926859 -0.30787408 0.057983294
-0.078079239 -0.3079744 0.057925165
-0.078247905 -0.30808213 0.057881977
-0.078414813 -0.30817273 0.05794147
-0.078584425 -0.30827889 0.05791213
-0.078760006 -0.30838245 0.057921998
-0.078900069 -0.30847469 0.05786851
-0.079061195 -0.30856779 0.057889961
-0.07920716 -0.30866373 0.057835311
-0.079383478 -0.30878416 0.057740185
-0.079568237 -0.30888709 0.057789251
-0.079716548 -0.30897361 0.057803817
-0.079898477 -0.30908623 0.057780199
-0.080054 -0.30918646 0.05773475
-0.080232449 -0.3092919 0.05774346
-0.080379389 -0.30938014 0.057741869
-0.080543384 -0.30948091 0.057725232
-0.080702424 -0.30958739 0.057653237
-0.080882296 -0.30969119 0.057678089
-0.081051879 -0.30979082 0.057690274
-0.081215881 -0.3098914 0.057674795
-0.081376895 -0.30999005 0.057660479
-0.081538431 -0.31009316 0.05761962
-0.081703618 -0.31019735 0.057585683
-0.081865557 -0.31029981 0.057550594
-0.082027301 -0.31038767 0.057607792
-0.082186803 -0.31049246 0.057548497
-0.082364343 -0.31059882 0.057547968
-0.082529739 -0.31069306 0.057578631
-0.082681037 -0.31079111 0.057530887
-0.082855932 -0.31089064 0.057563823
-0.083018303 -0.31099695 0.057505663
-0.083180286 -0.31109887 0.057474036
-0.083338581 -0.31119499 0.057465494
-0.083498493 -0.3112897 0.057471946
-0.083678216 -0.31139866 0.057463333
-0.083833575 -0.31150147 0.057400584
-0.084019251 -0.31160983 0.057418495
-0.084164947 -0.31170309 0.057379991
-0.084321417 -0.31179631 0.057382993
-0.084501758 -0.31191301 0.057327084
-0.084652632 -0.31200215 0.057334714
-0.084805071 -0.31209835 0.057303123
-0.084973261 -0.31219119 0.057353385
-0.085133046 -0.31229016 0.057332151
-0.085323542 -0.3124153 0.057261214
-0.085477591 -0.31251809 0.057193842
-0.085637592 -0.3126089 0.057225682
-0.085816436 -0.31271821 0.057211302
-0.085979208 -0.31281123 0.057239663
-0.086131856 -0.3129108 0.057187304
-0.086286955 -0.31300119 0.057202999
-0.08645042 -0.31309769 0.057211738
-0.086616799 -0.31321833 0.05707743
-0.086788334 -0.31330991 0.057148449
-0.086946487 -0.3134059 0.057139911
-0.087125167 -0.31351531 0.05712438
-0.087281555 -0.31360522 0.057148151
-0.087460831 -0.31371787 0.057114162
-0.087618776 -0.31381756 0.057081394
-0.087778054 -0.31391299 0.057080928
-0.087947682 -0.31401333 0.057088502
-0.088097185 -0.31411052 0.057039604
-0.088256672 -0.31420588 0.057040285
-0.088424668 -0.31431049 0.057014421
-0.088597618 -0.31441936 0.05698045
-0.088741615 -0.31451231 0.056937344
-0.088898428 -0.31460899 0.056919567
-0.089062065 -0.31471226 0.05688563
-0.08922378 -0.31481314 0.056859773
-0.089368038 -0.3149122 0.056778587
-0.089534022 -0.31500784 0.056802332
-0.089703575 -0.31510204 0.056849133
-0.089868963 -0.31520131 0.05684749
-0.090047821 -0.31529492 0.056933489
-0.090215825 -0.31539014 0.056967605
-0.090381868 -0.31549865 0.056909427
-0.090545483 -0.31559885 0.0568951
-0.090708494 -0.31570539 0.056838091
-0.090866491 -0.31580165 0.05682724
-0.091037035 -0.31591719 0.056741372
-0.091196358 -0.31602186 0.056682065
-0.091342993 -0.31611332 0.056658559
-0.091512077 -0.31620851 0.056697279
-0.091683276 -0.31631181 0.056692161
-0.091867551 -0.31641641 0.056728542
-0.092022941 -0.31650791 0.056738466
-0.092194989 -0.31661963 0.056682579
-0.092360958 -0.31673047 0.056609403
-0.09250623 -0.31682238 0.056577832
-0.092675447 -0.31691799 0.056614246
-0.092846006 -0.31702721 0.056568753
-0.093000546 -0.31711909 0.05657291
-0.093174517 -0.31721628 0.056617387
-0.093332827 -0.31732357 0.056537326
-0.093488112 -0.31742078 0.056510337
-0.093639709 -0.31751087 0.056514502
-0.093816131 -0.31762108 0.056485139
-0.0939674 -0.31772202 0.056418933
-0.094124787 -0.31781596 0.056420773
-0.094312474 -0.31792587 0.056436375
-0.094476566 -0.31802347 0.056440506
-0.094629832 -0.31812376 0.056385834
-0.094814412 -0.31822425 0.05644989
-0.094969347 -0.31832159 0.056420591
-0.095132343 -0.31841961 0.056417804
-0.09529981 -0.31852174 0.056405779
-0.095454082 -0.31862682 0.056324564
-0.095622838 -0.31873119 0.056303296
-0.095789567 -0.31882349 0.056351267
-0.095959887 -0.31893256 0.056305762
-0.096103281 -0.3190248 0.056264967
-0.096273556 -0.31912646 0.05626677
-0.096453622 -0.31923363 0.056270856
-0.096616715 -0.31933188 0.056266911
-0.09676221 -0.31943098 0.056190342
-0.096939318 -0.31952915 0.056240581
-0.09710376 -0.31962964 0.056227401
-0.097274221 -0.3197363 0.056198061
-0.09744247 -0.31983384 0.056218334
-0.097584188 -0.31992868 0.056154467
-0.097780935 -0.32003123 0.056251943
-0.097949982 -0.32012889 0.056274518
-0.098083511 -0.32023886 0.056082621
-0.098238692 -0.32032931 0.056098312
-0.098407522 -0.32043624 0.056060895
-0.098567635 -0.32053524 0.056040809
-0.098742209 -0.3206346 0.056073759
-0.098895088 -0.32073233 0.056034073
-0.099064134 -0.32083252 0.056040503
-0.099221811 -0.32093638 0.055980049
-0.099395894 -0.32104051 0.05598069
-0.099564284 -0.32113868 0.055997498
-0.09973339 -0.32124126 0.055988923
-0.099886864 -0.32134116 0.055937711
-0.10006818 -0.32144907 0.055941783
-0.10022187 -0.32154894 0.05589173
-0.10039424 -0.32165131 0.055896986
-0.10054193 -0.32174954 0.055834252
-0.10069904 -0.32184476 0.055826873
-0.10088003 -0.3219465 0.055869021
-0.10103855 -0.3220523 0.055799335
-0.10118727 -0.32214829 0.055755056
-0.10138142 -0.32224926 0.055852547
-0.10153383 -0.32235339 0.055770185
-0.10166864 -0.32244825 0.055679798
-0.10186407 -0.3225536 0.055754215
-0.10202813 -0.32265279 0.055747963
-0.10222254 -0.32276258 0.055790074
-0.10237563 -0.32286659 0.055711173
-0.10252841 -0.32296446 0.055670343
-0.10269334 -0.32306778 0.055641014
-0.10284751 -0.32316557 0.055605948
-0.10304146 -0.32326767 0.055695362
-0.10321734 -0.32337269 0.055697151
-0.1033828 -0.32347617 0.05566898
-0.10352886 -0.3235763 0.055587791
-0.10368854 -0.32367992 0.055536561
-0.10383505 -0.323778 0.05547037
-0.10402165 -0.32387897 0.055539042
-0.10418133 -0.32397482 0.055537414
-0.10432097 -0.32407689 0.055419326
-0.104499 -0.32417634 0.055464953
-0.10467856 -0.32428357 0.05546673
-0.10487715 -0.3243964 0.055505369
-0.10504434 -0.32450578 0.055446036
-0.10519662 -0.32459432 0.055462889
-0.10538486 -0.32470366 0.055484261
-0.10555516 -0.32480931 0.055460684
-0.1057029 -0.32490739 0.055399098
-0.10587525 -0.32500559 0.055430893
-0.10603499 -0.32511124 0.055366974
-0.10618782 -0.3252075 0.055336531
-0.1063728 -0.32531345 0.055367131
-0.10654454 -0.32542664 0.055300865
-0.10671376 -0.32552692 0.055307291
-0.10687894 -0.32562357 0.055321798
-0.10705383 -0.32573321 0.055290133
-0.10722587 -0.32583556 0.055294249
-0.10739169 -0.32593599 0.055286836
-0.10753847 -0.32603768 0.055198725
-0.10770316 -0.32613271 0.055221312
-0.10788923 -0.32624114 0.05524037
-0.10805997 -0.32634902 0.055204105
-0.10822056 -0.32645121 0.055165563
-0.10837166 -0.32654768 0.055127043
-0.10854375 -0.32664341 0.055173837
-0.10870723 -0.32675454 0.055089138
-0.10887223 -0.32685176 0.055099037
-0.10906205 -0.3269608 0.05512847
-0.10923292 -0.32706714 0.055102587
-0.10939947 -0.32716638 0.05510556
-0.10955071 -0.32726818 0.055033583
-0.10970575 -0.32737193 0.054963909
-0.10989383 -0.32747775 0.055007197
-0.110074 -0.32758316 0.05502281
-0.1102469 -0.32768476 0.055034995
-0.11041459 -0.32778776 0.055018347
-0.11058578 -0.32789612 0.054980922
-0.11074031 -0.32799482 0.054941244
-0.11090073 -0.32809401 0.054921158
-0.11105675 -0.32818624 0.054928772
-0.1112348 -0.32829687 0.054902866
-0.11140449 -0.32839528 0.05492314
-0.11157572 -0.3285071 0.054863796
-0.11173964 -0.32860512 0.054864466
-0.11193213 -0.32871556 0.054895043
-0.11208995 -0.32881808 0.054843821
-0.11225203 -0.32892096 0.054806419
-0.11241131 -0.32902035 0.054780576
-0.11258821 -0.32912475 0.05479043
-0.11276169 -0.32922721 0.054799154
-0.11293478 -0.32933617 0.054765183
-0.11310022 -0.32943475 0.05476816
-0.11326189 -0.32953936 0.054718073
-0.11342208 -0.32964385 0.054663382
-0.11360009 -0.32974073 0.054725155
-0.11379246 -0.32985669 0.054719977
-0.11392623 -0.32995671 0.05459268
-0.11410563 -0.33006185 0.054607145
-0.11428408 -0.33016697 0.054618154
-0.1144594 -0.33027491 0.054599173
-0.11462615 -0.33037409 0.054603297
-0.11472811 -0.33046082 0.054439183
-0.11495301 -0.33057335 0.054580417
-0.1151352 -0.33068234 0.054581035
-0.1153007 -0.33078924 0.054530937
-0.11549036 -0.33090541 0.054514229
-0.11564563 -0.33100495 0.054472238
-0.11579762 -0.33110556 0.054410651
-0.11597317 -0.3312048 0.054448195
-0.11613677 -0.3313055 0.05443041
-0.11633342 -0.33141685 0.054471362
-0.11651853 -0.3315357 0.054420061
-0.11668047 -0.33163631 0.05439651
-0.11684673 -0.33173612 0.054394864
-0.11703183 -0.33184612 0.054400086
-0.11721006 -0.33195072 0.054413404
-0.11739015 -0.3320646 0.054374807
-0.11757064 -0.33217704 0.054346584
-0.11771958 -0.33227894 0.054265384
-0.11786805 -0.33236897 0.054258034
-0.11804567 -0.33247375 0.054267883
-0.11820155 -0.33257672 0.054206282
-0.11838712 -0.33267996 0.054256499
-0.11857646 -0.33280569 0.054177485
-0.11874762 -0.33290246 0.054213904
-0.11890207 -0.33299664 0.054203063
-0.11909746 -0.33311331 0.054204796
-0.11924706 -0.33321398 0.054133985
-0.11944954 -0.33332336 0.054209527
-0.11963491 -0.33344147 0.054163981
-0.11980259 -0.33354807 0.054124266
-0.11998019 -0.33365214 0.054138739
-0.12013191 -0.333749 0.054100219
-0.12031704 -0.33386153 0.054089293
-0.12048872 -0.33396477 0.05408648
-0.12067514 -0.33408186 0.054051325
-0.12082671 -0.33417881 0.054011654
-0.12099551 -0.33427885 0.054018069
-0.12118259 -0.33439204 0.054010596
-0.12135032 -0.33449757 0.053977802
-0.12149407 -0.33459184 0.053925466
-0.12168745 -0.33470353 0.053951431
-0.12181243 -0.3347916 0.053866841
-0.12202736 -0.33490196 0.053983886
-0.1222055 -0.33502203 0.053897984
-0.12241928 -0.33514616 0.053922731
-0.12258256 -0.33524707 0.053902648
-0.12276654 -0.33536288 0.053866334
-0.12293294 -0.33546585 0.053845085
-0.042057198 -0.29089755 0.029256925
-0.0422276 -0.29101372 0.029166427
-0.042392645 -0.29112706 0.029073646
-0.042559914 -0.29123956 0.028994698
-0.042719059 -0.29134339 0.02894
-0.042876028 -0.29144448 0.028894536
-0.043030869 -0.29154286 0.028858308
-0.043190215 -0.29164755 0.028798988
-0.043343902 -0.29174468 0.028766233
-0.04349504 -0.2918385 0.028745014
-0.043645546 -0.29193154 0.028726105
-0.043795832 -0.29202232 0.028721038
-0.043947849 -0.29211774 0.028692896
-0.044098061 -0.29220864 0.028686676
-0.044244975 -0.29229718 0.028682776
-0.044393551 -0.2923882 0.028669644
-0.044537749 -0.29247317 0.028678441
-0.044685576 -0.29256552 0.028653771
-0.044825569 -0.29264468 0.028683349
-0.044966612 -0.29272541 0.028707152
-0.045109421 -0.29280645 0.028735561
-0.045249477 -0.29288584 0.028763987
-0.045389291 -0.29296494 0.028793566
-0.045526832 -0.29303849 0.028849676
-0.045661427 -0.29310775 0.028921954
-0.045799933 -0.29318494 0.028958462
-0.045934163 -0.29325128 0.029048041
-0.046065386 -0.29331544 0.029139943
-0.046198592 -0.29338244 0.029221455
-0.046330445 -0.29344735 0.029311046
-0.046460934 -0.29351252 0.029393716
-0.046591178 -0.29357484 0.029493693
-0.046718854 -0.29363561 0.029593676
-0.046849474 -0.29369581 0.029708659
-0.046977043 -0.29375619 0.029810954
-0.047104113 -0.29381317 0.029932857
-0.047232773 -0.29387489 0.030030528
-0.047359996 -0.29393178 0.030153591
-0.047487229 -0.29398853 0.030277804
-0.047616083 -0.29403484 0.030474693
-0.047721036 -0.29406935 0.030655503
-0.04784248 -0.29412153 0.03078666
-0.047963001 -0.2941668 0.030958198
-0.048079833 -0.29420865 0.031137813
-0.048201308 -0.29425216 0.031324346
-0.044974126 -0.28767186 0.061013058
-0.04515931 -0.28778768 0.060981352
-0.045356963 -0.28792092 0.06088616
-0.045526028 -0.2880103 0.060961794
-0.045715015 -0.28812948 0.060923159
-0.045902267 -0.28824961 0.06087184
-0.046088509 -0.28836462 0.060849361
-0.046264902 -0.28846669 0.060871907
-0.046455048 -0.28858876 0.060819417
-0.046636827 -0.28870037 0.060801573
-0.046816699 -0.28880507 0.060820647
-0.047001675 -0.28892258 0.060777411
-0.047187243 -0.28903756 0.060752623
-0.047368713 -0.28914934 0.060732469
-0.047544666 -0.28925154 0.060752712
-0.047726773 -0.28936478 0.060725622
-0.047902845 -0.28946739 0.060743559
-0.048043881 -0.28954664 0.060776591
-0.04828456 -0.28971866 0.060598202
-0.048456863 -0.28981486 0.060642689
-0.048638962 -0.28992504 0.060635217
-0.048817791 -0.29003346 0.060626607
-0.04900473 -0.2901572 0.060551062
-0.049182244 -0.29026356 0.060550526
-0.049356811 -0.29036018 0.060600773
-0.049541347 -0.29048014 0.060540222
-0.049716208 -0.29059052 0.060503937
-0.049905926 -0.29070798 0.060479145
-0.050078288 -0.2908051 0.060517848
-0.050258178 -0.29091704 0.06049078
-0.050438456 -0.29103443 0.060430247
-0.050620504 -0.29114208 0.060438927
-0.050799713 -0.29124871 0.060443006
-0.050975565 -0.29135334 0.060447093
-0.051156614 -0.29146868 0.060402721
-0.05133383 -0.29158118 0.06036181
-0.051520631 -0.29169944 0.060320869
-0.051691353 -0.29179412 0.060368814
-0.051865339 -0.29189566 0.060385596
-0.052054964 -0.29203042 0.060250051
-0.052232035 -0.29213396 0.060265675
-0.052405328 -0.29223454 0.060285915
-0.0525834 -0.29234558 0.060257699
-0.052739076 -0.2924439 0.060224928
-0.052925982 -0.29254884 0.060269356
-0.053105444 -0.2926636 0.06022267
-0.053263158 -0.2927458 0.060300652
-0.053451791 -0.29287633 0.060188185
-0.05362983 -0.29297778 0.060221102
-0.053826861 -0.29311207 0.060116678
-0.053970426 -0.29318941 0.060171634
-0.05417214 -0.29331857 0.060117953
-0.054354854 -0.29343167 0.060094334
-0.054526068 -0.293529 0.060127281
-0.054708689 -0.29364818 0.060064439
-0.054877132 -0.29375091 0.060052399
-0.055060886 -0.29386154 0.060048386
-0.055217098 -0.29394016 0.060143676
-0.055391975 -0.29404709 0.060129307
-0.055581905 -0.2941739 0.060045674
-0.055762857 -0.29429078 0.059990905
-0.055936545 -0.29439557 0.059985764
-0.056114662 -0.29450572 0.059963323
-0.056285035 -0.29460871 0.059957042
-0.056466714 -0.29472226 0.059926499
-0.056639068 -0.29482424 0.059934057
-0.056812428 -0.29492921 0.059926622
-0.05698831 -0.29504144 0.059882253
-0.057166241 -0.29515275 0.059851728
-0.057320796 -0.29524806 0.059833959
-0.057506166 -0.29536688 0.059783794
-0.057680611 -0.29546887 0.059799425
-0.057860963 -0.29557332 0.059821956
-0.058039442 -0.29568785 0.059772976
-0.058202479 -0.2957868 0.059764408
-0.058381911 -0.29589701 0.059746563
-0.058551479 -0.29600078 0.059732214
-0.058734551 -0.29611498 0.059702825
-0.05891325 -0.29623231 0.059636533
-0.059081957 -0.29632545 0.059686784
-0.059253007 -0.2964265 0.059695505
-0.059428442 -0.29653376 0.059681136
-0.059605978 -0.2966488 0.059625223
-0.059781954 -0.29676834 0.05953471
-0.059927598 -0.2968455 0.059598878
-0.060107786 -0.29695201 0.059607573
-0.060286321 -0.29706258 0.059583962
-0.060468666 -0.29717797 0.059544191
-0.060630959 -0.29727829 0.059524097
-0.060783952 -0.29736307 0.059567474
-0.06098333 -0.29749426 0.059491891
-0.061161265 -0.2976045 0.059468284
-0.061330792 -0.29770225 0.059492011
-0.061503872 -0.29781589 0.059428032
-0.061671041 -0.29791588 0.059428684
-0.061841425 -0.29800531 0.059508938
-0.062025938 -0.29814911 0.059296105
-0.062175974 -0.29823411 0.059326805
-0.062366471 -0.29834121 0.059371226
-0.062537611 -0.29844898 0.059337258
-0.06270083 -0.29854479 0.059349462
-0.062852994 -0.29864174 0.05931209
-0.063039169 -0.29875672 0.059289612
-0.063196301 -0.29885086 0.059289142
-0.063367374 -0.29896131 0.059237868
-0.063548394 -0.29906344 0.059277706
-0.063699767 -0.29915828 0.05925072
-0.063903138 -0.29927635 0.059274334
-0.064076535 -0.29938582 0.059238054
-0.064247005 -0.29949608 0.059185632
-0.064395711 -0.29957253 0.059265938
-0.06458813 -0.2996974 0.059204213
-0.064760908 -0.29980525 0.059176013
-0.064930841 -0.29991484 0.059125893
-0.065099806 -0.30001625 0.059124231
-0.065268487 -0.30011496 0.059138726
-0.065441296 -0.30022752 0.059080534
-0.06559442 -0.30031911 0.059081223
-0.065781608 -0.30042765 0.059103735
-0.065950394 -0.3005302 0.059094004
-0.066119477 -0.30063874 0.059047345
-0.066288501 -0.30074885 0.058990307
-0.066453546 -0.30084196 0.059026733
-0.066622071 -0.30094546 0.059010081
-0.06679979 -0.30105159 0.059011854
-0.066958852 -0.30115011 0.058990613
-0.067117825 -0.30124864 0.058969371
-0.067286097 -0.3013545 0.058936562
-0.067463577 -0.3014648 0.058910649
-0.067634739 -0.30157152 0.058883604
-0.067805819 -0.30167493 0.058877327
-0.067955136 -0.30176276 0.058887258
-0.068107396 -0.30185831 0.058859117
-0.068303227 -0.30197582 0.058857374
-0.068464622 -0.30207759 0.058824591
-0.068628788 -0.30218604 0.058759496
-0.068824761 -0.30229589 0.058807362
-0.068991825 -0.30240536 0.058746874
-0.069153525 -0.30249703 0.058779847
-0.0693084 -0.30259323 0.058757454
-0.06947507 -0.30270302 0.058693506
-0.069648378 -0.30280995 0.058673374
-0.069822297 -0.30291018 0.058698233
-0.069982469 -0.30301535 0.058638923
-0.07016255 -0.30311909 0.058664914
-0.0703132 -0.30321854 0.058605634
-0.070506945 -0.30332002 0.058698487
-0.07067021 -0.30342415 0.058657624
-0.070843093 -0.30353081 0.058637492
-0.070994169 -0.30362493 0.058613975
-0.071150407 -0.30372828 0.058551207
-0.071341783 -0.30384475 0.0585391
-0.071487583 -0.30392885 0.058559421
-0.071651891 -0.3040244 0.058577389
-0.07180427 -0.30412745 0.058501944
-0.071972549 -0.30423659 0.058448374
-0.072161458 -0.30434668 0.058467425
-0.072327852 -0.30444783 0.058457695
-0.072497204 -0.30455109 0.058445647
-0.072681896 -0.30466375 0.058432404
-0.072830096 -0.30475199 0.058435429
-0.073017783 -0.30486643 0.058422171
-0.073167019 -0.3049508 0.058454022
-0.073310405 -0.3050555 0.05833362
-0.073490553 -0.30515781 0.058368839
-0.073657863 -0.30526638 0.05831527
-0.073842719 -0.30537695 0.058315869
-0.074012063 -0.30547857 0.058314212
-0.074166089 -0.30557069 0.058314905
-0.074334972 -0.30567351 0.058304012
-0.074480318 -0.30575842 0.058317427
-0.074656114 -0.30587277 0.058259211
-0.074822538 -0.30598152 0.05820103
-0.074996233 -0.30609065 0.05816821
-0.075165823 -0.3061814 0.058236916
-0.075334825 -0.30628321 0.058232956
-0.075484522 -0.30638483 0.058156364
-0.075655922 -0.30648082 0.058198541
-0.075818755 -0.30657008 0.05825112
-0.075965777 -0.30667678 0.058131851
-0.076119468 -0.30680192 0.057920266
-0.076319806 -0.3068952 0.058090415
-0.076477304 -0.30700329 0.058002263
-0.076640576 -0.30710745 0.057961393
-0.076836787 -0.30721778 0.058006957
-0.077000268 -0.30731374 0.05801915
-0.077151649 -0.30740207 0.058033694
-0.077338293 -0.30752257 0.05797777
-0.07749214 -0.30762088 0.057938084
-0.07763505 -0.30770236 0.057964183
-0.077812664 -0.3078095 0.057959035
-0.077991478 -0.30791464 0.057971194
-0.078141727 -0.30801153 0.057926908
-0.078303061 -0.30811742 0.057867583
-0.078478575 -0.30821443 0.057918973
-0.078648828 -0.30831951 0.057898853
-0.078827634 -0.30842465 0.057911009
-0.078972138 -0.30851665 0.057875961
-0.079124697 -0.30860952 0.057866275
-0.07927724 -0.30870235 0.05785659
-0.079449721 -0.30882195 0.057752237
-0.079632424 -0.30892763 0.057775922
-0.07978446 -0.3090151 0.057798538
-0.079965778 -0.30912843 0.057768002
-0.080122724 -0.30922678 0.057739846
-0.080288701 -0.30933076 0.057710506
-0.080450274 -0.30942339 0.057736561
-0.080612004 -0.30952138 0.057729151
-0.080769867 -0.30962914 0.057644457
-0.080948889 -0.30973387 0.057660077
-0.081121095 -0.30983579 0.057667632
-0.081285477 -0.3099359 0.057656765
-0.081441969 -0.31002912 0.057659756
-0.081593968 -0.31012705 0.057615459
-0.081769086 -0.31023595 0.05758955
-0.08193431 -0.31034487 0.057525605
-0.082095496 -0.31042844 0.057608187
-0.082260624 -0.31053731 0.057544239
-0.082432143 -0.31063989 0.05754488
-0.082606018 -0.31074029 0.057568591
-0.082764715 -0.31084079 0.057533503
-0.082929663 -0.31094015 0.05752955
-0.083097078 -0.31104642 0.057490975
-0.083253771 -0.3111439 0.057467431
-0.083415106 -0.31124184 0.057458881
-0.083576009 -0.31133571 0.05747455
-0.083751395 -0.31144387 0.057454411
-0.083905943 -0.31154731 0.057384726
-0.084094539 -0.31165758 0.057401467
-0.084239095 -0.31174743 0.057380266
-0.084399812 -0.31184158 0.057393625
-0.084567882 -0.31195509 0.057311215
-0.084728062 -0.3120496 0.057319965
-0.0848829 -0.31214401 0.057309125
-0.085054331 -0.3122386 0.057360519
-0.085213833 -0.31233776 0.057336964
-0.085394956 -0.31246147 0.057239518
-0.085548714 -0.31256044 0.057195224
-0.085710794 -0.31265375 0.057218958
-0.085892409 -0.31276509 0.057202272
-0.086040758 -0.31285217 0.057213355
-0.086204141 -0.31295621 0.057173643
-0.08636713 -0.31304917 0.057203155
-0.086534344 -0.31315079 0.057193428
-0.086687721 -0.31326076 0.057077602
-0.086866513 -0.31335902 0.057133596
-0.087030932 -0.31345862 0.057126176
-0.087203614 -0.31356424 0.057111815
-0.087369449 -0.31366307 0.05711478
-0.087539092 -0.31376687 0.057100426
-0.087703444 -0.31387004 0.057069942
-0.087862402 -0.31396565 0.057067156
-0.088028476 -0.31406441 0.057071272
-0.088176332 -0.31415895 0.057032764
-0.088338844 -0.31425959 0.057011511
-0.088505879 -0.31436127 0.057000626
-0.088669099 -0.31446487 0.056963224
-0.088821031 -0.31456059 0.056932773
-0.088981234 -0.31465891 0.056917295
-0.089140937 -0.31476074 0.056877583
-0.089299902 -0.31486285 0.056833275
-0.089451812 -0.31496161 0.056783207
-0.08961083 -0.315054 0.056801192
-0.089786708 -0.31515181 0.056849122
-0.089960396 -0.31524757 0.056901671
-0.090134397 -0.31534332 0.056955367
-0.090308808 -0.31544527 0.056970999
-0.090467617 -0.31555361 0.0568863
-0.090626694 -0.31564948 0.056882367
-0.090786055 -0.31575435 0.056821901
-0.090954892 -0.3158555 0.056821398
-0.091107644 -0.31596273 0.05672057
-0.091270626 -0.31607193 0.056646246
-0.091421917 -0.31616169 0.056651562
-0.091594055 -0.31625578 0.056708734
-0.091766067 -0.31636173 0.056689754
-0.091943063 -0.31646597 0.056700766
-0.092101321 -0.31655934 0.056709513
-0.092276201 -0.31667298 0.05665246
-0.092436932 -0.31677976 0.05658507
-0.092589982 -0.316872 0.056581151
-0.092753291 -0.31696388 0.056618731
-0.092924312 -0.31707573 0.056558229
-0.093083553 -0.31716898 0.056571603
-0.093262896 -0.3172701 0.056611437
-0.093411975 -0.3173773 0.056496784
-0.093565576 -0.31746951 0.056495164
-0.093720466 -0.31755871 0.05651778
-0.093889043 -0.31766838 0.056461893
-0.094040468 -0.31776923 0.056396838
-0.094204083 -0.31786418 0.05641596
-0.094396256 -0.31797823 0.056422308
-0.094561964 -0.31807283 0.056451801
-0.094710127 -0.31816918 0.056402903
-0.094891824 -0.31827298 0.056434672
-0.095050246 -0.31837204 0.05640766
-0.095212132 -0.31846777 0.056415249
-0.095382482 -0.31857434 0.056385897
-0.095530771 -0.31867313 0.056321997
-0.095695332 -0.31877589 0.05629497
-0.095872238 -0.31887355 0.056347512
-0.09603525 -0.31897917 0.056296259
-0.096183077 -0.31907299 0.056262359
-0.096346512 -0.3191711 0.056260724
-0.096530713 -0.31928235 0.056254398
-0.096693099 -0.31938073 0.056246996
-0.096835695 -0.31947792 0.056171577
-0.097012363 -0.31957617 0.056219507
-0.097180769 -0.31967598 0.056225926
-0.097346492 -0.31978106 0.056188505
-0.097513571 -0.31987882 0.056203004
-0.097653121 -0.31997162 0.056143753
-0.097854942 -0.32007575 0.056250434
-0.098017499 -0.32017443 0.05624187
-0.098150961 -0.32028201 0.05606496
-0.098312415 -0.32037386 0.056095626
-0.098473743 -0.32047957 0.05603746
-0.098636635 -0.32057589 0.056045055
-0.098804928 -0.32067382 0.056063
-0.098962277 -0.32077098 0.056044072
-0.099128708 -0.32087377 0.056023959
-0.099288866 -0.32097733 0.055975027
-0.099450186 -0.32107848 0.055945709
-0.099622875 -0.32117617 0.055982105
-0.099791512 -0.32128102 0.055957373
-0.099946447 -0.32137853 0.055926915
-0.1001182 -0.32148308 0.055916015
-0.10027575 -0.32158253 0.055883251
-0.10044059 -0.32168344 0.055868909
-0.10058852 -0.32177949 0.055821162
-0.10075243 -0.32187623 0.055829901
-0.10093206 -0.32198024 0.055852436
-0.10107721 -0.32208076 0.055765484
-0.10123731 -0.32217795 0.055756927
-0.10142607 -0.32227516 0.055857886
-0.10156672 -0.32237801 0.055738635
-0.10172331 -0.32247761 0.055701241
-0.10189487 -0.32257625 0.05572727
-0.10207052 -0.32267681 0.055756733
-0.10225926 -0.32278898 0.055761933
-0.10240864 -0.32289112 0.055680737
-0.10256381 -0.32298681 0.055662964
-0.10272422 -0.32308832 0.055627882
-0.10289243 -0.32318747 0.055637758
-0.1030743 -0.32328814 0.055690274
-0.10324679 -0.32339329 0.055678222
-0.10341763 -0.32349855 0.055659257
-0.10355741 -0.32359493 0.055578075
-0.10371076 -0.32369873 0.055501476
-0.10386274 -0.32379466 0.055469874
-0.10404361 -0.32389382 0.055528171
-0.1042024 -0.32398969 0.055523079
-0.10434268 -0.3240898 0.055419978
-0.10452562 -0.32419109 0.055472501
-0.10470147 -0.32429644 0.055471979
-0.1048964 -0.32441124 0.05548409
-0.105055 -0.32451496 0.055428233
-0.10521072 -0.32460535 0.055446226
-0.10539968 -0.32471657 0.055458356
-0.1055668 -0.32482034 0.055434778
-0.10570971 -0.32491463 0.055378977
-0.10587981 -0.32501093 0.055414226
-0.10603829 -0.32511654 0.055345684
-0.10619724 -0.32521287 0.05533829
-0.10638075 -0.32532063 0.055351585
-0.10653859 -0.32542622 0.055280738
-0.10670964 -0.32552654 0.05529407
-0.10687516 -0.325625 0.055298187
-0.10705376 -0.3257347 0.05528035
-0.10721694 -0.3258332 0.055275243
-0.10738367 -0.32593542 0.055259746
-0.10752726 -0.32603338 0.055183176
-0.10770146 -0.32613236 0.055217266
-0.10787795 -0.32623681 0.05522481
-0.10804356 -0.32634273 0.05518163
-0.10820475 -0.32644489 0.055145383
-0.10835646 -0.32654139 0.055109166
-0.10852796 -0.3266353 0.055165179
-0.10868594 -0.32674441 0.055072416
-0.10886165 -0.32684389 0.055108812
-0.10904671 -0.32695442 0.055110563
-0.10921418 -0.32705709 0.055095065
-0.10937735 -0.32715613 0.055086501
-0.10952187 -0.32725409 0.055013385
-0.1096715 -0.32735404 0.054947175
-0.10986724 -0.32746372 0.054995041
-0.11004689 -0.3275674 0.055019885
-0.11022194 -0.32767081 0.055028595
-0.11038995 -0.32777384 0.055013094
-0.11054911 -0.32787624 0.054967627
-0.11070955 -0.32797706 0.05493715
-0.11086649 -0.32807598 0.054905526
-0.11103296 -0.32817066 0.054937337
-0.11120494 -0.32827747 0.054912589
-0.11137436 -0.32837915 0.054910924
-0.11153986 -0.32848716 0.054853905
-0.11170088 -0.32858327 0.054855727
-0.11189756 -0.32869408 0.054900128
-0.11205788 -0.32880169 0.05482582
-0.11221707 -0.32890105 0.054799959
-0.11237416 -0.32900023 0.054767184
-0.1125489 -0.32910112 0.054790892
-0.11273019 -0.32920921 0.054793812
-0.11288598 -0.32931158 0.054735664
-0.11305894 -0.32941249 0.054752447
-0.11321446 -0.32951325 0.054703526
-0.11337243 -0.32961747 0.054641914
-0.11356102 -0.32971546 0.054737095
-0.11374588 -0.3298322 0.054698471
-0.11388603 -0.32993132 0.054601151
-0.11405919 -0.33003417 0.054606397
-0.11423934 -0.33014101 0.054612778
-0.11441273 -0.33024871 0.054588038
-0.11458267 -0.3303498 0.05459214
-0.11467896 -0.33043584 0.054410726
-0.11491129 -0.33054614 0.054594614
-0.11509863 -0.33066037 0.054581366
-0.11524539 -0.33075878 0.054514017
-0.11543918 -0.33087543 0.054509975
-0.11560324 -0.33097914 0.054474868
-0.11576043 -0.33107892 0.054438632
-0.11592163 -0.33117622 0.054433543
-0.11608517 -0.33127692 0.054415748
-0.11627951 -0.33138487 0.054469384
-0.11646863 -0.33150578 0.054420359
-0.11663183 -0.33160806 0.054391038
-0.1168079 -0.33170921 0.054418191
-0.11697516 -0.33181664 0.054371551
-0.11715401 -0.33191985 0.054396395
-0.1173262 -0.33202806 0.054363579
-0.11751044 -0.33214548 0.054318026
-0.11767012 -0.33224747 0.054277174
-0.11782518 -0.33234292 0.054260563
-0.11798441 -0.3324405 0.054246239
-0.11815041 -0.33254644 0.054204211
-0.11834082 -0.33265039 0.054268237
-0.11849449 -0.33276615 0.054116655
-0.1186922 -0.33287141 0.05420028
-0.11885074 -0.33296767 0.054191731
-0.1190341 -0.33307663 0.054196946
-0.11921092 -0.33319032 0.054146804
-0.1193872 -0.33329105 0.05417743
-0.11959253 -0.33341247 0.054187201
-0.11975518 -0.33351821 0.054133642
-0.11992221 -0.33362046 0.054119296
-0.12007978 -0.3337183 0.054096907
-0.12025365 -0.33382463 0.054082543
-0.12043913 -0.33394009 0.054054298
-0.12063512 -0.33405465 0.054072171
-0.12077247 -0.33415046 0.053985231
-0.12094516 -0.33424979 0.054011256
-0.12114068 -0.33436584 0.054017585
-0.12131005 -0.3344675 0.054015931
-0.12145312 -0.33456442 0.053943969
-0.12164819 -0.33467641 0.053974539
-0.12179018 -0.33477178 0.053908352
-0.1219666 -0.33487082 0.053950511
-0.12216696 -0.33499229 0.053940684
-0.12236759 -0.33511665 0.053913552
-0.12254301 -0.33522123 0.05391648
-0.12272031 -0.33533576 0.053862877
-0.12289158 -0.33544233 0.053836994
-0.042095471 -0.2909213 0.029251581
-0.042260736 -0.29103476 0.029158831
-0.042427428 -0.29114836 0.029070683
-0.042592559 -0.29126012 0.0289883
-0.042749345 -0.29136288 0.028931327
-0.042905744 -0.29146329 0.028888186
-0.043061186 -0.29156256 0.028848516
-0.043217126 -0.29166266 0.028805375
-0.043374002 -0.29176423 0.028756471
-0.043523878 -0.29185638 0.028741036
-0.04367476 -0.29195002 0.028719828
-0.043822005 -0.2920388 0.028715935
-0.043974847 -0.29213542 0.028683182
-0.044122029 -0.29222432 0.028678132
-0.044268854 -0.29231283 0.028674245
-0.044415548 -0.29240343 0.028656505
-0.044560533 -0.29248959 0.028660692
-0.044708055 -0.29258156 0.028637193
-0.044847291 -0.29265976 0.028670222
-0.044985171 -0.29273605 0.028710183
-0.045128047 -0.29281947 0.028723601
-0.045267597 -0.29289821 0.028754331
-0.045405824 -0.29297507 0.028791983
-0.045544796 -0.29305074 0.028840009
-0.045677055 -0.29311898 0.028909963
-0.045815475 -0.29319611 0.028946463
-0.045949418 -0.29326212 0.029037181
-0.046081424 -0.29332983 0.029109456
-0.046212047 -0.29339546 0.029189803
-0.046342775 -0.29345879 0.02928514
-0.046471551 -0.29352149 0.029377032
-0.04660064 -0.29358456 0.029467762
-0.04672784 -0.2936447 0.029570028
-0.046856076 -0.29370382 0.029682677
-0.046984151 -0.29376504 0.029781483
-0.047110736 -0.29382139 0.029905666
-0.047238529 -0.29388186 0.03000794
-0.047366053 -0.29393932 0.030128662
-0.047493957 -0.29399717 0.030248232
-0.047623061 -0.29404905 0.030410476
-0.047727786 -0.29407823 0.030624684
-0.047847945 -0.29413107 0.030746587
-0.047966227 -0.29417557 0.030914621
-0.048085831 -0.29421923 0.031093039
-0.048201777 -0.29425946 0.031279538
-0.044961378 -0.28766459 0.061010785
-0.045152407 -0.2877866 0.060961783
-0.045339011 -0.2879051 0.060918555
-0.045515429 -0.28800321 0.060966477
-0.045701355 -0.28812093 0.060925558
-0.045889057 -0.28824186 0.060870789
-0.046071094 -0.28835347 0.060854107
-0.046252552 -0.28846055 0.060863949
-0.04643802 -0.28857836 0.060820725
-0.046620388 -0.28869104 0.06079828
-0.046795286 -0.28879097 0.060828894
-0.046984479 -0.28891209 0.060778737
-0.047157414 -0.28901643 0.060773619
-0.047350492 -0.28913715 0.060740747
-0.047530219 -0.28924608 0.060732141
-0.04770983 -0.28935498 0.060723543
-0.047885239 -0.28945646 0.060746089
-0.048037477 -0.28954405 0.060768701
-0.048233479 -0.28969923 0.060527079
-0.048439242 -0.2898041 0.060644105
-0.048621628 -0.28991896 0.060607806
-0.048799932 -0.29002234 0.060629196
-0.048981834 -0.2901409 0.060567532
-0.049167298 -0.29025382 0.060555443
-0.049339212 -0.29034978 0.060599916
-0.049526572 -0.2904709 0.060542852
-0.049698781 -0.29057622 0.060528502
-0.049891859 -0.29070023 0.060474873
-0.050065089 -0.29079914 0.060505502
-0.050245009 -0.29090676 0.06050612
-0.050410341 -0.29101717 0.060432978
-0.050610237 -0.29113767 0.060427766
-0.050785594 -0.29124129 0.060436472
-0.050965287 -0.29134911 0.060434788
-0.051146392 -0.29146469 0.060389277
-0.051324297 -0.29157397 0.060371451
-0.05150073 -0.29168999 0.060305186
-0.051683579 -0.29179555 0.060330018
-0.051859021 -0.29189542 0.060362943
-0.052047551 -0.292023 0.060268965
-0.052226737 -0.29213613 0.060231529
-0.052400153 -0.2922321 0.060281754
-0.052577931 -0.29234257 0.060255863
-0.052738219 -0.29244077 0.060241543
-0.05291491 -0.29254413 0.060257167
-0.053103268 -0.2926577 0.060251996
-0.053275444 -0.2927511 0.060313769
-0.053437483 -0.29286462 0.060208328
-0.05364015 -0.29298425 0.060219269
-0.053829841 -0.2931183 0.060088381
-0.053977896 -0.29320067 0.060128305
-0.054169543 -0.29331768 0.060113899
-0.054355606 -0.29343313 0.060087968
-0.054529972 -0.29353234 0.060120907
-0.054707814 -0.29364595 0.060075395
-0.05487651 -0.29374936 0.060059905
-0.055056222 -0.29385614 0.060065143
-0.055232827 -0.29395527 0.060107291
-0.055376582 -0.29402712 0.060197979
-0.055587664 -0.29417652 0.060050882
-0.05577036 -0.29429808 0.059973061
-0.05594565 -0.29440075 0.059987538
-0.056120157 -0.29450801 0.059969719
-0.056296088 -0.29461938 0.059931144
-0.056467347 -0.29471838 0.059953697
-0.056644794 -0.29482758 0.059934724
-0.056821376 -0.29493463 0.059926122
-0.056997664 -0.29504821 0.059874855
-0.057176646 -0.29516268 0.059828192
-0.057335466 -0.29525584 0.059840411
-0.057511106 -0.29536864 0.059791446
-0.057696432 -0.2954804 0.059786282
-0.057874106 -0.29558468 0.059799597
-0.058050212 -0.29569218 0.059786394
-0.058205079 -0.29578984 0.059754796
-0.058397103 -0.29590744 0.059738077
-0.058569565 -0.29601237 0.059727184
