# .PCD v0.7 - Point Cloud Data file format
VERSION 0.7
FIELDS x y z
SIZE 4 4 4
TYPE F F F
COUNT 1 1 1
WIDTH 705
HEIGHT 1
VIEWPOINT 0 0 0 1 0 0 0
POINTS 705
DATA ascii
-0.21225977 -0.29453653 0.062271498
-0.21250328 -0.29454556 0.062220894
-0.2127261 -0.29454783 0.062218819
-0.21295628 -0.29455158 0.062206328
-0.21318251 -0.29455546 0.062192705
-0.21341069 -0.29455855 0.06218484
-0.21365091 -0.29456851 0.062127329
-0.21387972 -0.29457209 0.062116005
-0.21409813 -0.29457137 0.06213586
-0.21432126 -0.29457271 0.062140703
-0.21455918 -0.29458216 0.062086672
-0.21481162 -0.29459628 0.06199912
-0.21503584 -0.29460013 0.061985508
-0.21524993 -0.29459795 0.062015757
-0.21548294 -0.29460579 0.061973281
-0.21570802 -0.29460856 0.061967727
-0.21593618 -0.29461277 0.061951786
-0.21616121 -0.29461569 0.061945096
-0.21639349 -0.29462367 0.061901465
-0.21661876 -0.29462692 0.061892454
-0.2168266 -0.29462421 0.061926186
-0.21705544 -0.29462919 0.061904475
-0.21729955 -0.29464123 0.061831966
-0.21752957 -0.29464701 0.061804488
-0.21774584 -0.29464844 0.061808206
-0.21789663 -0.29463798 0.061895229
-0.21823277 -0.29467294 0.061659724
-0.21843547 -0.29466656 0.061720006
-0.21866193 -0.29467309 0.061686773
-0.21887952 -0.29467377 0.061696254
-0.21910477 -0.29467809 0.06167917
-0.21933115 -0.29468307 0.061657481
-0.21955599 -0.29468927 0.061626561
-0.21976079 -0.29468417 0.061677601
-0.21998423 -0.29468802 0.061663993
-0.22022204 -0.29469886 0.061599582
-0.22043705 -0.29470077 0.061599843
-0.22065622 -0.29470286 0.061598934
-0.22089478 -0.29471451 0.061528746
-0.22110116 -0.29471052 0.06157171
-0.22132906 -0.2947191 0.06152349
-0.22155547 -0.29472515 0.061493717
-0.22175702 -0.29471895 0.061552852
-0.22198561 -0.29472628 0.061513841
-0.22219922 -0.29472816 0.061514117
-0.22245063 -0.29474729 0.06138967
-0.22266236 -0.29474649 0.061409555
-0.22289738 -0.29475763 0.061342843
-0.2231092 -0.29475904 0.061346583
-0.2233319 -0.2947641 0.06132374
-0.22353813 -0.29476076 0.061362095
-0.22377297 -0.29477236 0.061291933
-0.22397321 -0.29476801 0.061337225
-0.2242018 -0.29477659 0.061288998
-0.2244238 -0.29478183 0.06126501
-0.22465242 -0.29479074 0.061214477
-0.22484279 -0.29477924 0.061311714
-0.22507578 -0.29479069 0.061242707
-0.22529159 -0.2947951 0.061224513
-0.22551346 -0.29480082 0.061197065
-0.22573335 -0.29480556 0.061176546
-0.22595333 -0.29481047 0.061154883
-0.22616433 -0.29481262 0.061152853
-0.22638279 -0.29481688 0.061135802
-0.22660276 -0.2948221 0.061111823
-0.22681046 -0.29482266 0.061121337
-0.227025 -0.29482502 0.061118141
-0.22725223 -0.2948347 0.061061844
-0.22747086 -0.29483959 0.061040182
-0.22767602 -0.29483902 0.061057784
-0.2278932 -0.29484329 0.061040729
-0.2281132 -0.29484931 0.061010994
-0.22834164 -0.29486039 0.060944304
-0.22855091 -0.29486033 0.060958434
-0.22877668 -0.29487017 0.060900982
-0.22894187 -0.29485983 0.060987957
-0.22918171 -0.29486462 0.060968507
-0.22941317 -0.29487824 0.060883358
-0.2296385 -0.29488835 0.060823608
-0.22984178 -0.29488748 0.06084352
-0.23003398 -0.2948868 0.060861178
-0.23026301 -0.29489726 0.060799107
-0.23047826 -0.29489931 0.060798217
-0.2306954 -0.29490262 0.060788091
-0.23090978 -0.29490671 0.06077221
-0.23110108 -0.29490101 0.060826767
-0.23130268 -0.29491153 0.060762502
-0.23148437 -0.29491186 0.060772128
-0.23172885 -0.29492357 0.060701918
-0.23197757 -0.29492843 0.060682438
-0.23219554 -0.29493549 0.060644627
-0.2324008 -0.29493684 0.060648397
-0.23260313 -0.29494375 0.060610648
-0.23277846 -0.29493275 0.060703341
-0.23297733 -0.29494762 0.0606068
-0.23324552 -0.2949563 0.0605607
-0.23346388 -0.29495931 0.06055288
-0.23365928 -0.29495177 0.060621262
-0.23384798 -0.2949681 0.060513221
-0.23409311 -0.2949692 0.060521439
-0.23431121 -0.29497766 0.060473248
-0.23451117 -0.2949788 0.060478188
-0.23472108 -0.29497641 0.060509607
-0.23491231 -0.29496866 0.060579166
-0.2350938 -0.29498088 0.060501143
-0.23535164 -0.29499444 0.060418189
-0.2355707 -0.29499903 0.060398832
-0.23577912 -0.29500416 0.060374897
-0.23598033 -0.29500401 0.060389057
-0.23620132 -0.29501316 0.060336251
-0.23637633 -0.2950131 0.060348213
-0.23659021 -0.29502282 0.060290813
-0.2368342 -0.29503015 0.060252897
-0.23703758 -0.29502925 0.060272809
-0.2372278 -0.29502684 0.060303159
-0.2374447 -0.29503077 0.060288429
-0.23765993 -0.29503939 0.060239092
-0.23786524 -0.29504323 0.060224406
-0.23807375 -0.2950438 0.060233921
-0.23828115 -0.29504952 0.060205385
-0.23848435 -0.29504895 0.060222987
-0.23869734 -0.29505643 0.060181744
-0.23890762 -0.29506189 0.060155496
-0.23911363 -0.29506698 0.060131576
-0.23931666 -0.29506969 0.060124971
-0.23953283 -0.29507738 0.060082555
-0.23974174 -0.29508218 0.06006093
-0.2399389 -0.29508013 0.060088944
-0.2401492 -0.29508635 0.060056936
-0.24034566 -0.29508057 0.060112633
-0.24056697 -0.29509676 0.060007922
-0.24076845 -0.29509881 0.060005929
-0.24097338 -0.29510078 0.060005084
-0.24117702 -0.29510161 0.060012318
-0.24137855 -0.29511073 0.059958428
-0.2415573 -0.29511258 0.059956536
-0.24180004 -0.29511926 0.059923232
-0.24201444 -0.29513413 0.059827778
-0.24219492 -0.295131 0.059862778
-0.24239856 -0.29513949 0.059813499
-0.24258916 -0.29513913 0.059828855
-0.24282183 -0.29514399 0.059808291
-0.24301103 -0.29514235 0.059832878
-0.24324092 -0.29515204 0.059776559
-0.24344206 -0.29515144 0.05979418
-0.24362449 -0.29515052 0.05981303
-0.2437969 -0.29515061 0.059823848
-0.24403128 -0.295158 0.059784822
-0.24418539 -0.29514286 0.059906423
-0.24443482 -0.29516637 0.0597497
-0.24464548 -0.29517636 0.059690017
-0.24485061 -0.29518455 0.05964303
-0.24507175 -0.29518649 0.059643265
-0.24523909 -0.29518965 0.059631042
-0.24544902 -0.2951915 0.059631325
-0.24564508 -0.29519838 0.059593603
-0.24586438 -0.29520279 0.059575401
-0.24609092 -0.29520306 0.059588298
-0.24624431 -0.29519469 0.059660316
-0.24646077 -0.29521754 0.059506044
-0.24666616 -0.29521903 0.059508644
-0.24687125 -0.2952202 0.059513561
-0.24710415 -0.29522428 0.059498761
-0.24729833 -0.29522112 0.059534851
-0.24746251 -0.29522142 0.059543405
-0.24766247 -0.29523945 0.059423782
-0.24788132 -0.2952401 0.059433267
-0.24808177 -0.29524532 0.059408206
-0.24828516 -0.29524976 0.059388913
-0.24848442 -0.29525366 0.059373099
-0.2486816 -0.29525492 0.059376895
-0.24889214 -0.2952646 0.059319511
-0.24910145 -0.29525766 0.059384383
-0.24928054 -0.29525921 0.059384786
-0.24947621 -0.29526374 0.059364378
-0.24968734 -0.29526979 0.059333511
-0.24990124 -0.29528013 0.0592715
-0.25009415 -0.29527569 0.059316836
-0.25030553 -0.29528272 0.059279054
-0.25048983 -0.29528728 0.05925753
-0.25069842 -0.29529035 0.059248589
-0.25089404 -0.29529598 0.059220105
-0.25108245 -0.29530182 0.059189335
-0.25129768 -0.29531029 0.059141167
-0.25149792 -0.2953122 0.059140325
-0.2516984 -0.29530847 0.05918102
-0.25189242 -0.29531845 0.059120245
-0.25208625 -0.29531577 0.059152879
-0.25226432 -0.29532996 0.059059881
-0.25245637 -0.29533726 0.059018724
-0.25266612 -0.29532424 0.059128568
-0.25286835 -0.29533726 0.059045844
-0.25307751 -0.29533646 0.059065737
-0.25327384 -0.29534581 0.059009574
-0.25347573 -0.29534507 0.059028342
-0.25366834 -0.29535472 0.058969874
-0.25389054 -0.29535887 0.058953959
-0.25407526 -0.29536784 0.058900144
-0.25425988 -0.29536146 0.058959357
-0.25444856 -0.29536372 0.058955111
-0.25465199 -0.29537487 0.058886223
-0.2548421 -0.29538074 0.058855452
-0.25504881 -0.29538366 0.058847673
-0.25523952 -0.29539141 0.058803052
-0.25545964 -0.29539225 0.05881137
-0.25564304 -0.29540041 0.058763325
-0.25583404 -0.29539144 0.058842111
-0.25602826 -0.29540002 0.058791712
-0.2562122 -0.29539096 0.058870532
-0.25639662 -0.29540274 0.058795951
-0.25661284 -0.29541337 0.058731627
-0.2567988 -0.29540983 0.058770075
-0.25699452 -0.29540294 0.058833845
-0.25724176 -0.2953876 0.058963135
-0.25743213 -0.29536217 0.059163015
-0.25762099 -0.29534206 0.059323691
-0.25780973 -0.29532024 0.059497051
-0.25799927 -0.29529965 0.05966118
-0.2581895 -0.29528019 0.05981724
-0.25838229 -0.29525509 0.060014799
-0.25857276 -0.29523328 0.060188159
-0.25876486 -0.29521632 0.060325749
-0.25896111 -0.2952002 0.060457569
-0.25915244 -0.29517683 0.060642451
-0.2593447 -0.29515564 0.060811177
-0.2084277 -0.29445586 0.062613428
-0.2086627 -0.29445967 0.062600881
-0.20888709 -0.29445946 0.062617198
-0.20912158 -0.29446483 0.062593117
-0.20934804 -0.29446557 0.062602513
-0.20958284 -0.29447126 0.062576123
-0.20984194 -0.294485 0.062491942
-0.2100721 -0.29448751 0.062488638
-0.21030487 -0.29449111 0.062477246
-0.21054575 -0.29449967 0.062430069
-0.21079683 -0.29451084 0.062364385
-0.2110202 -0.29451266 0.062365733
-0.21123996 -0.29451147 0.062388986
-0.21147859 -0.29451796 0.062356811
-0.21171415 -0.29452333 0.062332727
-0.21194136 -0.29452705 0.062320199
-0.21217562 -0.29453212 0.062298425
-0.21239924 -0.29453456 0.062295154
-0.21263221 -0.29453927 0.062275682
-0.21286184 -0.29454273 0.062265456
-0.21309084 -0.29454601 0.062256388
-0.21332163 -0.29455179 0.062228855
-0.21355623 -0.29455763 0.062201314
-0.21378072 -0.2945593 0.062203802
-0.21402048 -0.29456753 0.062158927
-0.21421938 -0.29456019 0.062226113
-0.214468 -0.29457241 0.062152371
-0.21470471 -0.29458141 0.062101744
-0.21493846 -0.29458755 0.062071897
-0.21515313 -0.29458553 0.062100954
-0.21540366 -0.29459918 0.062016822
-0.21562085 -0.29460016 0.062023953
-0.21584955 -0.29460454 0.062006809
-0.21606824 -0.29460457 0.062020857
-0.21630122 -0.29461104 0.061988704
-0.21652949 -0.29461727 0.061957724
-0.21675047 -0.29461858 0.061962537
-0.21697187 -0.29462194 0.061952341
-0.21721478 -0.29463336 0.061884396
-0.21744499 -0.29463914 0.061856862
-0.21766058 -0.29463837 0.061876692
-0.21784 -0.29463196 0.061935883
-0.21813039 -0.29465663 0.061773147
-0.21835095 -0.29465842 0.061774503
-0.21857852 -0.29466355 0.0617516
-0.21879295 -0.2946645 0.061758738
-0.21901126 -0.29466549 0.061765861
-0.21924199 -0.29467425 0.061716415
-0.21947305 -0.29468146 0.061678506
-0.21968003 -0.29467735 0.061722588
-0.21990664 -0.29468262 0.061698541
-0.22011873 -0.29468292 0.061710306
-0.22035813 -0.2946946 0.061640069
-0.22056955 -0.29469287 0.061666828
-0.22080411 -0.29470244 0.0616116
-0.22102199 -0.29470593 0.061600272
-0.22123393 -0.29470468 0.061623573
-0.22147866 -0.29471967 0.061529081
-0.22168064 -0.29471362 0.061587028
-0.2218965 -0.29471645 0.06158033
-0.2221206 -0.29472157 0.061557442
-0.22234587 -0.29472935 0.061514936
-0.22256447 -0.29473191 0.061510533
-0.22280943 -0.29474801 0.061407965
-0.22301885 -0.2947461 0.061435893
-0.22325546 -0.29476026 0.061347201
-0.22345904 -0.29475546 0.061395917
-0.22367267 -0.29475594 0.06140653
-0.22389865 -0.29476294 0.061369792
-0.22411287 -0.29476592 0.061361939
-0.22433087 -0.29476893 0.061354078
-0.22455947 -0.29477769 0.061304633
-0.22477438 -0.29477927 0.061307162
-0.2249876 -0.29478207 0.061300471
-0.22521427 -0.29479018 0.061255664
-0.22542311 -0.29478872 0.061280128
-0.22564235 -0.29479301 0.061263025
-0.22587082 -0.29480457 0.061192833
-0.22608182 -0.29480454 0.061206914
-0.22630562 -0.2948117 0.061169032
-0.22651465 -0.29481071 0.061190039
-0.22672734 -0.29481399 0.061179884
-0.22694431 -0.29481763 0.061167412
-0.22716726 -0.29482475 0.061129533
-0.22738829 -0.29483092 0.061098583
-0.22759998 -0.29483405 0.06108959
-0.22782362 -0.29484197 0.061045945
-0.22803853 -0.29484496 0.061038088
-0.22825465 -0.29484874 0.061024468
-0.22847345 -0.29485646 0.060981993
-0.22868544 -0.29485801 0.060984533
-0.22889581 -0.29486549 0.060943253
-0.22906424 -0.29486161 0.060982883
-0.22932318 -0.29486877 0.060947161
-0.2295523 -0.29487878 0.060888499
-0.22976793 -0.29488304 0.060871415
-0.2299723 -0.29488277 0.060886674
-0.23015659 -0.29488659 0.060870882
-0.23040506 -0.2948927 0.060842119
-0.23061112 -0.29489371 0.060848147
-0.23083299 -0.29490241 0.060798742
-0.23103073 -0.29489836 0.060841713
-0.23119958 -0.29489997 0.060840979
-0.23140728 -0.29490477 0.060819313
-0.23166686 -0.29492366 0.060697079
-0.23189655 -0.29492101 0.060731839
-0.23210935 -0.29492459 0.060719375
-0.23230904 -0.29492211 0.060750805
-0.23253429 -0.29493412 0.060677163
-0.23270896 -0.29493016 0.060717925
-0.23289064 -0.29493845 0.060668696
-0.23315714 -0.29494834 0.060613334
-0.23337111 -0.29494569 0.060646996
-0.23357074 -0.29494354 0.060676128
-0.23375772 -0.29494563 0.060672998
-0.23399924 -0.29496482 0.060547389
-0.23422432 -0.29496759 0.060541794
-0.23443115 -0.29497081 0.060531676
-0.23461555 -0.29497415 0.060519345
-0.23482652 -0.29496175 0.06062454
-0.23499545 -0.29496211 0.060633034
-0.23525167 -0.29499054 0.060440458
-0.23547061 -0.29498401 0.060502939
-0.23568767 -0.29499531 0.060433947
-0.23585716 -0.29498816 0.060497798
-0.23611508 -0.295008 0.060368657
-0.23631914 -0.29500729 0.060387373
-0.23649189 -0.2950111 0.060370483
-0.23673701 -0.29501626 0.060348652
-0.23695123 -0.29502645 0.060287744
-0.23715082 -0.29502836 0.06028688
-0.23735774 -0.29502735 0.060307898
-0.23756206 -0.29502726 0.060322002
-0.23777117 -0.29503691 0.06026458
-0.23797727 -0.29504436 0.060223315
-0.2381793 -0.29503971 0.060270876
-0.23839027 -0.29504532 0.060243435
-0.2385899 -0.29504785 0.060237955
-0.23881055 -0.2950556 0.060195468
-0.23901296 -0.29506066 0.060171526
-0.23923057 -0.29506618 0.060145207
-0.23943473 -0.29506984 0.060131639
-0.2396412 -0.29507244 0.060126126
-0.2398444 -0.29507548 0.06011717
-0.24005684 -0.29508343 0.060072415
-0.24024048 -0.29508251 0.060091227
-0.24045554 -0.29508004 0.060123742
-0.24066383 -0.29508796 0.060079016
-0.24085796 -0.29508996 0.060077012
-0.24105757 -0.29509705 0.06003809
-0.24128513 -0.29510626 0.059985191
-0.24147537 -0.29511184 0.059956685
-0.2416856 -0.29511899 0.059917703
-0.24189724 -0.29511037 0.059995223
-0.24211173 -0.29512179 0.059925087
-0.24230978 -0.29512477 0.059916154
-0.24251345 -0.29513329 0.059866823
-0.24273385 -0.29514399 0.059802435
-0.24291731 -0.29514027 0.059842009
-0.24313249 -0.29514247 0.059839919
-0.24333714 -0.29514897 0.059805579
-0.24352962 -0.29513955 0.059887789
-0.24368735 -0.29514697 0.059843272
-0.24392098 -0.29515344 0.059811115
-0.24407193 -0.29513499 0.059956942
-0.24431477 -0.29516673 0.059739061
-0.24453795 -0.29517043 0.059726547
-0.24473576 -0.29517061 0.059738375
-0.24495114 -0.29516998 0.059757054
-0.24514173 -0.29517838 0.059707783
-0.24533808 -0.29518527 0.05967002
-0.24556811 -0.29519731 0.05959636
-0.24576062 -0.29520023 0.059587449
-0.24596091 -0.2951912 0.059667315
-0.24612786 -0.29519418 0.059656207
-0.246342 -0.29520985 0.059554935
-0.24657217 -0.29521891 0.059503186
-0.246768 -0.29522204 0.059493102
-0.24698734 -0.29521397 0.059567131
-0.24718042 -0.29521376 0.059581276
-0.24735332 -0.29521573 0.059578225
-0.24755006 -0.29523402 0.059456266
-0.24777064 -0.29523677 0.059450693
-0.24798697 -0.29523882 0.059449747
-0.24818853 -0.29524544 0.059414282
-0.24837385 -0.29525003 0.059392709
-0.24856217 -0.29524902 0.059412651
-0.2487832 -0.29526284 0.059325188
-0.24899563 -0.29525515 0.059395775
-0.24917442 -0.29526126 0.059362702
-0.24937712 -0.29526538 0.059345677
-0.2495743 -0.29526696 0.05934713
-0.24978048 -0.2952711 0.059330087
-0.24995817 -0.2952601 0.059422743
-0.2501716 -0.29526433 0.05940567
-0.25038075 -0.29528433 0.059272118
-0.25056419 -0.29528201 0.059301306
-0.25076306 -0.29528672 0.059279688
-0.25096768 -0.29529509 0.059231505
-0.25119165 -0.29529393 0.059254751
-0.2513921 -0.2953018 0.059210055
-0.25156966 -0.29530191 0.059220821
-0.25178534 -0.29531148 0.059164517
-0.25197387 -0.29531205 0.059172921
-0.25218046 -0.29531884 0.059136279
-0.25236413 -0.29533672 0.059016675
-0.25254798 -0.29532266 0.059132375
-0.25277993 -0.2953302 0.059092149
-0.25295705 -0.2953369 0.059054472
-0.25316244 -0.29533571 0.059076652
-0.25335044 -0.2953358 0.059088521
-0.25356555 -0.29533955 0.059074897
-0.25376478 -0.29534787 0.059026748
-0.25397485 -0.2953566 0.058976233
-0.25415546 -0.29536444 0.058930472
-0.25435141 -0.29536676 0.058926154
-0.25456551 -0.29536146 0.058979444
-0.25475475 -0.29536498 0.058965929
-0.2549679 -0.29537389 0.058914252
-0.25516254 -0.29537356 0.058929563
-0.25535572 -0.29537839 0.058906805
-0.2555871 -0.29538888 0.058844663
-0.25575268 -0.29538825 0.058860097
-0.25594157 -0.2953921 0.058844287
-0.25612652 -0.29539511 0.058834247
-0.25631893 -0.29541871 0.058673095
-0.25652763 -0.29540849 0.058762159
-0.25672498 -0.29541677 0.058714006
-0.25691336 -0.29540965 0.058778927
-0.25716603 -0.29538921 0.058946226
-0.25735131 -0.29535922 0.059179563
-0.25754243 -0.29533473 0.0593725
-0.25773108 -0.29531243 0.059549309
-0.25792134 -0.29529423 0.059696116
-0.25810599 -0.29528078 0.059807189
-0.2583003 -0.29526168 0.059960905
-0.25848442 -0.29524386 0.060104281
-0.258697 -0.2952221 0.060278665
-0.2588926 -0.29520348 0.060428906
-0.25908709 -0.29517826 0.060627609
-0.20837907 -0.29444733 0.062673137
-0.20862141 -0.29445544 0.062629387
-0.20885013 -0.29445684 0.062634133
-0.20908812 -0.29446349 0.062600791
-0.20934355 -0.29447547 0.062529311
-0.20956364 -0.29447538 0.06254448
-0.2098065 -0.29448271 0.062506504
-0.21005628 -0.29449448 0.062436197
-0.21027049 -0.29449072 0.062477909
-0.21050063 -0.29449496 0.062461901
-0.21073547 -0.29449955 0.062443558
-0.2109791 -0.29450938 0.062387124
-0.21119505 -0.29450658 0.062421922
-0.21141666 -0.29450777 0.062427849
-0.2116584 -0.29451555 0.062386416
-0.21189137 -0.29452154 0.062357701
-0.21211487 -0.29452211 0.062368251
-0.21232161 -0.29451749 0.062415764
-0.21258013 -0.29453263 0.062321201
-0.21281627 -0.29454038 0.062279791
-0.21306238 -0.29455069 0.062219884
-0.21326685 -0.29454544 0.062272027
-0.21348569 -0.29454458 0.062292971
-0.21373974 -0.29456028 0.062193818
-0.21396947 -0.29456422 0.062180113
-0.21419561 -0.29456839 0.06216412
-0.21443272 -0.29457566 0.062126167
-0.21466058 -0.29458082 0.062103242
-0.21487707 -0.29457945 0.06212765
-0.21510525 -0.2945849 0.062102422
-0.21532843 -0.29458657 0.062104892
-0.21555099 -0.29458979 0.062095825
-0.21579745 -0.29460183 0.062023237
-0.21602315 -0.29460666 0.062002629
-0.21624289 -0.29460719 0.062013183
-0.21647353 -0.29461437 0.061975256
-0.21670936 -0.29462227 0.061932694
-0.21694189 -0.29463059 0.061886691
-0.21714772 -0.29462519 0.061939977
-0.21738437 -0.29463559 0.061878961
-0.2176061 -0.29463756 0.061879121
-0.21782467 -0.29463995 0.06187585
-0.21801537 -0.29465321 0.061790824
-0.21828592 -0.29465249 0.061813835
-0.21850479 -0.29465348 0.061820932
-0.21871947 -0.29465443 0.061828062
-0.21894348 -0.29465798 0.061816677
-0.21917108 -0.29466516 0.061778776
-0.2194024 -0.29467237 0.061740838
-0.21961567 -0.294673 0.061750274
-0.21984884 -0.29468134 0.061704271
-0.22007141 -0.29468659 0.061680216
-0.22029275 -0.29468948 0.061673462
-0.22050372 -0.29468742 0.061702516
-0.22073227 -0.29469401 0.061669201
-0.22094259 -0.29469365 0.061685577
-0.22117358 -0.29470932 0.061585367
-0.22139566 -0.29471111 0.061586685
-0.22162281 -0.29471359 0.061583374
-0.22185032 -0.2947222 0.061535083
-0.22206436 -0.2947222 0.061549127
-0.22229043 -0.29473031 0.061504304
-0.22250728 -0.29473189 0.061506793
-0.2227338 -0.29474047 0.061458506
-0.22293723 -0.29473537 0.061509505
-0.22315216 -0.2947382 0.061502788
-0.22338901 -0.29475048 0.061427929
-0.22360289 -0.29475299 0.061423514
-0.22380868 -0.29474932 0.061464116
-0.22403532 -0.29475868 0.061410062
-0.22426108 -0.29476568 0.061373316
-0.22446677 -0.29476422 0.061397769
-0.22470134 -0.29477614 0.06132523
-0.22490972 -0.29477626 0.061338142
-0.2251378 -0.29478502 0.0612887
-0.22535114 -0.29478797 0.061280832
-0.22556329 -0.2947883 0.061292578
-0.22577459 -0.2947903 0.061291635
-0.2260026 -0.29479954 0.061238736
-0.22621298 -0.29480121 0.061240103
-0.22643736 -0.29480869 0.061199903
-0.22664768 -0.29481053 0.06120012
-0.22686458 -0.29481402 0.06118878
-0.22708328 -0.29482079 0.061153211
-0.22729868 -0.29482362 0.06114649
-0.2275106 -0.29482675 0.061137468
-0.22772349 -0.2948283 0.061139986
-0.22793865 -0.29483348 0.061115965
-0.22816812 -0.29484493 0.061046906
-0.22837037 -0.29484278 0.061075997
-0.22856964 -0.29483888 0.061117783
-0.22880349 -0.29485333 0.061026786
-0.22902006 -0.29485992 0.060992386
-0.22921631 -0.29486588 0.06096153
-0.2294378 -0.29486188 0.061005525
-0.22965695 -0.29487038 0.060957268
-0.22987036 -0.29487321 0.060950555
-0.23007903 -0.29487786 0.060930025
-0.23030722 -0.29489005 0.060855202
-0.23050609 -0.29488647 0.060894683
-0.23072013 -0.29489008 0.060882203
-0.23093319 -0.29489556 0.060855884
-0.23112383 -0.2948941 0.06087926
-0.23134862 -0.29490969 0.060779084
-0.23155144 -0.29491866 0.060726292
-0.23179634 -0.29492086 0.060726352
-0.23199262 -0.294916 0.060775079
-0.23219302 -0.29491383 0.060804166
-0.23239797 -0.2949222 0.060755972
-0.23261347 -0.29493022 0.060711205
-0.23277831 -0.29491958 0.060800411
-0.23300911 -0.29494822 0.060604498
-0.23324977 -0.29494315 0.060657635
-0.23346855 -0.29494885 0.060630143
-0.23365185 -0.29494575 0.060665071
-0.23384783 -0.29495403 0.060616925
-0.23409717 -0.29495782 0.060605433
-0.23429592 -0.29495519 0.060637996
-0.23451796 -0.29496637 0.060570128
-0.23472434 -0.29496929 0.06056229
-0.23487934 -0.29496497 0.060604274
-0.23507802 -0.29497594 0.060536508
-0.23531757 -0.29497606 0.060551584
-0.23555723 -0.29498726 0.060484789
-0.23576304 -0.2949875 0.060496569
-0.23597369 -0.29500249 0.060399912
-0.23617491 -0.29499111 0.060497046
-0.23638511 -0.29500329 0.06042115
-0.23655421 -0.29500145 0.060445774
-0.23679808 -0.2950055 0.060431994
-0.2370109 -0.29501161 0.060401071
-0.2372279 -0.29502401 0.060323998
-0.23743854 -0.29503164 0.060281545
-0.23763674 -0.29502964 0.060309496
-0.23784684 -0.29503414 0.060290113
-0.2380489 -0.29503527 0.060294978
-0.23824255 -0.29503572 0.060304504
-0.2384548 -0.29504228 0.060270116
-0.23867968 -0.29505631 0.060181476
-0.23887645 -0.29505351 0.060215198
-0.23909214 -0.29506338 0.060156584
-0.23929405 -0.29506502 0.060157984
-0.23948693 -0.29505903 0.060214795
-0.23966832 -0.29506215 0.060203612
-0.23990229 -0.29506925 0.060166821
-0.24009177 -0.29506356 0.060221341
-0.24030168 -0.29507571 0.060145449
-0.24052072 -0.29508641 0.060081042
-0.2407269 -0.29508916 0.060074363
-0.24094172 -0.2951031 0.059985764
-0.2411529 -0.29511404 0.059919097
-0.24134727 -0.29510978 0.0599632
-0.24152781 -0.29510635 0.060000461
-0.24171972 -0.29510316 0.06003651
-0.24192902 -0.29510596 0.06002982
-0.24212533 -0.29511049 0.060009338
-0.24232885 -0.29511854 0.059963457
-0.24253881 -0.29512584 0.059923321
-0.2427571 -0.29512355 0.059954643
-0.24296607 -0.29513386 0.059892595
-0.24316506 -0.29513073 0.059928618
-0.24336365 -0.29513091 0.05994042
-0.24354553 -0.29513657 0.059910778
-0.24373206 -0.29515085 0.059817694
-0.24394001 -0.29514205 0.05989635
-0.24410214 -0.2951389 0.059930228
-0.24436103 -0.29516047 0.059788387
-0.24458143 -0.29516491 0.0597701
-0.24475393 -0.2951692 0.059749734
-0.24495524 -0.29516912 0.059763834
-0.24515486 -0.29517522 0.059731808
-0.24536568 -0.29518178 0.059697427
-0.24559832 -0.2951884 0.059664112
-0.24580179 -0.29519111 0.059657443
-0.24597253 -0.29518148 0.059739713
-0.24615747 -0.29519248 0.059670858
-0.24637453 -0.29520282 0.059608765
-0.24660616 -0.29520473 0.059610043
-0.24679592 -0.29520467 0.059623048
-0.24697669 -0.29520702 0.059617631
-0.2471628 -0.29520252 0.059662934
-0.24737972 -0.29522276 0.059528191
-0.24759418 -0.29523122 0.059479956
-0.24780054 -0.29522491 0.059540164
-0.24798003 -0.29523084 0.059508234
-0.24818178 -0.29522792 0.059543092
-0.24841279 -0.29523966 0.059471719
-0.24859257 -0.29525137 0.059397113
-0.24879949 -0.29524586 0.05945155
-0.24899572 -0.29524553 0.059466824
-0.24918824 -0.29525533 0.059407149
-0.24938212 -0.29525703 0.05940745
-0.24958289 -0.2952635 0.059373107
-0.24978834 -0.29527172 0.059326068
-0.2499664 -0.29527184 0.059336811
-0.25016093 -0.29527494 0.059326727
-0.25037178 -0.2952643 0.0594192
-0.25059947 -0.29528508 0.059280951
-0.25078282 -0.29528245 0.059312433
-0.25098121 -0.29529795 0.059211217
-0.25117105 -0.29528835 0.059294567
-0.25138119 -0.295288 0.059310928
-0.25156939 -0.2952995 0.059238598
-0.25176966 -0.29530111 0.059240013
-0.25197262 -0.29530743 0.059206817
-0.25216833 -0.29531398 0.059171356
-0.25237474 -0.29532048 0.059137002
-0.25258753 -0.29532567 0.059112981
-0.25276896 -0.29531989 0.059167542
-0.25295928 -0.29531699 0.059201289
-0.25317419 -0.29532656 0.059144985
-0.25337055 -0.29534268 0.059039168
-0.25357041 -0.29534474 0.059037123
-0.25376883 -0.29534397 0.059055854
-0.25395954 -0.29534218 0.059081525
-0.25419906 -0.29535183 0.059026264
-0.25437745 -0.29535478 0.05901625
-0.25455695 -0.29536024 0.058987774
-0.25475383 -0.29536447 0.058969602
-0.25495371 -0.29536748 0.058960639
-0.25516593 -0.29537418 0.058925107
-0.2553713 -0.29537335 0.058944948
-0.25556257 -0.29537329 0.058957942
-0.25575361 -0.29538184 0.058907501
-0.25594738 -0.29538855 0.058870889
-0.25614962 -0.29539892 0.058807723
-0.25634113 -0.29540011 0.058811482
-0.2565425 -0.29539877 0.058834806
-0.25673619 -0.29539591 0.058868542
-0.25693083 -0.29540652 0.058803104
-0.25716394 -0.29539186 0.058926612
-0.25734714 -0.29536653 0.059125319
-0.25753331 -0.29534939 0.059264034
-0.25772995 -0.29532981 0.059421156
-0.2579208 -0.29531395 0.059550628
-0.25812545 -0.29529446 0.059707709
-0.25832927 -0.29527012 0.059900552
-0.25851944 -0.29524738 0.060080767
-0.25871512 -0.2952303 0.060219441
-0.2589061 -0.29520741 0.060400806
