# .PCD v0.7 - Point Cloud Data file format
VERSION 0.7
FIELDS x y z
SIZE 4 4 4
TYPE F F F
COUNT 1 1 1
WIDTH 1219
HEIGHT 1
VIEWPOINT 0 0 0 1 0 0 0
POINTS 1219
DATA ascii
-0.037270304 -0.37116736 0.037433673
-0.037430055 -0.3712649 0.037442122
-0.037588324 -0.37136522 0.037427496
-0.037751246 -0.37147248 0.037387475
-0.037910085 -0.37157148 0.037383229
-0.038067859 -0.3716715 0.037368611
-0.03822504 -0.37177077 0.037356302
-0.03838611 -0.37187597 0.037322052
-0.03854106 -0.3719722 0.037320144
-0.03870371 -0.37207505 0.037306648
-0.038857616 -0.37217247 0.037293207
-0.039021228 -0.37227961 0.037256632
-0.039177448 -0.37237829 0.037244331
-0.03934066 -0.3724826 0.037223917
-0.039498389 -0.37258643 0.037185069
-0.039655514 -0.37268955 0.037148535
-0.039809838 -0.37278852 0.037127003
-0.039968688 -0.37288937 0.037111226
-0.040120669 -0.37297973 0.037134711
-0.040273376 -0.37307125 0.037153583
-0.040429119 -0.37316763 0.03715397
-0.040588409 -0.37326968 0.037132423
-0.040742833 -0.37336963 0.037105121
-0.040899288 -0.37346476 0.037115894
-0.041054152 -0.37356299 0.037101291
-0.041212253 -0.37366375 0.037083209
-0.04136496 -0.37375879 0.03708015
-0.041518286 -0.37385494 0.037072483
-0.041671302 -0.37395069 0.037065964
-0.041825734 -0.37404606 0.03706751
-0.041976608 -0.37414142 0.037055232
-0.04213237 -0.37423635 0.037064858
-0.042279262 -0.37432536 0.037076827
-0.04243204 -0.37441841 0.037086461
-0.042580187 -0.37450677 0.037107661
-0.042726547 -0.37459216 0.037140403
-0.042868104 -0.37466645 0.037223939
-0.043015797 -0.37474808 0.037285518
-0.043154545 -0.37482047 0.037370216
-0.043297034 -0.37489611 0.037449129
-0.043435946 -0.37496549 0.037553445
-0.043575663 -0.37503609 0.037653137
-0.043709107 -0.37509874 0.037778247
-0.043846734 -0.37516215 0.037914876
-0.043979302 -0.37522283 0.038049221
-0.044110335 -0.3752805 0.038196269
-0.044244543 -0.375337 0.038362909
-0.044371068 -0.375386 0.038546894
-0.0445031 -0.37543786 0.038734324
-0.04463052 -0.37548429 0.038937923
-0.044757791 -0.37553337 0.039124213
-0.044885896 -0.3755767 0.039349727
-0.045009114 -0.37561738 0.039572965
-0.045138996 -0.37566295 0.03979155
-0.045269795 -0.37570614 0.040028591
-0.045403615 -0.37575081 0.040267922
-0.045535531 -0.37580574 0.040435735
-0.045348674 -0.3730104 0.057239447
-0.045495376 -0.37309286 0.057291806
-0.045659773 -0.3731935 0.05729907
-0.045820408 -0.37329105 0.057310972
-0.045994937 -0.37339905 0.057311282
-0.046166576 -0.3735106 0.057278126
-0.046342302 -0.37363112 0.057204574
-0.046510279 -0.37372568 0.057263747
-0.046676017 -0.37381038 0.057376012
-0.046850834 -0.37392464 0.057338234
-0.050721731 -0.37574774 0.060934115
-0.050896104 -0.37586594 0.060869798
-0.05106305 -0.37598491 0.060772069
-0.051221274 -0.37607929 0.060794361
-0.051396985 -0.37618804 0.060794652
-0.051584188 -0.3762936 0.060859509
-0.05176172 -0.37640807 0.060830943
-0.051917318 -0.37650248 0.060842875
-0.052100204 -0.37662616 0.06077737
-0.052288372 -0.37673491 0.060826056
-0.052459083 -0.37683704 0.060848296
-0.052613556 -0.37693667 0.060823306
-0.052789789 -0.37705714 0.060752064
-0.052958276 -0.37716967 0.060700469
-0.053160612 -0.37730062 0.060664862
-0.053333372 -0.37740201 0.060699787
-0.053507693 -0.37751797 0.060649313
-0.053685371 -0.37763715 0.060591914
-0.053847894 -0.37774009 0.06057727
-0.054029115 -0.3778539 0.060567144
-0.054196797 -0.37795693 0.060572095
-0.054355614 -0.37805668 0.060563244
-0.054537468 -0.3781738 0.060534656
-0.054705806 -0.37828019 0.060521133
-0.054864965 -0.3783713 0.060567662
-0.055058386 -0.37849286 0.06055633
-0.055223562 -0.378598 0.060538214
-0.055376299 -0.37869656 0.060513239
-0.055564918 -0.37882212 0.060458086
-0.055722103 -0.3789295 0.060395017
-0.055922449 -0.37904763 0.060432103
-0.056094747 -0.37916291 0.060378186
-0.056264956 -0.37926859 0.060376197
-0.056432851 -0.37937689 0.060348831
-0.056586631 -0.37947002 0.060361926
-0.056743972 -0.37956735 0.060362305
-0.056917846 -0.37966374 0.060433
-0.057102315 -0.37978804 0.060369782
-0.057294775 -0.3799274 0.06024307
-0.057463702 -0.38002843 0.060265325
-0.057627015 -0.38012984 0.060263366
-0.057786111 -0.38024116 0.060182981
-0.057966415 -0.38034299 0.0602444
-0.058134139 -0.38045654 0.060183577
-0.058310796 -0.38057378 0.060134254
-0.058482528 -0.38067636 0.060157642
-0.058656767 -0.38077572 0.060211014
-0.058826558 -0.38088632 0.060176726
-0.058984533 -0.38099658 0.060098644
-0.059141502 -0.38109902 0.060065571
-0.059316572 -0.38120756 0.060064703
-0.059468627 -0.38129076 0.060133193
-0.059657753 -0.3814255 0.060022656
-0.059829649 -0.38153389 0.060010277
-0.059982024 -0.38162079 0.060056835
-0.060167123 -0.38174897 0.059971701
-0.060319949 -0.38184372 0.059970945
-0.06049094 -0.38194069 0.060026642
-0.06064976 -0.38203454 0.060054712
-0.060840681 -0.38217038 0.059944168
-0.06102135 -0.38228256 0.059942123
-0.061183356 -0.38238573 0.059924021
-0.061336167 -0.38249427 0.059836745
-0.061519559 -0.38259801 0.059898153
-0.061690666 -0.38270849 0.059869621
-0.061871003 -0.38282526 0.059837583
-0.062032625 -0.38292453 0.059842557
-0.062181722 -0.38302135 0.05981414
-0.062352654 -0.38312271 0.059842147
-0.062517531 -0.38321608 0.059896715
-0.06270054 -0.38333672 0.059850827
-0.062882893 -0.38346815 0.059734553
-0.063037612 -0.38357106 0.059689939
-0.063185968 -0.38367075 0.059640761
-0.063340776 -0.38376838 0.059629615
-0.063511476 -0.38386941 0.059658781
-0.063691549 -0.38397568 0.059691355
-0.063861571 -0.38408494 0.059666287
-0.064018831 -0.38418943 0.059621673
-0.064188093 -0.38430393 0.059560854
-0.064357921 -0.38441178 0.05954387
-0.06452585 -0.38450742 0.059596121
-0.064685471 -0.38459054 0.059694558
-0.064843848 -0.3847084 0.059570327
-0.06502825 -0.38483045 0.059520964
-0.065203972 -0.38494194 0.05950395
-0.065365218 -0.38503748 0.059530847
-0.065537237 -0.38515002 0.05949308
-0.065720491 -0.3852568 0.059534878
-0.065873154 -0.38536137 0.059471823
-0.066051714 -0.38547426 0.059457101
-0.066211343 -0.38557744 0.059429783
-0.066370487 -0.38568234 0.05938977
-0.066534482 -0.38578087 0.05940859
-0.066725001 -0.38588685 0.0594838
-0.066886805 -0.38599467 0.059435703
-0.067051739 -0.38611773 0.059304513
-0.067217149 -0.38622394 0.059280626
-0.067386478 -0.38632873 0.059280951
-0.06754303 -0.3864274 0.059269797
-0.067714587 -0.38652438 0.059327804
-0.06785804 -0.38664219 0.05914595
-0.068045832 -0.38674572 0.059225794
-0.068217218 -0.3868435 0.059278034
-0.068382844 -0.38694784 0.059266835
-0.068562962 -0.38706407 0.059237108
-0.068735637 -0.38716927 0.059247803
-0.068900257 -0.38727593 0.059218153
-0.069071196 -0.38739568 0.059130777
-0.069219947 -0.38749343 0.059095435
-0.069376461 -0.38760018 0.059033513
-0.069555677 -0.38769805 0.059115712
-0.069719598 -0.38780516 0.059080295
-0.069882929 -0.38790441 0.059092186
-0.070047684 -0.38800928 0.05907407
-0.070225492 -0.38811123 0.059125118
-0.070396423 -0.38821977 0.059108123
-0.070544824 -0.38832539 0.059022017
-0.070722073 -0.38844499 0.058959998
-0.070883274 -0.38854015 0.058989208
-0.071039394 -0.38863748 0.058984987
-0.071211614 -0.38873503 0.059041828
-0.07139574 -0.38885635 0.058995925
-0.071545273 -0.38894317 0.05903212
-0.071709104 -0.38906348 0.058913622
-0.071871988 -0.38916317 0.058920905
-0.072023943 -0.38926011 0.058902852
-0.072208256 -0.38938007 0.05886618
-0.072380275 -0.38948542 0.058873408
-0.072535254 -0.38958406 0.058856502
-0.072694272 -0.38968301 0.058853414
-0.072860368 -0.38979739 0.058781061
-0.073034503 -0.38990587 0.058776751
-0.073189914 -0.3900035 0.058767915
-0.073359236 -0.3901 0.058820147
-0.073523775 -0.39021581 0.058732815
-0.073681518 -0.39031616 0.058715887
-0.073855072 -0.39042521 0.058705807
-0.07402572 -0.39052621 0.058734961
-0.074188665 -0.39063147 0.058707632
-0.07434991 -0.39072719 0.058733378
-0.074511215 -0.39084005 0.05865182
-0.074677594 -0.39096326 0.058525242
-0.074850343 -0.39106169 0.058578618
-0.075005367 -0.39115372 0.058603249
-0.075189829 -0.39126071 0.058648493
-0.075338788 -0.3913652 0.058571614
-0.075514659 -0.3914713 0.058589213
-0.0756699 -0.39157376 0.058549218
-0.075840771 -0.39168006 0.058546074
-0.076018937 -0.391794 0.058523275
-0.076176345 -0.39189395 0.05850751
-0.076339826 -0.39198777 0.058554016
-0.076508924 -0.39209095 0.058563568
-0.076679304 -0.39220262 0.058524661
-0.076834582 -0.39230457 0.058488134
-0.077001065 -0.39241019 0.058472313
-0.0771707 -0.39251754 0.058457635
-0.07734973 -0.39263037 0.058445223
-0.077507846 -0.39272949 0.058437519
-0.077677771 -0.39284107 0.058397464
-0.07782916 -0.39294136 0.058356341
-0.07798513 -0.39303327 0.058385573
-0.078155532 -0.39314863 0.058323588
-0.078320935 -0.39325044 0.058327392
-0.078486696 -0.39335632 0.058306962
-0.078655429 -0.39347693 0.058205754
-0.078808151 -0.39357564 0.058179628
-0.078960605 -0.39367032 0.058177721
-0.079146817 -0.39377326 0.058255263
-0.079320714 -0.39388952 0.058201339
-0.079487689 -0.39399835 0.058167059
-0.079636589 -0.39408752 0.058185946
-0.079824157 -0.39419809 0.058220796
-0.079987139 -0.39430961 0.058154229
-0.080133095 -0.39440873 0.058099281
-0.080286339 -0.39450687 0.058078915
-0.080446102 -0.39460847 0.058061983
-0.080613539 -0.39471668 0.05803347
-0.080805331 -0.39483246 0.058052141
-0.080968902 -0.39492795 0.058088269
-0.081133217 -0.39504176 0.058012463
-0.081292793 -0.39514714 0.057971299
-0.081453539 -0.39524806 0.057962436
-0.081616074 -0.39535525 0.057921257
-0.081764601 -0.39545581 0.057867445
-0.081931181 -0.39555705 0.057879329
-0.082104668 -0.39565814 0.057918858
-0.082275726 -0.39576417 0.057918023
-0.082441993 -0.39586926 0.057904512
-0.082585044 -0.39596549 0.057856508
-0.082764864 -0.39606372 0.057938699
-0.082937971 -0.39617911 0.057887077
-0.083100937 -0.39628583 0.057850517
-0.083270594 -0.39639267 0.057839297
-0.083447881 -0.39649594 0.057879969
-0.083599761 -0.3965978 0.057830762
-0.083749503 -0.39670056 0.057767726
-0.083925493 -0.39681759 0.057717241
-0.084089525 -0.39692038 0.057709523
-0.084270336 -0.39703521 0.057691332
-0.084425174 -0.39712918 0.057703264
-0.084586978 -0.39723611 0.05766093
-0.084740981 -0.39733672 0.057627868
-0.084908128 -0.39743832 0.05763974
-0.085072421 -0.39754108 0.057633169
-0.085219182 -0.39763829 0.057593215
-0.085377648 -0.39774022 0.057569362
-0.085555613 -0.39784703 0.05759041
-0.085724033 -0.39795437 0.057571132
-0.085898086 -0.39805675 0.057604887
-0.086068064 -0.39816067 0.057613283
-0.086236969 -0.39826792 0.0575963
-0.086404555 -0.39837274 0.057589713
-0.086567163 -0.3984763 0.057571609
-0.086742297 -0.39859313 0.057518832
-0.086901911 -0.39869761 0.057483435
-0.087075658 -0.39880621 0.057476819
-0.087250225 -0.39891464 0.057474807
-0.08739619 -0.39901468 0.057414088
-0.087531269 -0.39910945 0.057344206
-0.087721311 -0.39921898 0.05739519
-0.087875709 -0.39932758 0.057313666
-0.0880512 -0.39943027 0.057350885
-0.08821778 -0.39953005 0.057371989
-0.088373668 -0.39962998 0.057350457
-0.088538349 -0.39973575 0.057326578
-0.088708296 -0.39984018 0.057331506
-0.088860609 -0.39994106 0.057290375
-0.089024946 -0.40004954 0.057248037
-0.089188904 -0.40015283 0.057236847
-0.089358784 -0.40025741 0.057240635
-0.08952526 -0.40036538 0.057209816
-0.089693241 -0.40046787 0.057219375
-0.089848548 -0.40056801 0.057194389
-0.090026513 -0.40067869 0.057191208
-0.090210885 -0.40078303 0.057252612
-0.090367839 -0.40089303 0.057172224
-0.090533875 -0.40098861 0.057217568
-0.090679251 -0.40109822 0.057094552
-0.090862654 -0.40119812 0.057180185
-0.091016456 -0.40130356 0.057115972
-0.091180414 -0.40140963 0.057087474
-0.091349244 -0.40151483 0.057083189
-0.091514774 -0.4016158 0.05709276
-0.091669597 -0.40172097 0.057034306
-0.091844454 -0.40182531 0.057058841
-0.091996133 -0.40193331 0.05697041
-0.092174381 -0.40204436 0.05696607
-0.092335373 -0.40214378 0.056967594
-0.092497043 -0.40224788 0.056942567
-0.092669211 -0.40235755 0.056923267
-0.092821889 -0.40245587 0.056899443
-0.092993312 -0.40256104 0.056905523
-0.093168661 -0.40266806 0.056915049
-0.093323767 -0.40277305 0.056858905
-0.093490385 -0.40287891 0.056841932
-0.093658291 -0.40298465 0.056830727
-0.09381634 -0.40309826 0.056731872
-0.093982056 -0.4031975 0.056752991
-0.094152555 -0.40330079 0.056767158
-0.094318286 -0.40340462 0.056759417
-0.094483837 -0.40351516 0.056708995
-0.09465196 -0.40361664 0.056725472
-0.094809763 -0.40372124 0.056682013
-0.094973855 -0.40382317 0.056680053
-0.095154271 -0.40392599 0.056735706
-0.095325775 -0.40403396 0.056724478
-0.095503889 -0.40414363 0.056728218
-0.095658183 -0.40424645 0.056682467
-0.095830776 -0.40435657 0.056662008
-0.095993273 -0.40446097 0.056638137
-0.096149288 -0.40456578 0.056586601
-0.096322104 -0.40467384 0.056579988
-0.096507967 -0.40478334 0.056614846
-0.09664961 -0.40488678 0.056516074
-0.096816353 -0.40499106 0.056509491
-0.096989825 -0.4050951 0.056530561
-0.097159609 -0.40520349 0.056510113
-0.097323418 -0.40530393 0.056516234
-0.097487092 -0.40541053 0.056483127
-0.09765248 -0.40552115 0.056431543
-0.09781532 -0.40562174 0.056433059
-0.097990476 -0.4057281 0.056446042
-0.098186091 -0.40583813 0.05651547
-0.09831892 -0.40594146 0.056383282
-0.098485626 -0.40604812 0.05636169
-0.098677583 -0.40615845 0.056414988
-0.098827451 -0.40625945 0.056363482
-0.099010818 -0.40636611 0.056406431
-0.099170007 -0.40647492 0.056342192
-0.099334627 -0.40658176 0.05631138
-0.099507004 -0.40668476 0.056334764
-0.099681616 -0.40679172 0.056341991
-0.099827573 -0.40690041 0.056227043
-0.09998408 -0.40700147 0.056200899
-0.10016634 -0.40711242 0.056212697
-0.10033179 -0.40721369 0.056219958
-0.10049698 -0.40732068 0.056190304
-0.10064575 -0.40742359 0.056122653
-0.10081899 -0.40753078 0.056122959
-0.10098704 -0.40763789 0.05610368
-0.10116292 -0.40774345 0.056124739
-0.1013277 -0.40785238 0.056081239
-0.1014909 -0.40795946 0.056043517
-0.10166582 -0.40806696 0.056048431
-0.10186116 -0.40817535 0.056127079
-0.10201409 -0.40828028 0.056062877
-0.10217217 -0.40838361 0.056028638
-0.10234396 -0.40849119 0.056020871
-0.10252377 -0.40860283 0.056018844
-0.10268196 -0.40870625 0.055984601
-0.10284832 -0.40881011 0.05597917
-0.10300334 -0.40891871 0.055899952
-0.10317656 -0.4090248 0.055907186
-0.10333331 -0.40913171 0.055845257
-0.10353091 -0.40924299 0.055914674
-0.10369254 -0.40934852 0.05588042
-0.10385236 -0.40945569 0.055828873
-0.10402024 -0.40955994 0.055826895
-0.10420585 -0.40966728 0.055874441
-0.10437718 -0.40977365 0.055872455
-0.10449849 -0.40987793 0.055689551
-0.10470332 -0.4099887 0.055790089
-0.10484201 -0.41009253 0.055677485
-0.10503665 -0.41020271 0.055742297
-0.10519835 -0.41030845 0.055706892
-0.10537609 -0.41041735 0.055714104
-0.10553931 -0.4105233 0.0556833
-0.10570434 -0.41063115 0.055647876
-0.10586764 -0.41073716 0.055617083
-0.10604191 -0.41084591 0.05561161
-0.10621168 -0.41095263 0.055601545
-0.1063936 -0.41106227 0.055620272
-0.10656573 -0.41116935 0.055617124
-0.10674689 -0.41127905 0.055632386
-0.10689202 -0.41138172 0.055552058
-0.10706255 -0.41149202 0.055522375
-0.10725456 -0.41160148 0.055581432
-0.10739927 -0.41170573 0.055489577
-0.10759819 -0.41181615 0.055569366
-0.1077582 -0.41192383 0.055515509
-0.10792124 -0.41203022 0.055481248
-0.10808486 -0.41213992 0.055428524
-0.10824512 -0.41224441 0.055395432
-0.10845037 -0.41235933 0.055471733
-0.10859506 -0.41246355 0.055379868
-0.10876196 -0.41257218 0.055346746
-0.10893133 -0.41267955 0.055330921
-0.10909098 -0.41278568 0.055285133
-0.10928055 -0.41289583 0.055330366
-0.10945099 -0.4130035 0.055316836
-0.1096196 -0.413111 0.055297542
-0.10979331 -0.41321921 0.055293232
-0.1099742 -0.41333008 0.055300418
-0.11013289 -0.41343781 0.055240802
-0.1103096 -0.41354662 0.055244546
-0.11048427 -0.41365674 0.055232156
-0.11066907 -0.41376689 0.055258941
-0.11083594 -0.4138729 0.055241968
-0.11102067 -0.4139832 0.055267602
-0.11116447 -0.41409037 0.055153824
-0.11132731 -0.41419736 0.055114951
-0.11157233 -0.41431725 0.055314515
-0.11170775 -0.41442162 0.055185776
-0.11187057 -0.41453028 0.055136517
-0.11202094 -0.41463545 0.055060782
-0.11220068 -0.41474685 0.055059902
-0.11238134 -0.414857 0.055070549
-0.11255697 -0.41496938 0.055047773
-0.11273918 -0.41508141 0.055052646
-0.11289334 -0.41518435 0.055005737
-0.1130631 -0.41529289 0.054984137
-0.11325474 -0.41540819 0.055005122
-0.11340577 -0.41551358 0.054930542
-0.11359193 -0.41562659 0.05494462
-0.11376294 -0.41573554 0.05492533
-0.11392823 -0.41584352 0.054889906
-0.11411731 -0.4159587 0.054901671
-0.1142992 -0.41606832 0.05492039
-0.11445974 -0.41617557 0.054871142
-0.11462758 -0.41628274 0.054850705
-0.11480543 -0.41639611 0.05483022
-0.11497423 -0.41650498 0.054802857
-0.11514163 -0.4166165 0.054753575
-0.1153124 -0.41672438 0.054740041
-0.11548944 -0.41684201 0.054689564
-0.11566965 -0.41695467 0.054682914
-0.1158272 -0.41705731 0.054650988
-0.1160035 -0.41716364 0.054668587
-0.11621024 -0.41728589 0.054704495
-0.11638583 -0.41739789 0.054684017
-0.11656506 -0.41751063 0.054672755
-0.11675291 -0.41762102 0.054709911
-0.11690882 -0.41772777 0.054645687
-0.11708379 -0.41783845 0.054630987
-0.11725399 -0.41794819 0.054603606
-0.11743098 -0.41805938 0.054593515
-0.11760609 -0.41817161 0.05456958
-0.031380426 -0.36743242 0.037988178
-0.031543966 -0.36753511 0.037979279
-0.031707067 -0.36763731 0.037971541
-0.031871893 -0.36774188 0.03795572
-0.032044638 -0.36785284 0.037930619
-0.032208528 -0.36795646 0.037917111
-0.032374628 -0.36806309 0.037893202
-0.032537084 -0.36816511 0.037884317
-0.032699365 -0.368267 0.037875425
-0.032868806 -0.36837846 0.037834194
-0.033032008 -0.36848184 0.037819538
-0.033194143 -0.36858603 0.037795648
-0.033360194 -0.36869135 0.037779819
-0.033523232 -0.3687928 0.037776694
-0.033689376 -0.36890277 0.037732027
-0.033850376 -0.36900386 0.037723139
-0.034014083 -0.36910444 0.03772809
-0.034173828 -0.36920622 0.037709981
-0.03434325 -0.36931697 0.037673369
-0.034501612 -0.36941716 0.037659887
-0.03466275 -0.36951905 0.03764639
-0.034823712 -0.36962086 0.037632894
-0.034986451 -0.36972305 0.037624002
-0.035149254 -0.36982763 0.037600107
-0.035310414 -0.36993012 0.03758315
-0.035471879 -0.37003317 0.037563886
-0.035633225 -0.37013391 0.037558459
-0.035789777 -0.37023261 0.037547294
-0.035958648 -0.3703419 0.0375176
-0.036116134 -0.37043992 0.0375145
-0.03627973 -0.37054667 0.037480228
-0.036438886 -0.37064496 0.03748174
-0.0365966 -0.37074363 0.037475176
-0.036758725 -0.37084875 0.03744553
-0.03691991 -0.37095031 0.037434332
-0.03707831 -0.37105274 0.037407011
-0.037237391 -0.37115154 0.037405055
-0.037399426 -0.37125713 0.037371948
-0.037561033 -0.3713623 0.037339982
-0.037718721 -0.37146187 0.037327651
-0.03787674 -0.37155965 0.03732802
-0.038032617 -0.37165684 0.037323777
-0.03819523 -0.37176409 0.037282579
-0.03835335 -0.37186486 0.037264485
-0.038512271 -0.37196448 0.03725677
-0.038669232 -0.37206382 0.037243284
-0.03882828 -0.37216386 0.03723326
-0.038986634 -0.37226811 0.037194397
-0.039147999 -0.37236944 0.037185512
-0.039305151 -0.3724696 0.037167426
-0.039462127 -0.37256712 0.037165478
-0.039618567 -0.37266648 0.037149694
-0.039779097 -0.37276968 0.037125822
-0.039935943 -0.37287259 0.03708927
-0.040089902 -0.37296858 0.037085038
-0.040247273 -0.37307 0.037060022
-0.040408269 -0.37317461 0.037029218
-0.040565357 -0.37327862 0.036986895
-0.040723324 -0.3733815 0.036954958
-0.040877104 -0.37347794 0.036947265
-0.041029613 -0.37357247 0.036946502
-0.041181825 -0.3736639 0.036964193
-0.041338284 -0.37375942 0.036972646
-0.041491408 -0.37385526 0.036966108
-0.041647412 -0.37395307 0.036958408
-0.041802395 -0.37405503 0.036920715
-0.041955296 -0.37415093 0.036913015
-0.042108603 -0.37424761 0.036901869
-0.042263873 -0.3743448 0.03689532
-0.042415332 -0.37443867 0.03689456
-0.042571761 -0.37453508 0.036897242
-0.042723678 -0.37463295 0.036873404
-0.042873584 -0.3747246 0.036880728
-0.043024257 -0.37481761 0.036882281
-0.043177709 -0.37490943 0.036902279
-0.043325908 -0.37500149 0.036900382
-0.043476254 -0.3750912 0.036921546
-0.043622084 -0.37517315 0.036973886
-0.043765303 -0.37525678 0.037005469
-0.043911137 -0.3753387 0.03705781
-0.044051263 -0.37541693 0.037111327
-0.044192292 -0.3754935 0.037178688
-0.044335607 -0.37556762 0.037270263
-0.04447053 -0.37563637 0.03736303
-0.044611599 -0.37570617 0.037473075
-0.044744469 -0.37576756 0.03760393
-0.044882182 -0.37583417 0.037720911
-0.045014761 -0.37589115 0.037878301
-0.045149431 -0.37595162 0.038021833
-0.045280162 -0.37600452 0.038197689
-0.045409169 -0.37605727 0.038367786
-0.045539368 -0.37610835 0.038552873
-0.045666099 -0.376156 0.038746048
-0.045797512 -0.37620491 0.038949586
-0.045921993 -0.37624732 0.039167009
-0.046044923 -0.37628618 0.039400589
-0.046174508 -0.3763299 0.039629512
-0.046306662 -0.37637427 0.039864197
-0.046439711 -0.37641978 0.040095415
-0.046572872 -0.37647641 0.04025742
-0.046338335 -0.37367719 0.056900185
-0.046495117 -0.37376264 0.056973226
-0.046650544 -0.37385476 0.056998983
-0.046807006 -0.37394917 0.057014357
-0.046972424 -0.37404838 0.057034295
-0.047142811 -0.37415364 0.057035744
-0.047310453 -0.37426311 0.057000287
-0.047481418 -0.37436485 0.057025969
-0.047646403 -0.37445828 0.057080518
-0.047819972 -0.37456608 0.057078499
-0.047989644 -0.37467033 0.057083409
-0.048166543 -0.37477538 0.057111375
-0.051846288 -0.37647516 0.060738496
-0.052021183 -0.37658983 0.060698397
-0.052165594 -0.37668157 0.060683832
-0.052354105 -0.37679142 0.060726725
-0.05252913 -0.37690747 0.060678549
-0.052692041 -0.37700975 0.060669653
-0.052864335 -0.37712613 0.060608804
-0.053044148 -0.37723356 0.060633279
-0.053204414 -0.37732756 0.060665935
-0.053367727 -0.37743211 0.060644347
-0.053544782 -0.37755769 0.060544245
-0.053719293 -0.37767509 0.060485691
-0.053902216 -0.37778535 0.060504384
-0.054088719 -0.37788936 0.060576126
-0.054265745 -0.37801751 0.060459875
-0.054432355 -0.37811673 0.060484417
-0.054607227 -0.37822753 0.060468547
-0.054776505 -0.37832695 0.060502306
-0.054947697 -0.37843418 0.060494527
-0.055122972 -0.37855884 0.060393281
-0.055294655 -0.37866914 0.060368195
-0.055446777 -0.37876546 0.060354739
-0.055620357 -0.37886074 0.06043116
-0.055774964 -0.37895623 0.060432695
-0.055957243 -0.37907895 0.060370646
-0.056136765 -0.37920257 0.060292445
-0.05629554 -0.37930635 0.060258195
-0.05645632 -0.37939277 0.060340449
-0.056642819 -0.37952605 0.060228765
-0.056818649 -0.37963337 0.060238265
-0.057002738 -0.37975577 0.060185432
-0.057170246 -0.37984821 0.060256116
-0.057335801 -0.37996206 0.060184915
-0.057492517 -0.38005736 0.06019567
-0.05766093 -0.38017318 0.060123295
-0.057811171 -0.3802641 0.060136385
-0.057992768 -0.38037449 0.060149319
-0.058184013 -0.38049266 0.060150668
-0.058359548 -0.38060129 0.060150936
-0.05852443 -0.38071731 0.060063586
-0.058689762 -0.38081503 0.060092751
-0.058855206 -0.38091353 0.060117301
-0.059037782 -0.38103536 0.060062166
-0.059207521 -0.38114795 0.060015172
-0.05937713 -0.38126063 0.059967019
-0.05954168 -0.38135159 0.060035415
-0.059707545 -0.381457 0.060018428
-0.05988016 -0.38157374 0.059956424
-0.060052581 -0.38169056 0.059893258
-0.060205534 -0.38178667 0.059884422
-0.060380027 -0.38189244 0.05989854
-0.060530353 -0.38199779 0.059821643
-0.06073273 -0.38212028 0.059839092
-0.060895111 -0.38223127 0.059773669
-0.061063197 -0.3823351 0.059775136
-0.06121847 -0.38241827 0.059856266
-0.061389841 -0.38253316 0.059801187
-0.061548583 -0.38263819 0.059758857
-0.061707165 -0.38273594 0.059761524
-0.061887491 -0.38284388 0.059784848
-0.062077127 -0.38295904 0.059798889
-0.062238544 -0.38307068 0.059725411
-0.062393762 -0.38316968 0.059707325
-0.062558465 -0.38326681 0.059737645
-0.062716722 -0.38336694 0.05972416
-0.062899694 -0.3834835 0.059703633
-0.063076168 -0.38360006 0.059657756
-0.063233718 -0.38370767 0.059594668
-0.063382551 -0.38379863 0.059601996
-0.063543856 -0.38389605 0.059617348
-0.063720606 -0.38400361 0.05962915
-0.063897088 -0.38411412 0.059621342
-0.064082757 -0.38423067 0.059611171
-0.064252153 -0.38434434 0.059556104
-0.064401895 -0.38445446 0.059446916
-0.064557366 -0.38454312 0.059494589
-0.064726964 -0.38465193 0.059470661
-0.06491144 -0.38477382 0.059422441
-0.065071367 -0.38487813 0.05938933
-0.065232791 -0.3849723 0.059425447
-0.065402336 -0.38507941 0.059411898
-0.065554917 -0.38516572 0.059463046
-0.065713808 -0.38527453 0.059397653
-0.065880775 -0.38537621 0.059408352
-0.06606169 -0.3854948 0.059367064
-0.066244595 -0.38560322 0.059397295
-0.066391319 -0.38570115 0.059352726
-0.066580385 -0.38581339 0.059382923
-0.066733703 -0.38588268 0.059543669
-0.066894852 -0.38599399 0.059471332
-0.067067608 -0.38611487 0.059383936
-0.0672433 -0.3862372 0.059298839
-0.067407191 -0.38634911 0.05923342
-0.067567125 -0.3864488 0.059229158
-0.067732669 -0.386554 0.059212171
-0.067911699 -0.38666278 0.059225123
-0.068088874 -0.38676581 0.059266914
-0.068256266 -0.38688779 0.059151873
-0.068424903 -0.386994 0.059140638
-0.068573587 -0.38709298 0.059097208
-0.068734139 -0.38720042 0.059046797
-0.068902515 -0.38730663 0.059034415
-0.069073625 -0.38739541 0.059141997
-0.069236085 -0.3874974 0.059133112
-0.069401883 -0.38761011 0.059069984
-0.069567636 -0.38771304 0.059068002
-0.0697437 -0.38781908 0.059086733
-0.069909632 -0.38792157 0.0590882
-0.070083931 -0.38803163 0.05907464
-0.070242316 -0.38814196 0.058997706
-0.070423126 -0.38825461 0.058993332
-0.070576854 -0.38835725 0.058946416
-0.070740014 -0.38846484 0.058905222
-0.070899442 -0.38857159 0.058854811
-0.071060508 -0.38866702 0.0588817
-0.071224831 -0.38876411 0.058910862
-0.071395881 -0.38887161 0.058900781
-0.071568511 -0.38898361 0.058868773
-0.071736947 -0.38908818 0.058866769
-0.071892098 -0.38918695 0.058849841
-0.072049595 -0.38928163 0.05886751
-0.072212674 -0.38939506 0.058789391
-0.072388805 -0.38949376 0.058854274
-0.072539121 -0.38959318 0.058814295
-0.07270994 -0.38970718 0.058762677
-0.072880842 -0.38982728 0.058672979
-0.073040351 -0.38993168 0.058637574
-0.073210813 -0.39002633 0.058705945
-0.07338088 -0.39012808 0.058728162
-0.073540382 -0.39023855 0.058654681
-0.073693968 -0.39033854 0.058623925
-0.073873982 -0.39043891 0.058693387
-0.074042201 -0.39053142 0.058766384
-0.074204087 -0.3906441 0.058688276
-0.074355662 -0.39075223 0.058598682
-0.07452856 -0.39085057 0.058653191
-0.074686855 -0.39096692 0.058538184
-0.074858405 -0.391067 0.05857655
-0.075023301 -0.39116406 0.058608029
-0.075191371 -0.39126846 0.058606029
-0.07534112 -0.39138281 0.058470305
-0.075516969 -0.39148888 0.058487885
-0.075691894 -0.39159602 0.058495078
-0.075872399 -0.3917127 0.058464177
-0.076015443 -0.39180228 0.058457695
-0.076177597 -0.39190245 0.058459189
-0.076342821 -0.39200947 0.058429513
-0.076503634 -0.39212075 0.058356028
-0.076669112 -0.3922224 0.058360968
-0.076836489 -0.3923223 0.058384359
-0.077004634 -0.39242157 0.058414664
-0.077173889 -0.39254344 0.058307678
-0.077322416 -0.39263716 0.058296554
-0.077490844 -0.39274085 0.05830032
-0.077653557 -0.39284042 0.058307581
-0.077817418 -0.39294806 0.058268689
-0.077982709 -0.3930544 0.058243632
-0.078161091 -0.3931587 0.058281969
-0.07832808 -0.39325929 0.058299579
-0.078493834 -0.3933523 0.058359902
-0.078657418 -0.39346862 0.058265634
-0.078807786 -0.39358205 0.058137976
-0.078965291 -0.39368558 0.058100268
-0.079142444 -0.39379522 0.058100536
-0.079304591 -0.39389113 0.058128558
-0.079461366 -0.39400321 0.058034334
-0.079652816 -0.39411491 0.058077205
-0.079819709 -0.39422372 0.058042914
-0.079964682 -0.39432353 0.057979893
-0.080114216 -0.39440444 0.058052979
-0.080295846 -0.39451906 0.058039375
-0.080464244 -0.39462289 0.058041994
-0.080614306 -0.39471924 0.058020473
-0.080773629 -0.39481357 0.058047369
-0.080939554 -0.39492655 0.057983078
-0.081117049 -0.39503992 0.057961423
-0.081277274 -0.39514861 0.057901789
-0.081427179 -0.39524853 0.057857201
-0.081599236 -0.39535391 0.057864409
-0.081768729 -0.39544997 0.057920091
-0.081926264 -0.39555275 0.057886995
-0.082091562 -0.39565486 0.057888478
-0.082268342 -0.39577201 0.057840291
-0.082438007 -0.39587533 0.057850972
-0.082601279 -0.39597508 0.057859384
-0.082764983 -0.39608154 0.057827417
-0.08292599 -0.39619607 0.057734311
-0.083079033 -0.39628726 0.057756618
-0.083233401 -0.3963846 0.057745464
-0.083392531 -0.39648637 0.05772505
-0.083553687 -0.39658719 0.057718482
-0.08371596 -0.39668098 0.057760354
-0.083894685 -0.39678386 0.057809066
-0.084058173 -0.39690325 0.05769518
-0.084226683 -0.39700422 0.057716254
-0.084381126 -0.39711118 0.057645109
-0.084543228 -0.39720854 0.057663914
-0.084708147 -0.39732364 0.057582326
-0.084872298 -0.39741713 0.057633422
-0.085052304 -0.3975324 0.057609446
-0.085212342 -0.39763382 0.057594795
-0.085377932 -0.39773315 0.057614733
-0.085547656 -0.39784315 0.057583887
-0.085701935 -0.39794669 0.05753351
-0.085868567 -0.39805773 0.057484221
-0.086026303 -0.39815992 0.057455745
-0.086175211 -0.39825332 0.057448074
-0.08631216 -0.39835957 0.057313561
-0.086494811 -0.39846212 0.057379562
-0.086680546 -0.39857543 0.057390165
-0.086835049 -0.39867285 0.057379011
-0.086984038 -0.39877203 0.057335578
-0.087151907 -0.3988739 0.057348575
-0.087324999 -0.3989799 0.057355788
-0.087487176 -0.39908355 0.057335358
-0.087654598 -0.39918295 0.057362206
-0.08783114 -0.39929092 0.057370551
-0.088006735 -0.39939919 0.057373136
-0.088171482 -0.39950502 0.057349235
-0.088327013 -0.3996051 0.057325378
-0.088490434 -0.39970586 0.057328016
-0.088654198 -0.39980388 0.057349123
-0.088829301 -0.39992052 0.057297483
-0.088968895 -0.4000192 0.057220642
-0.089137986 -0.40012661 0.057203636
-0.089297421 -0.40022838 0.05718438
-0.08945784 -0.40033776 0.057121284
-0.089622714 -0.40043575 0.057146985
-0.089780882 -0.40053269 0.057153121
-0.089951359 -0.40064499 0.057110734
-0.090112418 -0.40074649 0.057099536
-0.09026859 -0.40084901 0.057062998
-0.090440407 -0.40095091 0.057090975
-0.090609506 -0.40106347 0.057041675
-0.090765297 -0.40115857 0.057050124
-0.090937838 -0.40126055 0.057080407
-0.091101296 -0.4013643 0.057064589
-0.091268852 -0.40147221 0.057038374
-0.09142004 -0.40158045 0.056946475
-0.091593318 -0.40168256 0.056979056
-0.09175542 -0.40178654 0.056956328
-0.091913968 -0.40188867 0.056931306
-0.092076316 -0.40199265 0.056909725
-0.09223938 -0.40209886 0.056876611
-0.092402086 -0.40219808 0.056886174
-0.092575289 -0.40230528 0.056886457
-0.09274336 -0.40240854 0.056891385
-0.092898667 -0.40251586 0.056821384
-0.093060404 -0.40261996 0.05679635
-0.093231186 -0.40272528 0.056798954
-0.093392827 -0.40283176 0.056758918
-0.093569472 -0.40293646 0.056788035
-0.093724966 -0.40303913 0.056748025
-0.093874052 -0.40314019 0.056693055
-0.094056979 -0.40324217 0.056763664
-0.094217718 -0.40335101 0.056705177
-0.094381444 -0.40345508 0.056688208
-0.094544172 -0.40355927 0.056666624
-0.094718337 -0.40366468 0.056681901
-0.094900116 -0.40377387 0.056702912
-0.095042899 -0.40387544 0.056620281
-0.095200934 -0.40398222 0.056564119
-0.095354915 -0.40408283 0.056531038
-0.095553525 -0.40418884 0.056637336
-0.095700487 -0.40429431 0.056546621
-0.095871136 -0.40440029 0.056544606
-0.096018076 -0.40450349 0.056467727
-0.096194245 -0.404605 0.056515299
-0.096375734 -0.4047105 0.056558229
-0.096542582 -0.4048169 0.056538932
-0.096705899 -0.40492347 0.056504659
-0.096880853 -0.40502954 0.056518774
-0.097035035 -0.4051365 0.056446478
-0.09721072 -0.40524468 0.056450211
-0.097383052 -0.4053469 0.056478187
-0.097537756 -0.40545386 0.056408197
-0.097704865 -0.4055624 0.056376204
-0.097860061 -0.40566525 0.056333903
-0.098031834 -0.40576971 0.056345724
-0.098208323 -0.40587413 0.056375995
-0.098353446 -0.40597919 0.056280669
-0.098544426 -0.40608948 0.056330472
-0.098695792 -0.40619639 0.056247801
-0.098863468 -0.40629721 0.056266569
-0.099039041 -0.40639612 0.056327984
-0.099199966 -0.40650102 0.056294881
-0.099362597 -0.40661177 0.056231763
-0.09955503 -0.40671873 0.056308098
-0.099699296 -0.40682364 0.056210462
-0.099861816 -0.4069286 0.056183122
-0.10004535 -0.40703577 0.056223728
-0.10020871 -0.40714273 0.056187145
-0.10037201 -0.40724781 0.0561621
-0.10054207 -0.40735304 0.056162402
-0.10071293 -0.40746027 0.056153469
-0.1008433 -0.40756646 0.055993609
-0.10103807 -0.40767434 0.05607339
-0.10121217 -0.40777987 0.056087516
-0.10138263 -0.40788352 0.056099351
-0.10154157 -0.40799052 0.056045491
-0.10168846 -0.40809518 0.055959381
-0.10184959 -0.40819857 0.055936649
-0.10204321 -0.40830699 0.056008365
-0.10220705 -0.40841243 0.05598332
-0.10236824 -0.40852135 0.055925976
-0.10254879 -0.40863127 0.055937763
-0.10271065 -0.40873307 0.055927724
-0.10288264 -0.40884265 0.055908397
-0.10305187 -0.4089503 0.055890251
-0.10320792 -0.40905365 0.055847935
-0.10338846 -0.4091621 0.05586895
-0.10357001 -0.40927243 0.055881884
-0.10371822 -0.40937534 0.055811916
-0.10388794 -0.40948147 0.055805299
-0.10404463 -0.40959018 0.055731833
-0.10422739 -0.40969908 0.055758607
-0.10440452 -0.40980244 0.055798095
-0.10458766 -0.40991157 0.055824868
-0.10474268 -0.4100185 0.055756018
-0.10490002 -0.41012561 0.055695247
-0.10504925 -0.41022861 0.055628736
-0.10523209 -0.4103379 0.0556532
-0.10538417 -0.41044286 0.055585526
-0.10556829 -0.41055238 0.055613443
-0.10572844 -0.41065812 0.055572264
-0.10590443 -0.41076702 0.055572532
-0.10608579 -0.41087484 0.055600464
-0.10626274 -0.41098234 0.055613421
-0.10644057 -0.41109332 0.055607922
-0.10659678 -0.41120046 0.055542529
-0.10675475 -0.41130611 0.05549328
-0.10692635 -0.41141486 0.055477425
-0.10710601 -0.41152292 0.055497296
-0.10728759 -0.41163293 0.055512536
-0.10745196 -0.41173941 0.055482868
-0.10762367 -0.41184679 0.055476241
-0.10781438 -0.41195968 0.055508737
-0.10796605 -0.4120664 0.055428375
-0.1081292 -0.41217285 0.055394098
-0.10832055 -0.41228282 0.055447359
-0.10847348 -0.41238812 0.05538084
-0.10864937 -0.41249791 0.055375341
-0.10882391 -0.41260758 0.055365242
-0.10898124 -0.41271505 0.055302151
-0.10918158 -0.41282821 0.055370364
-0.10932785 -0.41293266 0.055283107
-0.10952291 -0.41304529 0.055334054
-0.10968272 -0.4131532 0.055277869
-0.1098665 -0.4132629 0.055303488
-0.10999835 -0.41336688 0.055163227
-0.11019444 -0.41347998 0.055215314
-0.11036329 -0.41358927 0.055185623
-0.11052625 -0.41369617 0.055147894
-0.11068742 -0.41380435 0.055095173
-0.11088922 -0.41391712 0.055171456
-0.11104518 -0.41402614 0.055093378
-0.11125821 -0.41414237 0.055191524
-0.1114138 -0.41424987 0.055121522
-0.11158399 -0.41435814 0.055103362
-0.11177191 -0.41447076 0.055126652
-0.11194389 -0.41457793 0.055122323
-0.11209688 -0.41468656 0.055035036
-0.1122634 -0.41479439 0.055005357
-0.11244903 -0.41490543 0.055029809
-0.11263411 -0.41501942 0.055033494
-0.11279734 -0.41512981 0.054974996
-0.11296138 -0.41523591 0.054946486
-0.11314148 -0.41534922 0.054935198
-0.11331102 -0.41545928 0.054903202
-0.11349924 -0.41557264 0.054923024
-0.11367895 -0.41568461 0.054918665
-0.11384681 -0.4157916 0.054899357
-0.11400887 -0.41589904 0.054854713
-0.11418721 -0.41601238 0.054836515
-0.11436145 -0.416125 0.054806795
-0.11455324 -0.41623798 0.054842755
-0.11472444 -0.41634873 0.054813053
-0.11490305 -0.41645944 0.054812163
-0.11507115 -0.41656825 0.054782473
-0.11524734 -0.41668004 0.054765437
-0.11540084 -0.4167833 0.054713912
-0.11557666 -0.41689652 0.054686494
-0.11575605 -0.41701049 0.054668292
-0.1159334 -0.41712409 0.054644331
-0.1161084 -0.41723591 0.054622687
-0.11628044 -0.41734716 0.054592982
-0.1164865 -0.41747084 0.054617323
-0.11666718 -0.41758394 0.054609504
-0.11684927 -0.41769463 0.054622434
-0.11700559 -0.41779596 0.054593962
-0.11721227 -0.41791874 0.054626383
-0.11736573 -0.41802233 0.054572545
-0.11755138 -0.41813815 0.054567002
-0.031416222 -0.36746246 0.037938956
-0.031582784 -0.36756918 0.037916206
-0.031751573 -0.36767694 0.037895754
-0.031919073 -0.36778319 0.037879918
-0.032085013 -0.36788955 0.037857167
-0.032248911 -0.36799133 0.037855189
-0.032415837 -0.36809719 0.037839353
-0.032582384 -0.36820891 0.037785456
-0.032750878 -0.36831298 0.037786912
-0.032912929 -0.36841491 0.037776873
-0.033078548 -0.3685196 0.037763353
-0.033242695 -0.36862248 0.037755605
-0.033413991 -0.3687329 0.037728209
-0.033576723 -0.36883837 0.037698559
-0.03374159 -0.36894259 0.037685044
-0.033901904 -0.36904511 0.037664633
-0.034068402 -0.36915183 0.037641875
-0.034231961 -0.36925468 0.037631825
-0.034392908 -0.36935627 0.037619479
-0.034556367 -0.36945927 0.037608281
-0.034721132 -0.36956418 0.03759015
-0.034885705 -0.36967117 0.037558179
-0.035048854 -0.36977634 0.037531987
-0.035211362 -0.36987635 0.037535779
-0.035373911 -0.36998099 0.037510738
-0.035536066 -0.37008297 0.037500698
-0.035702318 -0.37019083 0.037469871
-0.035861213 -0.37029079 0.037459843
-0.036024254 -0.37039444 0.037442878
-0.036187235 -0.37049586 0.037439752
-0.036347736 -0.37059847 0.03741933
-0.036513429 -0.37071094 0.037357368
-0.036673825 -0.37080908 0.037364632
-0.036832966 -0.37090552 0.037377674
-0.03699033 -0.37100658 0.037354968
-0.037153747 -0.37111413 0.037314933
-0.037313364 -0.37121162 0.037323352
-0.037475958 -0.3713159 0.03730062
-0.037633512 -0.37141541 0.037288293
-0.037794434 -0.37151754 0.037272487
-0.037958443 -0.37162438 0.037239369
-0.038117934 -0.37172472 0.037229341
-0.038276121 -0.37182572 0.037210092
-0.038432963 -0.3719224 0.037212763
-0.038594961 -0.37202686 0.037186574
-0.038758446 -0.37213373 0.03715115
-0.038912054 -0.37223098 0.037137691
-0.039072666 -0.37233385 0.037116118
-0.03923231 -0.37243798 0.037083022
-0.039391324 -0.37253618 0.037084524
-0.039549593 -0.37263596 0.037073351
-0.039704107 -0.37273008 0.037082944
-0.039860077 -0.37282917 0.037067175
-0.040017728 -0.37292835 0.037057154
-0.040179774 -0.37303451 0.037020575
-0.040336035 -0.37313452 0.037000187
-0.040494278 -0.37323776 0.036967095
-0.0406477 -0.3733336 0.036961704
-0.040804431 -0.37343481 0.036935542
-0.040962137 -0.37353772 0.036902457
-0.041125268 -0.37364125 0.03688664
-0.041276425 -0.3737368 0.036874354
-0.04143735 -0.37384263 0.03683548
-0.041592617 -0.37394512 0.036795486
-0.041747391 -0.37404418 0.03677509
-0.04190471 -0.3741419 0.036773153
-0.042057488 -0.37423515 0.036781605
-0.042206779 -0.37432271 0.036811993
-0.042363264 -0.37441936 0.036813516
-0.042518608 -0.37451714 0.036803506
-0.042674854 -0.37461951 0.036768116
-0.042826608 -0.37471157 0.036780033
-0.04298275 -0.37481111 0.036761951
-0.043136977 -0.37491059 0.03673695
-0.043288253 -0.37500215 0.03675003
-0.043441292 -0.37509686 0.03675041
-0.043595899 -0.37519434 0.036739256
-0.043749873 -0.3752909 0.036731564
-0.043903239 -0.37538654 0.036727324
-0.044053897 -0.37547752 0.036741566
-0.044200055 -0.37556702 0.03674775
-0.044351533 -0.37565964 0.036755055
-0.044498958 -0.37575158 0.036750857
-0.044646919 -0.37583485 0.036803156
-0.044791356 -0.37591502 0.036861252
-0.044934154 -0.37599212 0.036932044
-0.045075495 -0.37606651 0.037014373
-0.045217827 -0.37614262 0.037089765
-0.045358613 -0.37621573 0.037177864
-0.045499511 -0.37628889 0.037265964
-0.045634795 -0.37635145 0.037399065
-0.045771033 -0.37641546 0.037526403
-0.045907222 -0.37647563 0.037677955
-0.046038561 -0.37653333 0.037826072
-0.046170108 -0.37658745 0.037997257
-0.046307247 -0.3766447 0.038170725
-0.046437629 -0.37669572 0.038356904
-0.046567269 -0.37674484 0.038552321
-0.046699382 -0.37679455 0.038753491
-0.046827383 -0.37684318 0.038945448
-0.046952166 -0.376881 0.039192788
-0.047085822 -0.37692431 0.039440081
-0.047214992 -0.37696964 0.03965741
-0.047350802 -0.37701592 0.039894316
-0.047488116 -0.37707272 0.04007123
-0.047388151 -0.37437022 0.056630153
-0.047545448 -0.37445763 0.056692798
-0.04768708 -0.37453529 0.056755517
-0.047851048 -0.37463254 0.056782372
-0.048022032 -0.37473541 0.056801114
-0.048189901 -0.37484187 0.056785278
-0.048358746 -0.37493992 0.056825947
-0.048528433 -0.37503994 0.056857385
-0.048701093 -0.37514716 0.056855362
-0.048872333 -0.37525111 0.056868333
-0.050753653 -0.37892529 0.041131992
-0.052287504 -0.37851772 0.04964279
-0.052598149 -0.37696251 0.060601354
-0.052762732 -0.37707099 0.060560163
-0.05293259 -0.3771717 0.06058814
-0.053118989 -0.37730193 0.060494933
-0.053271037 -0.37739548 0.060498778
-0.053449463 -0.37749928 0.060540553
-0.053613819 -0.37759951 0.060550109
-0.053800777 -0.37772459 0.060491502
-0.053954311 -0.37781462 0.060523018
-0.054130018 -0.37793809 0.060431018
-0.05430308 -0.37805235 0.060386322
-0.054508872 -0.37819114 0.060314924
-0.054685943 -0.37830147 0.060310584
-0.054834776 -0.37838435 0.06036865
-0.054997981 -0.37849307 0.060320534
-0.055199426 -0.37861609 0.060331061
-0.055373371 -0.37872559 0.060319804
-0.05554422 -0.37883371 0.060305104
-0.05571121 -0.37893704 0.060305417
-0.055878274 -0.37904099 0.060302269
-0.056057211 -0.37914953 0.060316354
-0.056217097 -0.3792457 0.060334001
-0.056394227 -0.37937313 0.060222391
-0.056538381 -0.3794603 0.0602355
-0.056709867 -0.37957472 0.06018389
-0.056889914 -0.37969109 0.060153008
-0.057070881 -0.37979758 0.060187846
-0.057248332 -0.37991622 0.060132742
-0.057397451 -0.3800177 0.060075477
-0.05758734 -0.38012785 0.060121816
-0.05777676 -0.3802532 0.06007126
-0.057945564 -0.38035563 0.06008425
-0.058105603 -0.38045686 0.060070761
-0.058280513 -0.38056254 0.060087174
-0.058433928 -0.380658 0.060084093
-0.05861133 -0.38078415 0.059981711
-0.058768429 -0.38088781 0.059941709
-0.058939721 -0.38098958 0.059968524
-0.059117168 -0.38109425 0.060001075
-0.059282303 -0.38119274 0.06002447
-0.059476539 -0.3813194 0.059984274
-0.059626412 -0.38141286 0.05998005
-0.059786785 -0.38152683 0.059888128
-0.059967715 -0.38164046 0.059877999
-0.060154095 -0.38174736 0.05993126
-0.060323123 -0.38186389 0.059856594
-0.060475882 -0.38196155 0.059837371
-0.060647424 -0.38207451 0.059794985
-0.060824756 -0.38218427 0.059795253
-0.060998917 -0.38229167 0.059797831
-0.061169896 -0.38239565 0.059809655
-0.061319146 -0.38248891 0.059804294
-0.061505668 -0.38260728 0.059786059
-0.061676629 -0.38272503 0.059711382
-0.061844274 -0.38283926 0.059645951
-0.062011916 -0.38292938 0.059731603
-0.062154569 -0.3830263 0.059677828
-0.062328167 -0.38313869 0.059646964
-0.062498603 -0.38324764 0.059625354
-0.06266325 -0.38333887 0.059692573
-0.062842384 -0.38346535 0.059594788
-0.062994637 -0.38354981 0.059656296
-0.06317059 -0.38366991 0.059586219
-0.063319258 -0.38376099 0.059592381
-0.063483246 -0.38386357 0.059585787
-0.063661762 -0.38398656 0.059507616
-0.063831821 -0.38409215 0.059505604
-0.064002462 -0.38419133 0.059546266
-0.064169526 -0.38429379 0.059552338
-0.064329043 -0.38440424 0.059478879
-0.064485997 -0.38450688 0.059444644
-0.064659186 -0.38461205 0.059457608
-0.064835198 -0.38472098 0.059457876
-0.064998709 -0.38482308 0.059452441
-0.065171458 -0.3849307 0.059448108
-0.065336913 -0.38504118 0.059397683
-0.065491989 -0.38515165 0.059306938
-0.065682873 -0.3852711 0.059299059
-0.065857656 -0.3853662 0.059381224
-0.066001214 -0.38544509 0.059443936
-0.066168591 -0.38556081 0.059368126
-0.066329964 -0.38567096 0.059303872
-0.06648118 -0.38577867 0.059215456
-0.066640601 -0.38586518 0.059291929
-0.066811606 -0.38599235 0.059158437
-0.067000315 -0.38607585 0.059367388
-0.067163758 -0.38618967 0.059288144
-0.067316666 -0.38630176 0.059178956
-0.06750454 -0.38637814 0.059429441
-0.067646414 -0.38649017 0.059277635
-0.067809314 -0.38660365 0.059198387
-0.067982867 -0.3867175 0.059158295
-0.068162344 -0.3868354 0.059115876
-0.068333827 -0.38689867 0.059384897
-0.068496197 -0.38703445 0.059163786
-0.068670392 -0.38715604 0.059077568
-0.068834513 -0.38725281 0.05910787
-0.068993285 -0.38735399 0.05908978
-0.069174901 -0.38746473 0.059100389
-0.069344111 -0.38757792 0.059047639
-0.069517702 -0.38769877 0.058963723
-0.069683202 -0.38779217 0.059020557
-0.069830708 -0.38789171 0.058969073
-0.069981724 -0.38799176 0.058927946
-0.070151165 -0.3880854 0.058998592
-0.070313402 -0.38820362 0.058887064
-0.070486784 -0.38830596 0.058918484
-0.070650391 -0.38841215 0.058887668
-0.070818454 -0.38851726 0.058881056
-0.070986979 -0.38862136 0.058882512
-0.071159959 -0.38873246 0.058857419
-0.071331114 -0.38883159 0.058900379
-0.071497917 -0.38893884 0.058875326
-0.071663737 -0.38905507 0.058790296
-0.071814977 -0.38915285 0.05876416
-0.07197988 -0.38925564 0.058759864
-0.072137542 -0.3893635 0.058695644
-0.072306275 -0.38945982 0.058746692
-0.072477154 -0.38957328 0.058698542
-0.072647847 -0.3896668 0.058774959
-0.072809391 -0.38977465 0.058725696
-0.072966821 -0.389882 0.058663785
-0.073135905 -0.38999104 0.058636405
-0.07330364 -0.39008933 0.058671318
-0.073453359 -0.39020696 0.058514856
-0.073637523 -0.39031911 0.058526613
-0.073805392 -0.39040515 0.0586388
-0.073966175 -0.39050701 0.058624148
-0.074137524 -0.39061269 0.058626737
-0.074297033 -0.39072189 0.058561355
-0.074470289 -0.39083645 0.058515497
