# .PCD v0.7 - Point Cloud Data file format
VERSION 0.7
FIELDS x y z
SIZE 4 4 4
TYPE F F F
COUNT 1 1 1
WIDTH 1312
HEIGHT 1
VIEWPOINT 0 0 0 1 0 0 0
POINTS 1312
DATA ascii
-0.31169191 -0.26462802 0.064314455
-0.31192291 -0.26460382 0.064278692
-0.31212679 -0.26457268 0.06432151
-0.31235418 -0.26454771 0.064295001
-0.31258458 -0.26452205 0.064270772
-0.31281924 -0.26449922 0.064221159
-0.31304869 -0.26447356 0.064198092
-0.31326535 -0.26444611 0.064200461
-0.3135024 -0.26442268 0.06415315
-0.31372556 -0.26439717 0.064134717
-0.3139286 -0.2643663 0.064176388
-0.31415555 -0.26434198 0.064145267
-0.31436849 -0.2643123 0.064168431
-0.31461301 -0.26429307 0.06408184
-0.31484389 -0.26426861 0.064048387
-0.31506157 -0.26424211 0.064042687
-0.31529006 -0.26421717 0.064015016
-0.31550768 -0.26419082 0.064008154
-0.31572843 -0.26416546 0.063990898
-0.31596208 -0.2641423 0.063944742
-0.31618634 -0.26411819 0.063914791
-0.31639364 -0.2640892 0.06393797
-0.3166106 -0.26406142 0.063942656
-0.31682992 -0.26403609 0.06392657
-0.31705907 -0.26401213 0.063890815
-0.31730571 -0.26399523 0.063784599
-0.31750193 -0.26396155 0.063853994
-0.31772175 -0.26393676 0.063833289
-0.31794113 -0.26391023 0.063826419
-0.31817487 -0.26388994 0.063758343
-0.31839192 -0.26386458 0.063744567
-0.31858343 -0.26383135 0.063815139
-0.31881931 -0.26381031 0.063750513
-0.31904644 -0.26378843 0.063700922
-0.31929979 -0.26377329 0.063575074
-0.31948709 -0.2637389 0.063658349
-0.31969431 -0.26370916 0.06368731
-0.31991607 -0.26368594 0.063652746
-0.32013243 -0.2636593 0.063649364
-0.3203494 -0.26363474 0.063629821
-0.32056507 -0.26360804 0.063627586
-0.3207846 -0.26358449 0.063597649
-0.32101244 -0.26356205 0.063551523
-0.32122558 -0.2635366 0.063542381
-0.32143694 -0.26351058 0.063539021
-0.32165688 -0.26348761 0.063504472
-0.32187179 -0.26346117 0.06350109
-0.32208166 -0.26343489 0.063501194
-0.32230869 -0.26341286 0.063452765
-0.32253343 -0.263392 0.063397415
-0.32274473 -0.26336464 0.063404441
-0.32295483 -0.2633388 0.063401081
-0.32317585 -0.26331508 0.063371144
-0.32338592 -0.26328939 0.063366637
-0.32359445 -0.26326129 0.063381746
-0.32380795 -0.263237 0.063363358
-0.32403952 -0.2632176 0.063290685
-0.32424983 -0.26319233 0.063282713
-0.32446563 -0.26316726 0.063267797
-0.32466808 -0.26313919 0.063288704
-0.32489258 -0.26311761 0.063239127
-0.32509059 -0.26308796 0.063276216
-0.32531139 -0.26306519 0.063239343
-0.3255204 -0.26306361 0.063052572
-0.3257452 -0.26301894 0.063178353
-0.32596323 -0.26299739 0.063134581
-0.32616481 -0.26296747 0.063170485
-0.32638389 -0.26294655 0.063120931
-0.32658759 -0.26291755 0.063147604
-0.32680452 -0.26289603 0.063104987
-0.32702816 -0.26287532 0.063049659
-0.32723358 -0.2628493 0.063052088
-0.32743931 -0.26282141 0.063068368
-0.32765058 -0.26279587 0.063061543
-0.3278611 -0.26277012 0.063057028
-0.32807738 -0.26274896 0.063012116
-0.32829911 -0.26272818 0.062959105
-0.32850477 -0.26270273 0.062956914
-0.32872415 -0.26268122 0.06291198
-0.32892817 -0.26265308 0.062931731
-0.32914123 -0.26262897 0.062912203
-0.32933259 -0.26261261 0.06285473
-0.32955167 -0.26257622 0.062922843
-0.32978296 -0.26256064 0.062821329
-0.32999504 -0.26253653 0.06280297
-0.3302103 -0.26251838 0.062736131
-0.33042082 -0.26249155 0.0627397
-0.3306016 -0.2624554 0.062842615
-0.33081272 -0.26243564 0.062791966
-0.33103818 -0.2624138 0.062743545
-0.3312498 -0.26239005 0.062722877
-0.33145848 -0.26236725 0.062697604
-0.33165979 -0.2623387 0.06272313
-0.33185333 -0.26230869 0.062767155
-0.33207598 -0.26229069 0.06269221
-0.33229098 -0.26226908 0.062651917
-0.33249971 -0.26224446 0.062640488
-0.33269343 -0.26221472 0.062682211
-0.3329061 -0.26219463 0.062632687
-0.33312589 -0.26217836 0.062547386
-0.33331347 -0.26214561 0.062617972
-0.33352908 -0.26213226 0.062514216
-0.33373737 -0.26209587 0.062592775
-0.33395138 -0.26207712 0.062531725
-0.33417439 -0.26206091 0.062442936
-0.33437213 -0.26203129 0.06248001
-0.33456939 -0.2620014 0.062519409
-0.33476272 -0.2619769 0.062521905
-0.33498201 -0.26195416 0.062486202
-0.33519608 -0.26193631 0.062418222
-0.33540112 -0.2619161 0.062376827
-0.33561403 -0.2618902 0.06237115
-0.33582982 -0.26187122 0.062310085
-0.33602265 -0.26184177 0.062350642
-0.33622655 -0.26182139 0.06231156
-0.33643681 -0.2617943 0.062317427
-0.33664802 -0.26177317 0.062277157
-0.33684924 -0.26174888 0.062270381
-0.33704552 -0.26171899 0.06231093
-0.33725503 -0.26169714 0.062277578
-0.33747381 -0.26168114 0.062191125
-0.33767188 -0.26165527 0.062199365
-0.33786973 -0.26162657 0.062229518
-0.33807999 -0.26160571 0.062188096
-0.33829308 -0.26158676 0.062129352
-0.33848858 -0.26155955 0.062150296
-0.33869341 -0.26153556 0.06213773
-0.33889407 -0.26150891 0.062149428
-0.33909851 -0.26148483 0.062138021
-0.33930567 -0.26146558 0.062087379
-0.33949885 -0.26144001 0.062097952
-0.33970708 -0.26141879 0.06206115
-0.33992603 -0.26139912 0.062002379
-0.34011212 -0.26137188 0.062032588
-0.34031489 -0.26135027 0.062003892
-0.34052512 -0.26132181 0.062020153
-0.34072772 -0.2612972 0.06201452
-0.34093657 -0.26128033 0.061944265
-0.34113696 -0.26125431 0.061951336
-0.34131303 -0.26123255 0.061949298
-0.34154239 -0.26121235 0.061884709
-0.34174961 -0.26118854 0.061868683
-0.34193924 -0.26116112 0.061896577
-0.34214959 -0.26113662 0.061882831
-0.34235889 -0.26111799 0.061825257
-0.34255782 -0.26109475 0.061812729
-0.3427532 -0.26106876 0.061824445
-0.34296399 -0.26104844 0.061778404
-0.34316465 -0.26102346 0.061777398
-0.34335893 -0.26100367 0.061742976
-0.34355211 -0.26097265 0.061795082
-0.34371924 -0.26095837 0.061744638
-0.3439368 -0.26094449 0.061643187
-0.3441703 -0.26091602 0.061637409
-0.34434724 -0.26088187 0.061728813
-0.34453356 -0.26085579 0.061749801
-0.34477392 -0.26083726 0.06166207
-0.34497136 -0.26081389 0.061651863
-0.34512818 -0.260795 0.061646469
-0.34537306 -0.26076996 0.06160371
-0.34557605 -0.26074439 0.061605006
-0.34572324 -0.2607244 0.061616965
-0.34596029 -0.26071584 0.06145658
-0.34618822 -0.26068717 0.061457753
-0.34637615 -0.26065132 0.0615514
-0.34658155 -0.26063669 0.061467327
-0.34677485 -0.26060611 0.061515965
-0.34697765 -0.2605851 0.061482646
-0.34714419 -0.26056454 0.061480656
-0.34733644 -0.26054546 0.061442781
-0.34754902 -0.26052672 0.06138289
-0.34776717 -0.26049259 0.061434869
-0.34795904 -0.26047796 0.061363541
-0.3481684 -0.26045629 0.061329037
-0.34836754 -0.26042786 0.061355732
-0.34856054 -0.26039702 0.061406683
-0.34877181 -0.26037785 0.0613514
-0.3489733 -0.26035687 0.061319251
-0.34914654 -0.26033092 0.061351843
-0.34936997 -0.26031265 0.061278049
-0.34957358 -0.26028991 0.061257415
-0.34974575 -0.26027742 0.061188497
-0.34996811 -0.2602438 0.061232381
-0.35015455 -0.26021969 0.061238367
-0.35036394 -0.26019984 0.061190024
-0.35056219 -0.26017594 0.061183274
-0.3507635 -0.26015618 0.06114189
-0.3509582 -0.26013303 0.061132833
-0.35115799 -0.26010618 0.061146833
-0.3513383 -0.26009041 0.061095174
-0.35153255 -0.26005575 0.061173812
-0.35172263 -0.26003179 0.061175168
-0.35193875 -0.26002342 0.061033342
-0.35210758 -0.25999707 0.061072879
-0.35229483 -0.25998107 0.061016575
-0.35251793 -0.25995481 0.06100392
-0.35271201 -0.25993171 0.060994878
-0.35289317 -0.25990659 0.061013579
-0.35308376 -0.25989059 0.060953796
-0.35328847 -0.25986633 0.060943544
-0.35347471 -0.25984344 0.06094031
-0.35367554 -0.25981936 0.060932383
-0.35387632 -0.2598021 0.060872555
-0.35406664 -0.25978008 0.060858905
-0.35426655 -0.25974762 0.060915582
-0.35447413 -0.2597295 0.06085572
-0.354662 -0.2597031 0.060877852
-0.35486075 -0.25968304 0.060841102
-0.35506445 -0.25965801 0.060837768
-0.35525143 -0.25963762 0.060814917
-0.35545179 -0.25961372 0.060805846
-0.35565707 -0.25959244 0.060772516
-0.35583979 -0.25957152 0.060757756
-0.35605955 -0.25954083 0.060782045
-0.35624379 -0.25952366 0.060737286
-0.35645983 -0.25950223 0.06069468
-0.3566727 -0.25948256 0.060641699
-0.35686523 -0.25945905 0.060637288
-0.35705569 -0.25943017 0.060675554
-0.35725167 -0.25940594 0.060673423
-0.35745117 -0.25939173 0.060591675
-0.35763106 -0.25936431 0.060628839
-0.3578223 -0.25934857 0.060566746
-0.35802084 -0.25932157 0.060583062
-0.35819656 -0.25929239 0.060637556
-0.35837531 -0.25928503 0.060523607
-0.35858184 -0.25926024 0.060515653
-0.35878354 -0.25923163 0.06054119
-0.35900646 -0.2592133 0.060468547
-0.35916337 -0.25919589 0.060451612
-0.35936254 -0.25917184 0.060444847
-0.35957143 -0.25914267 0.060468033
-0.35976312 -0.25911805 0.060472846
-0.35993847 -0.25910214 0.06042698
-0.36013442 -0.25908077 0.060402926
-0.36033916 -0.25904891 0.06045036
-0.36051559 -0.25904003 0.060350262
-0.36071602 -0.25900415 0.060432319
-0.36090481 -0.25898427 0.060403686
-0.36109856 -0.25897336 0.060302366
-0.36131904 -0.25894973 0.060272422
-0.3615132 -0.25891855 0.060324512
-0.36169398 -0.25889486 0.060332838
-0.36188257 -0.25887623 0.060294989
-0.36208108 -0.25885031 0.060303226
-0.36226162 -0.25882387 0.060332317
-0.36245421 -0.25881189 0.06024022
-0.3626385 -0.2587882 0.060245067
-0.36284077 -0.25876576 0.060223293
-0.36302477 -0.25873649 0.060270824
-0.3632063 -0.25872859 0.060158022
-0.3634122 -0.25871453 0.060069311
-0.36363164 -0.25868219 0.060106289
-0.363837 -0.25865221 0.060138717
-0.36403543 -0.25863299 0.060096197
-0.36421257 -0.25860181 0.06016453
-0.3644073 -0.25858882 0.060078193
-0.36458442 -0.25856495 0.060091145
-0.36476541 -0.25853255 0.060165226
-0.36494499 -0.25853616 0.059967063
-0.36516079 -0.25851098 0.059953302
-0.36535013 -0.25846007 0.060159996
-0.3655332 -0.25845352 0.060035646
-0.36572289 -0.25844797 0.05989743
-0.36592346 -0.25843453 0.059808746
-0.36613023 -0.25839287 0.059928846
-0.36633238 -0.25836405 0.059955515
-0.36653101 -0.25833616 0.059978753
-0.36672136 -0.25831869 0.059930507
-0.36689779 -0.25830036 0.059901938
-0.36708635 -0.2582705 0.05994945
-0.36727148 -0.25824124 0.059995815
-0.3674641 -0.25822988 0.05989911
-0.36766627 -0.25820243 0.059915401
-0.36785018 -0.25818059 0.059906408
-0.36803913 -0.25816801 0.05982241
-0.36822307 -0.25814542 0.059819177
-0.36842644 -0.25812858 0.059753567
-0.36861828 -0.25811639 0.059663784
-0.36881033 -0.25808793 0.059697427
-0.36903098 -0.25806898 0.059631728
-0.36921918 -0.25805587 0.059552345
-0.36938962 -0.25803179 0.059573412
-0.36959779 -0.25799477 0.059656579
-0.36979598 -0.25798181 0.059566766
-0.36998096 -0.25795513 0.059593532
-0.37017971 -0.2579281 0.059609838
-0.37035882 -0.25790992 0.059577797
-0.37054077 -0.25788257 0.059612647
-0.37074688 -0.25786465 0.059552789
-0.37092632 -0.25784504 0.05953113
-0.37111297 -0.25782409 0.059512891
-0.37131655 -0.25779358 0.059551097
-0.37152433 -0.2577703 0.059530444
-0.37170339 -0.25775164 0.059501864
-0.37188897 -0.2577334 0.05946403
-0.37207589 -0.25771165 0.05945155
-0.37227815 -0.25768512 0.059460931
-0.37247956 -0.25766081 0.05945415
-0.37267336 -0.25763863 0.059438191
-0.37286058 -0.257624 0.059371494
-0.37306112 -0.25760162 0.059350889
-0.37324166 -0.25757155 0.059407659
-0.37342742 -0.25753036 0.059544012
-0.37361535 -0.25752124 0.059434641
-0.37380952 -0.25749844 0.059423286
-0.37399197 -0.25747922 0.059395839
-0.37418121 -0.25747994 0.059210319
-0.37437856 -0.25745037 0.059247404
-0.37458518 -0.25742239 0.059263673
-0.37476185 -0.25740114 0.059257027
-0.37495753 -0.25738788 0.059171837
-0.37513536 -0.25736436 0.059181325
-0.37535003 -0.25733399 0.059207946
-0.37554538 -0.25731483 0.059167743
-0.37571949 -0.25729242 0.059172649
-0.37590471 -0.25727361 0.059139416
-0.37610337 -0.25724858 0.059140734
-0.37629202 -0.25722387 0.059149019
-0.37647557 -0.25720787 0.059096195
-0.37667143 -0.25718758 0.059064068
-0.37686664 -0.25716296 0.059065402
-0.37706405 -0.25713491 0.059090946
-0.3772642 -0.25711304 0.059066873
-0.3774339 -0.2570928 0.05905911
-0.37762457 -0.25707045 0.059047773
-0.3778275 -0.25704929 0.059015613
-0.37800699 -0.25702906 0.058998562
-0.37818393 -0.25700781 0.058991913
-0.37836701 -0.25699669 0.058902174
-0.37857985 -0.25696564 0.058935717
-0.37877989 -0.25693452 0.058982007
-0.3789658 -0.25691912 0.05892225
-0.37915066 -0.25690508 0.058853265
-0.37934241 -0.2568768 0.058885761
-0.37954473 -0.25685191 0.058882445
-0.37973091 -0.25683147 0.058860749
-0.37991753 -0.25681478 0.058810212
-0.38011193 -0.25678769 0.058831159
-0.38030457 -0.25677145 0.058771368
-0.38050577 -0.25675231 0.058725376
-0.38068071 -0.25673389 0.058699112
-0.38086706 -0.25671721 0.058648583
-0.3810451 -0.25669885 0.058618858
-0.38123742 -0.25667065 0.058650199
-0.38142836 -0.25664431 0.058668856
-0.38162017 -0.25662088 0.058664434
-0.38181445 -0.25659457 0.05867961
-0.38202688 -0.25655812 0.05875469
-0.38221586 -0.25653839 0.05872491
-0.38240445 -0.25652662 0.058635134
-0.38259858 -0.25650078 0.05864685
-0.38279122 -0.25648409 0.05859052
-0.3829734 -0.25646475 0.058564235
-0.38317382 -0.25643554 0.058595534
-0.38335386 -0.25642225 0.058525413
-0.38354963 -0.25639483 0.058547508
-0.38374585 -0.25637406 0.058518842
-0.38392782 -0.25635156 0.058516778
-0.38411939 -0.2563324 0.058480065
-0.384307 -0.25631073 0.058466434
-0.38451052 -0.25628221 0.058489647
-0.3846938 -0.2562685 0.058419518
-0.38489127 -0.25624317 0.058424294
-0.38507825 -0.2562255 0.058380682
-0.38526377 -0.25620285 0.05837629
-0.38546565 -0.25617635 0.05838567
-0.38565302 -0.25615835 0.058344357
-0.38584822 -0.25613239 0.058356073
-0.3860243 -0.25611624 0.058311351
-0.38623971 -0.2560797 0.058384106
-0.3864398 -0.25605541 0.058378492
-0.38661709 -0.25605035 0.058248408
-0.38678586 -0.25604421 0.058134507
-0.38699302 -0.25600705 0.058219992
-0.38718766 -0.25598204 0.05822479
-0.38738155 -0.25595486 0.058246899
-0.38758501 -0.2559247 0.058282796
-0.3877725 -0.25590667 0.058241479
-0.38796654 -0.25589404 0.05815284
-0.38815853 -0.25586894 0.05816111
-0.3883456 -0.25584838 0.058139406
-0.3885234 -0.25583625 0.058062389
-0.38870972 -0.2558108 0.058078755
-0.38892776 -0.25577089 0.058174565
-0.38911894 -0.25575516 0.058112472
-0.38930604 -0.25573748 0.05806886
-0.38950413 -0.25571555 0.058047108
-0.38969451 -0.2556923 0.05804269
-0.38988572 -0.25567108 0.058022134
-0.39007759 -0.25564933 0.05800502
-0.39026719 -0.25562951 0.057975236
-0.39045599 -0.25561044 0.057940837
-0.39065406 -0.25558349 0.057957146
-0.39084271 -0.25556198 0.05794121
-0.39103651 -0.25554135 0.057913706
-0.39123139 -0.25551981 0.057891965
-0.39142126 -0.2554974 0.057881795
-0.39161777 -0.25546959 0.057906196
-0.39182663 -0.25543934 0.057937454
-0.39202505 -0.25542012 0.057894927
-0.39220545 -0.25540555 0.057834044
-0.39238554 -0.25539118 0.057772003
-0.39258483 -0.25536153 0.057807919
-0.39279905 -0.2553274 0.057863377
-0.39298323 -0.25531709 0.057766713
-0.39317077 -0.2552945 0.05776
-0.39337683 -0.25527418 0.057718597
-0.39358535 -0.25524488 0.057742935
-0.39374873 -0.25523865 0.05763483
-0.39392272 -0.25521958 0.057614356
-0.39414009 -0.25518143 0.057697479
-0.3943325 -0.25516233 0.057659611
-0.39451039 -0.25514734 0.057604503
-0.39471743 -0.25511959 0.057618462
-0.39490119 -0.25510019 0.057591014
-0.39510915 -0.2550652 0.057659194
-0.3952975 -0.25505146 0.05758442
-0.39548838 -0.25503364 0.05753848
-0.39569172 -0.25500453 0.057566293
-0.39587057 -0.25499105 0.0574985
-0.39605522 -0.25497338 0.057457201
-0.39628479 -0.2549257 0.0576014
-0.39645284 -0.25492859 0.057419457
-0.39665049 -0.25489959 0.057451919
-0.39684495 -0.25487933 0.057420954
-0.39702511 -0.25485858 0.057407368
-0.39724296 -0.25481993 0.057493947
-0.39745492 -0.25479189 0.057505578
-0.39763033 -0.25478294 0.057406649
-0.39782244 -0.2547645 0.057364162
-0.39801618 -0.25474083 0.057359733
-0.39821941 -0.2547169 0.057348333
-0.39841235 -0.25469592 0.057324294
-0.39861482 -0.25467056 0.057324439
-0.39880064 -0.25465244 0.057285443
-0.39900136 -0.25462836 0.057277519
-0.39920408 -0.25459903 0.057307661
-0.39938417 -0.25458679 0.057229467
-0.39957809 -0.25456339 0.057222724
-0.39978379 -0.2545343 0.057248227
-0.39996931 -0.25451851 0.057191931
-0.40016299 -0.25449347 0.057197884
-0.40036067 -0.25447175 0.057174981
-0.40055957 -0.25444928 0.057156682
-0.40076053 -0.25442746 0.057131454
-0.40091795 -0.25442016 0.057037234
-0.40114394 -0.25438049 0.057123773
-0.40133026 -0.25436807 0.057040941
-0.40155408 -0.25433004 0.057117112
-0.40174055 -0.2543138 0.05706311
-0.4019354 -0.25429046 0.057055216
-0.40213904 -0.25426725 0.057038054
-0.4023332 -0.25424445 0.057026699
-0.40253425 -0.25422108 0.057013001
-0.40270975 -0.25420985 0.056931384
-0.4029091 -0.25418398 0.056938455
-0.4031139 -0.25415483 0.056965124
-0.40329847 -0.2541399 0.056903061
-0.40351012 -0.25410855 0.056940068
-0.40371627 -0.25408244 0.0569425
-0.40390554 -0.25406298 0.056910407
-0.40409946 -0.25404429 0.056867909
-0.40428495 -0.25402713 0.056821994
-0.40447986 -0.25400439 0.056809485
-0.40468252 -0.25397885 0.056810785
-0.40488023 -0.25395805 0.056780949
-0.40508139 -0.25393179 0.056789175
-0.40528294 -0.25390881 0.056772023
-0.40546733 -0.25389588 0.056694962
-0.40566111 -0.25387239 0.056689382
-0.40589017 -0.25383705 0.056740142
-0.40609118 -0.25381458 0.056719534
-0.40628168 -0.25379315 0.05670128
-0.40647572 -0.25377142 0.056681857
-0.40667942 -0.25374758 0.056669295
-0.40685546 -0.2537345 0.056601502
-0.40707007 -0.25369957 0.056662727
-0.40727451 -0.25367549 0.056651324
-0.40746182 -0.25365779 0.056607708
-0.40764439 -0.25364766 0.056511052
-0.40787682 -0.25360811 0.056590643
-0.40805912 -0.25359163 0.056542434
-0.40826577 -0.25356334 0.056561012
-0.40846834 -0.25354221 0.056528855
-0.40866435 -0.25352314 0.056487501
-0.40885672 -0.25349963 0.056483075
-0.40905452 -0.25347805 0.05645901
-0.40924135 -0.25346085 0.056411941
-0.40943542 -0.25344294 0.056363672
-0.40967348 -0.25340131 0.056453615
-0.40985703 -0.25338286 0.056419238
-0.41006881 -0.25335559 0.056425113
-0.41027313 -0.25332925 0.05643101
-0.41047198 -0.25331056 0.056383871
-0.41069686 -0.25328121 0.056393132
-0.41086781 -0.25327116 0.056306913
-0.41106892 -0.25324672 0.056301296
-0.41128615 -0.25321391 0.056344043
-0.41145489 -0.25320658 0.056239385
-0.41167444 -0.25317729 0.05625328
-0.41185194 -0.2531608 0.056209713
-0.41205716 -0.25313905 0.056179844
-0.41226304 -0.25311098 0.056197274
-0.41246665 -0.25308868 0.056173183
-0.41268525 -0.25305873 0.056192853
-0.41289935 -0.25303116 0.056198705
-0.41308811 -0.2530151 0.056141242
-0.41328773 -0.25299209 0.056126401
-0.41348827 -0.25296864 0.056113869
-0.4136976 -0.25294229 0.056115132
-0.41389656 -0.25292268 0.05607491
-0.41410211 -0.25289541 0.056086574
-0.41431528 -0.25287026 0.056075126
-0.41449195 -0.25285465 0.056025796
-0.30684537 -0.26516855 0.064815588
-0.30707628 -0.26514223 0.064796023
-0.30727339 -0.26510829 0.064866595
-0.30759627 -0.26510176 0.064608976
-0.30779463 -0.26506826 0.064674921
-0.30804551 -0.26504552 0.064609133
-0.30827284 -0.26501891 0.064595349
-0.30848473 -0.26498872 0.06462317
-0.30867559 -0.26496252 0.064640708
-0.3089608 -0.26493949 0.06454476
-0.30916545 -0.26490778 0.064591065
-0.30941856 -0.26488626 0.064513728
-0.30963242 -0.2648569 0.064533457
-0.30987084 -0.2648336 0.064483874
-0.31007448 -0.26480186 0.064531341
-0.31032214 -0.26477954 0.06446556
-0.31056535 -0.26475775 0.064399794
-0.31078669 -0.26473066 0.064395271
-0.31100142 -0.26470196 0.064409241
-0.31125575 -0.26468182 0.064320363
-0.31146121 -0.26465091 0.064359739
-0.31170809 -0.26462916 0.064290509
-0.31192234 -0.26460063 0.064303324
-0.31213331 -0.26457134 0.06432537
-0.3123638 -0.2645472 0.064289659
-0.31258631 -0.26451948 0.064288601
-0.31281587 -0.26449531 0.064254038
-0.31305385 -0.26447192 0.064205609
-0.31328824 -0.26444924 0.064154893
-0.3134971 -0.26441824 0.064191952
-0.31372252 -0.26439336 0.064166643
-0.31395021 -0.26436758 0.064145945
-0.31416222 -0.26433921 0.064159922
-0.31438431 -0.2643137 0.064142704
-0.31461975 -0.26429197 0.064083904
-0.31486031 -0.26427022 0.064020462
-0.31506297 -0.26423952 0.064061016
-0.31528774 -0.2642135 0.064044937
-0.31552529 -0.26419288 0.063975751
-0.3157374 -0.26416343 0.063997798
-0.31597692 -0.26414365 0.063920528
-0.31617808 -0.26411116 0.063976072
-0.31639704 -0.26408556 0.06396234
-0.31660095 -0.26405394 0.064008653
-0.31684119 -0.26403481 0.063925609
-0.31707492 -0.26401225 0.063874885
-0.31728369 -0.26398396 0.063891187
-0.31746298 -0.2639451 0.064016044
-0.31771019 -0.26392859 0.063906439
-0.31794751 -0.26390755 0.063840702
-0.31815848 -0.26388022 0.063847773
-0.31836757 -0.26385751 0.06382139
-0.31861272 -0.26383412 0.063766003
-0.31882453 -0.2638073 0.063768446
-0.31902465 -0.26377511 0.063822851
-0.31926391 -0.26375717 0.063731737
-0.31948301 -0.26373291 0.06370762
-0.31971228 -0.26371029 0.063661531
-0.3199164 -0.26368138 0.063687079
-0.32013276 -0.26365474 0.063683733
-0.32034305 -0.26362795 0.063687339
-0.32056338 -0.26360279 0.063668981
-0.32079846 -0.26358446 0.063584805
-0.32102555 -0.26356182 0.06354104
-0.3212468 -0.26353911 0.063503072
-0.32144991 -0.2635085 0.063542455
-0.3216604 -0.2634823 0.063541442
-0.32188755 -0.2634601 0.063494228
-0.32209671 -0.26343361 0.063496679
-0.32231155 -0.26340732 0.063492186
-0.32253948 -0.26338759 0.063425347
-0.32275328 -0.26336113 0.063423172
-0.32296303 -0.26333514 0.063421011
-0.32316405 -0.2633042 0.063465022
-0.32340154 -0.26328844 0.063358925
-0.32360446 -0.26325834 0.063394859
-0.32383299 -0.26323959 0.063319944
-0.32404912 -0.2632145 0.063305072
-0.32426 -0.26318946 0.063294828
-0.32447758 -0.26316509 0.06327302
-0.32467845 -0.26313645 0.063299738
-0.32488373 -0.26310754 0.063324124
-0.32509133 -0.26308155 0.06332428
-0.32532164 -0.26306245 0.063250512
-0.3255333 -0.26303822 0.063233346
-0.32576153 -0.26301861 0.063165352
-0.32596549 -0.26299152 0.063177064
-0.32616648 -0.26296136 0.063215323
-0.32637548 -0.26293638 0.063206233
-0.3265976 -0.26291481 0.063159034
-0.32679638 -0.26288792 0.063174225
-0.32703128 -0.26286978 0.063088901
-0.32723048 -0.26284117 0.063116781
-0.3274489 -0.26281852 0.063081123
-0.32767135 -0.26279977 0.063012004
-0.32788152 -0.26277393 0.063008696
-0.32808855 -0.2627489 0.063001938
-0.32830501 -0.26272589 0.062970899
-0.32851854 -0.26270387 0.062935278
-0.32873023 -0.26267904 0.062922731
-0.32892072 -0.26264712 0.062984094
-0.32914263 -0.26262692 0.062926516
-0.3293556 -0.26260936 0.062857442
-0.32955939 -0.26258352 0.062859923
-0.3297742 -0.2625562 0.062863499
-0.32998496 -0.26253146 0.062850952
-0.33019516 -0.26250878 0.062823422
-0.33040044 -0.26248169 0.062833972
-0.33061469 -0.2624611 0.06278681
-0.3308284 -0.26243812 0.062758096
-0.33103153 -0.26241255 0.062759429
-0.33124012 -0.26238734 0.062752657
-0.33145654 -0.26236826 0.062691644
-0.33167151 -0.26234636 0.062653698
-0.33185825 -0.2623131 0.062728927
-0.33207211 -0.26229316 0.06267716
-0.33227777 -0.26226693 0.062680781
-0.33248419 -0.26224351 0.062662482
-0.33269536 -0.26222497 0.062602654
-0.33290231 -0.26220679 0.062543988
-0.33311504 -0.26217741 0.06256488
-0.33332264 -0.26215264 0.062555805
-0.3335273 -0.26212883 0.06254214
-0.33373556 -0.26210457 0.062528446
-0.33393228 -0.26207674 0.062552884
-0.33413297 -0.26205841 0.062501162
-0.33431709 -0.26204368 0.062438004
-0.33456516 -0.26201159 0.062446035
-0.33475173 -0.26197591 0.062539726
-0.33496338 -0.26195654 0.06248565
-0.33517829 -0.26193663 0.062432706
-0.3353892 -0.26191461 0.062399402
-0.33559203 -0.26189071 0.062388055
-0.33580455 -0.26186988 0.062344357
-0.33600038 -0.26184216 0.062368788
-0.33620164 -0.26181498 0.062383972
-0.3364087 -0.26179391 0.062347222
-0.33661091 -0.2617701 0.062335867
-0.33681637 -0.26174831 0.062306046
-0.33699596 -0.26171911 0.06235709
-0.33718866 -0.26170057 0.062314641
-0.33742601 -0.26168227 0.062228147
-0.33762857 -0.26165918 0.062211029
-0.3377946 -0.26163274 0.06225406
-0.33797956 -0.26160425 0.062294692
-0.33819869 -0.26158622 0.062223285
-0.33842298 -0.2615689 0.062141467
-0.33866078 -0.26154068 0.062129948
-0.33886802 -0.26152125 0.062080503
-0.33906558 -0.2614927 0.062109549
-0.33926195 -0.26146626 0.062123597
-0.3394807 -0.26145497 0.062001441
-0.33966446 -0.26142314 0.062068608
-0.33987871 -0.26140025 0.062038742
-0.34008494 -0.26138097 0.061989315
-0.34025645 -0.2613678 0.061926205
-0.34050238 -0.26134947 0.061831597
-0.34068489 -0.26130763 0.061976049
-0.34087721 -0.26127884 0.062012039
-0.34108654 -0.26125929 0.061961439
-0.34129813 -0.26124477 0.061870456
-0.34148413 -0.26122421 0.061849955
-0.34169668 -0.26120123 0.061822407
-0.34189561 -0.26117131 0.061860666
-0.34208956 -0.26115385 0.061808981
-0.34229711 -0.26112404 0.061837975
-0.34249121 -0.26109701 0.061858967
-0.34268972 -0.26108351 0.061772648
-0.34290311 -0.26106197 0.06173357
-0.34309736 -0.26103187 0.061777622
-0.34329346 -0.26100668 0.061782438
-0.34349173 -0.26097986 0.061797637
-0.34368217 -0.26096407 0.061736748
-0.34388334 -0.26094341 0.061702333
-0.34409273 -0.26092279 0.061659805
-0.34429991 -0.26089686 0.061659969
-0.34449428 -0.26087067 0.061674025
-0.34469935 -0.26085031 0.061633825
-0.34489837 -0.26082841 0.061610956
-0.34509254 -0.26080227 0.061625011
-0.34529501 -0.26078373 0.061573297
-0.34548673 -0.26075926 0.061576985
-0.34569243 -0.26073638 0.061555233
-0.34586671 -0.26071104 0.061582081
-0.3460651 -0.26068923 0.061559215
-0.34625101 -0.26066729 0.061549094
-0.34646514 -0.26064911 0.061483473
-0.346683 -0.26062277 0.061476663
-0.34687033 -0.26059851 0.061482687
-0.34706387 -0.26058066 0.06143447
-0.34727666 -0.26055354 0.061438058
-0.34746227 -0.2605277 0.061457928
-0.34766954 -0.26050341 0.0614454
-0.347873 -0.26048386 0.061400585
-0.34805974 -0.2604638 0.061375476
-0.34823447 -0.26044387 0.061360799
-0.34843662 -0.26041883 0.061358668
-0.34865963 -0.26039031 0.061363362
-0.34886178 -0.26037472 0.061289735
-0.34905857 -0.26034838 0.061302632
-0.34925169 -0.26032722 0.061279789
-0.34943917 -0.26030418 0.061276577
-0.34962952 -0.26028475 0.06124337
-0.34984049 -0.26026651 0.061181217
-0.35002816 -0.26023406 0.061249524
-0.3502174 -0.26021868 0.061186329
-0.35043541 -0.26018971 0.061199132
-0.35062471 -0.26016963 0.061171688
-0.35080793 -0.26014683 0.061170813
-0.35099453 -0.26012328 0.061172225
-0.35122356 -0.26010448 0.061097302
-0.35140899 -0.26007959 0.061110258
-0.35159025 -0.26006553 0.061044797
-0.35178232 -0.2600334 0.061106164
-0.35199815 -0.26001337 0.061053216
-0.35220423 -0.25999057 0.061030313
-0.35239562 -0.25996327 0.061055921
-0.35259575 -0.25994352 0.061015744
-0.35278359 -0.25992909 0.060946792
-0.35297933 -0.25990275 0.060960844
-0.35318187 -0.25988132 0.060931038
-0.35337624 -0.25985271 0.060963556
-0.35356557 -0.25982201 0.061016858
-0.35373312 -0.25979993 0.061025284
-0.35391706 -0.25979358 0.060898677
-0.3541677 -0.25977725 0.060784437
-0.35435647 -0.25974554 0.060845815
-0.3545424 -0.25972283 0.060841464
-0.35474053 -0.25969422 0.060870502
-0.35493216 -0.25966778 0.060889184
-0.35508737 -0.25965196 0.060861912
-0.3553316 -0.25963277 0.060775392
-0.35552645 -0.25961354 0.060736392
-0.35572514 -0.25959471 0.060690451
-0.35591489 -0.25956455 0.060739137
-0.35610798 -0.2595419 0.060727827
-0.3562685 -0.2595222 0.06072475
-0.35647464 -0.25950414 0.060666092
-0.35668084 -0.25947741 0.060673181
-0.35688731 -0.25945139 0.0606745
-0.35707927 -0.25942641 0.060681649
-0.35725117 -0.2593976 0.060737342
-0.35742816 -0.25938267 0.060682274
-0.35761386 -0.25936124 0.060668703
-0.35783088 -0.25934482 0.060586918
-0.35801995 -0.25932297 0.060573317
-0.35821217 -0.25929949 0.060568936
-0.35842022 -0.25927964 0.0605218
-0.35862866 -0.25926173 0.060459673
-0.35880494 -0.25923464 0.06049804
-0.3589969 -0.25921088 0.060495969
-0.3591949 -0.25918227 0.060525008
-0.35936221 -0.25916252 0.060516126
-0.35959578 -0.25914466 0.060429651
-0.35976189 -0.2591044 0.060577646
-0.35991919 -0.25907239 0.060671475
-0.36012498 -0.25907925 0.060423657
-0.36032906 -0.25908101 0.060216211
-0.36053497 -0.25903746 0.060351327
-0.36072835 -0.2590237 0.060271967
-0.36095506 -0.2589938 0.060283568
-0.36112157 -0.25897187 0.060291991
-0.36132255 -0.25893864 0.060353313
-0.36151427 -0.25891599 0.060343169
-0.36171043 -0.25890005 0.06027763
-0.36189085 -0.25887394 0.060304448
-0.36207423 -0.2588754 0.060119029
-0.36226144 -0.25884694 0.060157344
-0.36246967 -0.25881159 0.060227849
-0.36267224 -0.25879365 0.060171507
-0.36285302 -0.25877252 0.060160261
-0.36304438 -0.2587499 0.06015012
-0.36325318 -0.2587195 0.060182571
-0.36344123 -0.25870383 0.06012284
-0.36362168 -0.25867483 0.060171571
-0.36382368 -0.25865501 0.060130235
-0.36401144 -0.25864148 0.060054354
-0.3642132 -0.25862125 0.060016483
-0.36441854 -0.25859171 0.060045488
-0.36459559 -0.2585665 0.060068853
-0.36478654 -0.25854999 0.060012579
-0.36497727 -0.25853413 0.059951674
-0.36517924 -0.25850338 0.059993386
-0.36537737 -0.25847977 0.059984367
-0.36557254 -0.25844833 0.060037635
-0.36574873 -0.25843596 0.05996412
-0.36595771 -0.25840813 0.059976958
-0.36616275 -0.25838459 0.05996098
-0.3663539 -0.25836033 0.059963524
-0.36654454 -0.25834021 0.059934925
-0.36674553 -0.25832066 0.059892442
-0.36693162 -0.25830707 0.059818882
-0.36711603 -0.25828075 0.059843369
-0.36732084 -0.25825724 0.059827395
-0.36748919 -0.25824431 0.059765458
-0.36766991 -0.25821969 0.059780736
-0.36788344 -0.25818628 0.059831612
-0.36808705 -0.25816852 0.059772968
-0.36827186 -0.25815779 0.059678651
-0.3684777 -0.25812837 0.059706502
-0.36865911 -0.25810122 0.059740227
-0.36885226 -0.25808281 0.059696622
-0.36905786 -0.25805524 0.059710637
-0.36922884 -0.25801605 0.059845917
-0.3694084 -0.25801021 0.059719328
-0.36960402 -0.25800696 0.059558071
-0.36981383 -0.25797644 0.059590515
-0.37000903 -0.25794971 0.059608027
-0.37020791 -0.2579222 0.059627835
-0.37040094 -0.25790289 0.059591152
-0.37058771 -0.25788161 0.059575256
-0.37077677 -0.25785336 0.059610114
-0.37098828 -0.25783917 0.059516825
-0.3711606 -0.25782031 0.059496388
-0.37134489 -0.25779629 0.059503574
-0.3715314 -0.25777549 0.059484228
-0.37174031 -0.25774887 0.059487831
-0.37193772 -0.25772595 0.0594742
-0.37212366 -0.25769812 0.059509061
-0.3723076 -0.25768369 0.059443593
-0.3724919 -0.25766 0.059448469
-0.37267989 -0.25764358 0.059394512
-0.37287676 -0.25762179 0.059372801
-0.37307462 -0.25760537 0.059309576
-0.37327358 -0.25758621 0.059265945
-0.37346867 -0.257568 0.059218861
-0.37367213 -0.25753173 0.059300933
-0.37386653 -0.25750101 0.059349597
-0.37405527 -0.25746855 0.059416745
-0.37425435 -0.25745589 0.059323519
-0.37445143 -0.25743362 0.059305269
-0.37463516 -0.25741804 0.059249021
-0.37482131 -0.25739121 0.05927581
-0.37501091 -0.25737688 0.059204541
-0.37519771 -0.25735515 0.059192106
-0.37538424 -0.25733995 0.059130084
-0.37559262 -0.25730902 0.059167147
-0.3757779 -0.2572841 0.059180096
-0.37596554 -0.25726107 0.059176885
-0.37615517 -0.25724596 0.059111387
-0.37634113 -0.25722569 0.059088584
-0.37654549 -0.25719661 0.059115283
-0.3767437 -0.25717238 0.059110872
-0.37693611 -0.25715768 0.059039589
-0.37712544 -0.25713196 0.059054822
-0.37732801 -0.25711131 0.059019253
-0.37752029 -0.25709131 0.058988336
-0.37770483 -0.25706819 0.058988612
-0.37788841 -0.25704655 0.058978498
-0.37808955 -0.25702301 0.058966003
-0.37827972 -0.25700131 0.058950096
-0.37847289 -0.25698 0.058928408
-0.37866914 -0.25695419 0.058937848
-0.37886396 -0.25693056 0.058932289
-0.37907115 -0.25690779 0.058908232
-0.37924981 -0.25688419 0.058917753
-0.37943 -0.2568675 0.058873054
-0.37963915 -0.25684208 0.05886744
-0.37982357 -0.25681958 0.058863092
-0.38001999 -0.25679407 0.05887023
-0.38021365 -0.25678071 0.058787398
-0.3804225 -0.25675577 0.058778323
-0.38061127 -0.25673607 0.058748584
-0.38078278 -0.25671789 0.058723539
-0.38095865 -0.25670633 0.058644257
-0.38115215 -0.25668055 0.058656022
-0.38134712 -0.25664917 0.058709301
-0.38155982 -0.25661191 0.058790166
-0.38175702 -0.25658599 0.058799598
-0.38196322 -0.25656471 0.058765166
-0.38214773 -0.25655022 0.058699682
-0.3823258 -0.25654325 0.058583494
-0.38251242 -0.25652227 0.058565296
-0.38271448 -0.25649455 0.058583926
-0.38290507 -0.25646549 0.058623388
-0.38309962 -0.25644296 0.058609761
-0.38328817 -0.25643072 0.058523506
-0.38347664 -0.25640786 0.058517989
-0.38366777 -0.25638905 0.058479007
-0.38385722 -0.25636518 0.058480408
-0.38406038 -0.25633335 0.058529027
-0.38425761 -0.25631487 0.058481943
-0.38444591 -0.25629917 0.058422215
-0.38464046 -0.25627342 0.05843281
-0.38483608 -0.25624663 0.058450334
-0.38502041 -0.25623173 0.058388311
-0.38521898 -0.25620854 0.058375828
-0.38540381 -0.25618976 0.058342643
-0.3856062 -0.25616273 0.058355514
-0.38578695 -0.25614813 0.058294669
-0.38598555 -0.25612187 0.058305249
-0.38617951 -0.25610033 0.058284715
-0.38635999 -0.2560859 0.058222711
-0.38655001 -0.25606513 0.058199886
-0.38675171 -0.25603908 0.058205836
-0.38695213 -0.25600839 0.058248706
-0.387162 -0.25597176 0.05832728
-0.38735119 -0.25595504 0.058274474
-0.38754332 -0.25593841 0.058218185
-0.38773158 -0.25591952 0.058182675
-0.38793382 -0.25588766 0.05823246
-0.38813394 -0.25586367 0.058224577
-0.38832387 -0.25585184 0.058133695
-0.38849968 -0.25584149 0.058045194
-0.3886869 -0.25581515 0.058067366
-0.38889927 -0.25577748 0.058151692
-0.38909873 -0.25575978 0.058096528
-0.38928294 -0.25574732 0.058016054
-0.38946208 -0.25573108 0.057969064
-0.3896634 -0.25570086 0.058007307
-0.38985246 -0.25568143 0.057975259
-0.39006573 -0.25564378 0.058058441
-0.39026263 -0.25562564 0.058009047
-0.39043587 -0.25561711 0.057909027
-0.39063725 -0.25558993 0.057924204
-0.39083937 -0.25556219 0.057942841
-0.39104274 -0.25553352 0.057967238
-0.39122626 -0.25551885 0.05790408
-0.39144093 -0.25548866 0.057929568
-0.39162689 -0.25545943 0.057974812
-0.39181513 -0.255436 0.057973906
-0.3920114 -0.25542095 0.057901457
-0.39220351 -0.25540432 0.057845168
-0.39240226 -0.25537989 0.057841912
-0.39258209 -0.2553657 0.057778761
-0.39276141 -0.25535187 0.057713315
-0.39296126 -0.25532424 0.057733119
-0.39316428 -0.25529426 0.057767894
-0.39335644 -0.25527519 0.057730056
-0.39355016 -0.2552526 0.057717595
-0.39375395 -0.25522465 0.057736229
-0.39395836 -0.2551963 0.057757158
-0.39413235 -0.25519121 0.057630599
-0.39433298 -0.2551612 0.057667699
-0.39454138 -0.25513238 0.05768862
-0.39473847 -0.25511208 0.057655379
-0.39492631 -0.25509417 0.057612952
-0.39512524 -0.2550703 0.057605077
-0.39531016 -0.25505456 0.057548821
-0.3954908 -0.25504196 0.057472989
-0.39567778 -0.25501806 0.057476699
-0.39591607 -0.25496367 0.05766356
-0.3961131 -0.25495672 0.05752882
-0.39630568 -0.25493124 0.057539426
-0.39647284 -0.25492391 0.057435974
-0.39668068 -0.25489411 0.057464968
-0.39687854 -0.25486931 0.057465166
-0.39708856 -0.25484028 0.05748608
-0.39724839 -0.25483799 0.057351507
-0.39746505 -0.25480023 0.057432368
-0.39763007 -0.2548005 0.057273559
-0.39784014 -0.25476128 0.057371739
-0.3980512 -0.25473395 0.057378806
-0.39821205 -0.25472865 0.057266142
-0.3984386 -0.25469086 0.057337731
-0.3986313 -0.25467613 0.057266444
-0.39884356 -0.25464621 0.057291947
-0.39899322 -0.25464624 0.057149366
-0.39918807 -0.25461805 0.057178415
-0.39944643 -0.25456175 0.057360567
-0.39961183 -0.25455922 0.057222519
-0.39983422 -0.25452894 0.05724106
-0.4000195 -0.25450936 0.057213642
-0.40021905 -0.25448635 0.057198837
-0.40041924 -0.25446489 0.057171352
-0.40060353 -0.25444606 0.057139326
-0.40079084 -0.2544291 0.057089981
-0.40098846 -0.25440556 0.057080958
-0.40119123 -0.25438261 0.057062682
-0.40139103 -0.25435591 0.057075564
-0.40158263 -0.25433448 0.057056192
-0.40178633 -0.25431108 0.057040222
-0.40198702 -0.25428778 0.057026565
-0.40218318 -0.25426549 0.057009481
-0.40240279 -0.25423238 0.057052258
-0.40258133 -0.25421742 0.056996033
-0.40278152 -0.2541928 0.056992762
-0.40297654 -0.2541714 0.056969915
-0.40317938 -0.25415069 0.056934334
-0.40338367 -0.25412375 0.056944892
-0.40359199 -0.25409266 0.056983106
-0.40377977 -0.25407761 0.056918766
-0.40397486 -0.25405818 0.056880925
-0.40417522 -0.25403383 0.056875352
-0.40437102 -0.25401053 0.056866329
-0.40455335 -0.25399876 0.056782417
-0.40476719 -0.25397182 0.056783698
-0.4049775 -0.25394186 0.056811519
-0.40516737 -0.2539205 0.056793302
-0.40536517 -0.25389284 0.056815427
-0.40556514 -0.25387597 0.05675333
-0.40577793 -0.25385344 0.056722321
-0.40596756 -0.25383407 0.056689117
-0.40615547 -0.25381234 0.056675524
-0.40635374 -0.25378811 0.056671109
-0.40656441 -0.25376022 0.056682788
-0.40676847 -0.25373617 0.056671437
-0.40696025 -0.25372079 0.056605916
-0.40717381 -0.25369146 0.056625653
-0.4073886 -0.25366321 0.056636158
-0.40757787 -0.25364602 0.056586806
-0.40777442 -0.25361988 0.056598552
-0.40798029 -0.25359514 0.056590639
-0.40816459 -0.2535792 0.056536701
-0.40837732 -0.25354755 0.056574892
-0.40857941 -0.2535283 0.056528945
-0.40878332 -0.2535049 0.056512974
-0.40898645 -0.25348353 0.056482002
-0.40917301 -0.25346488 0.0564465
-0.40936875 -0.25344127 0.056439802
-0.40959233 -0.25341374 0.056436412
-0.40978849 -0.25339156 0.056418169
-0.41000947 -0.25336087 0.056441337
-0.41021544 -0.25333676 0.056428816
-0.41040131 -0.2533218 0.056365635
-0.41060349 -0.25329512 0.056376196
-0.41080236 -0.25327644 0.056329105
-0.41098332 -0.25325951 0.05628556
-0.4111883 -0.25323611 0.056268435
-0.41139415 -0.25320926 0.056276664
-0.41159636 -0.25318289 0.056284923
-0.4117865 -0.25316438 0.056244798
-0.41199741 -0.25314113 0.056220718
-0.41222671 -0.25310546 0.056273829
-0.41240475 -0.2530933 0.05619685
-0.41262981 -0.2530615 0.056224599
-0.41282994 -0.25303659 0.056223646
-0.41304114 -0.25301498 0.056186866
-0.41323197 -0.25299639 0.056146733
-0.41344118 -0.25296852 0.056159578
-0.41364139 -0.25294527 0.056145925
-0.41383803 -0.25292534 0.056110378
-0.41404256 -0.25290731 0.056052878
-0.41424218 -0.25288594 0.056025393
-0.41443798 -0.25286219 0.056019843
-0.30678716 -0.26517957 0.06478709
-0.30701405 -0.26515225 0.064779103
-0.30727553 -0.26513287 0.064677529
-0.30751553 -0.26510876 0.06463258
-0.30773854 -0.26508084 0.064632684
-0.30796546 -0.26505244 0.064632773
-0.30815205 -0.26501617 0.064731114
-0.30841675 -0.26499823 0.064615667
-0.30864361 -0.26497301 0.064591542
-0.30887559 -0.26494762 0.064563923
-0.30911979 -0.26492524 0.064501651
-0.30933329 -0.26489562 0.064523727
-0.30955613 -0.26486683 0.064530753
-0.30978662 -0.26484147 0.064504296
-0.31002259 -0.26481754 0.064461663
-0.31025988 -0.26479405 0.064414427
-0.31046185 -0.26476192 0.064466536
-0.31069538 -0.2647377 0.064428531
-0.31090361 -0.26470572 0.064473704
-0.31111857 -0.26467696 0.064487696
-0.31136578 -0.26465651 0.064408094
-0.31157315 -0.26462597 0.064442888
-0.31181729 -0.26460499 0.06437023
-0.31208357 -0.26458988 0.064231716
-0.31232765 -0.26456922 0.064156748
-0.31254506 -0.26454169 0.064159192
-0.31275618 -0.26451099 0.064191662
-0.31294489 -0.26447597 0.064278439
-0.3131631 -0.26444879 0.064277425
-0.31339997 -0.26442674 0.064219795
-0.31361735 -0.2643995 0.064219937
-0.31386849 -0.26438159 0.064117245
-0.31409562 -0.26435727 0.064086191
-0.31429559 -0.26432553 0.064137168
-0.31450519 -0.26429486 0.064170793
-0.31474862 -0.26427534 0.064087756
-0.31496584 -0.26424858 0.064084433
-0.31518251 -0.26422176 0.064082272
-0.31540787 -0.2641975 0.064052381
-0.31563595 -0.2641741 0.064013243
-0.31584647 -0.26414576 0.064028405
-0.31608611 -0.26412594 0.063951164
-0.31630933 -0.26409981 0.063937426
-0.31650591 -0.26406759 0.063995332
-0.31672484 -0.26404202 0.063981622
-0.31697083 -0.26402459 0.063880116
-0.31717777 -0.26399562 0.063903369
-0.31738627 -0.26397225 0.063882798
-0.31762362 -0.26394755 0.063844763
-0.31785795 -0.26392716 0.063776769
-0.31807137 -0.26389876 0.063789606
-0.31827822 -0.26387012 0.063810557
-0.31849471 -0.26384455 0.063799165
-0.31871587 -0.2638205 0.063771605
-0.31893128 -0.26379472 0.063762531
-0.31915987 -0.26377326 0.063708395
-0.31937823 -0.26374865 0.063687764
-0.31959808 -0.2637246 0.063661352
-0.31981626 -0.26369834 0.063653409
-0.32002056 -0.2636694 0.063678995
-0.32025957 -0.26365194 0.063584439
-0.32046521 -0.2636236 0.063604243
-0.32066679 -0.26359394 0.063637912
-0.32089072 -0.26357183 0.063593023
-0.32110909 -0.26354617 0.063580468
-0.32135308 -0.26353112 0.063462816
-0.32155955 -0.26350343 0.063476861
-0.32175395 -0.26347163 0.063533619
-0.32197249 -0.26344821 0.063503765
-0.32219082 -0.26342481 0.063473895
-0.32239521 -0.26339665 0.063493706
-0.32259634 -0.26336735 0.063525073
-0.32282525 -0.26334614 0.063468635
-0.32304245 -0.26332271 0.063439935
-0.32325977 -0.26329947 0.063410074
-0.32348117 -0.2632778 0.063364059
-0.323677 -0.26324689 0.063412741
-0.32387561 -0.263217 0.063451037
-0.32412052 -0.26320243 0.063328773
-0.32433981 -0.26318046 0.063287377
-0.32455429 -0.26315677 0.063263297
-0.32475954 -0.26312971 0.063273869
-0.32498777 -0.26311144 0.063195527
-0.32518435 -0.26308119 0.063238434
-0.32538804 -0.26305175 0.063268624
-0.32560962 -0.26303127 0.063213371
-0.32581511 -0.26300463 0.063220493
-0.32602632 -0.26298031 0.063204505
-0.32623067 -0.26295334 0.063215084
-0.32646173 -0.26293716 0.063118264
-0.32665524 -0.26290396 0.063186578
-0.32688147 -0.26288611 0.063107081
-0.32708439 -0.26285887 0.063121125
-0.32726806 -0.26283813 0.063104108
-0.32753271 -0.26282021 0.062988684
-0.32771927 -0.26278636 0.063068554
-0.32793421 -0.26276445 0.06303063
-0.32815054 -0.26274326 0.062985793
-0.32835263 -0.262714 0.06301599
-0.32857266 -0.26269466 0.06295383
-0.32877642 -0.26266837 0.062959798
-0.32898575 -0.26264459 0.062941514
-0.32920134 -0.26262367 0.062895522
-0.32940096 -0.26259577 0.06291765
-0.32961172 -0.26257074 0.06290745
-0.32981935 -0.26254654 0.062893786
-0.33002788 -0.26252285 0.062875509
-0.33022428 -0.2624937 0.062910356
-0.33044752 -0.26247698 0.062825099
-0.33065811 -0.26245454 0.062795281
-0.33087686 -0.26243383 0.062744647
-0.33107638 -0.26240641 0.062763333
-0.33127633 -0.26237923 0.062779695
-0.33148474 -0.26235616 0.062756807
-0.33170962 -0.26234123 0.062656552
-0.33191097 -0.26231265 0.062682137
-0.3321166 -0.26228857 0.06266965
-0.33231968 -0.2622633 0.062668696
-0.33253232 -0.26224288 0.062621564
-0.33272016 -0.26221007 0.062692195
-0.33292049 -0.26218119 0.06272126
-0.33314243 -0.26216584 0.062626794
-0.33335274 -0.2621471 0.062569283
-0.33354825 -0.2621232 0.062564902
-0.33377284 -0.26210251 0.062508479
-0.3339693 -0.26207441 0.062535256
-0.33417496 -0.26204881 0.062534295
-0.33438343 -0.26202723 0.062499866
-0.33458716 -0.26200324 0.062488534
-0.33479032 -0.26197901 0.062479511
-0.33498761 -0.26195413 0.062480889
-0.3352111 -0.26193634 0.062403716
-0.3354063 -0.26190794 0.062433951
-0.33560786 -0.26188314 0.062430702
-0.33581343 -0.26186073 0.062405519
-0.33600828 -0.26183221 0.062436908
-0.33622634 -0.26181462 0.062363207
-0.33643463 -0.26179415 0.062320709
-0.33663744 -0.26177055 0.062307075
-0.33683932 -0.2617465 0.062298052
-0.3370373 -0.26172015 0.062309824
-0.33723316 -0.26169258 0.062333133
-0.33745322 -0.26167718 0.062240973
-0.33764541 -0.26164746 0.062283903
-0.33785158 -0.26162651 0.062247187
-0.33805573 -0.26160443 0.062220857
-0.33824763 -0.2615746 0.062264949
-0.33844644 -0.26154923 0.06226863
-0.33867067 -0.26154044 0.062122233
-0.33885768 -0.2615076 0.062194034
-0.33906987 -0.26149136 0.062115759
-0.33927336 -0.26146951 0.062088273
-0.33947504 -0.26144361 0.062093101
-0.33968166 -0.26142412 0.062044837
-0.33987555 -0.26139602 0.062073927
-0.34007683 -0.2613731 0.062056836
-0.34027818 -0.2613503 0.062038586
-0.34047961 -0.26132765 0.062019195
-0.34067518 -0.26130709 0.061989442
-0.34087676 -0.2612879 0.061943509
-0.34106603 -0.26125675 0.062000304
-0.34128606 -0.26123875 0.061927758
-0.34146938 -0.26120955 0.061975345
-0.34167552 -0.26118463 0.061968625
-0.34187049 -0.2611675 0.06191349
-0.34205776 -0.26113158 0.062008359
-0.3422792 -0.26111874 0.06189543
-0.34243879 -0.26109096 0.061954662
-0.34268367 -0.26107702 0.061827786
-0.34288085 -0.26105231 0.061828017
-0.34306201 -0.26102838 0.061837554
-0.34327883 -0.26100609 0.061800785
-0.34348086 -0.26098564 0.06176408
-0.34367403 -0.26095796 0.061790861
-0.34384146 -0.2609368 0.061792381
-0.34406084 -0.26091722 0.061732531
-0.34424385 -0.26090246 0.061670534
-0.3444761 -0.26088008 0.061619848
-0.34467968 -0.26085457 0.061620049
-0.34487265 -0.26082706 0.061645687
-0.34506306 -0.26080471 0.061634406
-0.34525788 -0.26077893 0.061645035
-0.34541777 -0.26076281 0.061615448
-0.34566343 -0.26073468 0.06159585
-0.34584445 -0.26070377 0.061658449
-0.34604862 -0.26068714 0.061590578
-0.34626549 -0.26067519 0.061475374
-0.34645328 -0.26064298 0.061541393
-0.34664702 -0.26062068 0.061526656
-0.34683236 -0.26059821 0.061521173
-0.3470127 -0.26057485 0.061527248
-0.34718984 -0.26054823 0.061561026
-0.34739137 -0.26054287 0.061410129
-0.34763297 -0.26050761 0.061448216
-0.3478274 -0.26048234 0.061455384
-0.34802601 -0.26046172 0.061423305
-0.3482202 -0.26043633 0.061431635
-0.34842041 -0.26041776 0.061382249
-0.34861806 -0.26039651 0.061355941
-0.348813 -0.26037222 0.061355039
-0.34900868 -0.26034892 0.061346047
-0.349199 -0.26033357 0.061281715
-0.34939158 -0.26031157 0.061265819
-0.34957448 -0.26028273 0.061311103
-0.34975275 -0.26026279 0.061292969
-0.34999493 -0.26024371 0.06120763
-0.35019127 -0.26022199 0.061185941
-0.35037276 -0.2601862 0.061285455
-0.35057873 -0.2601721 0.061196823
-0.35076705 -0.26015577 0.061141722
-0.35093367 -0.26013154 0.061167479
-0.3511374 -0.26010433 0.061180372
-0.35132575 -0.26007208 0.061246391
-0.35150164 -0.26004973 0.061249029
-0.35171962 -0.26004323 0.061091132
-0.35189828 -0.2600196 0.061100677
-0.35210869 -0.25999114 0.061116993
-0.35230055 -0.25997588 0.061050348
-0.35253444 -0.25995407 0.060993884
-0.35270885 -0.25992399 0.061056513
-0.35291848 -0.25990078 0.061033621
-0.35311392 -0.25987977 0.061007328
-0.35326961 -0.25986326 0.060984686
-0.35347405 -0.25985801 0.06083031
-0.35369396 -0.25982028 0.060907722
-0.35388365 -0.25979668 0.060906842
-0.35407287 -0.25976524 0.06096594
-0.35424754 -0.25973496 0.061029721
-0.35441041 -0.25971818 0.06100243
-0.35460696 -0.25972253 0.060782339
-0.35482323 -0.259707 0.060694806
-0.35499409 -0.25964627 0.060993932
-0.355214 -0.25963831 0.060845248
-0.35544422 -0.25962117 0.060756505
-0.35563877 -0.25959271 0.060787894
-0.3558265 -0.25956568 0.060814708
-0.35601571 -0.25955063 0.060749222
-0.35618776 -0.25953102 0.060734577
-0.35638011 -0.25950617 0.060740605
-0.35659358 -0.2594873 0.060680769
-0.35679826 -0.25946561 0.060650971
-0.35699159 -0.25943395 0.060707748
-0.35717359 -0.25942177 0.060627304
-0.35735586 -0.25940058 0.060614921
-0.35755172 -0.2593759 0.060616307
-0.35774192 -0.25934553 0.060666174
-0.35791957 -0.25932175 0.060678031
-0.35809463 -0.25931299 0.060578011
-0.35831499 -0.25929618 0.06049623
-0.35853818 -0.25926489 0.060521729
-0.35872236 -0.25923878 0.060545087
-0.35892278 -0.25921807 0.06051185
-0.35909748 -0.25919768 0.060500652
-0.35930279 -0.25916803 0.060530834
-0.35950154 -0.25915632 0.060430709
-0.35968941 -0.25913051 0.060448281
-0.35986659 -0.25910571 0.060468223
-0.36005819 -0.25907987 0.060482323
-0.36027041 -0.2590659 0.060386743
-0.3604539 -0.25903621 0.060437787
-0.36064729 -0.25902033 0.060374603
-0.36083847 -0.25899273 0.060402546
