# .PCD v0.7 - Point Cloud Data file format
VERSION 0.7
FIELDS x y z
SIZE 4 4 4
TYPE F F F
COUNT 1 1 1
WIDTH 706
HEIGHT 1
VIEWPOINT 0 0 0 1 0 0 0
POINTS 706
DATA ascii
-0.1414721 -0.33170897 0.063460663
-0.14172383 -0.33177871 0.0633673
-0.14196843 -0.33184221 0.063307397
-0.14216876 -0.33187664 0.06338492
-0.14236948 -0.33191127 0.063461281
-0.14264944 -0.3320004 0.063274398
-0.14288399 -0.33205777 0.063242212
-0.14308673 -0.33209401 0.063310497
-0.14332335 -0.33215296 0.063270241
-0.14353953 -0.33219832 0.063294649
-0.1437788 -0.33225936 0.063244
-0.14400655 -0.33231455 0.063216463
-0.14424196 -0.33237323 0.063176215
-0.14446509 -0.33242369 0.063175224
-0.14471534 -0.3324928 0.06308417
-0.14493562 -0.3325434 0.06307742
-0.14514691 -0.33258608 0.063113376
-0.14537948 -0.33264348 0.063077763
-0.14561248 -0.3327013 0.063039817
-0.14584479 -0.33275881 0.063003041
-0.14604789 -0.3327961 0.063064404
-0.14628792 -0.33286113 0.062986076
-0.14650932 -0.33291134 0.062983945
-0.14673689 -0.33296603 0.062959872
-0.14694986 -0.33301049 0.06298545
-0.1471796 -0.33306888 0.062938303
-0.14739586 -0.33311585 0.062951177
-0.14761789 -0.33316702 0.062943272
-0.14785376 -0.33322823 0.062885717
-0.14807594 -0.33327976 0.062875509
-0.14830665 -0.33333755 0.062834121
-0.14852181 -0.33338621 0.06283316
-0.14873947 -0.33343479 0.062836803
-0.14897004 -0.33349288 0.062793121
-0.14919047 -0.33354369 0.062785216
-0.14941113 -0.3335968 0.062761173
-0.14963521 -0.33365053 0.06273827
-0.14983749 -0.33368826 0.062795028
-0.15007581 -0.33375272 0.06271787
-0.15028518 -0.33380201 0.062703103
-0.15051895 -0.3338573 0.062684759
-0.15073182 -0.33390528 0.062684961
-0.15097764 -0.33397609 0.062574327
-0.15118852 -0.33402073 0.062595308
-0.15141191 -0.33407494 0.062567778
-0.15160927 -0.33411157 0.062624559
-0.151829 -0.33416319 0.062609747
-0.15206659 -0.33422863 0.062524512
-0.15228169 -0.33427694 0.062525868
-0.15249592 -0.33432683 0.062514536
-0.15271997 -0.33438233 0.062478945
-0.15292917 -0.33442852 0.06248609
-0.15314586 -0.33447847 0.062478207
-0.15336409 -0.33452976 0.062463388
-0.15360147 -0.33459628 0.062370092
-0.15380764 -0.3346405 0.062386476
-0.15401983 -0.33468735 0.062393598
-0.15422633 -0.33473197 0.062407672
-0.15444747 -0.33478615 0.062376708
-0.15465394 -0.33482867 0.062405769
-0.15487459 -0.33488724 0.062342517
-0.15509562 -0.33493948 0.062325396
-0.15531963 -0.33499655 0.062278274
-0.15553391 -0.33504581 0.062271565
-0.15575874 -0.33510387 0.062218674
-0.1559626 -0.33514708 0.062238514
-0.1561705 -0.3351914 0.062257193
-0.15639685 -0.33525348 0.062177777
-0.15656909 -0.33529404 0.062165484
-0.15681767 -0.33534914 0.06217245
-0.15698619 -0.33538195 0.062209751
-0.15726435 -0.33546475 0.062065534
-0.15746771 -0.33550575 0.062100373
-0.15766464 -0.33554134 0.062164072
-0.15789141 -0.33560255 0.062091574
-0.15808658 -0.33564156 0.062127598
-0.1583169 -0.33570376 0.062053934
-0.15854949 -0.33577064 0.061950274
-0.15875012 -0.33580974 0.061994351
-0.15896405 -0.33586308 0.061957654
-0.15918568 -0.33592093 0.061901316
-0.15939762 -0.33597028 0.061889999
-0.15957868 -0.33599216 0.062026408
-0.15978906 -0.33604279 0.062003568
-0.1600312 -0.33611968 0.061843362
-0.1602245 -0.33615777 0.061882861
-0.16037403 -0.33618727 0.061913326
-0.16065222 -0.33626124 0.061832525
-0.16085574 -0.33630103 0.061876595
-0.16108152 -0.33636412 0.06178911
-0.16128606 -0.33640763 0.061807804
-0.1614919 -0.33645517 0.061799966
-0.16169804 -0.33650035 0.061809424
-0.16191274 -0.33655369 0.061773881
-0.16214266 -0.33662173 0.061657552
-0.16234931 -0.33667055 0.061641645
-0.16254716 -0.33670825 0.061691493
-0.16275385 -0.3367545 0.061694041
-0.16295959 -0.33679992 0.061701193
-0.16317765 -0.3368603 0.06162066
-0.16337861 -0.33690125 0.061652053
-0.16358438 -0.33694699 0.061656903
-0.16380003 -0.33700266 0.061606362
-0.16400568 -0.33705139 0.061589308
-0.16421902 -0.3371051 0.061549157
-0.16443151 -0.33715814 0.061512459
-0.16460091 -0.33719116 0.061549753
-0.16482867 -0.33723915 0.061574116
-0.16504072 -0.33729208 0.061537422
-0.1652478 -0.33734003 0.061528433
-0.16545925 -0.33739266 0.061492905
-0.16567884 -0.33745402 0.061407745
-0.16588826 -0.33750492 0.061381452
-0.16608384 -0.33754432 0.061415166
-0.16628483 -0.3375864 0.061438493
-0.16649574 -0.33763924 0.061400652
-0.16670215 -0.33768737 0.061389357
-0.16691042 -0.3377409 0.061342306
-0.16711432 -0.33778653 0.061344869
-0.16731919 -0.33783334 0.061340496
-0.16752952 -0.33788636 0.061300352
-0.16773684 -0.3379395 0.061254464
-0.16794518 -0.33799061 0.061224706
-0.16813818 -0.33802786 0.061269976
-0.16833478 -0.338076 0.061242577
-0.16856238 -0.3381395 0.061155088
-0.16875719 -0.33817554 0.061211869
-0.16895069 -0.33821353 0.061252519
-0.16915566 -0.33826149 0.061240077
-0.16934586 -0.33830628 0.06122655
-0.16958229 -0.33837786 0.0610952
-0.16978283 -0.33842465 0.061083928
-0.16997077 -0.33845258 0.06118802
-0.1701842 -0.33851528 0.061083294
-0.1703949 -0.33857125 0.061022401
-0.17058563 -0.33860639 0.061079204
-0.17079081 -0.33865198 0.061084054
-0.17093085 -0.33866873 0.061190672
-0.17117056 -0.338743 0.061045472
-0.17137386 -0.33879042 0.061034188
-0.17160384 -0.33884901 0.060985886
-0.17179641 -0.33889064 0.060998868
-0.17200708 -0.33894423 0.060955264
-0.17220184 -0.33898488 0.060978614
-0.17237604 -0.33902252 0.06099052
-0.17260268 -0.33908999 0.060873054
-0.17280844 -0.3391293 0.060924031
-0.17301083 -0.33918083 0.060881622
-0.17321889 -0.33923623 0.060820736
-0.17341642 -0.33928138 0.060816392
-0.17361034 -0.33932155 0.060842056
-0.1738158 -0.33936948 0.060830764
-0.17402092 -0.33942145 0.060789496
-0.17422165 -0.33948082 0.060688287
-0.17443077 -0.3395302 0.060672358
-0.17459464 -0.33955827 0.060736205
-0.17479523 -0.33960894 0.060697265
-0.17499559 -0.33966419 0.060624886
-0.17519771 -0.33969867 0.060704693
-0.17540102 -0.33974931 0.060670346
-0.17558759 -0.33978364 0.060726024
-0.17579466 -0.33983064 0.060723953
-0.17598379 -0.33988398 0.060647003
-0.17619212 -0.33993846 0.060593031
-0.17641732 -0.33999532 0.060549367
-0.17657423 -0.34002218 0.060610935
-0.1767554 -0.3400633 0.060608976
-0.17699362 -0.34012151 0.060576789
-0.17719519 -0.3401764 0.060509015
-0.17740169 -0.34021828 0.06054268
-0.17757662 -0.34026009 0.06052576
-0.1778011 -0.34031728 0.060478643
-0.17800501 -0.34037188 0.060416624
-0.17817399 -0.34040338 0.060464293
-0.17835374 -0.34045476 0.060386248
-0.17859116 -0.34050766 0.060390949
-0.17874306 -0.34054297 0.060383357
-0.17895794 -0.34058324 0.060442358
-0.17914812 -0.34063748 0.060360804
-0.17937939 -0.3406978 0.06030212
-0.17957228 -0.34073901 0.060318563
-0.17977774 -0.34079957 0.060216174
-0.17994355 -0.34082472 0.060304224
-0.18012564 -0.34086367 0.06031955
-0.18036279 -0.3409104 0.060368083
-0.18055157 -0.34095696 0.06033957
-0.18074214 -0.34101495 0.060231484
-0.18095583 -0.34106007 0.060253594
-0.18115313 -0.34111223 0.060198523
-0.18135001 -0.34116381 0.060146913
-0.1815429 -0.34119847 0.060210627
-0.18172845 -0.34124669 0.060164832
-0.18193918 -0.34130123 0.06011432
-0.18208987 -0.34132794 0.060166687
-0.18228385 -0.34138191 0.060093179
-0.18251048 -0.34142771 0.060131378
-0.18268435 -0.34147248 0.060091399
-0.1828893 -0.34152189 0.06006857
-0.18308799 -0.34157243 0.060027331
-0.18325227 -0.34161904 0.059958573
-0.18345931 -0.34166604 0.059956498
-0.1836693 -0.34170213 0.060037438
-0.18389301 -0.34175977 0.059985705
-0.1840616 -0.34179023 0.060040303
-0.18423867 -0.34183717 0.059989937
-0.18443057 -0.34188971 0.059923351
-0.18463871 -0.3419416 0.059887834
-0.18482605 -0.3419793 0.05992043
-0.18502727 -0.34203091 0.05987573
-0.18521026 -0.3420774 0.059838012
-0.18541172 -0.34211817 0.059871715
-0.1856115 -0.34216544 0.059855837
-0.18579607 -0.34220573 0.059865385
-0.1859774 -0.34224659 0.059865732
-0.18618225 -0.34230205 0.059799105
-0.18637517 -0.34233478 0.059876651
-0.18657255 -0.34238806 0.059813499
-0.18676105 -0.34243181 0.059804592
-0.18695502 -0.34248659 0.059725322
-0.18713269 -0.34250945 0.059849061
-0.18735567 -0.34257543 0.059736229
-0.18756817 -0.34262142 0.059750266
-0.18774198 -0.34266058 0.059750646
-0.1879226 -0.34272256 0.059597641
-0.18812114 -0.34276861 0.059588686
-0.18831483 -0.34280407 0.059647791
-0.18852438 -0.34285578 0.059615716
-0.18870318 -0.34291098 0.059508845
-0.18893206 -0.34295231 0.05958277
-0.18910939 -0.34299594 0.059556611
-0.18927318 -0.34304437 0.059474021
-0.18948074 -0.34307802 0.059568804
-0.18966833 -0.34312171 0.059558738
-0.1898561 -0.343169 0.059523322
-0.19005817 -0.34322512 0.059447467
-0.1902453 -0.34326407 0.059470847
-0.19043973 -0.34331062 0.059451535
-0.19065179 -0.34336275 0.059420615
-0.19083537 -0.34340009 0.059449781
-0.19101192 -0.34343201 0.059506647
-0.19123444 -0.34349209 0.059435312
-0.19140749 -0.34352756 0.059461065
-0.19159795 -0.34358025 0.059391037
-0.19178179 -0.34361139 0.05946517
-0.19195819 -0.34365419 0.059443623
-0.19217648 -0.34371445 0.059364248
-0.19237743 -0.3437615 0.059351824
-0.19254994 -0.34380484 0.059319921
-0.19276868 -0.34385273 0.059330475
-0.19296438 -0.34391639 0.059190087
-0.19313405 -0.34394833 0.059235461
-0.19330864 -0.34400272 0.059127443
-0.19352153 -0.34403628 0.05923143
-0.19370469 -0.34407771 0.059230607
-0.19388534 -0.34411088 0.059285156
-0.19410229 -0.34417036 0.059209239
-0.194278 -0.34421235 0.059192315
-0.19446407 -0.34425762 0.059168432
-0.19465038 -0.34430119 0.059157219
-0.19487096 -0.34435734 0.059111267
-0.19505076 -0.34439608 0.059124306
-0.19523416 -0.3444353 0.059139639
-0.1954221 -0.34448776 0.059067313
-0.19562189 -0.34453601 0.059044506
-0.19581956 -0.34457734 0.059067845
-0.19599657 -0.34461239 0.059102807
-0.19618146 -0.34464604 0.059160791
-0.19637439 -0.34470585 0.059043467
-0.19656332 -0.34476542 0.058921553
-0.19675943 -0.34481201 0.058904544
-0.19695441 -0.34486222 0.058859859
-0.19713064 -0.34491184 0.058788739
-0.1973293 -0.34494972 0.058838584
-0.19752464 -0.34498668 0.058889605
-0.19771501 -0.34502748 0.058904897
-0.1979035 -0.3450844 0.058801442
-0.19809237 -0.34513944 0.058711816
-0.19828872 -0.34517407 0.058781274
-0.19848546 -0.34520814 0.058855351
-0.19866155 -0.3452754 0.058657397
-0.19886853 -0.34529397 0.058859415
-0.19905657 -0.34533152 0.058894321
-0.19925325 -0.34536719 0.058956869
-0.19944897 -0.34542283 0.058874123
-0.19963507 -0.34547359 0.058811031
-0.19982246 -0.34552127 0.058772147
-0.20000643 -0.34556767 0.058736734
-0.2002074 -0.34561104 0.058750831
-0.20046541 -0.34564999 0.058889203
-0.20067252 -0.34566686 0.059103906
-0.20088074 -0.34568283 0.059326679
-0.20107695 -0.34570026 0.059519514
-0.20128836 -0.34572724 0.059668474
-0.20149221 -0.34575427 0.059804782
-0.20170076 -0.34577385 0.060002174
-0.20190588 -0.34579346 0.060193822
-0.20211329 -0.34581694 0.060361251
-0.20232269 -0.34583801 0.060549419
-0.20252971 -0.34586382 0.060699556
-0.20273465 -0.34588724 0.060863532
-0.14142816 -0.33169582 0.063483894
-0.14162329 -0.3317284 0.063566074
-0.14184219 -0.33177486 0.06358704
-0.14211884 -0.33186132 0.063414067
-0.14232504 -0.33189958 0.063473135
-0.14253595 -0.33194104 0.063517205
-0.14277481 -0.33200115 0.063472368
-0.14299908 -0.33205345 0.063459888
-0.1432384 -0.33211416 0.063411593
-0.14346717 -0.33216974 0.063382946
-0.14370903 -0.33223245 0.063324265
-0.14505637 -0.33254465 0.063264318
-0.14620508 -0.33282655 0.063100308
-0.14640504 -0.3328636 0.063158244
-0.14665733 -0.33293554 0.06304995
-0.14688273 -0.33298877 0.063032851
-0.14709526 -0.33303297 0.063059613
-0.14731391 -0.33308354 0.063050613
-0.14751893 -0.33312252 0.063102767
-0.14775297 -0.33318427 0.063038349
-0.14798152 -0.3332403 0.063006245
-0.14817858 -0.33327571 0.063071124
-0.1483964 -0.33332416 0.063075952
-0.1486378 -0.33338982 0.062995374
-0.1488775 -0.33345443 0.062919408
-0.14907727 -0.33349207 0.062972739
-0.14931382 -0.33355471 0.062906019
-0.14953192 -0.33360595 0.062891252
-0.14976001 -0.33366266 0.062853381
-0.1499711 -0.33370894 0.062862858
-0.15018971 -0.33375886 0.062858462
-0.15041921 -0.33381703 0.062812515
-0.15064351 -0.33387142 0.062785037
-0.15087093 -0.3339304 0.062729888
-0.15109469 -0.33398467 0.06270241
-0.15128896 -0.33401883 0.062771909
-0.15151146 -0.33407235 0.062747896
-0.15171401 -0.33412343 0.062708989
-0.15192908 -0.33417577 0.062681548
-0.15217835 -0.33423534 0.062657423
-0.15239313 -0.33428344 0.062659964
-0.15261462 -0.33433896 0.06261982
-0.15281975 -0.33437973 0.062659293
-0.1530486 -0.33444127 0.062587991
-0.15325692 -0.3344847 0.062613614
-0.15348606 -0.33454677 0.062538855
-0.15368073 -0.33457956 0.062618725
-0.15391296 -0.33464217 0.062545106
-0.15413612 -0.33469778 0.062507257
-0.1543529 -0.33475065 0.062478654
-0.15456502 -0.33480215 0.062452391
-0.15475382 -0.33485749 0.062360495
-0.15494727 -0.33489868 0.062378116
-0.15513292 -0.33491534 0.062559493
-0.15539901 -0.33499297 0.06243268
-0.15559874 -0.3350372 0.062438749
-0.15586029 -0.33510467 0.062377669
-0.15608016 -0.33516112 0.062328309
-0.15629514 -0.33521134 0.062315866
-0.15648532 -0.33525035 0.062343877
-0.15671887 -0.33530924 0.062299065
-0.156937 -0.33536482 0.06225317
-0.15715456 -0.33541772 0.062225722
-0.15738344 -0.33548036 0.062146343
-0.15759057 -0.33552465 0.062163904
-0.15777832 -0.33555475 0.062251881
-0.15798846 -0.33561879 0.062132239
-0.1582182 -0.33566818 0.0621497
-0.15844199 -0.33572727 0.06208764
-0.15865004 -0.33577529 0.062079832
-0.15885662 -0.3358196 0.062096246
-0.15906245 -0.33586583 0.062097669
-0.15927801 -0.33591825 0.062070236
-0.15949094 -0.33596849 0.062054336
-0.15970322 -0.33601826 0.062040742
-0.1599139 -0.33606926 0.06201563
-0.1601263 -0.33611938 0.061999742
-0.16033776 -0.33617136 0.061968863
-0.16053745 -0.3362101 0.062014125
-0.16075206 -0.33626521 0.061965931
-0.16097271 -0.33632344 0.061905045
-0.16116032 -0.33636716 0.061895017
-0.16132309 -0.33640653 0.061875869
-0.1615964 -0.33647153 0.061851639
-0.16180108 -0.33650997 0.061907269
-0.1620208 -0.3365736 0.061806027
-0.16222593 -0.33661532 0.061838578
-0.16242872 -0.33666039 0.061843485
-0.16264406 -0.33671486 0.061801046
-0.16284117 -0.33675462 0.061834797
-0.16304632 -0.33679941 0.061845455
-0.16325672 -0.33685228 0.061806504
-0.16346855 -0.33690387 0.061779089
-0.16368416 -0.33695936 0.061729737
-0.16389784 -0.33701313 0.06168963
-0.16409768 -0.33705607 0.061704919
-0.16431019 -0.33710894 0.061669417
-0.16451751 -0.33715966 0.061640859
-0.1647336 -0.33721656 0.06158229
-0.16492812 -0.33725446 0.061625272
-0.16513373 -0.33730078 0.061625548
-0.16534412 -0.33735526 0.06157507
-0.16555117 -0.33740336 0.061564967
-0.16574255 -0.33743814 0.06162525
-0.16594443 -0.3374809 0.061645143
-0.16614673 -0.3375273 0.06163967
-0.16636041 -0.33758605 0.061563816
-0.16656241 -0.33764198 0.061489161
-0.16678721 -0.33770052 0.061432861
-0.1669993 -0.33775505 0.061384682
-0.16719142 -0.33779752 0.06139078
-0.1674049 -0.33784741 0.061378345
-0.16760239 -0.33788612 0.061420158
-0.16781145 -0.33793789 0.061386976
-0.16801663 -0.33798543 0.061378032
-0.1682267 -0.33804205 0.06131142
-0.16842705 -0.33808431 0.061332468
-0.16862094 -0.33813986 0.061247472
-0.16883612 -0.33818227 0.061291516
-0.16903943 -0.33823177 0.06126529
-0.16923641 -0.3382704 0.061307102
-0.16944097 -0.33832163 0.061270494
-0.16965033 -0.33837521 0.061224636
-0.16984653 -0.3384167 0.061244544
-0.17004943 -0.33846274 0.061242528
-0.17025971 -0.33852166 0.061159771
-0.17045677 -0.33856079 0.061198127
-0.17065218 -0.33860159 0.061221503
-0.17085436 -0.33864716 0.061221793
-0.17105094 -0.33869722 0.061180606
-0.1712383 -0.33874345 0.06115213
-0.1714617 -0.33879331 0.061155796
-0.17165835 -0.33883217 0.061195299
-0.17186448 -0.33888745 0.061132163
-0.1720611 -0.3389425 0.061055228
-0.17227341 -0.33899033 0.061055474
-0.172473 -0.33903757 0.061039641
-0.17267683 -0.3390907 0.060988039
-0.17288479 -0.3391456 0.060930647
-0.17308278 -0.33919117 0.060924038
-0.17327602 -0.33923021 0.060956653
-0.17348023 -0.33928472 0.060895823
-0.17368302 -0.33933315 0.060876515
-0.17388032 -0.33937824 0.060872212
-0.17408235 -0.33942586 0.06085752
-0.17427301 -0.33946145 0.060910881
-0.17447636 -0.33951575 0.060850069
-0.17466113 -0.33956107 0.06082391
-0.17485368 -0.33960429 0.060825396
-0.17506096 -0.33965117 0.060824513
-0.17526561 -0.33969408 0.060847852
-0.17547351 -0.33975664 0.060735121
-0.17567101 -0.33979842 0.060755037
-0.17585401 -0.3398369 0.060775004
-0.17605655 -0.33987677 0.060816798
-0.1762625 -0.33993745 0.060714453
-0.17646317 -0.33998477 0.060699761
-0.17664273 -0.34002313 0.060715143
-0.17681384 -0.34005782 0.060743231
-0.17705034 -0.34011835 0.060691491
-0.17725585 -0.34018004 0.060581084
-0.17744653 -0.34021628 0.060629852
-0.17764089 -0.34025896 0.060638241
-0.17783713 -0.34030509 0.060624719
-0.17803258 -0.34034991 0.060619272
-0.17822774 -0.34039438 0.060616136
-0.17843249 -0.34045094 0.060541477
-0.17863001 -0.34050027 0.060507197
-0.17881736 -0.34053636 0.06055136
-0.17898841 -0.34059027 0.060441099
-0.17922187 -0.34064835 0.060402058
-0.17941295 -0.34068578 0.060442746
-0.17960958 -0.34074101 0.060364656
-0.17980202 -0.34077474 0.060434163
-0.17999876 -0.34082404 0.060398735
-0.1801832 -0.34086111 0.060431384
-0.18037903 -0.3409158 0.060355607
-0.18056405 -0.34095427 0.060379028
-0.18072809 -0.34099635 0.06034258
-0.18094505 -0.34104878 0.060317446
-0.1811564 -0.34110346 0.060266972
-0.1813575 -0.34114975 0.060260344
-0.18153562 -0.34117991 0.06033222
-0.18174426 -0.34122086 0.060376294
-0.18193989 -0.3412779 0.060283221
-0.18214393 -0.34132388 0.060283501
-0.18232518 -0.34137017 0.060244679
-0.18251383 -0.34141043 0.060261171
-0.18269083 -0.34145463 0.060230434
-0.18291739 -0.34150904 0.060206406
-0.18307324 -0.3415406 0.060232267
-0.18328133 -0.34160867 0.060080338
-0.18348031 -0.34165108 0.060097933
-0.18366604 -0.3416934 0.060094833
-0.18385996 -0.34173054 0.060142428
-0.18403865 -0.34178215 0.060060963
-0.18423288 -0.34183106 0.060024388
-0.18444979 -0.3418785 0.06003499
-0.18466803 -0.34193057 0.060014464
-0.18483916 -0.34198147 0.059926108
-0.18505394 -0.34202203 0.059982836
-0.18523644 -0.3420665 0.059959002
-0.18541199 -0.34212336 0.059834883
-0.18560436 -0.34215498 0.059919383
-0.18579136 -0.34219134 0.059961241
-0.18601196 -0.34224156 0.059957992
-0.18618406 -0.34227148 0.060021825
-0.18638559 -0.34232733 0.05994717
-0.18655163 -0.34237641 0.059863452
-0.1867436 -0.34242064 0.059856866
-0.18693565 -0.34246549 0.059845671
-0.18713593 -0.34251848 0.059789475
-0.18732643 -0.34255546 0.059832476
-0.18752 -0.34261045 0.059750937
-0.18772276 -0.34266016 0.059722405
-0.1878961 -0.34269711 0.059737802
-0.18809734 -0.34273717 0.05977615
-0.18828951 -0.34278607 0.059736125
-0.18848732 -0.34282601 0.059769869
-0.18866496 -0.34287003 0.059741437
-0.18885279 -0.3429133 0.05973487
-0.18905941 -0.34297204 0.059647519
-0.18927494 -0.34301677 0.059675418
-0.189459 -0.34305856 0.059673481
-0.1896363 -0.34310395 0.059634682
-0.18984097 -0.34314203 0.059692599
-0.19003288 -0.34320149 0.059576489
-0.19022764 -0.34325337 0.059519157
-0.19040401 -0.34328443 0.059581824
-0.19058418 -0.34332231 0.059601799
-0.19079277 -0.34337282 0.059576698
-0.19096951 -0.34342337 0.059499849
-0.19116727 -0.34346616 0.059512842
-0.19136143 -0.34351489 0.059477426
-0.19155557 -0.34355864 0.059477746
-0.19174606 -0.3436054 0.059450414
-0.19192632 -0.34363863 0.059503838
-0.19214439 -0.343703 0.059394524
-0.19232072 -0.34374288 0.059393771
-0.19250773 -0.34378356 0.0594045
-0.19267944 -0.34383667 0.059301153
-0.19287646 -0.34388474 0.059274953
-0.1930784 -0.34391823 0.059361711
-0.19326127 -0.34396341 0.059333257
-0.19347262 -0.34401169 0.059328899
-0.19366974 -0.34405771 0.059317682
-0.19385616 -0.34410197 0.05930189
-0.19402561 -0.34413755 0.059320774
-0.19421165 -0.34418395 0.059288852
-0.19438897 -0.34421602 0.059345745
-0.19459847 -0.34427446 0.059265289
-0.19478481 -0.34431806 0.059254117
-0.19497837 -0.34436199 0.059252143
-0.19516996 -0.34441558 0.059177533
-0.1953716 -0.34445572 0.059215866
-0.19556427 -0.34450328 0.059186224
-0.19572376 -0.34456566 0.058996461
-0.19593474 -0.34459749 0.059109703
-0.19611271 -0.34464335 0.059068587
-0.19630402 -0.34468052 0.059111588
-0.19650094 -0.34471142 0.059208743
-0.19667311 -0.34476429 0.059107706
-0.19685908 -0.34482029 0.059006602
-0.1970572 -0.34486029 0.059040345
-0.19725336 -0.34491861 0.058939196
-0.1974414 -0.34495488 0.058983356
-0.19764523 -0.34500065 0.058984797
-0.19782872 -0.34503958 0.059002459
-0.19802004 -0.3450886 0.05896014
-0.19819662 -0.34513593 0.058906343
-0.19838533 -0.34518114 0.058887094
-0.1985833 -0.34522209 0.05891392
-0.19877447 -0.34525168 0.059011102
-0.19896169 -0.34530988 0.058896162
-0.199157 -0.34535742 0.058871116
-0.19934013 -0.34539738 0.058880713
-0.19953956 -0.34544423 0.058867175
-0.19973996 -0.34549725 0.058810979
-0.19993092 -0.34553707 0.058834378
-0.20012106 -0.34558681 0.058785133
-0.20031364 -0.34562346 0.058833897
-0.2005074 -0.34567353 0.058788106
-0.20070559 -0.34571481 0.058812618
-0.20088521 -0.34576905 0.058713846
-0.2010778 -0.34579882 0.058812182
-0.20125432 -0.34585109 0.058722652
-0.20145142 -0.34588748 0.058780611
-0.20163529 -0.34594029 0.058699112
-0.20182838 -0.34598377 0.05869944
-0.20207503 -0.34602448 0.05880677
-0.20229678 -0.34604129 0.059045628
-0.2025016 -0.34606066 0.059238449
-0.20270593 -0.3460817 0.059418596
-0.20290458 -0.34610611 0.059565328
-0.20309226 -0.3461293 0.059702877
-0.20332158 -0.34615791 0.05986907
-0.20353089 -0.34618071 0.060044579
-0.20373617 -0.34620419 0.060208574
-0.20394348 -0.34623137 0.060349502
-0.20415878 -0.34624815 0.060578011
-0.20437318 -0.34626713 0.060789242
-0.14206964 -0.33182788 0.063574724
-0.14229299 -0.33187759 0.06357953
-0.14252162 -0.33193088 0.063567013
-0.14276305 -0.33199462 0.063500248
-0.14298704 -0.33204687 0.063487761
-0.14320827 -0.33209738 0.063483357
-0.14343767 -0.33215165 0.063465074
-0.14366131 -0.33220398 0.063451424
-0.1439133 -0.33227381 0.063358091
-0.14410166 -0.33230245 0.063457601
-0.14434737 -0.33236828 0.063382752
-0.14457633 -0.3324247 0.063348338
-0.14480659 -0.33248031 0.06332197
-0.14501101 -0.33252013 0.063367225
-0.14523265 -0.33257183 0.063354746
-0.14545614 -0.33262494 0.063335329
-0.14571249 -0.33269912 0.063217759
-0.14593536 -0.33275208 0.063198358
-0.14615519 -0.33280116 0.063202024
-0.14728731 -0.33307704 0.063054182
-0.14750385 -0.3331244 0.063064784
-0.14770478 -0.33316264 0.063115805
-0.1479367 -0.33322117 0.063070998
-0.14816403 -0.33327851 0.063027352
-0.14837277 -0.33332059 0.063063353
-0.14858001 -0.33336359 0.063090146
-0.14879718 -0.3334119 0.063094974
-0.14903089 -0.33347437 0.063024789
-0.14926755 -0.33353719 0.062956885
-0.14947125 -0.33357796 0.062994063
-0.14971985 -0.3336499 0.062879995
-0.14992435 -0.33368942 0.062927559
-0.15015398 -0.33374968 0.062866598
-0.15039736 -0.33381835 0.062767543
-0.15060599 -0.3338612 0.062797785
-0.15080631 -0.33389992 0.062844202
-0.1510172 -0.33394456 0.062865205
-0.1512551 -0.33401182 0.062767327
-0.15144971 -0.33404428 0.062849514
-0.15165989 -0.33408862 0.062871672
-0.1519109 -0.33416429 0.062734529
-0.15211408 -0.3342056 0.062767088
-0.15233898 -0.3342616 0.062729232
-0.15254429 -0.33430898 0.062721431
-0.15276349 -0.33436078 0.06270434
-0.15298259 -0.33441916 0.062639982
-0.15321432 -0.33447236 0.062633224
-0.15344235 -0.33453372 0.062561907
-0.15364233 -0.33456868 0.062634848
-0.15386052 -0.3346225 0.062601626
-0.15407731 -0.33467314 0.062589154
-0.15427028 -0.33471373 0.062610246
-0.15450531 -0.33477247 0.062568873
-0.15472344 -0.33482677 0.062532187
-0.1549578 -0.33489212 0.062442392
-0.1551656 -0.33493605 0.062463418
-0.15537572 -0.33498198 0.062474038
-0.1555929 -0.33503607 0.062437363
-0.15580648 -0.335085 0.062431835
-0.15602481 -0.33514032 0.062388226
-0.15620711 -0.33517048 0.062467013
-0.15644401 -0.33523446 0.06239105
-0.15667963 -0.33530232 0.062285099
-0.15687974 -0.33534053 0.062334977
-0.15712836 -0.33541986 0.062167861
-0.1573005 -0.33544403 0.062273204
-0.15747067 -0.3354761 0.062318604
-0.15768212 -0.33551204 0.062403031
-0.15793946 -0.33558756 0.062277388
-0.15813328 -0.33562303 0.062336519
-0.15835831 -0.33568323 0.062268674
-0.15858002 -0.33574075 0.06221468
-0.15877268 -0.33578286 0.062224224
-0.1590039 -0.33584157 0.062177114
-0.15919966 -0.33587652 0.062243156
-0.15943256 -0.33594716 0.062112994
-0.159637 -0.33599001 0.062136345
-0.1598499 -0.33604059 0.062118135
-0.16006285 -0.33609131 0.062098764
-0.16027582 -0.33614475 0.062059797
-0.16048534 -0.33619261 0.062055435
-0.16069333 -0.33623916 0.062058005
-0.16090442 -0.33628866 0.062044419
-0.16112114 -0.33634618 0.061982367
-0.1613282 -0.33639219 0.061987244
-0.16154218 -0.33644748 0.061936747
-0.16175005 -0.33649448 0.061935849
-0.16195957 -0.33654314 0.061925732
-0.16216058 -0.33658379 0.06195946
-0.16233045 -0.33663055 0.061898768
-0.16257475 -0.3366797 0.061941542
-0.1627861 -0.33673054 0.061918728
-0.16302037 -0.33680388 0.061771266
-0.16322914 -0.33685541 0.06173924
-0.16342983 -0.3368963 0.061770663
-0.16363382 -0.33694053 0.061783627
-0.16383298 -0.33698282 0.06180238
-0.16404194 -0.33703506 0.06176573
-0.16424714 -0.33707777 0.061791375
-0.1644589 -0.33713013 0.061758175
-0.16464557 -0.33718085 0.061696261
-0.1648806 -0.33723351 0.061698716
-0.1650888 -0.33728573 0.061660923
-0.16529897 -0.33733711 0.061632343
-0.16550112 -0.33738026 0.061649926
