# .PCD v0.7 - Point Cloud Data file format
VERSION 0.7
FIELDS x y z
SIZE 4 4 4
TYPE F F F
COUNT 1 1 1
WIDTH 793
HEIGHT 1
VIEWPOINT 0 0 0 1 0 0 0
POINTS 793
DATA ascii
-0.25222912 -0.26393631 0.06194602
-0.25242883 -0.26390314 0.062009752
-0.25265002 -0.26387787 0.061996158
-0.25289243 -0.26385728 0.061929457
-0.2531175 -0.26383173 0.06191469
-0.25334647 -0.26380742 0.061887231
-0.25355473 -0.26377869 0.061910577
-0.25379032 -0.26375657 0.061861191
-0.25402302 -0.26373371 0.061819889
-0.25423694 -0.26370525 0.061836291
-0.25445154 -0.26367876 0.06183771
-0.25467801 -0.26365426 0.06181372
-0.25489697 -0.26362929 0.06180013
-0.25512803 -0.26360646 0.06175999
-0.25533608 -0.26357651 0.061792552
-0.25557455 -0.26355624 0.061727013
-0.25579837 -0.26353145 0.061707642
-0.25601381 -0.26350406 0.061714828
-0.25624737 -0.26348615 0.061636634
-0.25645646 -0.26345512 0.061676107
-0.25668645 -0.26343271 0.061633665
-0.25690812 -0.26340774 0.061617762
-0.25711834 -0.26338083 0.061626114
-0.25730568 -0.26335892 0.061618425
-0.25757757 -0.26333663 0.061537765
-0.25778499 -0.26330721 0.061566882
-0.25799182 -0.26327947 0.061584461
-0.25821978 -0.26325718 0.061543174
-0.25843331 -0.26323554 0.061510019
-0.25867617 -0.26321316 0.061455995
-0.2588793 -0.26318443 0.061483968
-0.25909394 -0.26316532 0.061431214
-0.25932664 -0.26313791 0.061423331
-0.25952277 -0.26311806 0.061392557
-0.25976056 -0.26308888 0.061392728
-0.25998521 -0.26306638 0.061356064
-0.26020765 -0.26304317 0.061326325
-0.26041341 -0.26301399 0.061355449
-0.26063737 -0.26299343 0.061304957
-0.26085564 -0.26296902 0.06128791
-0.26106483 -0.26294127 0.061303183
-0.26129004 -0.26291963 0.061259609
-0.26150763 -0.26289719 0.061228734
-0.26171136 -0.2628676 0.06126247
-0.26193902 -0.26284724 0.061207354
-0.26215118 -0.26282105 0.061208785
-0.2623615 -0.26279616 0.061202154
-0.26258501 -0.26277459 0.061159726
-0.26279375 -0.26274925 0.061157711
-0.26301438 -0.26272675 0.061124526
-0.2632342 -0.26270404 0.061093647
-0.26344115 -0.26267627 0.061111242
-0.26363465 -0.26264513 0.061165757
-0.26386377 -0.26262644 0.061096817
-0.26407188 -0.26259932 0.061108626
-0.26430571 -0.26258293 0.061018899
-0.264512 -0.2625573 0.061021514
-0.26471907 -0.26253 0.061035641
-0.26493722 -0.26250952 0.060989786
-0.26516128 -0.26248959 0.060934685
-0.26536503 -0.2624611 0.060960345
-0.26555574 -0.26243973 0.060945727
-0.26579821 -0.26241755 0.060890555
-0.26599431 -0.2623859 0.060946222
-0.26621121 -0.26236561 0.060900368
-0.26642805 -0.26234323 0.060869507
-0.26664636 -0.26232165 0.060831718
-0.26686031 -0.26229823 0.060811229
-0.26706651 -0.26227796 0.060774654
-0.26728061 -0.26225042 0.060784142
-0.26748592 -0.26222554 0.060782142
-0.26770592 -0.2622053 0.060732815
-0.26791549 -0.26218036 0.060727339
-0.26812205 -0.26215407 0.060734559
-0.26831493 -0.26212361 0.060784474
-0.26853731 -0.26210499 0.060721301
-0.26874936 -0.26208386 0.060685851
-0.26895618 -0.26205799 0.060689613
-0.26916686 -0.26203638 0.060658768
-0.26938075 -0.26201186 0.060646355
-0.2695832 -0.26198873 0.060633991
-0.26979455 -0.2619631 0.060631964
-0.27000174 -0.26194257 0.060596526
-0.27021605 -0.26191863 0.060579509
-0.27043182 -0.26190034 0.060519822
-0.27064666 -0.26187932 0.0604809
-0.27083036 -0.26185188 0.060517021
-0.27104521 -0.26182377 0.06052997
-0.27126005 -0.26180309 0.060488734
-0.27146986 -0.26177984 0.060470581
-0.27166712 -0.26175734 0.060458235
-0.27186826 -0.26173708 0.060426287
-0.27207389 -0.26171687 0.060389705
-0.27229288 -0.26168904 0.060396861
-0.27248698 -0.26167026 0.060360327
-0.27269432 -0.26164371 0.060368694
-0.27289164 -0.26162183 0.060351733
-0.27309892 -0.26159796 0.060340509
-0.27331802 -0.26157582 0.060306169
-0.27351725 -0.26155797 0.06025809
-0.27373922 -0.26152459 0.060303282
-0.27396443 -0.26150641 0.060234345
-0.27414468 -0.26148298 0.060243972
-0.27433908 -0.26146007 0.0602374
-0.2745629 -0.26143339 0.060231864
-0.27477172 -0.26140854 0.060226396
-0.2749131 -0.26138058 0.060304187
-0.27517682 -0.26137614 0.060100231
-0.27537629 -0.26135132 0.060102865
-0.27557436 -0.26132292 0.060133167
-0.27577558 -0.26130214 0.060104668
-0.2759791 -0.26128298 0.060062326
-0.27617452 -0.26125583 0.060085725
-0.27638766 -0.26123172 0.060071018
-0.27658063 -0.26120016 0.060129009
-0.27676994 -0.26118067 0.06010171
-0.27701107 -0.26115805 0.060051143
-0.27719951 -0.26114121 0.060005412
-0.27741182 -0.26112002 0.059969954
-0.27760863 -0.26109427 0.059981823
-0.2778109 -0.26107842 0.059916433
-0.27801952 -0.26105204 0.059922487
-0.27822354 -0.26102856 0.059911273
-0.27843076 -0.26100439 0.059902348
-0.27863699 -0.26098585 0.059853084
-0.27883896 -0.2609612 0.059852242
-0.27904034 -0.26093617 0.059854865
-0.27923223 -0.2609137 0.059847157
-0.27943709 -0.26088822 0.059849776
-0.27964112 -0.2608687 0.059809741
-0.27983692 -0.26084623 0.059798557
-0.28003943 -0.26082578 0.059766598
-0.28023309 -0.26080185 0.059768103
-0.28043503 -0.26077783 0.059762649
-0.28063184 -0.26075318 0.059766449
-0.28082529 -0.26072928 0.059767962
-0.28103039 -0.26071498 0.059688725
-0.28122827 -0.26068106 0.059759375
-0.28143954 -0.26067576 0.059608646
-0.28163671 -0.2606484 0.059632041
-0.28184575 -0.26062763 0.059596602
-0.28203875 -0.2606003 0.059623465
-0.28225893 -0.26058227 0.059558008
-0.28245094 -0.26055789 0.059564129
-0.28264743 -0.26053756 0.0595368
-0.28285444 -0.26050821 0.059565917
-0.28305012 -0.26048353 0.059570871
-0.28323054 -0.26046389 0.059552826
-0.28345305 -0.26045299 0.059433188
-0.28366241 -0.26042223 0.059470359
-0.28385162 -0.26039174 0.059523758
-0.28406462 -0.26037237 0.059474461
-0.28427961 -0.26035118 0.059436686
-0.28446272 -0.2603268 0.059450913
-0.28464136 -0.2603102 0.059412137
-0.28486308 -0.26028395 0.059405461
-0.28506222 -0.26026377 0.05937466
-0.28522685 -0.26023722 0.059421238
-0.28542477 -0.26021591 0.059399679
-0.28563613 -0.26019186 0.059386119
-0.28583375 -0.26017484 0.059333436
-0.28606099 -0.26015088 0.05930483
-0.28625935 -0.2601352 0.059241764
-0.28645793 -0.26010182 0.059307806
-0.2866405 -0.2600821 0.05928861
-0.28681788 -0.26006109 0.059283257
-0.28702298 -0.26004928 0.059185591
-0.28720224 -0.26001656 0.059264377
-0.28742528 -0.25999817 0.059198909
-0.28760901 -0.25998047 0.059163567
-0.28780377 -0.2599619 0.059124719
-0.28802449 -0.25994146 0.059076551
-0.28822786 -0.25990906 0.059131037
-0.28839314 -0.25989363 0.059095774
-0.28858089 -0.25986648 0.059126124
-0.28878707 -0.25985345 0.059036516
-0.28900835 -0.25982946 0.059013698
-0.28919891 -0.25980636 0.059011761
-0.28938651 -0.25977921 0.0590421
-0.28959256 -0.25974494 0.059108108
-0.28979093 -0.25973886 0.058974728
-0.28998813 -0.25971448 0.058976218
-0.29017106 -0.25969201 0.058976613
-0.29035312 -0.25966242 0.059030034
-0.29054293 -0.25965059 0.058946259
-0.29074183 -0.2596353 0.058879733
-0.29094216 -0.2596041 0.058928467
-0.29114959 -0.25957802 0.058933374
-0.29135185 -0.25956261 0.058864534
-0.29153851 -0.25954065 0.058857996
-0.29173473 -0.25951543 0.058866411
-0.29193938 -0.25949159 0.058857493
-0.29213852 -0.25947863 0.058773674
-0.29232889 -0.25945005 0.058812082
-0.29251355 -0.25942484 0.058830909
-0.29270294 -0.25940141 0.058832437
-0.29289573 -0.25938466 0.058782078
-0.29308555 -0.25936231 0.058775526
-0.29328662 -0.25934756 0.058703229
-0.29347745 -0.25931984 0.058734711
-0.29367179 -0.25929946 0.0587097
-0.29387048 -0.25928056 0.05866969
-0.29407108 -0.2592662 0.058595091
-0.29426712 -0.25923344 0.058658831
-0.29446474 -0.25921279 0.058632657
-0.29464307 -0.25918207 0.058697619
-0.29484281 -0.25917599 0.058563083
-0.29503912 -0.2591528 0.058556512
-0.2952362 -0.25913176 0.058533799
-0.29543272 -0.25910938 0.05852145
-0.29562002 -0.25910273 0.058401957
-0.29581422 -0.25906408 0.058510657
-0.29599988 -0.25904301 0.058498368
-0.29622126 -0.25901806 0.058482453
-0.2964001 -0.25898758 0.058545113
-0.29659501 -0.25897262 0.05847976
-0.29678425 -0.25895172 0.058462843
-0.29698482 -0.25893199 0.058427438
-0.29717356 -0.25890976 0.058420889
-0.29737103 -0.25889292 0.058367051
-0.29756472 -0.25886205 0.058419265
-0.29775101 -0.25884515 0.05837585
-0.29794824 -0.25882849 0.058320865
-0.29814699 -0.25880346 0.058325805
-0.2983391 -0.25878111 0.058316939
-0.29852855 -0.25876382 0.058273505
-0.29872856 -0.2587454 0.05822888
-0.29891676 -0.25872278 0.058225792
-0.29910725 -0.25869292 0.05827342
-0.29930711 -0.25867483 0.058226489
-0.29949829 -0.25864851 0.058247592
-0.29968739 -0.25863206 0.058198396
-0.29988971 -0.25860801 0.058192953
-0.30008444 -0.2585811 0.058215201
-0.30027235 -0.25855708 0.058222491
-0.30046383 -0.25853246 0.058230925
-0.30065244 -0.25851482 0.058190957
-0.30084449 -0.25849691 0.058149815
-0.3010667 -0.25845468 0.05825955
-0.30128136 -0.25840232 0.058450006
-0.30146146 -0.25836161 0.058586426
-0.30166638 -0.25830922 0.058786139
-0.30186138 -0.25826353 0.058945555
-0.30204964 -0.25821802 0.059109606
-0.30224898 -0.25816977 0.059283987
-0.30244163 -0.25811884 0.059483748
-0.30263838 -0.25807184 0.059651222
-0.30283201 -0.25802508 0.059819862
-0.30302969 -0.25797495 0.060009226
-0.30322427 -0.25792697 0.060185935
-0.24538045 -0.26469067 0.062568054
-0.24559636 -0.26466134 0.062589079
-0.24582806 -0.26463589 0.062567413
-0.2460655 -0.26461199 0.062529564
-0.24628794 -0.26458293 0.062542498
-0.24654353 -0.26456374 0.062453866
-0.24678159 -0.26453879 0.062422942
-0.24699032 -0.26450813 0.062460154
-0.24724267 -0.26448852 0.062377289
-0.24746904 -0.26446247 0.062364854
-0.24765591 -0.26442486 0.062472463
-0.24796423 -0.26442 0.062231455
-0.24814212 -0.26438019 0.062363308
-0.248375 -0.2643562 0.062330097
-0.24862154 -0.26433429 0.062269162
-0.24881661 -0.26430058 0.062341005
-0.24909799 -0.26428813 0.06217964
-0.2493203 -0.26426181 0.06217299
-0.24951944 -0.26422775 0.062243663
-0.2497527 -0.26420447 0.062204689
-0.24998452 -0.26417935 0.062180705
-0.25022835 -0.2641592 0.062109411
-0.25043735 -0.26412803 0.062150069
-0.2506904 -0.26411071 0.062049922
-0.2509132 -0.26408353 0.062049024
-0.25111926 -0.26405334 0.062085081
-0.2513417 -0.26402619 0.062084198
-0.25156966 -0.26400232 0.062054455
-0.25177801 -0.26397297 0.062082447
-0.25201917 -0.26395142 0.062023845
-0.25222909 -0.26392266 0.062046051
-0.25246736 -0.26390052 0.061994374
-0.2526882 -0.2638734 0.061994642
-0.25291127 -0.26384872 0.061975304
-0.25315508 -0.26382858 0.061904006
-0.2533716 -0.26380217 0.061903141
-0.25357252 -0.26376945 0.06196228
-0.25381148 -0.2637499 0.061891004
-0.25400907 -0.2637299 0.061860234
-0.25420782 -0.26370689 0.06185022
-0.25449875 -0.26367977 0.061787955
-0.25470859 -0.26365179 0.061804406
-0.25492662 -0.26362473 0.061806988
-0.25515029 -0.26360121 0.061778426
-0.25538635 -0.26357996 0.061722152
-0.25558868 -0.26354992 0.06176053
-0.25578207 -0.26351529 0.061840452
-0.25599927 -0.26349005 0.061830349
-0.25621563 -0.26348051 0.061706141
-0.25646517 -0.26346424 0.0616014
-0.25670955 -0.26343587 0.061590038
-0.25693125 -0.26340723 0.061600681
-0.25714979 -0.26338118 0.061595187
-0.25735915 -0.26335219 0.061619714
-0.2575722 -0.26332447 0.061631542
-0.25780582 -0.26330557 0.061560281
-0.25802839 -0.26328126 0.061538637
-0.25825322 -0.26325965 0.061495088
-0.25846016 -0.26323566 0.061485033
-0.25867209 -0.26320428 0.061524533
-0.25889885 -0.26318181 0.061485581
-0.25911048 -0.263156 0.061484732
-0.25932649 -0.26312995 0.061481565
-0.25954962 -0.2631084 0.061439164
-0.25976986 -0.26308405 0.061419837
-0.25999475 -0.26306149 0.061383203
-0.26022947 -0.26304263 0.061310787
-0.26043215 -0.26301411 0.061337642
-0.26064542 -0.26298761 0.061340243
-0.26086742 -0.26296636 0.061296709
-0.26109022 -0.2629436 0.061263539
-0.26129904 -0.26291764 0.06126615
-0.26151446 -0.26289231 0.061258379
-0.26174065 -0.26287115 0.061210208
-0.2619476 -0.26284277 0.061232436
-0.26215956 -0.26281831 0.061221212
-0.26239955 -0.2628029 0.0611188
-0.26260093 -0.26277456 0.06114566
-0.2628009 -0.26274368 0.061192125
-0.26302332 -0.26272175 0.061153192
-0.2632485 -0.26270103 0.061102711
-0.26343507 -0.26266694 0.061184965
-0.26366165 -0.262647 0.061127573
-0.26388562 -0.2626282 0.06106443
-0.26409417 -0.26260117 0.061075117
-0.2643185 -0.26258278 0.061008513
-0.26451325 -0.26255429 0.061042316
-0.26473805 -0.26253223 0.061002214
-0.26495677 -0.26250979 0.060970213
-0.26517236 -0.26248616 0.06094975
-0.26538607 -0.26246181 0.06093622
-0.2655879 -0.26244304 0.060892757
-0.26580098 -0.2624101 0.060942627
-0.2660107 -0.26238641 0.060927954
-0.26622963 -0.26236475 0.060890183
-0.26644844 -0.26234528 0.060836278
-0.26665062 -0.26231638 0.060866587
-0.26686487 -0.2622951 0.060830001
-0.26708704 -0.2622754 0.060774926
-0.26728374 -0.26224416 0.060827162
-0.26750094 -0.26222238 0.060791709
-0.2676985 -0.26219827 0.060790919
-0.26792744 -0.26217774 0.060735822
-0.26814073 -0.26215675 0.060698085
-0.26836044 -0.26213893 0.060631491
-0.26854491 -0.26211581 0.060635366
-0.2687546 -0.26209116 0.060627609
-0.26896685 -0.26205865 0.06067517
-0.26917213 -0.26203659 0.060652442
-0.2693873 -0.26201254 0.060635448
-0.26957101 -0.26198697 0.060657762
-0.26979977 -0.26196757 0.060594596
-0.26997018 -0.26194724 0.060590453
-0.27023515 -0.26192281 0.060531758
-0.27043992 -0.26189876 0.060524017
-0.27061644 -0.26187944 0.060507171
-0.27083725 -0.26185423 0.0604936
-0.27105922 -0.26183218 0.060455825
-0.27126548 -0.26180688 0.060456149
-0.27146143 -0.26177853 0.060487643
-0.27165896 -0.26175854 0.060456879
-0.27187344 -0.26173788 0.060415674
-0.27207389 -0.2617147 0.060405646
-0.27227303 -0.26168582 0.060438283
-0.27246851 -0.26167268 0.060359105
-0.27267125 -0.26164085 0.060410168
-0.27291504 -0.26162452 0.060311206
-0.27312401 -0.26159632 0.060329959
-0.27332342 -0.26156789 0.060359139
-0.27352977 -0.26154351 0.060352545
-0.27373323 -0.26153335 0.060244523
-0.27395567 -0.26150808 0.060229793
-0.27413902 -0.26149172 0.060185257
-0.27435851 -0.26146224 0.060203977
-0.27454078 -0.26143733 0.060222842
-0.27476346 -0.26141536 0.060183909
-0.27496493 -0.2613914 0.060178488
-0.27517879 -0.26136974 0.060145356
-0.27536905 -0.26133895 0.06019992
-0.27557921 -0.26132071 0.060144898
-0.2757774 -0.26130345 0.060093381
-0.27599573 -0.26127949 0.06007291
-0.27620795 -0.26125455 0.060065143
-0.27641782 -0.26123968 0.059985913
-0.27659348 -0.26120815 0.060058989
-0.27678502 -0.26118714 0.060040925
-0.27696151 -0.26115316 0.060131297
-0.277183 -0.26113778 0.060045093
-0.27739462 -0.26111892 0.059993535
-0.27759108 -0.26109871 0.059965074
-0.2778092 -0.26108471 0.059871979
-0.27801663 -0.26105121 0.059931085
-0.27820644 -0.26102048 0.05998566
-0.27840927 -0.26101148 0.059869573
-0.27859473 -0.26097769 0.059950672
-0.27881327 -0.26096174 0.059871405
-0.27902752 -0.26093969 0.059840582
-0.2792272 -0.26091328 0.059854768
-0.27943239 -0.26089755 0.059785925
-0.2796407 -0.26087463 0.05976665
-0.27982154 -0.26084706 0.059806272
-0.28002742 -0.26082572 0.059777781
-0.28021309 -0.26080528 0.059760895
-0.28042302 -0.26078406 0.059727781
-0.28065783 -0.26074913 0.059772953
-0.28086203 -0.26073036 0.05972717
-0.28107074 -0.26071197 0.05967446
-0.28126761 -0.26068747 0.059677135
-0.28147051 -0.26066807 0.059637122
-0.28166914 -0.26064527 0.059625946
-0.28186089 -0.26062375 0.05961135
-0.28202152 -0.26059344 0.059689097
-0.28222126 -0.26058263 0.059589155
-0.28245577 -0.2605589 0.059552476
-0.28262779 -0.26053131 0.059600204
-0.28282204 -0.26051247 0.059563685
-0.28303656 -0.26048976 0.05953747
-0.28325373 -0.26046202 0.059545822
-0.2834422 -0.26043823 0.059550829
-0.28363866 -0.26041821 0.059521221
-0.28382686 -0.26039428 0.059527382
-0.28403512 -0.260378 0.059459694
-0.28424793 -0.26035443 0.059441537
-0.2844286 -0.26033142 0.059447739
-0.28464076 -0.26031151 0.059403084
-0.28485599 -0.26029077 0.059361871
-0.28501502 -0.26026666 0.05939582
-0.28521848 -0.26025081 0.05932929
-0.28541115 -0.26022384 0.059353881
-0.28559986 -0.26020128 0.05934966
-0.28582454 -0.26017845 0.059315335
-0.28604192 -0.26015222 0.059312165
-0.28622901 -0.26012814 0.059320629
-0.28637716 -0.26010534 0.059354618
-0.28661636 -0.2600905 0.05924876
-0.28678635 -0.26006535 0.059280351
-0.28700048 -0.26004046 0.059270278
-0.28721827 -0.26002005 0.059224442
-0.2873832 -0.25999361 0.05926989
-0.28759313 -0.2599833 0.059157234
-0.28779432 -0.25994787 0.059235968
-0.28799495 -0.25993142 0.059176367
-0.28818297 -0.25991431 0.059132963
-0.28838271 -0.25989214 0.059116021
-0.28856772 -0.25986627 0.059139494
-0.28877506 -0.25984916 0.059078716
-0.28898796 -0.25982931 0.05903291
-0.28916562 -0.2598097 0.059017204
-0.28936422 -0.25978121 0.059047535
-0.28954139 -0.25975549 0.059076793
-0.28974664 -0.2597478 0.058949165
-0.28993592 -0.25971714 0.059003741
-0.29014179 -0.25969958 0.058947586
-0.29034227 -0.25968 0.058911048
-0.29053223 -0.25965634 0.058913749
-0.29073778 -0.25962687 0.058945201
-0.29090327 -0.25960115 0.058984876
-0.29112095 -0.25959131 0.058861807
-0.29130983 -0.25956622 0.058876038
-0.29150587 -0.25954023 0.058890246
-0.29169929 -0.25952294 0.058843352
-0.29190031 -0.25950581 0.058788367
-0.29209194 -0.25947914 0.058811814
-0.29230163 -0.25945038 0.058834031
-0.29248783 -0.25943476 0.058781397
-0.29267472 -0.25942078 0.058716103
-0.29286847 -0.25939101 0.058760285
-0.29306138 -0.25937438 0.058708783
-0.29326358 -0.25934625 0.05873334
-0.29346311 -0.25932822 0.05868642
-0.293652 -0.2593039 0.058694892
-0.29382828 -0.25928506 0.058674585
-0.29403704 -0.25926322 0.058647234
-0.29423362 -0.25923955 0.058644138
-0.29442972 -0.25922367 0.05858456
-0.2946234 -0.25919342 0.058632202
-0.29481381 -0.25918248 0.058541521
-0.29500055 -0.25915354 0.058585737
-0.29521137 -0.25913838 0.058507655
-0.29539984 -0.25911397 0.05851727
-0.2955825 -0.25909403 0.058499254
-0.29578084 -0.25906608 0.058526117
-0.29597953 -0.25903898 0.058546074
-0.29618266 -0.25902507 0.058465712
-0.29636872 -0.25900489 0.058446527
-0.29655117 -0.25898531 0.058426201
-0.29675898 -0.25896421 0.058394238
-0.29693994 -0.25894007 0.058408499
-0.29714301 -0.25891593 0.058403071
-0.29733628 -0.25889629 0.058373488
-0.29752004 -0.25886881 0.058409639
-0.29772082 -0.25885031 0.058365028
-0.29790598 -0.25882834 0.058359675
-0.29809174 -0.25880915 0.058333561
-0.2982876 -0.25878635 0.058324717
-0.29848152 -0.25877184 0.058257069
-0.29869327 -0.25873828 0.058312707
-0.29887936 -0.25872204 0.058264695
-0.29906064 -0.25870007 0.058262818
-0.29925349 -0.25868207 0.058221702
-0.29944196 -0.25866017 0.058212876
-0.29966435 -0.25862357 0.058281153
-0.29987365 -0.25856984 0.058486663
-0.30006623 -0.25852209 0.05866342
-0.30025563 -0.25847393 0.058845945
-0.30044553 -0.25842604 0.059026171
-0.30063659 -0.25838506 0.059154518
-0.3008312 -0.25833958 0.059312817
-0.30102208 -0.25828779 0.059520703
-0.30121392 -0.25824139 0.059688248
-0.30140609 -0.25819382 0.059863843
-0.30160221 -0.25814342 0.060056731
-0.30179536 -0.25809622 0.060228877
-0.30199257 -0.25804886 0.060398698
-0.24521771 -0.26471636 0.062526077
-0.24540372 -0.26467964 0.062627949
-0.24566412 -0.26466095 0.062531203
-0.2458965 -0.26463559 0.062508374
-0.24609688 -0.26460248 0.062570989
-0.24638391 -0.26459077 0.062399201
-0.24662131 -0.26456702 0.062360205
-0.24680546 -0.26453003 0.062465549
-0.24703401 -0.26450419 0.062449645
-0.24726188 -0.2644783 0.062434897
-0.24745728 -0.2644442 0.06250906
-0.24774982 -0.26443499 0.06231419
-0.2479752 -0.26441032 0.062292546
-0.24818045 -0.26437896 0.062337838
-0.24843341 -0.26436007 0.062249202
-0.24867034 -0.26433715 0.062204443
-0.24888611 -0.2643072 0.062230103
-0.24909116 -0.26427606 0.062274247
-0.24932569 -0.26425278 0.062234111
-0.24955349 -0.26422784 0.062212449
-0.24976537 -0.26419866 0.062235817
-0.2500011 -0.26417604 0.062189899
-0.250211 -0.26414651 0.062217891
-0.25045773 -0.26412711 0.062138509
-0.25066924 -0.26409817 0.062160719
-0.250909 -0.2640771 0.062099807
-0.2511358 -0.26405257 0.062075846
-0.25136316 -0.26402831 0.062049568
-0.25157589 -0.26399997 0.062066011
-0.25179079 -0.26397234 0.062075533
-0.25203174 -0.26395226 0.062006541
-0.25224546 -0.26392442 0.062018376
-0.25247812 -0.26390219 0.061972473
-0.25268841 -0.26387355 0.061993547
-0.25292838 -0.26385197 0.061936092
-0.25314885 -0.26382649 0.06192483
-0.25337553 -0.26380295 0.061893955
-0.25359821 -0.2637783 0.061874609
-0.25381759 -0.26375106 0.061877199
-0.2540465 -0.26372847 0.061837077
-0.25426885 -0.26370403 0.061816595
-0.25448546 -0.2636779 0.061813418
-0.25469822 -0.26364896 0.061834473
-0.25492433 -0.26362595 0.061800141
-0.25515524 -0.26360455 0.061749637
-0.25535628 -0.26357386 0.061793804
-0.25557557 -0.263549 0.061779089
-0.25579929 -0.26352564 0.061749376
-0.25602144 -0.26350012 0.061736956
-0.25625813 -0.26348117 0.061663374
-0.25646982 -0.26345423 0.061670601
-0.25669044 -0.2634303 0.06164781
-0.25690925 -0.26340407 0.061643481
-0.25711834 -0.2633765 0.061657622
-0.2573503 -0.26335484 0.061608277
-0.2575742 -0.2633324 0.06157165
-0.25779581 -0.2633093 0.06154193
-0.25801101 -0.26328415 0.061533004
-0.25822458 -0.26325667 0.061542533
-0.25843069 -0.26322854 0.061563604
-0.25861448 -0.26319823 0.061620526
-0.25887662 -0.26318231 0.061501876
-0.25909859 -0.26315996 0.061466403
-0.25930244 -0.26313129 0.061493255
-0.25953746 -0.26311192 0.061424293
-0.25976756 -0.26309282 0.061357651
-0.25996897 -0.26306164 0.061405271
-0.26018849 -0.26303896 0.061374415
-0.26040328 -0.26301464 0.061359726
-0.26060885 -0.26298702 0.061377347
-0.26082656 -0.26296204 0.061364952
-0.26105672 -0.26294371 0.061292551
-0.26125658 -0.26291224 0.06134364
-0.26149473 -0.26289722 0.061240077
-0.26170206 -0.26287067 0.061248466
-0.26191801 -0.26284745 0.061224543
-0.26214039 -0.26282489 0.061190218
-0.2623522 -0.26280031 0.061180145
-0.26255974 -0.26277217 0.061200075
-0.26275843 -0.26274255 0.061238479
-0.26297554 -0.26271829 0.061221465
-0.26322541 -0.26270923 0.061063673
-0.26342097 -0.26267859 0.061112463
-0.26362848 -0.26265278 0.061115094
-0.26384002 -0.26262668 0.061116554
-0.26406616 -0.26260868 0.061045326
-0.26430258 -0.26259306 0.060947534
-0.26449299 -0.26256055 0.061014798
-0.26470613 -0.26253548 0.06100703
-0.26492169 -0.26251361 0.060973879
-0.26512063 -0.26248476 0.061006516
-0.26533639 -0.26246315 0.06097107
-0.26554385 -0.26243594 0.060984075
-0.26576403 -0.26241648 0.060929008
-0.26598102 -0.26239365 0.060901619
-0.26618996 -0.26237381 0.060859285
-0.26639506 -0.26234376 0.060895357
-0.26661736 -0.26232576 0.060827602
-0.26681787 -0.26229593 0.060865998
-0.26702932 -0.26227328 0.060842097
-0.26725227 -0.26225382 0.060784712
-0.26746032 -0.26222986 0.060773499
-0.26766533 -0.26220232 0.060791135
-0.26787099 -0.26217738 0.06078916
-0.2680935 -0.26216048 0.060713328
-0.26829565 -0.26213408 0.060725205
-0.26850021 -0.2621066 0.060742833
-0.26870111 -0.26208428 0.06072589
-0.26892343 -0.26206094 0.060697332
-0.26912582 -0.26203957 0.060672306
-0.2693373 -0.26201344 0.060673766
-0.26953375 -0.26198694 0.060691431
-0.26973745 -0.2619665 0.060658336
-0.26995358 -0.26195243 0.060567539
-0.2701396 -0.26192325 0.060614064
-0.27038878 -0.26190013 0.060560033
-0.27059567 -0.2618818 0.060508475
-0.27079284 -0.26185617 0.060519222
-0.27098346 -0.26183686 0.06048964
-0.27119684 -0.26180768 0.060511842
-0.27139747 -0.26178649 0.060486831
-0.27159667 -0.2617622 0.060486026
-0.27181748 -0.26174217 0.06043442
-0.27201641 -0.26171792 0.060433626
-0.2722061 -0.26169619 0.060422495
-0.27243555 -0.26166615 0.060436562
-0.27264825 -0.26164979 0.060365379
-0.27283391 -0.26162353 0.060391158
-0.27307564 -0.26159811 0.060360219
-0.27328235 -0.26157621 0.060335182
-0.27347538 -0.26155961 0.060283683
-0.27368781 -0.26153335 0.06028514
-0.2738924 -0.26150525 0.06030738
-0.27409369 -0.26148319 0.060288124
-0.27429923 -0.26146111 0.060265396
-0.27451858 -0.26143938 0.060227633
-0.27469879 -0.2614212 0.060199235
-0.27489188 -0.26139182 0.060241122
-0.27510715 -0.2613734 0.06018262
-0.2753146 -0.2613503 0.060165647
-0.27550736 -0.26132363 0.06018794
-0.27571085 -0.26129818 0.060191732
-0.2758798 -0.26127046 0.060242947
-0.276095 -0.26126122 0.060117561
-0.27629673 -0.26123488 0.060129441
-0.2765187 -0.26121616 0.060067452
-0.27675542 -0.26118994 0.060046908
-0.27693382 -0.26116583 0.060063481
-0.27713999 -0.26114869 0.060003858
-0.27734721 -0.26111758 0.060045693
-0.27754736 -0.26110563 0.059953809
-0.27775046 -0.26108083 0.059952997
-0.27797443 -0.26105556 0.059937112
-0.27815551 -0.26103064 0.059957139
-0.27838704 -0.26100791 0.059915863
-0.27857044 -0.26098788 0.059897833
-0.27878448 -0.26095894 0.059917733
-0.27895865 -0.26094493 0.059864003
-0.27915737 -0.26092067 0.05986321
-0.2793729 -0.26089627 0.059848513
-0.27957806 -0.26087707 0.059805036
-0.27977946 -0.26085186 0.059808839
-0.27997693 -0.26083028 0.059789609
-0.28019217 -0.26080278 0.059797972
-0.28035933 -0.2607775 0.059833042
-0.28061056 -0.26076198 0.059721358
-0.28081146 -0.26073682 0.059725165
-0.28100634 -0.26071021 0.059745144
-0.28121558 -0.26069555 0.059664752
-0.28141898 -0.26067623 0.059623592
-0.28161317 -0.26064578 0.059672389
-0.28181508 -0.26062903 0.059613932
-0.28200018 -0.26060155 0.059648938
-0.2821964 -0.260591 0.059550148
-0.28239679 -0.26056245 0.05957932
-0.28258109 -0.26053807 0.059592422
-0.2827512 -0.26051211 0.05962979
-0.28300077 -0.26049823 0.059507735
-0.28319728 -0.26047394 0.059509255
-0.2834174 -0.26044863 0.059496842
-0.28360698 -0.26042569 0.059494931
-0.28374761 -0.26039529 0.059591219
-0.28397188 -0.26039392 0.059400082
-0.28421944 -0.26036403 0.059396796
-0.28438774 -0.26033655 0.059446853
-0.28459093 -0.26031539 0.059419524
-0.28481132 -0.26029119 0.059399039
-0.2850129 -0.26027289 0.059352122
-0.2851997 -0.26025623 0.059306402
-0.2853772 -0.26023 0.059339128
-0.28556848 -0.26020116 0.059378717
-0.28578544 -0.26018256 0.059320208
-0.28597212 -0.260162 0.059303313
-0.28615555 -0.26013789 0.059315272
-0.28636029 -0.26011068 0.05933059
-0.28656977 -0.26008892 0.059302088
-0.28674641 -0.26007098 0.05927486
-0.28699103 -0.26004854 0.059219696
-0.28717655 -0.26003206 0.059173994
-0.28735894 -0.2600024 0.059227448
-0.28755581 -0.2599757 0.059246264
-0.28777298 -0.25995943 0.059170451
-0.28796107 -0.25994185 0.059130505
-0.28817365 -0.25991529 0.05913426
-0.2883462 -0.25988305 0.059215434
-0.28853998 -0.25985765 0.059227344
-0.28873387 -0.25984299 0.059160843
-0.28891012 -0.2598207 0.059165902
-0.28915182 -0.25980207 0.059085395
-0.28935596 -0.25978616 0.059018854
-0.28954735 -0.25976357 0.059012324
-0.28972861 -0.25974336 0.058997773
-0.28991628 -0.25972125 0.05899125
-0.29011667 -0.2596949 0.059004292
-0.290315 -0.25967732 0.058955066
-0.29052737 -0.25965771 0.058908101
-0.29070508 -0.25963256 0.058932759
-0.29092005 -0.25961754 0.058850043
-0.2911326 -0.25958008 0.058933359
-0.29131824 -0.25956169 0.058901489
-0.29148957 -0.25954536 0.058867369
-0.29169986 -0.25951687 0.058887284
-0.29189456 -0.25949469 0.058874976
-0.29211456 -0.2594699 0.05885911
-0.29229206 -0.25945848 0.058783457
-0.29247129 -0.25942937 0.058835767
-0.29266119 -0.25941312 0.058784291
-0.29285783 -0.25939542 0.058737382
-0.29305497 -0.25937155 0.058735445
-0.29324639 -0.25935149 0.058710463
-0.29344764 -0.25932851 0.058698125
-0.2936478 -0.2593033 0.058703095
-0.29385117 -0.25928509 0.058653861
-0.29403028 -0.25925538 0.058710787
-0.29422751 -0.25923225 0.058703084
-0.29442188 -0.25922003 0.058618143
-0.29461366 -0.25918436 0.058707312
-0.29480529 -0.25916618 0.058668494
-0.29503161 -0.25915068 0.058578808
-0.29521406 -0.2591289 0.058574624
-0.29541692 -0.25910193 0.058589958
-0.29559094 -0.25907773 0.058611162
-0.2957809 -0.25906667 0.058521628
-0.29596841 -0.2590493 0.058480524
-0.2961688 -0.25902644 0.0584682
-0.29637602 -0.25900194 0.058461607
-0.29657322 -0.25898102 0.058437761
-0.29676622 -0.25895873 0.058427766
-0.29696399 -0.25894028 0.058385469
-0.29713857 -0.25891849 0.058388226
-0.29734075 -0.25888991 0.05841624
-0.29752991 -0.25886762 0.058409724
-0.29772544 -0.25884154 0.058425084
-0.29792309 -0.25882405 0.058375873
-0.2981194 -0.25880152 0.058364704
-0.29830125 -0.25877979 0.058360524
-0.29849917 -0.25874794 0.058416225
-0.29873079 -0.25870124 0.058550201
-0.29892862 -0.25864747 0.058766164
-0.29911113 -0.25860676 0.058900326
-0.29931128 -0.2585606 0.059058636
-0.29950094 -0.25851461 0.059225053
-0.29969382 -0.25846273 0.059431806
-0.29988438 -0.25841647 0.059599377
-0.3000755 -0.25837108 0.059760027
-0.30026704 -0.25832567 0.059920676
-0.30046228 -0.25827694 0.06010206
-0.30065411 -0.25822613 0.060301915
-0.3008509 -0.25818366 0.060436018
