# .PCD v0.7 - Point Cloud Data file format
VERSION 0.7
FIELDS x y z
SIZE 4 4 4
TYPE F F F
COUNT 1 1 1
WIDTH 1240
HEIGHT 1
VIEWPOINT 0 0 0 1 0 0 0
POINTS 1240
DATA ascii
-0.084575258 -0.39612958 0.058152486
-0.084728211 -0.39622724 0.058129873
-0.084874518 -0.39631802 0.058124594
-0.085039884 -0.39642313 0.058103073
-0.085209608 -0.39652303 0.058131129
-0.085374743 -0.39663148 0.058087699
-0.085531041 -0.39674369 0.057986654
-0.08570008 -0.39684075 0.058029704
-0.08586257 -0.39695016 0.057970144
-0.086018808 -0.39704633 0.057969425
-0.086185351 -0.39714777 0.057975587
-0.086343415 -0.39724949 0.057947181
-0.086524121 -0.39735779 0.057964802
-0.086673848 -0.39745656 0.057922602
-0.086824723 -0.39755788 0.057868864
-0.086998641 -0.39766276 0.057881899
-0.087170132 -0.39776558 0.057898413
-0.087329961 -0.39787555 0.057825025
-0.087493449 -0.39797232 0.057848498
-0.087666966 -0.39808631 0.057802722
-0.087829925 -0.39818919 0.057785831
-0.087976038 -0.39828026 0.057778243
-0.08814352 -0.39839032 0.057733655
-0.088322513 -0.39849961 0.057738602
-0.088480249 -0.39860129 0.057709042
-0.088638365 -0.39869443 0.05773484
-0.088810071 -0.3987948 0.057767503
-0.088972256 -0.39890638 0.057692952
-0.089135498 -0.39900926 0.057677213
-0.089294873 -0.3991105 0.057656873
-0.089461669 -0.39921245 0.057660721
-0.08963421 -0.39932105 0.057644945
-0.08980082 -0.39941776 0.05768108
-0.089947134 -0.39952508 0.057572003
-0.090106316 -0.39962637 0.057550523
-0.090276554 -0.39973027 0.057555504
-0.090443924 -0.39982963 0.0575778
-0.090614796 -0.39993611 0.057568952
-0.090779185 -0.40004408 0.05752553
-0.090932339 -0.40014941 0.057455633
-0.091099702 -0.40024638 0.057492916
-0.091274627 -0.40035459 0.057488658
-0.091423959 -0.40045553 0.057431467
-0.091584355 -0.40055665 0.057415742
-0.091747716 -0.40066475 0.057367705
-0.091885328 -0.40076783 0.057251751
-0.092065334 -0.40086266 0.057351254
-0.092251793 -0.40096149 0.057450734
-0.092418909 -0.40106896 0.057421137
-0.092589259 -0.40117586 0.05740767
-0.092745535 -0.40128031 0.057355057
-0.092917003 -0.40138221 0.057377342
-0.09308888 -0.40149131 0.057355791
-0.093237989 -0.40159449 0.057283606
-0.093405351 -0.40169477 0.057300139
-0.093574919 -0.40179953 0.057297058
-0.093740411 -0.40190729 0.057259396
-0.093902364 -0.40201083 0.057234436
-0.094076917 -0.40211499 0.057254396
-0.094227664 -0.4022201 0.057176434
-0.094389886 -0.40232363 0.057152629
-0.094547279 -0.40242547 0.057120766
-0.094724059 -0.40252954 0.057149943
-0.094889715 -0.40263501 0.057127275
-0.095048428 -0.40273675 0.057101175
-0.095206462 -0.40284082 0.057057783
-0.095388368 -0.40294236 0.057122681
-0.095548227 -0.40304407 0.057101186
-0.09571071 -0.40314996 0.057063542
-0.095858708 -0.40325505 0.056975216
-0.096023716 -0.40335846 0.056962922
-0.09620022 -0.40346307 0.056987494
-0.096349403 -0.40356573 0.056918766
-0.096512094 -0.40367159 0.056882273
-0.096695438 -0.40377581 0.056935634
-0.096858487 -0.4038817 0.056900289
-0.097031362 -0.40398264 0.056934092
-0.097199321 -0.40408823 0.056919482
-0.097366787 -0.40419391 0.056902569
-0.097537138 -0.40430152 0.056884494
-0.097695336 -0.40440148 0.056867618
-0.097854123 -0.40450144 0.056853056
-0.098034799 -0.40460861 0.056877598
-0.098202452 -0.40472063 0.056821469
-0.098373964 -0.4048222 0.056846064
-0.09854085 -0.40492401 0.056851063
-0.098706134 -0.40502596 0.056849152
-0.09888909 -0.40513545 0.05686792
-0.099025913 -0.40524447 0.056711603
-0.099190727 -0.40534648 0.056707382
-0.099366128 -0.40545428 0.056707732
-0.099531375 -0.40555638 0.05670467
-0.099664897 -0.40565914 0.056574896
-0.099850997 -0.40576288 0.056642085
-0.1000213 -0.40586698 0.056645915
-0.10018671 -0.4059712 0.056630164
-0.10034746 -0.40607548 0.056595989
-0.10053236 -0.4061816 0.056643575
-0.10067243 -0.406286 0.056528769
-0.10085321 -0.40639031 0.056571756
-0.101021 -0.40649471 0.05656407
-0.10118223 -0.4065991 0.056531042
-0.10133622 -0.40670344 0.056470372
-0.10150301 -0.40680981 0.056446534
-0.10170182 -0.40691474 0.056555185
-0.10184348 -0.40701517 0.056471497
-0.10200709 -0.4071216 0.056434996
-0.10216361 -0.40722784 0.056372005
-0.10236136 -0.40733325 0.056473743
-0.10252539 -0.40743607 0.056461457
-0.10268454 -0.40754434 0.056396142
-0.10285559 -0.40764928 0.056397669
-0.10300177 -0.40774971 0.056331269
-0.10319008 -0.40785536 0.056394987
-0.10335342 -0.40796196 0.056356177
-0.10350306 -0.40806621 0.05627938
-0.10368894 -0.40817201 0.05633273
-0.10383689 -0.40827796 0.056238636
-0.10402864 -0.40838242 0.056323104
-0.10419196 -0.40848738 0.056294672
-0.10433157 -0.40859461 0.05616026
-0.10451017 -0.40869686 0.056207877
-0.10466564 -0.40880138 0.056151811
-0.10485724 -0.40891162 0.056199364
-0.10499296 -0.40900967 0.056107637
-0.10516396 -0.40911695 0.056094166
-0.10534745 -0.40922514 0.056123313
-0.10552625 -0.40933138 0.056146711
-0.10567366 -0.40943369 0.056073382
-0.1058632 -0.40954083 0.056132473
-0.10602096 -0.40964565 0.056083325
-0.106163 -0.40974924 0.055981189
-0.10634816 -0.40985626 0.056024164
-0.106507 -0.40996119 0.055978458
-0.10665891 -0.41006553 0.055909716
-0.10684136 -0.41017255 0.055942327
-0.10700655 -0.41027808 0.055917349
-0.10717775 -0.41038421 0.055911958
-0.10736524 -0.41049194 0.05595953
-0.10753742 -0.41059831 0.055956434
-0.10771327 -0.41070673 0.055954471
-0.10787286 -0.41081196 0.05590992
-0.10802748 -0.41091505 0.055859625
-0.10819748 -0.41102135 0.055848464
-0.10836759 -0.41112772 0.055837307
-0.1085461 -0.41123503 0.055852629
-0.1087186 -0.41134179 0.055848382
-0.10886973 -0.41144621 0.055776186
-0.10905991 -0.41155502 0.055827215
-0.10922277 -0.41166246 0.055781491
-0.10939713 -0.4117696 0.055781845
-0.10957457 -0.41187719 0.055791412
-0.1097288 -0.41198203 0.055728428
-0.1098897 -0.41208771 0.055686172
-0.11006558 -0.41219524 0.055689979
-0.11023071 -0.41230148 0.055660389
-0.11037256 -0.41240478 0.055559412
-0.11058194 -0.4125168 0.055664554
-0.11075208 -0.4126254 0.05563955
-0.110916 -0.41273165 0.055605359
-0.11108323 -0.41283679 0.055590756
-0.11124039 -0.41294217 0.055535831
-0.11141871 -0.41305047 0.055544242
-0.11160412 -0.41315985 0.055573381
-0.11177595 -0.41326892 0.055551827
-0.11195316 -0.41337729 0.055555627
-0.11208887 -0.41348121 0.055426992
-0.1123011 -0.41359478 0.055533279
-0.11245079 -0.41369924 0.05545532
-0.11262806 -0.41380781 0.055457972
-0.11280052 -0.41391876 0.055427197
-0.11298592 -0.41402718 0.055462103
-0.11315725 -0.41413507 0.055446319
-0.11333241 -0.41424656 0.055422455
-0.1134785 -0.4143475 0.055352591
-0.11367264 -0.41445914 0.055401284
-0.11384407 -0.41457018 0.055365905
-0.11402565 -0.41467994 0.055377763
-0.11416218 -0.41478384 0.055252586
-0.11435704 -0.41489589 0.055301283
-0.11450741 -0.4149991 0.055233702
-0.11469112 -0.41511092 0.055240937
-0.11489767 -0.41523257 0.05527458
-0.11505201 -0.41533217 0.055245042
-0.11522296 -0.41543907 0.055233885
-0.11538104 -0.4155452 0.055177804
-0.1155449 -0.41565523 0.055119395
-0.1157399 -0.41577089 0.055146173
-0.11590578 -0.41587704 0.055120043
-0.11608354 -0.41598684 0.055116922
-0.11627503 -0.41609922 0.055150643
-0.11643417 -0.41620857 0.05507841
-0.1166119 -0.41631284 0.055109881
-0.11675818 -0.41641554 0.055029642
-0.11694106 -0.41652942 0.055020735
-0.11710794 -0.41663748 0.054986529
-0.11727532 -0.41674566 0.054953471
-0.11747263 -0.41686109 0.054990619
-0.11763214 -0.41696644 0.05494491
-0.11780727 -0.41707626 0.054931421
-0.11801003 -0.417193 0.054981239
-0.11816171 -0.41729832 0.054905582
-0.11836514 -0.41741675 0.054947317
-0.11853486 -0.41752437 0.054926936
-0.11870605 -0.41763508 0.054892708
-0.11888848 -0.41774535 0.054904561
-0.032545775 -0.36730573 0.038244996
-0.032715976 -0.36742005 0.038184248
-0.032878276 -0.36751831 0.038193889
-0.033047214 -0.36762324 0.038187347
-0.033213768 -0.36772925 0.038164672
-0.033381175 -0.36783653 0.038137384
-0.033541668 -0.367937 0.038126264
-0.033708606 -0.36804599 0.038086288
-0.033869937 -0.36814365 0.038095936
-0.034032084 -0.36824459 0.03808827
-0.034201521 -0.36835733 0.038034443
-0.034361474 -0.36845562 0.038034864
-0.034531459 -0.36856523 0.038002942
-0.034687504 -0.36865854 0.038019534
-0.0348548 -0.36876482 0.037998002
-0.035020709 -0.36887157 0.037968412
-0.035184465 -0.3689777 0.037934218
-0.035343688 -0.36907572 0.037933487
-0.035511393 -0.36918098 0.037920032
-0.035672568 -0.36928403 0.037895072
-0.035835005 -0.36938459 0.037890874
-0.035996299 -0.36948591 0.037877455
-0.036155939 -0.3695873 0.037857112
-0.036318611 -0.36968857 0.037849452
-0.036483474 -0.36979517 0.037816405
-0.036645021 -0.3698974 0.03779836
-0.036804248 -0.36999652 0.037790719
-0.036963332 -0.37009555 0.037783068
-0.03712517 -0.37019628 0.037775412
-0.037287559 -0.3703025 0.037735447
-0.037449978 -0.37040433 0.037723172
-0.037610248 -0.37050554 0.037706297
-0.03776874 -0.3706044 0.037697498
-0.037932537 -0.37071094 0.037660994
-0.038096763 -0.3708159 0.037636019
-0.03825634 -0.37091908 0.037604149
-0.038415719 -0.37102216 0.03757228
-0.038576689 -0.37112528 0.037546169
-0.038740542 -0.37123278 0.037503898
-0.038892791 -0.37132356 0.037521657
-0.039050505 -0.37141752 0.037540551
-0.039204888 -0.37150669 0.037576757
-0.039362572 -0.37160322 0.037579488
-0.039520048 -0.37170696 0.0375361
-0.039680827 -0.37180832 0.037520371
-0.039835427 -0.37190312 0.03752197
-0.039993599 -0.37200087 0.037518941
-0.040152732 -0.37210268 0.037493993
-0.04031083 -0.37220058 0.037489805
-0.04046512 -0.37229794 0.037474107
-0.040618874 -0.37238947 0.03749302
-0.04077334 -0.37248474 0.037491158
-0.040931731 -0.37258354 0.037482359
-0.041081101 -0.37267384 0.037492052
-0.041232318 -0.37276179 0.037523665
-0.041379664 -0.37284645 0.037561055
-0.04153081 -0.37293434 0.037592657
-0.041674234 -0.3730129 0.037653133
-0.041819371 -0.37309143 0.03772052
-0.041960388 -0.37316614 0.037795994
-0.0421011 -0.37323752 0.03789109
-0.042240016 -0.37330872 0.037980422
-0.042378906 -0.37337697 0.038088206
-0.042514045 -0.37343904 0.038220234
-0.042648122 -0.37349918 0.038360335
-0.042780228 -0.37355593 0.038514286
-0.042912774 -0.37361309 0.038667083
-0.043046467 -0.37366897 0.038832564
-0.043176528 -0.37372151 0.039004982
-0.043304075 -0.37376955 0.039195865
-0.043433368 -0.37382013 0.039377518
-0.043563526 -0.3738718 0.039555702
-0.043683615 -0.37391233 0.039765075
-0.043800034 -0.37393698 0.040059812
-0.043927256 -0.37398246 0.040265687
-0.04405928 -0.37402627 0.04050038
-0.044191912 -0.37407377 0.040714309
-0.04432229 -0.37412652 0.040886723
-0.043998428 -0.37121695 0.057915978
-0.044158448 -0.37130997 0.057949856
-0.044324148 -0.3714096 0.057964087
-0.044492371 -0.37151811 0.057932176
-0.044664327 -0.37162158 0.057946388
-0.044837832 -0.37173223 0.057921369
-0.045022037 -0.37186363 0.057807498
-0.045195125 -0.37196139 0.057862069
-0.045355409 -0.37202993 0.058050498
-0.049744494 -0.37421864 0.061255377
-0.049911089 -0.37431845 0.061271913
-0.050089322 -0.37442908 0.061265342
-0.050271451 -0.37454361 0.061249509
-0.050471753 -0.37466729 0.061246283
-0.050643105 -0.37477973 0.061201677
-0.050825633 -0.3749024 0.061136253
-0.051017746 -0.37501845 0.061149217
-0.051195018 -0.37513456 0.061104581
-0.051365674 -0.37523338 0.061143018
-0.051543601 -0.37534511 0.061128363
-0.051712815 -0.37544012 0.061185256
-0.051889434 -0.37555546 0.061142933
-0.052066028 -0.37567115 0.061098292
-0.052236535 -0.37578419 0.061046772
-0.052400012 -0.37587747 0.061092149
-0.052593801 -0.37600744 0.061024368
-0.052770749 -0.37611818 0.06101203
-0.052945778 -0.37623107 0.06097893
-0.053117618 -0.37633467 0.060991988
-0.053295825 -0.37645006 0.060955416
-0.053468391 -0.37655631 0.060954627
-0.053641759 -0.37666523 0.060939997
-0.05381934 -0.37677971 0.060906887
-0.053986505 -0.37688589 0.06088537
-0.054165155 -0.37699607 0.060883403
-0.054337457 -0.37709388 0.060934506
-0.054506965 -0.37719989 0.060923353
-0.054683782 -0.37731332 0.060893722
-0.054861736 -0.37744051 0.060782179
-0.05502405 -0.3775408 0.060779132
-0.055209987 -0.37766004 0.060748294
-0.055358291 -0.37774819 0.060767218
-0.055532686 -0.37786475 0.060708754
-0.055723526 -0.37797323 0.060764395
-0.055902176 -0.378097 0.060677081
-0.05606328 -0.37820497 0.060620971
-0.056211814 -0.37829512 0.060628369
-0.056390502 -0.37840989 0.060597569
-0.056574836 -0.37852615 0.060579427
-0.056759849 -0.3786338 0.06061779
-0.056935277 -0.37874749 0.060581233
-0.057107322 -0.37884605 0.060626592
-0.057279088 -0.3789562 0.06059812
-0.057453539 -0.37906653 0.060578868
-0.057625894 -0.3791807 0.060527332
-0.057796057 -0.37928438 0.060533479
-0.057945713 -0.37936825 0.060584694
-0.058117211 -0.37947932 0.060549315
-0.058293037 -0.37959969 0.060472384
-0.058484014 -0.379711 0.060510729
-0.05865363 -0.37981287 0.060526103
-0.058824468 -0.37992242 0.060497638
-0.058986809 -0.38003302 0.060429998
-0.059141099 -0.3801291 0.060422368
-0.059331756 -0.38025934 0.060340762
-0.059503727 -0.38035986 0.060373425
-0.059646964 -0.38043922 0.060428143
-0.059839074 -0.38056117 0.060404189
-0.060006741 -0.3806743 0.060341146
-0.060154855 -0.3807708 0.060307018
-0.060336359 -0.38087925 0.060326945
-0.060512487 -0.3809928 0.060293846
-0.060675092 -0.38108942 0.06031502
-0.06087698 -0.38122857 0.060220674
-0.06103659 -0.38132647 0.060222246
-0.061196569 -0.38142973 0.060191534
-0.061359599 -0.38153541 0.060157336
-0.0615317 -0.38164356 0.060142711
-0.061697055 -0.38174042 0.060173094
-0.061868966 -0.38184696 0.0601677
-0.062040903 -0.38195521 0.06015192
-0.062215846 -0.38206473 0.060139589
-0.062381066 -0.38215783 0.060193039
-0.062528297 -0.38227066 0.060052805
-0.062700003 -0.3823885 0.059975896
-0.062868305 -0.38249522 0.059955522
-0.063055195 -0.38260147 0.060010027
-0.06321723 -0.38269645 0.060039278
-0.063379109 -0.38280401 0.059988938
-0.063543975 -0.38291284 0.059942052
-0.063721702 -0.3830094 0.060021982
-0.06389609 -0.38311455 0.06003502
-0.06406378 -0.3832266 0.059978895
-0.064237617 -0.38334039 0.059935428
-0.06441161 -0.38344917 0.059924249
-0.064578965 -0.38355953 0.059877343
-0.064737268 -0.38365865 0.05986625
-0.064902268 -0.38375488 0.059898943
-0.065104142 -0.3838788 0.059900321
-0.065280624 -0.38399258 0.059867226
-0.065422453 -0.38408926 0.059807755
-0.065610833 -0.38421276 0.059759595
-0.06576144 -0.38431686 0.059687406
-0.065928526 -0.38442138 0.059676252
-0.066097364 -0.38451284 0.059753913
-0.066256747 -0.3846238 0.059672453
-0.066424906 -0.38472036 0.059715509
-0.066600926 -0.38483182 0.059695095
-0.066765577 -0.38492933 0.059718572
-0.066943154 -0.38503167 0.059761584
-0.067098595 -0.38514167 0.05967091
-0.067266613 -0.38525707 0.059595175
-0.067431524 -0.3853527 0.059631325
-0.067597516 -0.38545984 0.059599429
-0.067762755 -0.38556984 0.059546769
-0.067931667 -0.38567859 0.059516013
-0.068104453 -0.38577101 0.059602886
-0.06826067 -0.38587323 0.059564099
-0.068428256 -0.38598633 0.059501052
-0.068609402 -0.38608864 0.0595579
-0.06878376 -0.38618976 0.059596315
-0.068945199 -0.38631043 0.059461787
-0.069117531 -0.38641798 0.05945177
-0.069277734 -0.38651717 0.059447572
-0.069434002 -0.38662842 0.059352286
-0.069614731 -0.38672113 0.059467956
-0.069778748 -0.38683075 0.059412993
-0.069936268 -0.38692641 0.059420347
-0.070124269 -0.38704199 0.059420645
-0.070262462 -0.38712853 0.059410784
-0.070433818 -0.38724759 0.059324656
-0.070596322 -0.38734967 0.059311219
-0.07076145 -0.3874546 0.059289709
-0.070945784 -0.38757819 0.059225429
-0.071136825 -0.38769469 0.059231471
-0.071282066 -0.3877821 0.059243493
-0.071434438 -0.38787112 0.059272788
-0.071600929 -0.3879725 0.05927895
-0.07176616 -0.38808489 0.059211299
-0.071923003 -0.38818124 0.059211735
-0.072088771 -0.3883 0.059106022
-0.072261028 -0.38838163 0.05925864
-0.072423227 -0.38849893 0.059148323
-0.072587512 -0.38859639 0.059170634
-0.0727477 -0.38870895 0.059082247
-0.072921015 -0.38881233 0.059102222
-0.073083557 -0.38892013 0.059053026
-0.073274687 -0.38902164 0.059153654
-0.07343173 -0.38911739 0.059158705
-0.07358817 -0.38922104 0.059111856
-0.07374841 -0.38931841 0.059119198
-0.073906116 -0.3894465 0.058923546
-0.074091874 -0.38956362 0.0589054
-0.074241832 -0.38965648 0.058901258
-0.074422196 -0.38976219 0.05893388
-0.074573994 -0.38985878 0.058913574
-0.074746609 -0.38995695 0.058963545
-0.074913628 -0.39006308 0.05894202
-0.075078726 -0.39017171 0.058897436
-0.075238511 -0.39026934 0.058901317
-0.075414002 -0.39038178 0.05887283
-0.075577036 -0.39048102 0.058879007
-0.075733565 -0.39058271 0.058844849
-0.075904548 -0.39069477 0.058801387
-0.07606183 -0.39079526 0.058777604
-0.076231733 -0.39090279 0.058758374
-0.076395571 -0.39100641 0.058740329
-0.076579109 -0.39111978 0.058737181
-0.076741986 -0.3912138 0.058775652
-0.076896235 -0.39130694 0.058786482
-0.07708478 -0.39143053 0.058738332
-0.077259153 -0.39153823 0.058735225
-0.077396929 -0.39162821 0.058702298
-0.077542633 -0.39173496 0.058594365
-0.077713601 -0.39182609 0.058682397
-0.077877805 -0.39191929 0.058731243
-0.078039341 -0.3920345 0.058631316
-0.078209847 -0.39214572 0.058591321
-0.078368545 -0.39224413 0.058585986
-0.078547485 -0.39234751 0.058627844
-0.078728437 -0.3924723 0.058542814
-0.078889713 -0.39256388 0.058590524
-0.079050638 -0.39267397 0.058520578
-0.079186961 -0.39276889 0.058450758
-0.079315551 -0.39287448 0.058284074
-0.079513714 -0.39296657 0.058471177
-0.07968574 -0.39307156 0.058476157
-0.07983128 -0.39316738 0.058436278
-0.079981975 -0.39327189 0.058361765
-0.08016032 -0.39338464 0.058342502
-0.08031141 -0.3934927 0.058247231
-0.080517896 -0.39360934 0.058312029
-0.080666892 -0.3936941 0.058355182
-0.080828384 -0.39379039 0.058374055
-0.080993377 -0.39389637 0.058345616
-0.081159785 -0.39399734 0.058354087
-0.081322894 -0.39409667 0.058360264
-0.081482589 -0.39418653 0.058412589
-0.081637703 -0.39429119 0.058354206
-0.081807725 -0.39440542 0.058293458
-0.081982903 -0.39450482 0.058345709
-0.082145885 -0.39461946 0.058254998
-0.082320355 -0.39472321 0.058277268
-0.082472824 -0.39482901 0.058201607
-0.082640298 -0.39493319 0.058193915
-0.082788654 -0.39502287 0.058203623
-0.082940832 -0.39513215 0.058104888
-0.083135709 -0.39524975 0.058118988
-0.083287194 -0.39533418 0.058173664
-0.083455123 -0.39544529 0.058124457
-0.083601512 -0.39553961 0.058097258
-0.083754323 -0.39563754 0.05807234
-0.083928742 -0.3957451 0.058070384
-0.084087655 -0.39584678 0.058045443
-0.084250592 -0.39594308 0.058070071
-0.084406719 -0.39603937 0.058068201
-0.084564306 -0.3961584 0.057929073
-0.08473222 -0.3962557 0.057966374
-0.084886938 -0.39635924 0.057913758
-0.085055918 -0.39646602 0.05789569
-0.085226342 -0.39656889 0.0579076
-0.085398488 -0.39667434 0.057910275
-0.08557865 -0.39678597 0.057904828
-0.085746653 -0.3968837 0.05793982
-0.085909829 -0.39698985 0.05790332
-0.086064853 -0.39709923 0.057814959
-0.086212344 -0.39719903 0.057757758
-0.086372562 -0.39729068 0.057800855
-0.086541384 -0.39738837 0.0578393
-0.086714923 -0.39749962 0.057810832
-0.086879537 -0.39760205 0.057803161
-0.087033704 -0.39770228 0.057769008
-0.087202005 -0.39780939 0.057746325
-0.087351836 -0.39789924 0.057760634
-0.087517485 -0.39800727 0.057721816
-0.087685831 -0.39810559 0.057754494
-0.087850571 -0.39820811 0.057746824
-0.088004731 -0.39831695 0.057658456
-0.088179126 -0.39842212 0.057671495
-0.088339418 -0.39852318 0.05765577
-0.08851441 -0.3986311 0.057653822
-0.088675275 -0.39873764 0.057605796
-0.088847235 -0.39884371 0.057603858
-0.089017332 -0.39894199 0.057643451
-0.089161575 -0.39905041 0.057519373
-0.089324124 -0.39915362 0.057499029
-0.089482181 -0.39925256 0.05748792
-0.089665666 -0.39935836 0.057532072
-0.089819223 -0.39945859 0.057495613
-0.089976184 -0.3995499 0.057528347
-0.090143651 -0.39965996 0.057483748
-0.090308249 -0.39976275 0.057473771
-0.090476394 -0.39986739 0.057466082
-0.090625271 -0.39996344 0.057437725
-0.090806775 -0.40006763 0.057484176
-0.090964958 -0.40016943 0.057455771
-0.091124676 -0.40027601 0.057403143
-0.091285259 -0.40037468 0.057403564
-0.091445357 -0.40048113 0.057353232
-0.091608405 -0.4005819 0.057350181
-0.091783933 -0.40068772 0.057363227
-0.091958284 -0.40079141 0.057385497
-0.092114478 -0.40089858 0.057315577
-0.092267275 -0.40099889 0.05727566
-0.092444316 -0.40110219 0.057310615
-0.092604086 -0.40120861 0.057259124
-0.092754528 -0.40130931 0.057207689
-0.092933632 -0.40141001 0.057266854
-0.09308254 -0.40152296 0.057132378
-0.093229517 -0.40162411 0.057064813
-0.093385741 -0.401719 0.05707217
-0.093579829 -0.40182012 0.057186626
-0.093765952 -0.40192735 0.057231903
-0.093912251 -0.40202862 0.057160884
-0.094084434 -0.40213794 0.05713933
-0.094251513 -0.40224096 0.057137419
-0.094418451 -0.4023487 0.057105511
-0.094561309 -0.40245023 0.057019509
-0.094717227 -0.40255466 0.056965739
-0.094905958 -0.40266204 0.057020243
-0.09507449 -0.40276504 0.057024084
-0.095243618 -0.40286806 0.057030231
-0.095401205 -0.40297681 0.056955695
-0.095574692 -0.40307501 0.057009116
-0.095747709 -0.40318665 0.056976028
-0.095904157 -0.40328664 0.056952246
-0.096075162 -0.40338749 0.056979142
-0.09623839 -0.4034957 0.056929953
-0.096396357 -0.40360212 0.056871563
-0.096554443 -0.40370202 0.056854695
-0.096729062 -0.40380713 0.056868888
-0.096888237 -0.40390915 0.056842789
-0.097044058 -0.40401995 0.056748651
-0.097225159 -0.40412262 0.056803185
-0.097392514 -0.40422419 0.056811653
-0.097539529 -0.40433121 0.05670717
-0.097718388 -0.40443635 0.056737497
-0.097888604 -0.40454206 0.056730952
-0.098048583 -0.40464625 0.05669447
-0.098207861 -0.40474632 0.056681048
-0.098380461 -0.40485203 0.056683719
-0.098555714 -0.40495974 0.056684077
-0.098710418 -0.40506214 0.056638382
-0.09888123 -0.40516397 0.056658369
-0.099033967 -0.40527049 0.05657924
-0.099211186 -0.40537426 0.056611881
-0.099400833 -0.40548384 0.056655996
-0.099572122 -0.40558398 0.056688659
-0.099726722 -0.4056865 0.056641817
-0.099880658 -0.40579098 0.056579985
-0.10005996 -0.40589514 0.056618378
-0.10023967 -0.40600723 0.056608338
-0.1003943 -0.40610978 0.056561492
-0.10056765 -0.40621611 0.056563001
-0.10072681 -0.40632254 0.056509223
-0.10086828 -0.40643278 0.056363244
-0.10103586 -0.40653336 0.056378629
-0.10122149 -0.40663606 0.056450449
-0.10137901 -0.40674058 0.056402437
-0.10154685 -0.40684518 0.056393594
-0.10172648 -0.4069519 0.056417
-0.10189268 -0.4070566 0.056401245
-0.10205175 -0.4071593 0.056370527
-0.10222063 -0.40726787 0.056340918
-0.10239759 -0.4073748 0.056352798
-0.10254966 -0.40748107 0.056272518
-0.10272017 -0.40758604 0.056271739
-0.10288917 -0.40768734 0.056288268
-0.10303961 -0.40779167 0.056213766
-0.10321159 -0.40789866 0.056206062
-0.10338905 -0.40800771 0.056206401
-0.10357316 -0.40811169 0.056264389
-0.10372975 -0.40821636 0.056211766
-0.10389148 -0.40832126 0.056177575
-0.1040656 -0.40842679 0.056187168
-0.10421593 -0.40853292 0.056101128
-0.1043905 -0.40863857 0.056111857
-0.10456213 -0.40874586 0.056100696
-0.10472342 -0.40885085 0.056064207
-0.10489333 -0.40895638 0.056057662
-0.10507137 -0.40906596 0.05605685
-0.10524064 -0.40916979 0.056058384
-0.10540649 -0.4092752 0.056036863
-0.10556494 -0.40938359 0.055968091
-0.10572597 -0.40948695 0.055940822
-0.10589567 -0.40959269 0.055931978
-0.10609448 -0.40970078 0.056021035
-0.10623877 -0.40980464 0.055925794
-0.10640498 -0.40991026 0.05590428
-0.10656407 -0.41001701 0.055848181
-0.10673591 -0.41012317 0.055845089
-0.10690647 -0.41022927 0.055837393
-0.10709005 -0.41033661 0.055872314
-0.10726336 -0.41044477 0.055862293
-0.10742899 -0.41055223 0.055826936
-0.1075943 -0.41065803 0.055800803
-0.10776392 -0.41076431 0.055788495
-0.1079265 -0.41087154 0.05574277
-0.10810629 -0.41097891 0.055762712
-0.10827257 -0.41108662 0.055728499
-0.1084501 -0.41119388 0.055740375
-0.10861841 -0.4112986 0.05573269
-0.10880562 -0.41140872 0.055764128
-0.10897267 -0.41151503 0.055741448
-0.10912915 -0.41162017 0.055685375
-0.10929106 -0.41172755 0.055636182
-0.10948592 -0.41183725 0.055699892
-0.10963279 -0.4119429 0.055603489
-0.10981241 -0.4120509 0.055618815
-0.10998771 -0.41215846 0.05562032
-0.11015776 -0.412267 0.05559532
-0.11033329 -0.41237468 0.055596828
-0.11052918 -0.41248667 0.055650137
-0.1106848 -0.41259345 0.055580232
-0.11085083 -0.41270009 0.05555179
-0.11100718 -0.41280699 0.055484176
-0.11118593 -0.41291538 0.055493739
-0.11134523 -0.41302115 0.055444568
-0.11151843 -0.41312888 0.055436861
-0.11167718 -0.41323614 0.055376157
-0.11186573 -0.41334617 0.055413358
-0.11203824 -0.41345549 0.055392962
-0.11220798 -0.41356292 0.055373728
-0.1123846 -0.41367292 0.055364851
-0.11254309 -0.41377878 0.05531222
-0.11272417 -0.41388804 0.055325236
-0.11289707 -0.41399613 0.055314068
-0.1130861 -0.41410828 0.055339728
-0.11323653 -0.41421446 0.055253688
-0.11340457 -0.41432342 0.055218317
-0.11360447 -0.41443601 0.055283159
-0.1137781 -0.41454896 0.055244297
-0.11395409 -0.4146564 0.055249263
-0.11411966 -0.41476366 0.055215053
-0.11429019 -0.41487029 0.055203896
-0.11447151 -0.41498172 0.055204216
-0.11464599 -0.41509354 0.055175744
-0.11480694 -0.41520014 0.055127714
-0.11499324 -0.41530824 0.055168387
-0.11518382 -0.41542447 0.05517444
-0.11534959 -0.41553348 0.055129848
-0.11552467 -0.41564274 0.05511982
-0.11569694 -0.41575155 0.055101737
-0.1158478 -0.41585651 0.055024922
-0.11602996 -0.4159672 0.055033319
-0.11622655 -0.41608346 0.055062409
-0.11638488 -0.41618845 0.055014394
-0.11654785 -0.41629574 0.054969817
-0.11673456 -0.41641179 0.054962043
-0.1169195 -0.41652474 0.054966975
-0.1171042 -0.41663769 0.054970738
-0.11727431 -0.4167437 0.05496189
-0.11745019 -0.4168551 0.054941479
-0.11762517 -0.41696778 0.054909535
-0.11778305 -0.41707432 0.054849993
-0.11796106 -0.41718209 0.054860707
-0.11812681 -0.41729164 0.05481267
-0.11831187 -0.4174065 0.05480605
-0.11848885 -0.41751838 0.054786794
-0.11864457 -0.41762322 0.054729566
-0.11884117 -0.41773784 0.054769035
-0.03251056 -0.3673023 0.038130429
-0.032676633 -0.36740729 0.038112342
-0.032842245 -0.36751184 0.038095411
-0.033013634 -0.36762193 0.038065761
-0.033180457 -0.36772829 0.038041905
-0.033341706 -0.36782756 0.038041152
-0.033505466 -0.36793023 0.038028847
-0.033669777 -0.36803579 0.038000386
-0.033838514 -0.36814317 0.037977669
-0.034008175 -0.3682498 0.037963036
-0.034167692 -0.36834949 0.037953053
-0.034328599 -0.36845112 0.037936144
-0.034499254 -0.36856371 0.037888043
-0.034659382 -0.36866248 0.037886143
-0.034826297 -0.36876616 0.037879582
-0.034988564 -0.36886585 0.037879974
-0.035148066 -0.36896625 0.037865382
-0.035313591 -0.36907277 0.037835762
-0.035479411 -0.36917979 0.03780384
-0.035642006 -0.36928046 0.037799612
-0.035801262 -0.36937886 0.037796561
-0.035962816 -0.36948052 0.037781958
-0.036130294 -0.36958823 0.037752327
-0.036290243 -0.36969018 0.037729654
-0.036451738 -0.36979216 0.037712753
-0.036613818 -0.36989287 0.037706215
-0.036777172 -0.36999545 0.037692763
-0.036941446 -0.37010172 0.03765969
-0.037102785 -0.3702018 0.037654318
-0.037260491 -0.37030146 0.037637424
-0.037423022 -0.37040573 0.037610129
-0.037584428 -0.37050858 0.037587449
-0.037746035 -0.37060955 0.037577454
-0.037907258 -0.3707101 0.037568621
-0.038067222 -0.37081134 0.037550569
-0.03822726 -0.37091279 0.037531361
-0.03839023 -0.37101862 0.037495986
-0.038549893 -0.37111986 0.037476771
-0.038710497 -0.3712202 0.037466794
-0.038866311 -0.37131613 0.037466057
-0.039025258 -0.37141675 0.037448008
-0.039188229 -0.37152094 0.037423018
-0.039348472 -0.3716262 0.037380725
-0.039508708 -0.37173164 0.037337292
-0.039671283 -0.37183577 0.037311148
-0.039828777 -0.37193748 0.037280418
-0.039986014 -0.37203649 0.037265833
-0.040139452 -0.37212488 0.037303183
-0.040296573 -0.37221888 0.03731975
-0.040450566 -0.37231332 0.037321333
-0.040608309 -0.37241098 0.037317127
-0.0407653 -0.37251019 0.037300244
-0.040926222 -0.37261036 0.037292566
-0.04108065 -0.37270856 0.03727223
-0.041238956 -0.37281024 0.037244953
-0.041392948 -0.3729054 0.037241917
-0.041549269 -0.37300164 0.037241187
-0.041702244 -0.37309545 0.037242774
-0.041857794 -0.37319341 0.037228201
-0.042009935 -0.37328342 0.037250556
-0.042167325 -0.37338454 0.037223287
-0.04231701 -0.37347355 0.037242189
-0.042467587 -0.37356129 0.037272632
-0.042616591 -0.37364936 0.037295006
-0.042767085 -0.37373707 0.037325453
-0.042912524 -0.37381944 0.037369762
-0.043057982 -0.37389612 0.037449833
-0.043198951 -0.37397116 0.037523001
-0.043339252 -0.37404212 0.037619255
-0.043480031 -0.37411666 0.037694734
-0.043618441 -0.37418425 0.037804838
-0.043752998 -0.37424523 0.037941489
-0.043890364 -0.3743107 0.038060825
-0.044023469 -0.37436879 0.038210172
-0.044156134 -0.37442583 0.038364146
-0.04428954 -0.37448078 0.038534258
-0.044415075 -0.37452814 0.038721718
-0.044546291 -0.37457862 0.038911454
-0.044673186 -0.37462756 0.039094284
-0.044802107 -0.37467647 0.039285198
-0.044931371 -0.37472555 0.039476093
-0.045053266 -0.37475801 0.03974317
-0.045183003 -0.37480041 0.039977908
-0.045309249 -0.3748427 0.040199969
-0.045441635 -0.37488875 0.040422007
-0.045578878 -0.37494645 0.040589802
-0.045231566 -0.37203267 0.057554882
-0.045401841 -0.37213382 0.057577152
-0.045556419 -0.37223008 0.057569504
-0.045728527 -0.37233937 0.057547931
-0.045896165 -0.37243557 0.05759098
-0.046068184 -0.37254938 0.057540562
-0.046245135 -0.37265557 0.057557039
-0.046422727 -0.37277666 0.057482369
-0.046592351 -0.37286821 0.057562333
-0.046761289 -0.37295827 0.05764921
-0.050983999 -0.37502211 0.060995769
-0.051146887 -0.37512645 0.060969621
-0.051319823 -0.37523144 0.06097804
-0.051515184 -0.37535024 0.060986351
-0.051721234 -0.37548479 0.060936928
-0.051894747 -0.37559199 0.060933806
-0.05206928 -0.37569523 0.060959525
-0.052234665 -0.3757939 0.06097836
-0.05242208 -0.37591976 0.060911715
-0.052600354 -0.37603429 0.060880885
-0.052770637 -0.37613305 0.060918152
-0.05293303 -0.37623101 0.060930084
-0.053109013 -0.37633935 0.060929261
-0.053300492 -0.37647194 0.060836069
-0.053474158 -0.37658969 0.060767185
-0.053635135 -0.37669227 0.060744509
-0.05382194 -0.37680361 0.060766704
-0.053999774 -0.37691107 0.060778562
-0.054171462 -0.37701547 0.06078583
-0.054348275 -0.37712854 0.060758464
-0.054519944 -0.37723333 0.060763426
-0.054689907 -0.37734145 0.060740706
-0.054861009 -0.37745395 0.060694911
-0.055044018 -0.37756237 0.060720589
-0.055224333 -0.37769011 0.060614757
-0.05539846 -0.37779564 0.06062432
-0.055566248 -0.37789747 0.060632765
-0.055718347 -0.37799039 0.060636662
-0.055891089 -0.3781015 0.060605861
-0.056092162 -0.37822989 0.060576066
-0.056266695 -0.37834945 0.060499109
-0.056440659 -0.378456 0.060501754
-0.056595527 -0.37855059 0.06050564
-0.056780018 -0.37866804 0.06048055
-0.056932643 -0.37875301 0.060536362
-0.05712913 -0.37887579 0.060523897
-0.057306841 -0.37900138 0.060421549
-0.057460532 -0.37910518 0.060363136
-0.05764854 -0.37922919 0.060310341
-0.057823386 -0.37932912 0.06035798
-0.057972793 -0.37941208 0.060413808
-0.058169298 -0.37953821 0.060380578
-0.058321405 -0.37963626 0.060352169
-0.058500521 -0.3797445 0.060364015
-0.058673777 -0.37985173 0.060359746
-0.058858249 -0.3799763 0.060289659
-0.059028737 -0.38008529 0.060263477
-0.059170444 -0.38017419 0.060252428
-0.059342906 -0.38027817 0.060265459
-0.059534926 -0.38039914 0.060247257
-0.059696972 -0.38049027 0.060300715
-0.059858069 -0.38059661 0.060254972
-0.060043767 -0.38071534 0.060226411
-0.060210194 -0.38081944 0.060215246
-0.060371462 -0.38093084 0.060138345
-0.060558539 -0.38103756 0.060190536
-0.06074053 -0.38115254 0.060171224
-0.060879476 -0.38125077 0.06009097
-0.061045535 -0.38135555 0.060074039
-0.061242376 -0.38147399 0.060090415
-0.061396822 -0.38158652 0.059980094
-0.061552145 -0.38166818 0.060067035
-0.061743017 -0.3817901 0.060038455
-0.061899856 -0.38190007 0.059953503
-0.062080603 -0.38200474 0.059994191
-0.062245786 -0.38209981 0.060034946
-0.062411245 -0.38220295 0.060026091
-0.062592454 -0.38232717 0.059945628
-0.06276083 -0.38243324 0.059929848
-0.062935412 -0.38255227 0.059856348
-0.063088015 -0.38264531 0.059861396
-0.063259281 -0.38274798 0.059877902
-0.063421227 -0.382844 0.059900213
-0.06357713 -0.38292807 0.059974469
-0.063750774 -0.38306013 0.059815601
-0.06392128 -0.38317978 0.059722506
-0.064095184 -0.38328904 0.059707843
-0.06425745 -0.38337407 0.059800535
-0.064415962 -0.3834711 0.05980324
-0.064595155 -0.38359684 0.059705496
-0.06475538 -0.38371202 0.059600912
-0.064925231 -0.38378629 0.05979047
-0.065090142 -0.38388357 0.059816226
-0.065261945 -0.38401139 0.059676982
-0.065444954 -0.3841235 0.059679583
-0.065606825 -0.38421708 0.059716891
-0.065800987 -0.38434672 0.059652537
-0.065954819 -0.38445044 0.059595287
-0.066097848 -0.38453406 0.059622299
-0.066283338 -0.38465065 0.059606433
-0.066454507 -0.3847498 0.059644856
-0.066623613 -0.3848618 0.059594452
-0.066790923 -0.38496351 0.059601735
-0.066983074 -0.3850987 0.059494697
-0.067144364 -0.38519487 0.059513554
-0.067283086 -0.38528249 0.059499059
-0.067445539 -0.38538983 0.059452146
-0.067624636 -0.38550046 0.059448995
-0.067785762 -0.38559708 0.059464391
-0.067949533 -0.38569754 0.059465937
-0.068101116 -0.38577509 0.059564438
-0.068290785 -0.38591442 0.059421644
-0.068461485 -0.38602889 0.059362002
-0.068618856 -0.38612559 0.059362419
-0.068780236 -0.38623357 0.059307434
-0.068958737 -0.38635704 0.059221223
-0.069128826 -0.38645917 0.059236579
-0.069283672 -0.38655138 0.059255466
-0.069444761 -0.38664725 0.059275478
-0.069609135 -0.38675562 0.059229709
-0.069792062 -0.38686383 0.059256535
-0.069943495 -0.3869552 0.059267368
-0.070121452 -0.38706696 0.059252687
-0.070287935 -0.38716874 0.059256516
-0.070450261 -0.38729107 0.059115008
-0.070620582 -0.38739225 0.059137277
-0.070775673 -0.38748369 0.059161931
-0.070943385 -0.38759136 0.059133459
-0.071107231 -0.38768965 0.059148841
-0.071279041 -0.3877877 0.059196491
-0.071441397 -0.38791558 0.059020367
-0.071614221 -0.38801977 0.059033405
-0.071779832 -0.38812247 0.059028015
-0.071941078 -0.38821769 0.059052635
-0.072120279 -0.38830927 0.05916946
-0.072289355 -0.38841337 0.05916867
-0.07243374 -0.38852575 0.059020326
-0.072601557 -0.38863936 0.058954932
-0.072760105 -0.38873953 0.05893803
-0.072929882 -0.38883433 0.058998384
-0.073085085 -0.38894033 0.058931895
-0.073260583 -0.38905409 0.058895305
-0.073414616 -0.38914743 0.058903806
-0.073589168 -0.38926244 0.058855686
-0.073743738 -0.38935483 0.058872264
-0.073910676 -0.38946807 0.058805719
-0.074082442 -0.38956702 0.058847599
-0.074263252 -0.38967851 0.058845606
-0.074417718 -0.38976479 0.058900248
-0.074584447 -0.38987148 0.058874093
-0.074740186 -0.38997489 0.058826063
-0.074892342 -0.39008912 0.058696128
-0.075069912 -0.39019257 0.058732212
-0.075253636 -0.39028805 0.058842104
-0.075418979 -0.39040196 0.05876518
-0.075583629 -0.39049909 0.058790952
-0.075739458 -0.39060733 0.058712922
-0.075898245 -0.390706 0.058706403
-0.076072365 -0.39081964 0.058665212
-0.07623487 -0.39092481 0.058632135
-0.07639128 -0.39102608 0.058600262
-0.076569445 -0.39112931 0.058639802
-0.076733686 -0.39124292 0.058560584
-0.076890208 -0.39133856 0.058564462
-0.077055469 -0.39143515 0.058595985
-0.077222265 -0.39155069 0.058514446
-0.077402651 -0.39165697 0.058543596
-0.077570319 -0.39176625 0.058504738
-0.077743769 -0.39186478 0.058555841
-0.077889733 -0.39196107 0.058514774
-0.0780444 -0.39205369 0.058530193
-0.07822831 -0.39216179 0.058561634
-0.078401841 -0.39227486 0.058521599
-0.078569777 -0.39238358 0.058487348
-0.078722104 -0.39248306 0.058450874
-0.07886821 -0.39258328 0.058385581
-0.07902386 -0.39267966 0.058381386
-0.079195805 -0.3927846 0.058386348
-0.079372376 -0.39289016 0.058405131
-0.079529651 -0.39300278 0.058305178
-0.079693243 -0.39309707 0.058344789
-0.079873323 -0.39320427 0.05836701
-0.080023333 -0.3933093 0.058286715
-0.080184251 -0.39341423 0.058249034
-0.080360532 -0.39351594 0.058290895
-0.08050596 -0.39361981 0.058200222
-0.080680422 -0.3937107 0.05830323
-0.080851018 -0.39383298 0.058193985
-0.081013195 -0.39394474 0.058118239
-0.081182189 -0.39403981 0.058173969
-0.081341133 -0.39413783 0.058172081
-0.081508689 -0.3942419 0.058165517
-0.081684694 -0.39434823 0.058177382
-0.081838273 -0.39444977 0.05813282
-0.081999317 -0.39454651 0.058147065
-0.082171835 -0.39465511 0.058131259
-0.082335517 -0.39476159 0.058094721
-0.082491808 -0.39486495 0.058048997
-0.082642965 -0.39496756 0.057988301
-0.082814679 -0.39506188 0.058059018
-0.08298818 -0.39517349 0.058028206
-0.083147824 -0.39527836 0.057985928
-0.083317481 -0.39538485 0.057972439
-0.083477154 -0.39548609 0.057953235
-0.083648421 -0.39559519 0.057929352
-0.08382038 -0.39569354 0.057975844
-0.083976224 -0.3958036 0.057886276
-0.08414863 -0.39590186 0.057935074
-0.08431261 -0.39600778 0.057903163
-0.084476039 -0.39611387 0.057867784
-0.08464922 -0.39621535 0.057899266
-0.084810928 -0.39631894 0.057873126
-0.084971398 -0.39642638 0.057818152
-0.08513993 -0.39652681 0.057838134
-0.085302293 -0.39663008 0.057816599
-0.08546754 -0.39672247 0.057874657
-0.085621357 -0.39683259 0.057777032
-0.085814297 -0.39695153 0.057774968
-0.085953228 -0.39704862 0.05770164
-0.08611583 -0.39716104 0.05762358
-0.086299412 -0.39726508 0.057679243
-0.086461261 -0.3973715 0.057635803
-0.086632065 -0.39746839 0.057686917
-0.086810179 -0.39757785 0.05768723
-0.086967446 -0.39768293 0.057634573
-0.087141521 -0.3977879 0.057647608
-0.087293394 -0.3978948 0.057562672
-0.087464623 -0.39799491 0.057595327
-0.087611184 -0.39808881 0.057571568
-0.087783098 -0.39819464 0.057570752
-0.087952174 -0.39829853 0.057571113
-0.088113122 -0.39840221 0.057541512
-0.088289112 -0.39851257 0.057528
-0.088441104 -0.3986133 0.057482295
-0.088602118 -0.3987141 0.057471156
-0.088759169 -0.39881885 0.057419661
-0.088933438 -0.39892137 0.05744883
-0.089095153 -0.39902478 0.057423849
-0.089268766 -0.39912763 0.057448413
-0.089425407 -0.39922699 0.057429213
-0.089588508 -0.3993355 0.057377689
-0.089764692 -0.39944321 0.057381473
-0.089932889 -0.3995477 0.057374917
-0.090098575 -0.39964217 0.057421435
-0.090253405 -0.3997553 0.057308808
-0.090431534 -0.39986533 0.057305664
-0.090604365 -0.3999688 0.057323314
-0.090758882 -0.40006611 0.057308745
-0.090913013 -0.40016872 0.057259563
-0.091067076 -0.40027127 0.05721039
-0.091231063 -0.40037167 0.057213075
-0.091413639 -0.40048096 0.057231836
-0.091588199 -0.4005844 0.057256393
-0.091743693 -0.40068415 0.057230283
-0.091906622 -0.40078998 0.057194903
-0.092063472 -0.40089443 0.05714456
-0.092237465 -0.40100062 0.057149515
-0.09239234 -0.40110296 0.057104945
-0.092558451 -0.40120816 0.0570857
-0.092724115 -0.40131345 0.057064161
-0.092883661 -0.40141737 0.057027649
-0.093049273 -0.40151545 0.057051104
-0.093227133 -0.40162128 0.05707334
-0.093392231 -0.40172678 0.057048339
-0.09355402 -0.40182805 0.057037197
-0.093714401 -0.40192953 0.057019137
-0.093867347 -0.40203911 0.056921508
-0.094029635 -0.40214032 0.056912672
-0.094208881 -0.40224624 0.056939516
-0.094381794 -0.40234849 0.056965232
-0.094525203 -0.40245679 0.056838814
-0.094677649 -0.40255925 0.056783881
-0.094849005 -0.40265724 0.056830373
-0.095030166 -0.40276325 0.056864128
-0.09520375 -0.40286571 0.056891002
-0.095385961 -0.40297183 0.056928221
-0.095544562 -0.40308267 0.056844413
-0.095708117 -0.40318412 0.05683903
-0.095872268 -0.40329215 0.056794416
-0.096031465 -0.40339622 0.056755599
-0.096205778 -0.40350115 0.056769781
-0.096372202 -0.40360028 0.05678976
-0.096530251 -0.40371099 0.056704804
-0.09669257 -0.403817 0.056665972
-0.09685605 -0.40391433 0.056685966
-0.097029038 -0.40402174 0.056679383
-0.09719494 -0.40412754 0.056655534
-0.097351111 -0.40422976 0.056616731
-0.097549409 -0.40433788 0.056703474
-0.097698703 -0.40444264 0.056622021
-0.097844675 -0.40454334 0.056553271
-0.098026432 -0.40464845 0.056595102
-0.098201372 -0.40475193 0.05662081
-0.098356925 -0.40485632 0.056565862
-0.098514959 -0.40496057 0.056521278
-0.098691046 -0.40506825 0.056525063
-0.098857597 -0.40517429 0.056502368
-0.099044368 -0.40527973 0.056561474
-0.099200226 -0.40538612 0.056494985
-0.09934634 -0.40548673 0.056427382
-0.099514216 -0.4055908 0.056421988
-0.099687375 -0.40569484 0.056437328
-0.099854112 -0.40580299 0.056401931
-0.10000248 -0.40590352 0.056343548
-0.10019065 -0.40601149 0.056392267
-0.10034285 -0.40611786 0.056311958
-0.10052603 -0.40622017 0.056376852
-0.10068087 -0.40632263 0.056331135
-0.10084225 -0.40642512 0.056310765
-0.10100456 -0.40653145 0.05626962
-0.10117549 -0.40663597 0.056273431
-0.1013606 -0.40674257 0.056318715
-0.10151564 -0.40684703 0.05626145
-0.10167716 -0.40695345 0.056216851
-0.10184674 -0.40706187 0.056190681
-0.10203496 -0.40717262 0.056222092
-0.10220483 -0.40727553 0.056231685
-0.10235922 -0.40737629 0.056195192
-0.10251708 -0.40747899 0.056159839
-0.10268068 -0.40758923 0.056099083
-0.10285117 -0.40769419 0.056098286
-0.10302683 -0.40779573 0.056138989
-0.1031832 -0.40790394 0.056063268
-0.10335525 -0.40800729 0.056078609
-0.10352612 -0.40811247 0.056077808
-0.1036976 -0.40822133 0.056056239
-0.10387278 -0.40832865 0.05605888
-0.10402296 -0.40842935 0.056006256
-0.10419317 -0.40853471 0.056001991
-0.10435571 -0.40864322 0.055948157
-0.10453802 -0.40874755 0.055996917
-0.10469417 -0.40885398 0.055931576
-0.10486668 -0.40895963 0.055934228
-0.10503066 -0.4090648 0.055906925
-0.10518195 -0.40916914 0.055835839
-0.10538037 -0.40927845 0.055915669
-0.10554724 -0.40938392 0.055897579
-0.10571587 -0.40948957 0.05588524
-0.10586906 -0.40959582 0.055809535
-0.10604119 -0.40970179 0.05580873
-0.10620854 -0.40980574 0.05580217
-0.10636204 -0.40991199 0.055727623
-0.10654099 -0.41001868 0.055748701
-0.10671566 -0.41012675 0.055744413
-0.10689002 -0.41023317 0.055749364
-0.10705407 -0.41034043 0.055709373
-0.1072128 -0.41044381 0.055672858
-0.10739311 -0.41055262 0.055685863
-0.10754735 -0.41065568 0.055634368
-0.10772967 -0.41076478 0.055653132
-0.10789682 -0.41087082 0.055632733
-0.10806331 -0.41097844 0.055599645
-0.10824641 -0.4110862 0.055629935
-0.1084214 -0.41119322 0.055633724
-0.10857872 -0.41129997 0.055570688
-0.10874838 -0.4114081 0.055546816
-0.10892914 -0.41151589 0.055567898
-0.10911109 -0.41162553 0.055582032
-0.10927379 -0.41173139 0.055545509
-0.1094502 -0.41183889 0.055551596
-0.10960673 -0.41194406 0.055495486
-0.10977541 -0.4120523 0.05546701
-0.10995747 -0.41215909 0.055499613
-0.11008811 -0.41226262 0.055353634
-0.11027497 -0.41237327 0.055380445
-0.1104569 -0.41248178 0.055401511
-0.11062326 -0.41258678 0.055384584
-0.110804 -0.41269839 0.055381425
-0.11096711 -0.41280305 0.055354126
-0.11115289 -0.41291392 0.055375174
-0.11134638 -0.41302443 0.055428486
-0.1114853 -0.41312739 0.055318236
-0.1116764 -0.41323769 0.05536348
-0.11183874 -0.41334552 0.05531311
-0.11200771 -0.41345432 0.055282325
-0.11217675 -0.41356316 0.055251535
-0.11235479 -0.41367185 0.05525646
-0.11252202 -0.41378051 0.055219915
-0.11270399 -0.41389143 0.05522598
-0.1128691 -0.41400135 0.055173293
-0.11304085 -0.41410929 0.055158641
-0.11323987 -0.41422004 0.055231545
-0.11339907 -0.41432613 0.055180028
-0.11356003 -0.41443551 0.055114675
-0.11371274 -0.41453907 0.055053964
-0.11389881 -0.41465107 0.055069245
-0.1140663 -0.41475856 0.055040766
-0.1142347 -0.41486776 0.055005364
-0.11442122 -0.41498148 0.055011418
-0.11462523 -0.41509533 0.055084288
-0.11479818 -0.41520107 0.055088088
-0.1149886 -0.41531721 0.055094123
-0.11511602 -0.41541803 0.05495277
-0.11531337 -0.41553256 0.054995686
-0.11546575 -0.41563776 0.054923445
-0.11565591 -0.41575116 0.054945618
-0.11582012 -0.41585997 0.054896399
-0.11597885 -0.41596779 0.054832205
-0.11617133 -0.41607893 0.054877445
-0.11634758 -0.41619149 0.054851234
-0.1165219 -0.41630229 0.054828499
-0.11669891 -0.41641364 0.05481267
-0.11686982 -0.41652107 0.054798022
-0.11703525 -0.41663173 0.054741867
-0.11725885 -0.41675359 0.054840028
-0.11743152 -0.41686153 0.054828841
-0.11759893 -0.41696993 0.054794595
-0.1177737 -0.41708121 0.054770708
-0.11795533 -0.41719246 0.054773316
-0.11813279 -0.41730577 0.054747097
-0.11831121 -0.41741651 0.054740489
-0.11847733 -0.41752484 0.054701637
-0.11865401 -0.41763675 0.054681193
-0.11885002 -0.4177554 0.054692969
-0.032523606 -0.36731988 0.038070321
-0.032696471 -0.36743164 0.038036019
-0.032861739 -0.36753577 0.038020197
-0.033030078 -0.36764199 0.038003214
-0.033192519 -0.36774477 0.037985105
-0.03335882 -0.36785063 0.037962362
-0.033528425 -0.3679589 0.037937302
-0.033688746 -0.36805725 0.037938815
-0.033852607 -0.36816034 0.03792417
-0.034018386 -0.36826608 0.037900269
-0.034189273 -0.36837661 0.037865974
-0.034350097 -0.36847821 0.037849024
-0.034513969 -0.36858186 0.037830912
-0.034678549 -0.36868447 0.037822023
-0.03484118 -0.36878458 0.037821226
-0.035004854 -0.36889049 0.037788104
-0.035172872 -0.36899596 0.037774589
-0.035330359 -0.36909384 0.037768047
-0.035490628 -0.36919343 0.03776148
-0.035654474 -0.36929798 0.037737597
-0.035816148 -0.36939973 0.037722953
-0.035980821 -0.3695035 0.037707146
-0.036140181 -0.36960456 0.037687894
-0.036304493 -0.36970809 0.037672088
-0.036466416 -0.36981073 0.037652828
-0.036630608 -0.36991438 0.03763587
-0.036789965 -0.37001598 0.037613161
-0.036955055 -0.37011892 0.037604272
-0.037113115 -0.37021899 0.037586186
-0.037281357 -0.37032661 0.037559971
-0.037440453 -0.37042841 0.037534963
-0.03760032 -0.37052685 0.037534166
-0.037760124 -0.37062761 0.037518382
-0.037921421 -0.37073299 0.037479516
-0.038080599 -0.3708308 0.037479881
