# .PCD v0.7 - Point Cloud Data file format
VERSION 0.7
FIELDS x y z
SIZE 4 4 4
TYPE F F F
COUNT 1 1 1
WIDTH 1274
HEIGHT 1
VIEWPOINT 0 0 0 1 0 0 0
POINTS 1274
DATA ascii
-0.14481989 -0.47572589 0.048059497
-0.14497168 -0.47582504 0.048067879
-0.14512923 -0.47592574 0.048090056
-0.14529045 -0.47602832 0.048115678
-0.14543653 -0.47613496 0.048054881
-0.14558947 -0.47623637 0.048054025
-0.14572965 -0.47633705 0.048005946
-0.14588597 -0.47644034 0.048007373
-0.14605013 -0.47654504 0.048031822
-0.14619835 -0.47664708 0.048007924
-0.14634964 -0.476751 0.047985159
-0.14649501 -0.47685117 0.047961272
-0.14663798 -0.47695369 0.047913175
-0.14680956 -0.47705805 0.047969878
-0.146955 -0.4771688 0.047881406
-0.1470955 -0.47726515 0.047861002
-0.14725068 -0.47736466 0.047880892
-0.14740133 -0.4774687 0.047854673
-0.14755668 -0.47757038 0.047861874
-0.14772402 -0.47767758 0.047884006
-0.14785938 -0.47778052 0.047802497
-0.14799067 -0.47788358 0.047703724
-0.14815097 -0.47798312 0.047744345
-0.14831473 -0.47808662 0.047774564
-0.14847016 -0.47818854 0.047780614
-0.14862226 -0.47829467 0.047747467
-0.14876041 -0.47839531 0.047691323
-0.1489175 -0.47849929 0.047691591
-0.14906879 -0.47860152 0.047679208
-0.14918713 -0.47870651 0.047515914
-0.14934538 -0.47880656 0.047545008
-0.14953981 -0.478908 0.047712319
-0.14972366 -0.47901183 0.04782201
-0.14983049 -0.47911486 0.047624175
-0.14999481 -0.47922099 0.047640555
-0.15014993 -0.47932726 0.047618918
-0.15028211 -0.47942978 0.04752706
-0.15045798 -0.47953603 0.047589507
-0.15060349 -0.47963855 0.047551781
-0.15074785 -0.47973728 0.047532514
-0.15090516 -0.4798418 0.047530472
-0.15105824 -0.47994444 0.04752269
-0.1512084 -0.48005077 0.047480322
-0.15136677 -0.48015541 0.047481738
-0.15151574 -0.48025438 0.047479756
-0.1516784 -0.48035923 0.047497295
-0.1518185 -0.4804672 0.04740423
-0.15197277 -0.48057005 0.047399908
-0.15212663 -0.48067111 0.047404807
-0.15228456 -0.48077962 0.047380846
-0.15242848 -0.4808822 0.047336206
-0.15258421 -0.48098528 0.047336485
-0.15274684 -0.48109049 0.047351725
-0.15290563 -0.4811956 0.047351986
-0.15304831 -0.48129642 0.047313113
-0.15320878 -0.48140168 0.047319137
-0.15335354 -0.48150617 0.04726642
-0.15350607 -0.48161107 0.047242492
-0.15365379 -0.48171222 0.047222055
-0.15381509 -0.48181596 0.047240753
-0.15396652 -0.4819209 0.047212221
-0.15410817 -0.48202518 0.047147986
-0.15427004 -0.48212913 0.047167838
-0.15442535 -0.48223269 0.047163509
-0.15458302 -0.48233816 0.047156855
-0.15473592 -0.48244333 0.047132924
-0.15487535 -0.48254406 0.047081392
-0.15503384 -0.48264802 0.047087424
-0.15518916 -0.48275346 0.047071557
-0.15534425 -0.48285726 0.047064912
-0.15550883 -0.48296526 0.047070909
-0.15565547 -0.48307002 0.047023945
-0.15580365 -0.48316997 0.047012739
-0.15596426 -0.4832761 0.04701414
-0.15611491 -0.48337635 0.047010988
-0.15627953 -0.48348629 0.047005445
-0.15642352 -0.48358759 0.046968877
-0.15656176 -0.48369318 0.046882752
-0.15672877 -0.48379698 0.046924483
-0.15689196 -0.48390368 0.046932802
-0.15703779 -0.48400527 0.046901986
-0.15719071 -0.4841125 0.046865378
-0.15734746 -0.48421702 0.04686103
-0.15749703 -0.4843207 0.046832506
-0.15764214 -0.48442391 0.04678902
-0.15780759 -0.48453116 0.046803083
-0.15795985 -0.48463213 0.046802223
-0.158136 -0.48474404 0.046831224
-0.15827145 -0.48484609 0.046755496
-0.15843068 -0.4849481 0.046776511
-0.1585519 -0.48504826 0.046654716
-0.15871742 -0.48515275 0.046686087
-0.15888801 -0.48526263 0.046704732
-0.15904826 -0.48536965 0.046699215
-0.15921518 -0.48547921 0.046705201
-0.1593603 -0.48557958 0.046679012
-0.15949324 -0.48568282 0.046585992
-0.15967491 -0.48579159 0.046656478
-0.15982868 -0.48589638 0.046638317
-0.15998912 -0.48600069 0.0466501
-0.1601239 -0.48610419 0.046562836
-0.16028486 -0.48621017 0.046566546
-0.16044445 -0.48631752 0.046556424
-0.16059595 -0.48642212 0.046530191
-0.16074005 -0.48652557 0.046480939
-0.16087924 -0.4866282 0.046416719
-0.16106774 -0.48674041 0.046494097
-0.16121536 -0.48684451 0.046455204
-0.16137668 -0.4869509 0.046457753
-0.1615286 -0.48705578 0.046431527
-0.16168785 -0.48716196 0.046427164
-0.16184837 -0.48726839 0.046426266
-0.16199666 -0.48737276 0.046388522
-0.16215892 -0.4874796 0.046392225
-0.16233425 -0.48759171 0.04641661
-0.16250147 -0.48769957 0.046434123
-0.16265519 -0.48780507 0.046411347
-0.16279212 -0.48790756 0.046339069
-0.16296622 -0.48801827 0.046366923
-0.16310869 -0.48812181 0.04631076
-0.16326028 -0.48822704 0.046281066
-0.16342285 -0.48833296 0.046291687
-0.16359556 -0.4884437 0.046313789
-0.16373381 -0.48854649 0.046244964
-0.16389415 -0.48865354 0.046239447
-0.16404369 -0.48875856 0.046202846
-0.16420884 -0.48886806 0.046201922
-0.16436163 -0.4889724 0.04618261
-0.16453353 -0.48908335 0.046200097
-0.16469377 -0.48919207 0.046184201
-0.16483824 -0.48929483 0.046140708
-0.16500975 -0.48940593 0.046155896
-0.16514909 -0.48950905 0.046089366
-0.1653191 -0.48961857 0.046108022
-0.16546546 -0.48972183 0.04606913
-0.1656346 -0.4898327 0.046076253
-0.16577859 -0.48993552 0.046030462
-0.1659463 -0.49004614 0.046032984
-0.16610768 -0.49015281 0.046034381
-0.16626936 -0.49026227 0.046019629
-0.16642436 -0.4903703 0.045986466
-0.16656829 -0.49047458 0.045931447
-0.16672799 -0.49058107 0.045927085
-0.16689004 -0.49069077 0.04591234
-0.16707408 -0.49080417 0.045964353
-0.16722392 -0.4909099 0.045924298
-0.16739716 -0.49102101 0.045946389
-0.16752979 -0.4911229 0.045860298
-0.16770504 -0.49123457 0.045886993
-0.16786259 -0.49134225 0.045866493
-0.1680347 -0.49145469 0.045875911
-0.16819249 -0.49156252 0.04585541
-0.16834366 -0.49167407 0.045785364
-0.16850916 -0.49178249 0.045792505
-0.16864635 -0.49188551 0.045717917
-0.089822561 -0.44238797 0.029192399
-0.089982368 -0.44250146 0.029145353
-0.090137273 -0.44260833 0.029119087
-0.090287328 -0.44271255 0.029089391
-0.090441674 -0.44282091 0.029051604
-0.090589017 -0.44292164 0.029032301
-0.090744801 -0.44302833 0.029010653
-0.090899572 -0.44313979 0.028955545
-0.091049299 -0.44324228 0.02893509
-0.091197342 -0.44334251 0.028921552
-0.091350868 -0.44344866 0.028894149
-0.091504693 -0.44355744 0.02885174
-0.091654144 -0.44366014 0.028828969
-0.091803908 -0.44376132 0.028816583
-0.091952264 -0.44386271 0.028797286
-0.09209995 -0.44396535 0.028767603
-0.092251815 -0.44407001 0.028742507
-0.092401057 -0.4441731 0.028716285
-0.092548773 -0.44427201 0.028709669
-0.092693835 -0.4443714 0.028689241
-0.092844598 -0.44447288 0.028679149
-0.092993021 -0.44457752 0.028640233
-0.09314207 -0.44467673 0.028637081
-0.093288511 -0.44477871 0.028606255
-0.09343195 -0.44487423 0.028603133
-0.093578428 -0.44497436 0.028583836
-0.093723431 -0.44507465 0.02855764
-0.093873098 -0.44517767 0.028533714
-0.094020367 -0.44527721 0.028521333
-0.094165288 -0.44537783 0.028492825
-0.094311133 -0.44547772 0.028472383
-0.094457284 -0.44557372 0.028477324
-0.094603255 -0.44567409 0.02845457
-0.094748199 -0.44577301 0.028436441
-0.094892919 -0.44587407 0.028404467
-0.095041841 -0.44597715 0.028377086
-0.09518607 -0.44607541 0.028360123
-0.095329195 -0.44616976 0.028362762
-0.095472604 -0.44626939 0.028334264
-0.095617414 -0.44636899 0.028311525
-0.095764056 -0.44646925 0.028292228
-0.095907509 -0.446567 0.028275257
-0.09604919 -0.44666207 0.028267536
-0.096192561 -0.44675997 0.028249417
-0.096335381 -0.44685712 0.028233599
-0.096480861 -0.44695377 0.028231625
-0.096623205 -0.44705042 0.028216973
-0.096767798 -0.44714838 0.028203454
-0.096907392 -0.44724584 0.028172668
-0.097053498 -0.44734403 0.028163761
-0.097194016 -0.4474408 0.028141048
-0.097337261 -0.44753709 0.028132159
-0.097478554 -0.44763288 0.028118659
-0.0976175 -0.44772744 0.028102875
-0.097760342 -0.44782349 0.028093986
-0.097903065 -0.44791946 0.0280851
-0.098046757 -0.44801718 0.028069288
-0.098184623 -0.44811049 0.028056968
-0.098325647 -0.44820663 0.02804001
-0.098468147 -0.44830546 0.028012667
-0.098612323 -0.44840464 0.027989924
-0.098752558 -0.44849989 0.027975291
-0.09889143 -0.44859293 0.027968725
-0.099032111 -0.44868922 0.027949471
-0.099174157 -0.44878531 0.027937129
-0.099313878 -0.44888303 0.027905181
-0.099455476 -0.44897863 0.027894001
-0.099592701 -0.44907224 0.027877066
-0.09973453 -0.44916856 0.027862413
-0.099874862 -0.44926518 0.02783969
-0.10001635 -0.44935825 0.027843509
-0.10015332 -0.44944909 0.027842723
-0.10029546 -0.44954655 0.027822312
-0.1004324 -0.44964054 0.02780192
-0.10057459 -0.44973841 0.027779184
-0.10071205 -0.44983068 0.027771488
-0.10085161 -0.44992399 0.027766079
-0.10098962 -0.45001757 0.027752608
-0.1011292 -0.45011428 0.02772643
-0.10126664 -0.45021331 0.027677197
-0.10140616 -0.45030716 0.027668327
-0.10154276 -0.45039868 0.027661785
-0.10168175 -0.4504886 0.027674835
-0.10181843 -0.45058376 0.027646365
-0.10195896 -0.45068014 0.027625961
-0.10209627 -0.45077363 0.027610175
-0.10223526 -0.4508673 0.02760016
-0.10236827 -0.45095587 0.027597096
-0.10250872 -0.45105278 0.027573224
-0.10264527 -0.45114541 0.027559761
-0.10278089 -0.45123628 0.027553223
-0.10291751 -0.45132932 0.027537443
-0.10305636 -0.45142365 0.027522817
-0.10319232 -0.45151567 0.027510498
-0.10333081 -0.45160958 0.027497025
-0.10346644 -0.45170122 0.027485866
-0.1036002 -0.45179632 0.027445884
-0.10373636 -0.45189679 0.02738281
-0.10387599 -0.45198655 0.027399328
-0.10401198 -0.45207596 0.027403167
-0.10414715 -0.45217124 0.027367782
-0.1042823 -0.45226669 0.027331255
-0.10442144 -0.45235971 0.027325854
-0.10455668 -0.45244807 0.027333159
-0.1046893 -0.45253846 0.027317408
-0.10482475 -0.45262754 0.027321251
-0.10495894 -0.45271784 0.027312413
-0.10509452 -0.45281151 0.027288567
-0.10522904 -0.45289883 0.027299341
-0.1053606 -0.45298758 0.027289368
-0.10549854 -0.45308319 0.0272632
-0.10563328 -0.45317987 0.027217442
-0.10576587 -0.45326743 0.02721899
-0.10590011 -0.45335907 0.027202081
-0.10603412 -0.45345038 0.027186325
-0.10616725 -0.45354411 0.027152102
-0.10630587 -0.45364282 0.027109794
-0.10643984 -0.45372564 0.027145939
-0.10657225 -0.45381361 0.027144039
-0.10670646 -0.45390639 0.027120201
-0.10683721 -0.45399517 0.027106771
-0.10697182 -0.4540942 0.027046006
-0.10710488 -0.45418471 0.027031412
-0.10723652 -0.45427161 0.027032968
-0.10736884 -0.45436049 0.027025299
-0.1075028 -0.45445403 0.026995694
-0.1076371 -0.45454365 0.026991472
-0.10776999 -0.45462951 0.027004557
-0.10790277 -0.45472038 0.026986497
-0.10803544 -0.45481119 0.026968438
-0.10816565 -0.45490053 0.026949242
-0.10829837 -0.45499194 0.026927721
-0.10843104 -0.45508349 0.026905041
-0.1085629 -0.45516714 0.026927372
-0.10869321 -0.45525771 0.026901245
-0.10882436 -0.45534524 0.026897043
-0.10895874 -0.45544299 0.026843209
-0.10908968 -0.45552438 0.026875922
-0.10922231 -0.45561722 0.026845174
-0.10935313 -0.45570454 0.026840962
-0.10948417 -0.45579275 0.026832139
-0.10961512 -0.45588091 0.026823329
-0.1097467 -0.45597136 0.026802965
-0.10987788 -0.456054 0.026828749
-0.11001102 -0.45615038 0.026778391
-0.11014107 -0.45623624 0.026779952
-0.11027226 -0.45631927 0.026803438
-0.11040044 -0.45640579 0.02679348
-0.11053228 -0.45650622 0.026713124
-0.11066161 -0.45659781 0.026676625
-0.11079252 -0.45668048 0.02670127
-0.11092325 -0.45677036 0.026680911
-0.11105321 -0.45685747 0.026674405
-0.11118354 -0.45694634 0.026658667
-0.11131363 -0.4570345 0.026646392
-0.11144327 -0.45712101 0.026642188
-0.11157336 -0.45720974 0.026626449
-0.11170287 -0.45729619 0.026622256
-0.11183087 -0.45737597 0.026652679
-0.11196006 -0.45746127 0.026654247
-0.11209101 -0.45754528 0.02667081
-0.11222299 -0.45762432 0.026721977
-0.11234977 -0.45770818 0.026722407
-0.11248115 -0.45779455 0.026726274
-0.11261291 -0.45787194 0.02678667
-0.11273894 -0.45795214 0.026806721
-0.11286923 -0.45803249 0.0268429
-0.11299731 -0.45811215 0.02687447
-0.11312572 -0.45819372 0.026895657
-0.11325435 -0.45827657 0.026909927
-0.11338744 -0.45836067 0.026934551
-0.11351325 -0.4584392 0.026963834
-0.11364368 -0.45851967 0.026999999
-0.11377169 -0.45859817 0.0270385
-0.11390229 -0.45867929 0.027071215
-0.11402801 -0.45875645 0.027108567
-0.11415856 -0.45883679 0.027145902
-0.1142892 -0.45891759 0.027180918
-0.11441998 -0.45899943 0.027210174
-0.11454594 -0.4590773 0.027244065
-0.11467655 -0.45915693 0.02728601
-0.11480508 -0.45923764 0.027312968
-0.11493345 -0.45931637 0.027351456
-0.11506426 -0.45939669 0.027389938
-0.11519501 -0.45947567 0.027436491
-0.11532331 -0.45955133 0.027493447
-0.11545177 -0.45962822 0.027543474
-0.11558032 -0.45970538 0.027592359
-0.11571361 -0.45978379 0.027652737
-0.11584221 -0.45985851 0.02771662
-0.11597084 -0.45993137 0.027792022
-0.11609961 -0.46000507 0.027862823
-0.11622843 -0.460076 0.027950924
-0.11635985 -0.46015072 0.028026309
-0.11648899 -0.46022335 0.028105177
-0.11661828 -0.46029535 0.028188664
-0.11674772 -0.46036685 0.0282756
-0.11688212 -0.4604409 0.028367139
-0.11701187 -0.46051282 0.028452922
-0.1171442 -0.4605855 0.028544461
-0.11727433 -0.46065617 0.028639473
-0.11740462 -0.46072695 0.028734483
-0.11753511 -0.46079764 0.028830651
-0.11766823 -0.46086913 0.028932566
-0.11780154 -0.46094078 0.029034488
-0.12040765 -0.45961148 0.047748119
-0.1205219 -0.45970175 0.047658641
-0.12066253 -0.45981628 0.047527481
-0.12244951 -0.46056318 0.050200723
-0.12261188 -0.46067613 0.050167497
-0.12277595 -0.46078342 0.05017579
-0.12292166 -0.46087343 0.050215341
-0.12306335 -0.46096534 0.050227225
-0.12321176 -0.4610579 0.050262142
-0.12335794 -0.4611665 0.050189782
-0.12350234 -0.46127939 0.050083987
-0.12365406 -0.46139997 0.049960833
-0.12381542 -0.46151319 0.049921848
-0.12397698 -0.46160787 0.049997065
-0.12413191 -0.46170175 0.050050411
-0.12427699 -0.46179363 0.050076116
-0.12442103 -0.46190459 0.049980704
-0.12458525 -0.46201065 0.049997073
-0.12474468 -0.46211919 0.049978863
-0.12489428 -0.46221709 0.049986087
-0.12505125 -0.46232286 0.04997481
-0.12520668 -0.46242404 0.049985461
-0.12535502 -0.46253183 0.049926937
-0.12550189 -0.46262753 0.049936485
-0.12565167 -0.46273214 0.049903329
-0.12580201 -0.46282843 0.049923245
-0.12594934 -0.46293026 0.049897026
-0.12609816 -0.46304289 0.049810804
-0.12624295 -0.4631553 0.049709614
-0.12639724 -0.46325779 0.049707584
-0.12655215 -0.46335918 0.049714778
-0.12670958 -0.4634566 0.049756572
-0.12686503 -0.46355101 0.049808756
-0.12701383 -0.46366212 0.049731772
-0.1271598 -0.46376494 0.04969402
-0.12731938 -0.46385947 0.049762331
-0.12746917 -0.46396255 0.049738407
-0.12761329 -0.46407941 0.049607225
-0.12777312 -0.46416807 0.049712457
-0.12793294 -0.46426857 0.049745001
-0.12807968 -0.46436983 0.049719945
-0.12822492 -0.46448404 0.049609512
-0.12836827 -0.46459472 0.049512945
-0.12851408 -0.46471268 0.049381755
-0.12867442 -0.4648228 0.049357768
-0.12883286 -0.46491939 0.049408786
-0.12899317 -0.46500364 0.049542855
-0.12914139 -0.46511266 0.049476255
-0.12929659 -0.46521351 0.049488053
-0.12945546 -0.4653053 0.049570218
-0.1296088 -0.46541828 0.049500126
-0.12975942 -0.46552417 0.049462348
-0.1299223 -0.46563143 0.049466036
-0.1300703 -0.46573031 0.04946059
-0.13021517 -0.46581829 0.049509365
-0.13036723 -0.4659225 0.049487736
-0.13051988 -0.46603069 0.049444187
-0.13067009 -0.46613199 0.049432948
-0.13082176 -0.46624085 0.049381327
-0.13097072 -0.46634322 0.049358558
-0.13112453 -0.46644107 0.049383063
-0.13127877 -0.46653864 0.049411029
-0.13143735 -0.46663681 0.049452815
-0.13158119 -0.46673504 0.049434695
-0.13173586 -0.46683249 0.049464956
-0.13188925 -0.46693534 0.04945717
-0.13203295 -0.46704194 0.049387135
-0.13218625 -0.46714473 0.049379338
-0.13233598 -0.46724626 0.049364641
-0.13249272 -0.46735039 0.049362596
-0.13264085 -0.46745709 0.049309842
-0.13278688 -0.46755731 0.049288239
-0.13293107 -0.46766669 0.049203202
-0.1330853 -0.46776855 0.04920464
-0.13323872 -0.46788254 0.049128782
-0.13338983 -0.46798274 0.049127914
-0.13353199 -0.46808529 0.049076349
-0.13366939 -0.46819091 0.04898674
-0.13382027 -0.46829849 0.048939731
-0.13397123 -0.4683986 0.048938878
-0.13412927 -0.46850151 0.04894951
-0.13427457 -0.46860519 0.048903696
-0.13442847 -0.46871424 0.04886014
-0.13456832 -0.46881393 0.048816651
-0.13471738 -0.46891862 0.048780043
-0.13488185 -0.46901429 0.048861012
-0.13505334 -0.46911314 0.048951183
-0.13521491 -0.4692212 0.048944492
-0.13536513 -0.46931517 0.048978247
-0.13550982 -0.46940887 0.048991267
-0.13565831 -0.46950394 0.049011193
-0.13580559 -0.46961629 0.048920371
-0.13594109 -0.4697246 0.048806544
-0.13609457 -0.46983013 0.048782602
-0.13625979 -0.46993312 0.04882203
-0.13641214 -0.470036 0.048809633
-0.13656417 -0.47013909 0.048794921
-0.13671386 -0.47024006 0.048783686
-0.13687131 -0.4703469 0.048767798
-0.137024 -0.47044966 0.048757695
-0.13718531 -0.47055173 0.048786782
-0.13732488 -0.47065407 0.048725996
-0.13747597 -0.4707514 0.04874244
-0.13762903 -0.47084802 0.04877156
-0.13777848 -0.47095221 0.048739567
-0.13793792 -0.47105831 0.048736356
-0.13807993 -0.47115946 0.04869286
-0.13822383 -0.47125393 0.048697814
-0.13837317 -0.47136387 0.048630044
-0.13852943 -0.47146827 0.048624542
-0.13868147 -0.47157133 0.048609834
-0.13883628 -0.4716734 0.048612416
-0.13898066 -0.47177067 0.048602372
-0.13913853 -0.47186896 0.048640694
-0.13929063 -0.47197488 0.048608676
-0.13944423 -0.47208032 0.048585892
-0.13958748 -0.47218075 0.048551615
-0.13973424 -0.4722828 0.048521947
-0.13988315 -0.47238415 0.048504945
-0.14004509 -0.47248158 0.048565164
-0.14020321 -0.47259378 0.048519276
-0.14033392 -0.47269776 0.048412398
-0.14048178 -0.47279939 0.048389632
-0.14062262 -0.47289768 0.048358839
-0.14078395 -0.47299299 0.048429448
-0.14095782 -0.47309038 0.048538063
-0.14112252 -0.47319302 0.048577495
-0.14123346 -0.47330424 0.048346143
-0.14139871 -0.47340158 0.048420191
-0.14155327 -0.47350425 0.048418157
-0.1417245 -0.47360048 0.048523314
-0.14188403 -0.4737072 0.048516646
-0.14201714 -0.47381243 0.048412055
-0.14217639 -0.47391671 0.04841923
-0.14233254 -0.47402665 0.048379112
-0.14245769 -0.47412583 0.048279185
-0.14260654 -0.47423226 0.048231039
-0.1427682 -0.47433606 0.048250891
-0.14291686 -0.47443765 0.048231583
-0.14306912 -0.47453618 0.048245721
-0.14323036 -0.47464028 0.048262104
-0.14337778 -0.47474217 0.048235886
-0.14350201 -0.47484338 0.048119813
-0.14366886 -0.47494423 0.048178852
-0.14383802 -0.47505188 0.048205584
-0.14397424 -0.47515556 0.048122901
-0.14412513 -0.47525921 0.048100121
-0.14427571 -0.47535831 0.048103876
-0.14442846 -0.4754594 0.048104163
-0.14457405 -0.47556385 0.048054885
-0.14472592 -0.47566739 0.048036717
-0.14486247 -0.47576624 0.047985181
-0.1450334 -0.47586507 0.048073035
-0.14519151 -0.47597462 0.048043292
-0.14529429 -0.47608194 0.047802757
-0.14542527 -0.47618124 0.047725864
-0.1455925 -0.47627854 0.047807977
-0.14577954 -0.47637829 0.047955737
-0.14593455 -0.47648165 0.0479514
-0.14607443 -0.47658873 0.047862917
-0.1462374 -0.47669134 0.04789545
-0.14640735 -0.47679555 0.047946397
-0.14656401 -0.4769032 0.047922432
-0.1466983 -0.47700635 0.047835153
-0.14684457 -0.47710636 0.047815856
-0.14700767 -0.4772051 0.047872618
-0.14716721 -0.47731051 0.047874015
-0.14731984 -0.47741437 0.047856994
-0.14746344 -0.47752088 0.047786959
-0.14760803 -0.47762316 0.047746915
-0.14777038 -0.4777244 0.047785211
-0.14791217 -0.47782484 0.047745183
-0.14807725 -0.47793016 0.047769628
-0.14822662 -0.47803429 0.047737628
-0.14836806 -0.47813675 0.047683753
-0.14851348 -0.47823903 0.047647163
-0.14866304 -0.47833914 0.047640547
-0.14882603 -0.47844082 0.047678839
-0.14898866 -0.47854659 0.047690611
-0.14913675 -0.47865474 0.04762863
-0.14926913 -0.47875348 0.047560956
-0.14943978 -0.47885722 0.047617674
-0.1495942 -0.47895941 0.047617953
-0.14974238 -0.47906369 0.047580186
-0.14989607 -0.47916597 0.047577009
-0.15005526 -0.47927213 0.047572639
-0.15019804 -0.47937262 0.047536064
-0.15035734 -0.47947884 0.047531705
-0.15049642 -0.47957936 0.047480151
-0.15064579 -0.47968179 0.047458529
-0.15081099 -0.47978625 0.047488742
-0.1509558 -0.47989243 0.04742562
-0.15111853 -0.47999883 0.047433928
-0.15125558 -0.48009932 0.047374308
-0.15142033 -0.48020217 0.047412593
-0.1515854 -0.4803088 0.047428969
-0.15173352 -0.48041323 0.047390055
-0.15189967 -0.48052001 0.047409873
-0.15203813 -0.48062238 0.047344476
-0.15217963 -0.48072299 0.047302142
-0.15234157 -0.48082435 0.047338139
-0.15249737 -0.48092917 0.047328029
-0.1526476 -0.48103198 0.047307562
-0.15281004 -0.48113894 0.047311254
-0.1529654 -0.48124385 0.047298826
-0.1531155 -0.48134676 0.047277208
-0.15325151 -0.48145071 0.04719222
-0.1534043 -0.481552 0.047191355
-0.153575 -0.48165616 0.047245752
-0.15372536 -0.48176095 0.047213756
-0.15389313 -0.48187032 0.047224335
-0.15403557 -0.48197117 0.047184303
-0.15417619 -0.48207536 0.047116596
-0.15433392 -0.48217899 0.047121465
-0.15448855 -0.48228419 0.047104433
-0.15464196 -0.4823876 0.047093175
-0.15481025 -0.48249561 0.047114141
-0.15495218 -0.48259822 0.047061425
-0.15510383 -0.4827016 0.047043249
-0.15527348 -0.48280656 0.047088433
-0.15541221 -0.4829089 0.047024194
-0.15556371 -0.48301238 0.047004871
-0.1557261 -0.48311856 0.047013182
-0.15587848 -0.48322055 0.047006547
-0.15602902 -0.48332733 0.046963003
-0.156185 -0.48343301 0.046948273
-0.15632091 -0.4835318 0.046894427
-0.15649876 -0.48364145 0.046944179
-0.15662965 -0.48373973 0.046873063
-0.15683322 -0.48384911 0.047028806
-0.1569486 -0.48394898 0.046885099
-0.15709628 -0.48405555 0.046831191
-0.15725306 -0.4841584 0.046837222
-0.15742564 -0.48426473 0.046885841
-0.1575624 -0.48436692 0.046814695
-0.15772833 -0.4844726 0.046840284
-0.15789874 -0.48458052 0.046870466
-0.15806246 -0.48468927 0.046868384
-0.15819965 -0.48479155 0.046798382
-0.15835479 -0.48489612 0.046787117
-0.1585158 -0.48500305 0.046785045
-0.15865663 -0.48510736 0.046717338
-0.15879904 -0.48520878 0.046673834
-0.15896302 -0.4853147 0.046690218
-0.15912472 -0.4854219 0.046689294
-0.15927804 -0.4855234 0.046689574
-0.15941671 -0.48562589 0.046624176
-0.15958771 -0.48573306 0.046661276
-0.15974034 -0.48584068 0.046621189
-0.15988854 -0.48594159 0.04660419
-0.16003017 -0.48604304 0.046557244
-0.16018251 -0.48614913 0.046525225
-0.16037348 -0.48626128 0.046612978
-0.16048515 -0.48635811 0.046472751
-0.16065486 -0.48646557 0.046502925
-0.16081087 -0.48657089 0.046490505
-0.16094479 -0.4866727 0.046410147
-0.16113634 -0.48678541 0.046496734
-0.16127372 -0.48688778 0.046426736
-0.16141486 -0.48699081 0.046368241
-0.16159186 -0.48709989 0.046417996
-0.16175875 -0.48720735 0.04643666
-0.16191542 -0.48731312 0.046424236
-0.16206141 -0.48741707 0.046379566
-0.16223024 -0.48752508 0.046402838
-0.16237943 -0.48762965 0.046367377
-0.16253725 -0.48773581 0.046357248
-0.16268851 -0.48784083 0.046327546
-0.16283104 -0.48794571 0.046263285
-0.16300973 -0.48805439 0.04632226
-0.1631549 -0.48815838 0.046274133
-0.16332451 -0.48826841 0.046288174
-0.16349009 -0.48837632 0.046298765
-0.16362745 -0.4884789 0.046227615
-0.16381268 -0.48859212 0.046285395
-0.16394973 -0.48869467 0.046213087
-0.16411498 -0.48880273 0.046221379
-0.16426136 -0.48890713 0.046175558
-0.16441669 -0.48901334 0.046155062
-0.16457087 -0.48911935 0.046131112
-0.1647429 -0.48923042 0.046148587
-0.1649051 -0.48933816 0.046146512
-0.16504478 -0.48944134 0.046081118
-0.16521752 -0.48955137 0.046107817
-0.16537261 -0.48965776 0.046085022
-0.16553111 -0.48976496 0.046071429
-0.16567416 -0.48986754 0.046023313
-0.16584919 -0.48997831 0.04605462
-0.16601031 -0.49008891 0.046030633
-0.16615699 -0.49019372 0.04598365
-0.16633669 -0.49030438 0.046034548
-0.16648999 -0.49041209 0.045996755
-0.16665478 -0.49052098 0.045998123
-0.16679153 -0.49062371 0.045923516
-0.16696298 -0.49073419 0.045942154
-0.16711697 -0.49084082 0.045913588
-0.16729309 -0.49095386 0.045935661
-0.16743258 -0.49105728 0.045867957
-0.16761333 -0.49117017 0.045909613
-0.16778213 -0.49128041 0.045919038
-0.1679301 -0.49138585 0.045873206
-0.16808291 -0.49149379 0.045831956
-0.16822305 -0.49159613 0.045773476
-0.16840687 -0.49171144 0.045812804
-0.16860297 -0.49182847 0.0458913
-0.089768276 -0.4423922 0.028946159
-0.089917913 -0.44249371 0.028931454
-0.090067625 -0.44259542 0.028915599
-0.090220004 -0.44270098 0.028887041
-0.090368584 -0.44280142 0.028874651
-0.090518281 -0.44290349 0.028856486
-0.090666696 -0.4430019 0.028855635
-0.090816051 -0.44310376 0.028837472
-0.090966985 -0.44320801 0.028811231
-0.091113731 -0.44330645 0.02880346
-0.091261774 -0.44340479 0.028801464
-0.091409452 -0.44350478 0.02878792
-0.091555998 -0.44360328 0.028779011
-0.091709197 -0.4437094 0.028750438
-0.091860265 -0.44381258 0.028731115
-0.092004113 -0.44390967 0.028719913
-0.092153393 -0.44401056 0.028707519
-0.092298374 -0.4441095 0.028689381
-0.092442766 -0.44420564 0.028686244
-0.092586577 -0.44430098 0.028685419
-0.09273468 -0.44440278 0.028662656
-0.092880286 -0.44450104 0.028651441
-0.093032442 -0.44460475 0.028633263
-0.093177378 -0.44470444 0.028610505
-0.093323424 -0.44480371 0.028594671
-0.093469068 -0.44490257 0.028579997
-0.093615025 -0.44500199 0.028563002
-0.093761533 -0.4451046 0.028528709
-0.093903802 -0.44519874 0.028529052
-0.094050147 -0.44529694 0.028521284
-0.094199412 -0.44539967 0.028497361
-0.094340622 -0.44549483 0.028487325
-0.094484523 -0.44559419 0.028462272
-0.094632879 -0.4456937 0.028454494
-0.094777778 -0.44579262 0.028436366
-0.094918206 -0.44588706 0.028427482
-0.095063001 -0.44598609 0.028408192
-0.095205247 -0.44608361 0.028387763
-0.095347971 -0.4461773 0.028392714
-0.095490873 -0.44627377 0.028381515
-0.095634058 -0.44637078 0.028368006
-0.095777906 -0.44646901 0.028349873
-0.095921814 -0.44656745 0.028330591
-0.096065119 -0.44666266 0.028328609
-0.09620674 -0.44676015 0.028305881
-0.096352577 -0.44685969 0.028287737
-0.096494466 -0.44695792 0.028261546
-0.096638225 -0.44705436 0.028253805
-0.096778244 -0.44714984 0.028236853
-0.096920505 -0.44724664 0.028221039
-0.097064823 -0.44734439 0.028207514
-0.097204596 -0.44743991 0.028189413
-0.097347304 -0.44753531 0.028183976
-0.097486235 -0.44762969 0.028169341
-0.097627245 -0.44772509 0.028156996
-0.097770691 -0.44782206 0.028144635
-0.097911052 -0.44791666 0.028134599
-0.098049641 -0.44801101 0.028118808
-0.098192647 -0.44811034 0.0280903
-0.09833464 -0.44820547 0.028083717
-0.098473892 -0.44830137 0.028061001
-0.098617032 -0.44839874 0.028045183
-0.098752819 -0.44848898 0.028043255
-0.098894835 -0.44858465 0.02803321
-0.099032998 -0.4486793 0.02801396
-0.09917666 -0.44877812 0.027991209
-0.099315897 -0.44887215 0.027980033
-0.099454835 -0.44896862 0.027952697
-0.099592976 -0.44906098 0.027947295
-0.09973371 -0.44915524 0.02794072
-0.099873282 -0.44925043 0.027923772
-0.10001288 -0.44934583 0.027905663
-0.10015089 -0.44943845 0.027897952
-0.10029357 -0.44953686 0.027874056
-0.10042977 -0.44962943 0.027859438
-0.1005693 -0.44972232 0.027856328
-0.10070556 -0.4498153 0.027839396
-0.10084628 -0.4499107 0.027825892
-0.1009839 -0.45000347 0.027815884
-0.10112147 -0.45009941 0.027786247
-0.10126121 -0.45019338 0.027777366
-0.10139851 -0.45028913 0.027747743
-0.10153545 -0.45037806 0.027758496
-0.10167159 -0.45047191 0.027735796
-0.10181072 -0.45056531 0.027728081
-0.10195061 -0.45066032 0.027713429
-0.1020868 -0.45075476 0.02768727
-0.102226 -0.45084876 0.027676083
-0.1023605 -0.45094022 0.027661474
-0.10249795 -0.45103437 0.027642228
-0.1026368 -0.45113152 0.027610283
-0.10277261 -0.45122272 0.027602587
-0.10290913 -0.45131552 0.027587954
-0.1030454 -0.45140794 0.027574485
-0.10318115 -0.45149946 0.027564477
-0.1033172 -0.45159176 0.027551007
-0.10345301 -0.4516837 0.027538691
-0.10359065 -0.45177969 0.027509063
-0.10372724 -0.45187366 0.027487513
-0.10386046 -0.45196426 0.02747291
-0.10399729 -0.45205536 0.027469814
-0.10413551 -0.45214966 0.027452873
-0.10426816 -0.45223951 0.027440574
-0.10440217 -0.4523325 0.027414426
-0.10453919 -0.45242468 0.02740556
-0.10467565 -0.45251572 0.027401319
-0.10480789 -0.45260531 0.027389022
-0.10494223 -0.45269984 0.027354795
-0.10507672 -0.45279092 0.027342493
-0.10521299 -0.45288223 0.027335942
-0.10534829 -0.45297551 0.027313247
-0.10548401 -0.45307004 0.027284781
-0.10561839 -0.4531616 0.027269013
-0.10574996 -0.45324659 0.027282104
-0.10588501 -0.45334008 0.027257102
-0.10601899 -0.45343119 0.027242484
-0.106154 -0.45352507 0.027215185
-0.10628602 -0.45361164 0.027220195
-0.10641988 -0.45370305 0.027203267
-0.10655875 -0.45379815 0.027184013
-0.10669085 -0.45389009 0.027156727
-0.10682576 -0.45398012 0.027152495
-0.10695705 -0.45407036 0.027132124
-0.10709181 -0.45416519 0.027097903
-0.10722315 -0.45425114 0.027104069
-0.10735564 -0.45434034 0.027095228
-0.10748976 -0.45443416 0.027064471
-0.10762412 -0.4545289 0.027029093
-0.10775821 -0.45461801 0.027027164
-0.10788987 -0.45470569 0.027024109
-0.10802257 -0.45479652 0.027006039
-0.10815399 -0.45488384 0.027004134
-0.10828533 -0.45497659 0.026968773
-0.10841983 -0.45506784 0.026955303
-0.1085539 -0.45515808 0.026946465
-0.10868472 -0.45525008 0.026913418
-0.10882071 -0.45534083 0.026909167
-0.10895044 -0.45543006 0.026888814
-0.10908332 -0.45551744 0.026892669
-0.1092134 -0.45560822 0.026864238
-0.10934988 -0.45570135 0.026847307
-0.1094805 -0.45579454 0.02680617
-0.10961185 -0.4558841 0.026790425
-0.10974303 -0.45596677 0.0268162
-0.10987591 -0.45605525 0.026813136
-0.11000763 -0.45614675 0.026787005
-0.11013819 -0.45623446 0.026779335
-0.11027003 -0.45632696 0.026747422
-0.11040258 -0.45641524 0.026744362
-0.11053216 -0.45650738 0.026705541
-0.11066437 -0.45659485 0.026705941
-0.11079524 -0.45668501 0.026684422
-0.11092931 -0.45677242 0.02669288
-0.1110585 -0.45686448 0.026652923
-0.1111889 -0.45695379 0.026634865
-0.11131971 -0.45704505 0.026606429
-0.11145074 -0.45712912 0.026622985
-0.11158105 -0.45721892 0.026601467
-0.11171322 -0.45730823 0.026590329
-0.11184329 -0.4573977 0.026569976
-0.11197557 -0.45748824 0.026551906
-0.11210531 -0.4575769 0.026535014
-0.11223445 -0.45766291 0.026531961
-0.112364 -0.45775127 0.026516227
-0.11249589 -0.45784137 0.026499316
-0.11262475 -0.45792681 0.026498584
-0.11275622 -0.45801532 0.02648975
-0.11288595 -0.45810625 0.026459005
-0.11301473 -0.4581922 0.026454818
-0.11314227 -0.45828375 0.026411399
-0.11327495 -0.45836833 0.026431404
-0.1134039 -0.45845649 0.026414515
-0.11353382 -0.45855147 0.026359545
-0.11366425 -0.45863628 0.026369184
-0.11379307 -0.45872509 0.026347678
-0.11392138 -0.45881075 0.02634348
-0.11405175 -0.45889586 0.026350811
-0.11418004 -0.45898208 0.026343156
-0.11430978 -0.45908108 0.026262809
-0.11443989 -0.45916548 0.02627359
-0.11456567 -0.45925078 0.026261337
-0.11469399 -0.45934001 0.026235223
-0.11482422 -0.45942694 0.026231015
-0.11495458 -0.45951602 0.026214117
-0.11508016 -0.45960194 0.026197238
-0.11520818 -0.45969152 0.026167667
-0.11533824 -0.45977947 0.026156539
-0.11546592 -0.45986658 0.026140807
-0.11559575 -0.45995268 0.026140062
-0.11572316 -0.46003678 0.026141649
-0.11585291 -0.46012282 0.026140904
-0.11598044 -0.46021172 0.026113633
-0.11610784 -0.46029958 0.026092134
-0.11623508 -0.46038473 0.026086794
-0.11636466 -0.46047217 0.026076822
-0.11649181 -0.46055722 0.026071478
-0.11661893 -0.46064454 0.026052291
-0.11674361 -0.46073341 0.026013508
-0.11687295 -0.46081787 0.026020844
-0.11699983 -0.46090633 0.025993576
-0.11712663 -0.46099401 0.025970932
-0.11725587 -0.46107745 0.025984038
-0.11738256 -0.46116504 0.02596139
-0.11751166 -0.46125045 0.0259618
-0.11763826 -0.46133685 0.025946083
-0.11776236 -0.46142328 0.025919992
-0.11789124 -0.46150988 0.025912322
-0.1180176 -0.46159688 0.025891988
-0.11814152 -0.46168244 0.025870517
-0.11826754 -0.46177146 0.025836337
-0.11839855 -0.46185929 0.025829814
-0.11852481 -0.46194413 0.025822168
-0.11865109 -0.46202844 0.025817985
-0.11877996 -0.46211183 0.025829932
-0.11890589 -0.46219853 0.025809599
-0.11903448 -0.46228361 0.02581002
-0.1191574 -0.46237245 0.025764318
-0.11928353 -0.46245629 0.025762444
-0.11941213 -0.46254045 0.025768623
-0.11953761 -0.46262777 0.025742536
-0.1196633 -0.46271339 0.025727963
-0.11978804 -0.46280381 0.025679952
-0.11991195 -0.4628841 0.025690779
-0.12004007 -0.46296981 0.025685433
-0.12016436 -0.46306092 0.025631644
-0.12029014 -0.46314451 0.02562977
-0.12042066 -0.46323067 0.025631329
-0.12054393 -0.46331316 0.025626011
-0.12066956 -0.46339703 0.02562183
-0.12079551 -0.46347943 0.025628023
-0.1209221 -0.46356979 0.025588082
-0.12104035 -0.46366006 0.02551472
-0.12117089 -0.46374512 0.025523199
-0.12129578 -0.46383056 0.025506331
-0.1214254 -0.46390936 0.02554943
-0.1215497 -0.4639965 0.02551988
-0.12167517 -0.46407971 0.025519157
-0.12180275 -0.46416503 0.025513805
-0.12193097 -0.46424839 0.025523458
-0.12205182 -0.46433643 0.025474306
-0.12217785 -0.46442565 0.025438977
-0.12230473 -0.46450451 0.025470553
-0.12243091 -0.46458536 0.025487136
-0.12255536 -0.46467072 0.025469113
-0.12267845 -0.46475196 0.025470713
-0.12280507 -0.46483892 0.025451537
-0.1229275 -0.46492162 0.025441606
-0.12305536 -0.46500546 0.025446638
-0.12318292 -0.46508327 0.025487442
-0.12331061 -0.46516758 0.025489016
-0.123428 -0.46526086 0.025393741
-0.12355476 -0.46534678 0.025381474
-0.12367586 -0.46543783 0.025315026
-0.12380205 -0.46552452 0.025295841
-0.12392798 -0.46560559 0.025310114
-0.12405805 -0.4656907 0.025316296
-0.12418729 -0.46577734 0.025309784
-0.12431601 -0.46585348 0.025365578
-0.12444901 -0.46593356 0.025414418
-0.12457716 -0.4660112 0.025458677
-0.12470685 -0.46609193 0.025490237
-0.12483855 -0.46616945 0.025549475
-0.12497078 -0.46625167 0.025582174
-0.12509613 -0.46632934 0.025614906
-0.12522507 -0.46641183 0.025632635
-0.12535553 -0.46649212 0.025669949
-0.12548658 -0.46657169 0.025714191
-0.1256147 -0.46665081 0.025749221
-0.12574349 -0.46673393 0.025762329
-0.12587191 -0.46681288 0.025799667
-0.12599958 -0.46689302 0.02582662
-0.12612796 -0.46697232 0.025861647
-0.12625922 -0.46705258 0.025902418
-0.12638679 -0.46713322 0.025925923
-0.12652084 -0.46721476 0.02597015
-0.12664932 -0.46729451 0.026002865
-0.12678275 -0.46737713 0.026037857
-0.1269121 -0.46745613 0.026078647
-0.12704417 -0.46753636 0.026122883
-0.1271735 -0.46761572 0.026161365
-0.12730864 -0.46769705 0.026211355
-0.12744029 -0.46777418 0.0262729
-0.12757528 -0.46785203 0.026343647
-0.12770756 -0.46792901 0.02640865
-0.12784296 -0.46800691 0.026480554
-0.12798168 -0.46808571 0.026560519
-0.12811622 -0.4681612 0.026643958
-0.12825398 -0.46823767 0.026734307
-0.12838893 -0.4683134 0.026817754
-0.12852639 -0.46839079 0.026901184
-0.12866145 -0.468467 0.026982319
-0.12880166 -0.46854621 0.027065735
-0.12893601 -0.46862364 0.027136484
-0.12907164 -0.4687002 0.027217619
-0.12921004 -0.46877822 0.027301043
-0.12934987 -0.4688589 0.027374074
-0.12948592 -0.46893594 0.027454052
-0.12962362 -0.46901536 0.027525943
-0.12975977 -0.46909285 0.027603604
-0.12990071 -0.46917367 0.027680097
-0.1300346 -0.46925342 0.027734701
-0.13246074 -0.46798524 0.045344032
-0.13258956 -0.46810326 0.045143716
-0.13381407 -0.46826264 0.049134109
-0.13395625 -0.46836504 0.049083687
-0.13410661 -0.46847302 0.049032066
-0.13426812 -0.46857393 0.049069207
-0.13441426 -0.4686808 0.049007226
-0.13456869 -0.46878961 0.048967119
-0.13472109 -0.46888199 0.049019311
-0.13488184 -0.46898711 0.049027618
-0.13503441 -0.46908656 0.049037125
-0.13518134 -0.46919265 0.04898322
-0.1353218 -0.46929201 0.048944339
-0.13547641 -0.46939039 0.048968833
-0.13563769 -0.46948868 0.049020976
-0.13579355 -0.46959656 0.048992395
-0.13594539 -0.46970648 0.048934992
-0.13609158 -0.46980605 0.048918009
-0.13624144 -0.46991351 0.048867546
-0.13638757 -0.47001946 0.048811324
-0.13653746 -0.47011715 0.048820857
-0.13669315 -0.47021851 0.048831493
-0.13684414 -0.47031581 0.048847936
-0.1369953 -0.47042248 0.048807848
-0.13713332 -0.47052246 0.048755143
-0.13728739 -0.47062463 0.048754249
-0.13743991 -0.47072443 0.048761457
-0.13759737 -0.47082829 0.048764016
-0.13774769 -0.47092608 0.048774693
-0.13789468 -0.47102827 0.048745006
-0.13804519 -0.47112903 0.048738375
-0.13820007 -0.47123399 0.048723638
-0.13834539 -0.47134259 0.048647817
-0.13850568 -0.47144547 0.048667666
-0.13864408 -0.47153914 0.048655335
-0.1387963 -0.47163934 0.048659083
-0.13894835 -0.47173676 0.048678972
-0.13910235 -0.47184208 0.048658483
-0.13924529 -0.47194272 0.048621897
-0.13937832 -0.47204655 0.048525386
-0.13954404 -0.47214797 0.04857634
-0.13968888 -0.4722589 0.048484374
-0.13985097 -0.47236431 0.048496135
-0.14000763 -0.47246328 0.048525237
-0.14014675 -0.47255948 0.04850021
-0.14029258 -0.47266713 0.048432462
-0.14043206 -0.47276583 0.048393589
-0.14057748 -0.47286546 0.048373148
-0.14073254 -0.47296771 0.048375718
-0.14088041 -0.47306934 0.048352946
-0.14102615 -0.4731741 0.048302505
-0.14117754 -0.47327995 0.048268184
-0.14134766 -0.47338107 0.048338734
-0.14149481 -0.47348034 0.048327513
-0.14163266 -0.47358438 0.04824942
-0.14178692 -0.47368196 0.048277374
-0.14194882 -0.47378293 0.048315674
-0.14210123 -0.4738836 0.048317112
-0.14225547 -0.47398889 0.048297763
-0.14239223 -0.47409296 0.048215076
-0.14255139 -0.47419229 0.048252232
-0.14270957 -0.47429433 0.048268627
-0.14286628 -0.47439921 0.048261963
-0.1430105 -0.47450405 0.048204612
-0.14313827 -0.47460234 0.048120804
-0.14329019 -0.47470328 0.048118785
-0.14345674 -0.47480166 0.048191667
-0.14362092 -0.47490302 0.048236873
-0.14378184 -0.475005 0.04826479
-0.14393307 -0.47510868 0.048243158
-0.14407675 -0.47521356 0.048183501
-0.14422534 -0.4753153 0.048163034
-0.14436142 -0.4754189 0.04808034
-0.14451255 -0.47552025 0.048072558
-0.14466912 -0.47562313 0.048077419
-0.14483047 -0.47572541 0.048105344
-0.14498314 -0.47583118 0.048076775
-0.1451318 -0.47593522 0.048042469
-0.14528355 -0.47603884 0.048023142
-0.14543387 -0.47614267 0.047996905
-0.14557174 -0.47624353 0.047938429
-0.14571866 -0.47634113 0.047936428
-0.14587793 -0.47644618 0.047938976
-0.1460342 -0.4765451 0.04796692
-0.14619413 -0.47665021 0.047971774
-0.1463283 -0.4767535 0.047883324
-0.14647643 -0.47685754 0.047846712
-0.14661159 -0.47695848 0.047776725
-0.14676788 -0.47705761 0.047803517
-0.14694132 -0.47715548 0.047907505
-0.14709525 -0.47726339 0.04787086
-0.14722371 -0.47736889 0.047745526
-0.14737622 -0.47747061 0.047741193
-0.14750025 -0.47757414 0.047610115
-0.14764994 -0.47766981 0.047631174
-0.14783263 -0.47776985 0.047759339
-0.1480003 -0.47787502 0.047795296
-0.14815594 -0.47798085 0.047778249
-0.14829621 -0.47808743 0.047694385
-0.14844652 -0.47818747 0.047691211
-0.14859635 -0.47828761 0.047685735
-0.14875717 -0.47838935 0.047714815
-0.14889714 -0.47848988 0.047666717
-0.14904833 -0.47859597 0.047630087
-0.14918947 -0.47869447 0.047599278
-0.14935029 -0.47880036 0.04760297
-0.14949349 -0.47890076 0.047568694
-0.14965454 -0.47900286 0.047596607
-0.14979425 -0.47910529 0.047535826
-0.14995156 -0.47920755 0.047547605
-0.15009099 -0.47931185 0.047474131
-0.15026197 -0.47941414 0.04754122
-0.15041503 -0.47951844 0.047523037
-0.15055011 -0.47961894 0.047455348
-0.15070261 -0.47972327 0.047434859
-0.1508638 -0.47982582 0.047460474
-0.15102541 -0.47992846 0.047487225
-0.15116856 -0.48003092 0.047440261
-0.15132686 -0.48013365 0.047453202
-0.15148118 -0.48023635 0.047450013
-0.15163165 -0.48034084 0.047420304
-0.15176921 -0.48044315 0.047351453
-0.15192305 -0.48054594 0.047345951
-0.15207437 -0.48064685 0.047341626
-0.15222943 -0.48075154 0.047329202
-0.15238526 -0.48085451 0.04733061
-0.1525465 -0.48095953 0.047341228
-0.15269841 -0.48106781 0.047294203
-0.15283912 -0.48116487 0.047270328
-0.15299219 -0.48126787 0.047260225
-0.15314327 -0.48137259 0.047231663
-0.1532921 -0.48147544 0.047205433
-0.15344967 -0.48157877 0.047211453
-0.1536022 -0.48168537 0.047177121
-0.15374443 -0.4817844 0.04714746
-0.15390091 -0.48188609 0.047159255
-0.15405037 -0.48199254 0.047113404
-0.15420799 -0.48209614 0.047118273
-0.15436856 -0.48219827 0.047143891
-0.15452228 -0.48230341 0.047123395
-0.15468921 -0.48241127 0.047139738
-0.15481952 -0.48251465 0.047035161
-0.15497528 -0.4826183 0.047031961
-0.15511395 -0.48271725 0.04698848
-0.155278 -0.48282167 0.04701408
-0.15544048 -0.48292941 0.047013141
-0.15559526 -0.48303318 0.047005337
-0.15574749 -0.48313677 0.04698832
-0.15591164 -0.48324317 0.047002368
-0.15604778 -0.48334363 0.046939295
-0.15619123 -0.48344475 0.046901558
-0.15636593 -0.48355401 0.046940926
-0.15651703 -0.48365441 0.046938911
-0.15666363 -0.48376083 0.046881538
-0.15681355 -0.4838644 0.046855304
-0.15696365 -0.48396638 0.046839446
-0.15712531 -0.48407131 0.046852361
-0.15727954 -0.48417547 0.046839938
-0.15745488 -0.48428535 0.046878155
-0.15759179 -0.48438913 0.046797767
-0.15773146 -0.48449004 0.046746213
-0.15790096 -0.48459622 0.046783309
-0.15804946 -0.48469827 0.046760533
-0.15821435 -0.48480403 0.046781506
-0.15836686 -0.48491138 0.04674257
-0.15851398 -0.48501647 0.046695571
-0.15867428 -0.48512334 0.046691198
-0.15884304 -0.48522675 0.046742149
-0.1590064 -0.48533264 0.0467562
-0.15913324 -0.48543501 0.046643578
-0.15929422 -0.48554063 0.046649575
-0.15944217 -0.48564139 0.046632569
-0.15960777 -0.4857493 0.046643164
-0.15975486 -0.48585308 0.046604246
-0.15990268 -0.48595542 0.046576861
-0.16007081 -0.4860639 0.046594359
-0.16021988 -0.48616803 0.0465612
-0.16036232 -0.48627114 0.046507318
-0.16053823 -0.48638099 0.046547841
-0.16070059 -0.48648584 0.04656421
-0.16085365 -0.48659223 0.046533339
-0.16098686 -0.48669392 0.046450675
-0.16115399 -0.48680118 0.046471626
-0.16130915 -0.48690653 0.046455741
-0.16143578 -0.48700857 0.046344265
-0.16160515 -0.48711637 0.046370987
-0.16175857 -0.48722148 0.046349339
-0.16193007 -0.48733127 0.046372578
-0.16208486 -0.48743671 0.046354383
-0.16224478 -0.48754314 0.046351161
-0.16240817 -0.48765168 0.046349078
-0.1625734 -0.48775917 0.046360821
-0.16272219 -0.48786518 0.046314977
-0.16288489 -0.48797232 0.046318654
-0.16302092 -0.48807457 0.046244044
-0.16320044 -0.48818496 0.046296082
-0.16334626 -0.48829052 0.046241023
-0.16350903 -0.48839787 0.046243552
-0.16368452 -0.48850915 0.04627369
-0.16383974 -0.48861662 0.046245113
-0.16398376 -0.48872191 0.046184294
-0.16417246 -0.48883459 0.046259362
-0.16432433 -0.48894152 0.046220418
-0.1644751 -0.48904544 0.046195328
-0.16462871 -0.48915276 0.046160992
-0.16479343 -0.48926237 0.04615774
-0.16494347 -0.48936903 0.046113037
-0.16510746 -0.48947722 0.046115562
-0.16527347 -0.48958862 0.046106532
-0.16542485 -0.48969427 0.046073362
-0.1655789 -0.48980188 0.046039023
-0.16575004 -0.48991179 0.046059962
-0.16589798 -0.49001819 0.046008352
-0.16606227 -0.49012676 0.046009712
-0.16621447 -0.49023274 0.045977697
-0.16638798 -0.49034479 0.045995165
-0.16653317 -0.49045068 0.045935489
-0.16670613 -0.49056274 0.045950651
-0.16686341 -0.49067137 0.045923214
-0.16702977 -0.49078074 0.045928031
-0.16720062 -0.49089253 0.045936275
-0.16734914 -0.49099797 0.045892742
-0.16750161 -0.49110568 0.045851491
-0.16765065 -0.4912113 0.045809105
-0.16783163 -0.49132565 0.045842677
-0.16799092 -0.49143371 0.04582677
-0.1681235 -0.49153689 0.045732558
-0.16830054 -0.49165052 0.045754615
-0.16849019 -0.49176723 0.045808911
-0.16863444 -0.49187195 0.0457527
-0.089854702 -0.44245112 0.028935932
-0.090000421 -0.44254923 0.028925877
-0.090149976 -0.44265085 0.028910033
-0.090300143 -0.44275346 0.028890716
-0.09044563 -0.44285163 0.028879512
-0.090592653 -0.44295004 0.028872911
-0.090741023 -0.4430505 0.028859373
-0.09088967 -0.44314945 0.028856222
-0.091040283 -0.44325536 0.028818455
-0.091184914 -0.44335088 0.028819934
-0.091331892 -0.44344985 0.028809875
-0.091479212 -0.44354942 0.028797502
-0.091624185 -0.4436478 0.028782833
-0.091772139 -0.44374856 0.028765848
-0.091920443 -0.44384784 0.02875923
-0.092066392 -0.44394594 0.028750334
-0.092212684 -0.44404465 0.028739117
-0.09235923 -0.44414598 0.02871291
-0.092504248 -0.44424307 0.02870631
-0.092645764 -0.44433728 0.0287032
-0.092790969 -0.44443488 0.028694298
-0.092929885 -0.44452116 0.028729258
-0.093064338 -0.44458565 0.028879579
-0.094752237 -0.44664425 0.023115953
-0.094922587 -0.44678622 0.02293737
-0.09507449 -0.44689861 0.022865001
-0.095223963 -0.44701186 0.022777645
-0.095381312 -0.44713521 0.022660268
-0.09550707 -0.44722575 0.022615721
-0.095642626 -0.44732714 0.0225446
-0.095773265 -0.44741243 0.022551918
-0.095907599 -0.44750133 0.02255231
-0.09603826 -0.44758683 0.022558486
-0.096155412 -0.44765586 0.022610877
-0.096275494 -0.4477272 0.022660937
-0.096397273 -0.44780344 0.022687923
-0.096536204 -0.44789991 0.0226606
-0.096677631 -0.44800273 0.022604436
-0.096827045 -0.44811386 0.022529768
-0.096980207 -0.44823349 0.022418175
-0.096426465 -0.44696367 0.027950443
-0.096564166 -0.44705063 0.027976181
-0.096699268 -0.44713345 0.028016929
-0.096840397 -0.44722611 0.028021891
-0.09698426 -0.44732583 0.027994549
-0.097122163 -0.44741085 0.028032973
-0.097256787 -0.44750071 0.028028749
-0.097407937 -0.44761035 0.027970221
-0.097565293 -0.4477177 0.027950875
-0.097670481 -0.44773531 0.028269749
-0.097729847 -0.44769615 0.028750353
-0.097872466 -0.44779655 0.02871378
-0.098156661 -0.44800422 0.028594524
-0.098312303 -0.4481383 0.028404485
-0.098470494 -0.44826919 0.028244428
-0.098764375 -0.44848514 0.028113581
-0.098909363 -0.44858599 0.028083922
-0.099048086 -0.44868439 0.028043913
-0.09919548 -0.44878983 0.027995791
-0.09933193 -0.44888183 0.027985781
-0.099469468 -0.44897303 0.027985003
-0.099607408 -0.44906506 0.027980752
-0.099745899 -0.44915822 0.027971888
-0.099883236 -0.44925231 0.027952652
-0.10002255 -0.44934431 0.027954172
-0.10016087 -0.44943753 0.027944151
-0.10029891 -0.44953039 0.027935289
-0.10043417 -0.44962421 0.027909145
-0.1005737 -0.4497171 0.027906045
-0.10070996 -0.44981012 0.027889125
-0.10085259 -0.44990599 0.02788024
-0.10098875 -0.44999912 0.02786216
-0.10112555 -0.4500936 0.027838318
-0.10126307 -0.45018649 0.027827151
-0.10140122 -0.45028073 0.02781022
-0.10153954 -0.45037547 0.027790979
-0.10167625 -0.45046723 0.027783275
-0.10181666 -0.45056638 0.027745573
