# .PCD v0.7 - Point Cloud Data file format
VERSION 0.7
FIELDS x y z
SIZE 4 4 4
TYPE F F F
COUNT 1 1 1
WIDTH 1306
HEIGHT 1
VIEWPOINT 0 0 0 1 0 0 0
POINTS 1306
DATA ascii
-0.087694317 -0.37691149 0.061141212
-0.087897003 -0.37702444 0.061099965
-0.088070646 -0.37712687 0.061027713
-0.0882397 -0.37721309 0.061045431
-0.088408485 -0.37729582 0.061085057
-0.088581204 -0.37738982 0.061064705
-0.088776782 -0.37749869 0.061025798
-0.088952392 -0.37759119 0.061025038
-0.089128047 -0.37768567 0.06101159
-0.089277424 -0.37776047 0.061036304
-0.089456365 -0.37786093 0.060995169
-0.089635178 -0.37796149 0.060952872
-0.089823626 -0.37807012 0.060890932
-0.090002112 -0.37816626 0.060876317
-0.090177283 -0.37825236 0.060915917
-0.090336248 -0.37833557 0.060918689
-0.090514526 -0.37843671 0.060870625
-0.090692751 -0.37853342 0.06085141
-0.090854771 -0.37861931 0.060847241
-0.091039762 -0.37870881 0.06089833
-0.091220915 -0.37881079 0.060854867
-0.091366656 -0.37888774 0.060853086
-0.091537602 -0.3789891 0.060778543
-0.091728441 -0.37909085 0.060769632
-0.091905832 -0.37919155 0.060721584
-0.0920965 -0.37929341 0.060711537
-0.09226454 -0.37938264 0.060706191
-0.092406586 -0.37945923 0.060694039
-0.092577927 -0.37954879 0.060697906
-0.092791013 -0.37966245 0.060687754
-0.092964604 -0.37976077 0.060642023
-0.093132429 -0.37984973 0.060637828
-0.093289562 -0.37994009 0.060587563
-0.093448229 -0.38001978 0.060612246
-0.093622401 -0.38011205 0.060608022
-0.093801968 -0.38021356 0.060562272
-0.093983971 -0.38032019 0.060491133
-0.094149157 -0.38040245 0.060521558
-0.094343349 -0.38050035 0.060549535
-0.094514936 -0.38060361 0.060464609
-0.094695002 -0.38070005 0.060453448
-0.094855681 -0.3807863 0.060442373
-0.095019996 -0.38087234 0.060445115
-0.09521734 -0.38097188 0.060473084
-0.095386893 -0.38106596 0.060441211
-0.095561236 -0.38115549 0.060455441
-0.09572953 -0.38125351 0.060393598
-0.095896713 -0.38134193 0.060390554
-0.09604203 -0.38142875 0.060323045
-0.096233577 -0.3815226 0.060368337
-0.096390553 -0.38160738 0.060353816
-0.096555106 -0.38170344 0.060291983
-0.096721798 -0.38180381 0.060209379
-0.096913248 -0.38188699 0.060323868
-0.097081311 -0.38198295 0.060274698
-0.097249098 -0.38209996 0.060087159
-0.097431697 -0.3821767 0.060213216
-0.09760195 -0.38226604 0.06021478
-0.097773671 -0.38235173 0.060245164
-0.09794274 -0.38244396 0.060223676
-0.098105229 -0.38254228 0.060139939
-0.098289713 -0.38263488 0.060169112
-0.098464549 -0.38271374 0.060254842
-0.09862899 -0.38282439 0.0600973
-0.098806404 -0.38289806 0.06022568
-0.098967083 -0.38299876 0.060120046
-0.099129669 -0.38309503 0.060050149
-0.099306256 -0.38319528 0.060002103
-0.099493124 -0.38328332 0.060069319
-0.099677809 -0.38337582 0.06009965
-0.09983734 -0.38346162 0.060087427
-0.099995092 -0.38354313 0.060097117
-0.10015969 -0.38363463 0.060065273
-0.100318 -0.383744 0.059895061
-0.10050488 -0.38384685 0.059865423
-0.1006965 -0.38392782 0.059994899
-0.10084134 -0.38401634 0.059914693
-0.10101438 -0.38410041 0.059960067
-0.10119892 -0.3842001 0.059943117
-0.10136437 -0.38430244 0.059843235
-0.10153479 -0.384397 0.059811354
-0.10170946 -0.38447258 0.059917837
-0.10187591 -0.3845728 0.059835248
-0.10203754 -0.38466096 0.059814934
-0.10222264 -0.38475934 0.059808359
-0.10240281 -0.38486433 0.059741851
-0.10257664 -0.38494796 0.059792988
-0.10274494 -0.38503307 0.059815317
-0.10291487 -0.38512772 0.05978113
-0.10307213 -0.38521531 0.059749309
-0.10324896 -0.38530689 0.05975892
-0.10342677 -0.38537529 0.059923053
-0.10358768 -0.38547507 0.05982434
-0.10374127 -0.38558832 0.059612636
-0.10391355 -0.38569549 0.059504643
-0.10409362 -0.38579884 0.059448499
-0.10427936 -0.38587001 0.059621822
-0.10445665 -0.38595599 0.059669487
-0.1046205 -0.38605624 0.059577674
-0.1047921 -0.38614824 0.059566546
-0.10497062 -0.38624793 0.059528869
-0.10513709 -0.38633034 0.059562743
-0.10530597 -0.38642496 0.059525102
-0.10552511 -0.38653773 0.059541449
-0.10566773 -0.38661939 0.059498154
-0.10581584 -0.38669583 0.059507892
-0.10599129 -0.3867842 0.059533656
-0.10616475 -0.38688812 0.059451021
-0.10634293 -0.38698763 0.059413344
-0.10652208 -0.38707283 0.059472539
-0.1066982 -0.38716084 0.059502903
-0.10684605 -0.38725954 0.059366181
-0.10702639 -0.38734838 0.059405766
-0.10718636 -0.38745385 0.05926669
-0.10734088 -0.38754213 0.059221037
-0.10752907 -0.38762483 0.059327468
-0.10770786 -0.38772345 0.05929786
-0.10787681 -0.38782534 0.059212945
-0.10805348 -0.38790092 0.05932634
-0.10820746 -0.38799351 0.059250712
-0.10835993 -0.38808301 0.05919008
-0.10854031 -0.38817626 0.059200834
-0.10874843 -0.38827372 0.05927949
-0.1089098 -0.38835308 0.059315689
-0.10907619 -0.38844073 0.059314974
-0.10924926 -0.38854304 0.059241567
-0.10941808 -0.38863283 0.059235066
-0.10958408 -0.38871321 0.059280474
-0.10974066 -0.38881463 0.059156403
-0.10989729 -0.38891566 0.059034631
-0.11008884 -0.38901323 0.059055716
-0.11026621 -0.38909411 0.059136815
-0.11044195 -0.38919058 0.059110686
-0.11060967 -0.38928458 0.059073046
-0.11077414 -0.38937336 0.059058495
-0.11094179 -0.38946733 0.059020862
-0.11112055 -0.38955849 0.059039697
-0.11128898 -0.38965198 0.059007827
-0.11146403 -0.38974527 0.059000142
-0.11163257 -0.38983864 0.058969423
-0.11180275 -0.38993445 0.058928333
-0.11197412 -0.39002296 0.058939114
-0.11214288 -0.39011946 0.058888786
-0.11230662 -0.39020854 0.058869623
-0.11249255 -0.39029324 0.058955312
-0.11265474 -0.39038965 0.058883108
-0.11281927 -0.39048478 0.058827035
-0.11299278 -0.39057568 0.058829747
-0.11316866 -0.3906655 0.058847431
-0.11333723 -0.39075872 0.058817871
-0.11350857 -0.39084756 0.058826346
-0.11367712 -0.39094076 0.058796786
-0.11384621 -0.39103371 0.058770679
-0.11401528 -0.39112666 0.058744572
-0.11419133 -0.39122579 0.058702286
-0.11435828 -0.39131653 0.058683112
-0.11453544 -0.39140618 0.058706559
-0.11469201 -0.39149517 0.058663212
-0.11487398 -0.39158893 0.058676261
-0.1150406 -0.39167988 0.058654778
-0.1152072 -0.39177665 0.05859524
-0.11538543 -0.39186612 0.058623292
-0.1155566 -0.39195541 0.058628313
-0.11573304 -0.39204571 0.058644846
-0.11589975 -0.39214519 0.058568008
-0.11607528 -0.39223024 0.058615677
-0.11622854 -0.39232862 0.058499694
-0.11641434 -0.39242423 0.05851388
-0.11658531 -0.39251375 0.058516596
-0.11675926 -0.39260784 0.058499694
-0.11693604 -0.39269832 0.058516227
-0.11708927 -0.39279088 0.058438294
-0.11726008 -0.39288864 0.05838681
-0.11743762 -0.392979 0.058406789
-0.11760496 -0.39307508 0.058354177
-0.11778153 -0.3931658 0.0583684
-0.11795732 -0.39325681 0.058378007
-0.11813204 -0.39335081 0.058364563
-0.1182997 -0.39344159 0.058347695
-0.11847833 -0.39353198 0.058371134
-0.11864328 -0.39362612 0.05832313
-0.11880398 -0.39371625 0.058286685
-0.11897604 -0.39380848 0.058275554
-0.1191512 -0.39390498 0.058247119
-0.11931899 -0.39399832 0.058214106
-0.11948583 -0.3940894 0.058192618
-0.1196619 -0.39418074 0.058201075
-0.11984687 -0.39427006 0.058253318
-0.12002309 -0.39436641 0.058229491
-0.12018172 -0.39445704 0.058182668
-0.12035391 -0.39455429 0.05813925
-0.12053221 -0.39464539 0.058156934
-0.12069771 -0.3947393 0.05811239
-0.12086512 -0.39482802 0.058108196
-0.1210306 -0.3949219 0.058063664
-0.12122671 -0.39501196 0.058149293
-0.12139667 -0.39510503 0.058125492
-0.12155657 -0.39520004 0.058054455
-0.12173019 -0.39529237 0.058047935
-0.12189966 -0.39538553 0.058021829
-0.12206765 -0.39547896 0.057988808
-0.12224641 -0.39557052 0.058005322
-0.12241714 -0.39566803 0.057954993
-0.1225981 -0.39575928 0.057980735
-0.12274843 -0.39585122 0.057897046
-0.12292055 -0.395944 0.057882462
-0.12310565 -0.39603922 0.057896644
-0.12328318 -0.39612901 0.057920095
-0.12345915 -0.39622137 0.057921633
-0.12363504 -0.39631596 0.057908181
-0.12381274 -0.39640817 0.057916641
-0.12397577 -0.39650464 0.05784674
-0.12414531 -0.39659801 0.057819474
-0.12430417 -0.39669284 0.057746131
-0.12448364 -0.3967849 0.057761502
-0.12465972 -0.3968775 0.057761889
-0.12482801 -0.39697108 0.057728868
-0.12500176 -0.39706403 0.057718877
-0.12517865 -0.39715245 0.057749249
-0.12534943 -0.39725 0.057698917
-0.1255303 -0.39734226 0.057717741
-0.12569827 -0.39743394 0.057696246
-0.12586758 -0.39752755 0.057666682
-0.12604958 -0.3976199 0.057688959
-0.12621844 -0.39771768 0.057630561
-0.12637874 -0.39780813 0.057590656
-0.12655841 -0.39790085 0.057602555
-0.1267316 -0.39799419 0.05758797
-0.12690543 -0.39808753 0.05757568
-0.12707323 -0.39818141 0.057539202
-0.12724337 -0.39827508 0.057511941
-0.12742494 -0.39836791 0.057529598
-0.1275993 -0.39846134 0.05751846
-0.12777904 -0.39855444 0.057528056
-0.12794165 -0.39864683 0.057483532
-0.12811679 -0.39874032 0.057474699
-0.12828842 -0.39883408 0.057452038
-0.12843449 -0.39892942 0.057331476
-0.1286239 -0.39902213 0.057376776
-0.12880173 -0.39911368 0.05738984
-0.1289656 -0.39920795 0.057337236
-0.12915771 -0.39929891 0.057403289
-0.12933089 -0.39939278 0.057385232
-0.12948483 -0.39948943 0.057283081
-0.12966859 -0.39958286 0.057304196
-0.1298369 -0.39967701 0.057267718
-0.1300212 -0.39977056 0.057289973
-0.13019165 -0.39986283 0.05727309
-0.13038793 -0.39995617 0.057337962
-0.13055047 -0.40005061 0.057279602
-0.13072562 -0.40014288 0.057278834
-0.1308855 -0.40023559 0.057222787
-0.13105121 -0.40032995 0.057175942
-0.13123634 -0.40042394 0.057198204
-0.13138977 -0.40051854 0.05710759
-0.13156623 -0.40061095 0.057110276
-0.13175035 -0.40070513 0.057127923
-0.13193265 -0.40079939 0.05713867
-0.13209659 -0.4008939 0.057084903
-0.13226946 -0.40098655 0.057073776
-0.13245907 -0.40108097 0.057108697
-0.13262343 -0.4011755 0.057056095
-0.13279049 -0.40127003 0.057012692
-0.1329549 -0.40136281 0.056971624
-0.1331128 -0.40145731 0.056897126
-0.13332039 -0.40155041 0.057002321
-0.13347566 -0.40164492 0.056918617
-0.13366376 -0.40173978 0.056945477
-0.13381037 -0.40183413 0.05683298
-0.13399512 -0.40192562 0.05687023
-0.13416243 -0.40202031 0.056826837
-0.13434753 -0.40211535 0.056842171
-0.13452755 -0.40221035 0.056840241
-0.13471347 -0.40230387 0.056868255
-0.13489482 -0.40239906 0.056869779
-0.13506991 -0.4024941 0.056850564
-0.13524221 -0.40258914 0.056822132
-0.13541266 -0.40268245 0.056798331
-0.13558328 -0.40277746 0.056764152
-0.1357668 -0.40287131 0.056781802
-0.13593143 -0.40296617 0.056728043
-0.13611385 -0.40306172 0.056730699
-0.13629493 -0.40315729 0.056728762
-0.13647386 -0.4032512 0.056730285
-0.13664564 -0.40334645 0.056698412
-0.13682339 -0.40344203 0.056684952
-0.13700972 -0.40353808 0.05669798
-0.13717057 -0.40363127 0.056641929
-0.13734744 -0.40372694 0.056625005
-0.13753603 -0.40382487 0.056633413
-0.13770825 -0.40391877 0.05661191
-0.13788807 -0.40401474 0.056603055
-0.13803925 -0.40410745 0.056517061
-0.13822147 -0.40420362 0.056515113
-0.1384149 -0.40430057 0.056546561
-0.13858135 -0.40439585 0.056496255
-0.13876703 -0.40449241 0.056503516
-0.13892168 -0.40458536 0.056427889
-0.13910331 -0.40468177 0.056422487
-0.13928479 -0.40477666 0.056426309
-0.13946433 -0.40487301 0.056413993
-0.13965496 -0.40497023 0.05643392
-0.13985036 -0.40506947 0.056457285
-0.13998035 -0.40516055 0.056309119
-0.14020011 -0.40526184 0.056402721
-0.14037317 -0.40536097 0.056350075
-0.14054137 -0.40545362 0.05632282
-0.14072491 -0.40555066 0.056319714
-0.14090635 -0.40564907 0.05630048
-0.14108811 -0.40574604 0.056291614
-0.14128904 -0.40584484 0.056336869
-0.14142241 -0.40593451 0.056209434
-0.14161605 -0.40603423 0.05622359
-0.1417864 -0.40613034 0.05618133
-0.14199498 -0.40623015 0.056246158
-0.14216308 -0.40632612 0.056196988
-0.14234102 -0.4064216 0.056184679
-0.14249715 -0.4065164 0.056102123
-0.14269191 -0.40661371 0.056135878
-0.14287329 -0.40671259 0.056113176
-0.14305216 -0.40680984 0.056092795
-0.1432206 -0.40690598 0.056043629
-0.14340085 -0.407002 0.056035928
-0.14359194 -0.40710214 0.056038555
-0.14378789 -0.4072029 0.056053847
-0.14396308 -0.40729994 0.056021944
-0.14411989 -0.40739352 0.055949774
-0.14432096 -0.40749219 0.05599618
-0.14449817 -0.40758958 0.055968884
-0.14468974 -0.40768877 0.05597958
-0.14485154 -0.4077844 0.055910833
-0.14505912 -0.40788421 0.055972204
-0.14522099 -0.40798274 0.055885013
-0.14540708 -0.40808007 0.055888817
-0.14558414 -0.40817493 0.055877671
-0.14576641 -0.40827605 0.055843435
-0.14593786 -0.40837169 0.05580809
-0.14612527 -0.40847218 0.055795748
-0.14631529 -0.40856892 0.055816829
-0.14648995 -0.40866923 0.05576187
-0.14665155 -0.40876231 0.055709273
-0.14686483 -0.40886512 0.055770621
-0.050273042 -0.35670513 0.064523995
-0.0504907 -0.35682422 0.064494215
-0.05069999 -0.35693851 0.064466774
-0.05091548 -0.35705999 0.06441395
-0.051053286 -0.35711864 0.06450446
-0.051255051 -0.35721114 0.064593554
-0.051506534 -0.35736251 0.064469054
-0.051731635 -0.35749558 0.064373501
-0.051937714 -0.35760716 0.064353004
-0.052117117 -0.35768822 0.064439878
-0.052301981 -0.35777324 0.064519815
-0.052522533 -0.35790178 0.06443812
-0.052754715 -0.35804406 0.064306781
-0.052954845 -0.35815179 0.064290926
-0.053161036 -0.35826907 0.064233512
-0.053373281 -0.35838175 0.064226821
-0.053579293 -0.35849681 0.064183258
-0.053774159 -0.35859418 0.064217016
-0.053990602 -0.35871702 0.064158417
-0.054211099 -0.35884732 0.064065188
-0.054387797 -0.35892591 0.064158991
-0.054599188 -0.35904574 0.064102717
-0.054814238 -0.35917017 0.06402912
-0.055019714 -0.35928336 0.063995935
-0.055207647 -0.35937315 0.0640551
-0.05540048 -0.35947138 0.06407617
-0.055593986 -0.3595705 0.064093791
-0.055801783 -0.35968703 0.064046755
-0.056013379 -0.35980839 0.06398125
-0.056244504 -0.35995382 0.063825704
-0.0564491 -0.3600646 0.063805208
-0.0566516 -0.36017552 0.063776642
-0.056843117 -0.36027303 0.063797735
-0.057036251 -0.36037266 0.063810736
-0.05722376 -0.36046278 0.063866436
-0.057416938 -0.36056262 0.063878283
-0.05762196 -0.36067733 0.063833565
-0.057789084 -0.36074468 0.063967779
-0.057999097 -0.36086327 0.06391497
-0.058232281 -0.36101404 0.063731737
-0.058456779 -0.36115155 0.06360504
-0.058627464 -0.36122361 0.063720793
-0.0588108 -0.36132798 0.063669249
-0.05899981 -0.36142346 0.063694961
-0.059218924 -0.36154684 0.063642114
-0.059414957 -0.3616434 0.063685089
-0.059632208 -0.36177304 0.063584954
-0.059796683 -0.36183706 0.063731864
-0.060003012 -0.36195284 0.063684851
-0.060209535 -0.36207187 0.063617051
-0.06040613 -0.36217809 0.063598901
-0.060622528 -0.36231062 0.063476861
-0.060803417 -0.36239356 0.06355682
-0.061003376 -0.36250472 0.063517883
-0.061197285 -0.36260509 0.063528575
-0.061399847 -0.3627201 0.063473485
-0.061602034 -0.36283192 0.063438013
-0.061804902 -0.36294779 0.063378319
-0.061989207 -0.36303571 0.063437484
-0.062195018 -0.36315596 0.06335932
-0.062384591 -0.36325124 0.063388489
-0.062581971 -0.36336035 0.063354179
-0.062771916 -0.36345932 0.063360274
-0.062967874 -0.36356682 0.063331746
-0.063159034 -0.36366469 0.063349374
-0.063353024 -0.36376968 0.063330084
-0.063559771 -0.36388972 0.063256517
-0.063754521 -0.36399621 0.063230306
-0.063941926 -0.36408928 0.063266397
-0.064133607 -0.36419168 0.063256338
-0.064341106 -0.36431369 0.0631724
-0.06453006 -0.36441252 0.0631762
-0.064719155 -0.36450842 0.063199602
-0.064913988 -0.36461601 0.063166454
-0.06511192 -0.36472505 0.063134462
-0.065294892 -0.36481562 0.063171729
-0.065486573 -0.36491907 0.06315475
-0.065667391 -0.36500654 0.063204713
-0.065831922 -0.36510345 0.063137107
-0.066075727 -0.36524814 0.063029945
-0.066267438 -0.36534896 0.063030265
-0.066459656 -0.36545411 0.063004054
-0.066656038 -0.36556232 0.062972061
-0.066819541 -0.36565533 0.062926374
-0.066980317 -0.3657268 0.063012175
-0.067222662 -0.36586046 0.062971905
-0.067412511 -0.36595923 0.062979162
-0.067585006 -0.36606336 0.062891908
-0.067800105 -0.36617312 0.062914051
-0.067986593 -0.36627066 0.062917851
-0.068175957 -0.36637288 0.062900878
-0.068362534 -0.36647081 0.062902384
-0.06855344 -0.36657211 0.062896937
-0.068739951 -0.36667016 0.062897287
-0.068939894 -0.36678645 0.062824905
-0.06912943 -0.36688983 0.062801018
-0.06932193 -0.36699441 0.062779427
-0.069475897 -0.36707428 0.062786832
-0.069644511 -0.36716294 0.062787257
-0.069880813 -0.36730191 0.062691659
-0.070034288 -0.36736932 0.062778652
-0.070228271 -0.36748937 0.062661313
-0.070464544 -0.36762124 0.062611856
-0.070650935 -0.36772084 0.062601812
-0.070837259 -0.36781636 0.062618315
-0.07100866 -0.36791512 0.062562197
-0.07121215 -0.36801577 0.062603995
-0.071396783 -0.36811286 0.062604353
-0.07159058 -0.36822644 0.062528543
-0.071769968 -0.36831883 0.062541604
-0.071949437 -0.36841142 0.06255351
-0.072144374 -0.36851463 0.062549211
-0.072338581 -0.36862561 0.062491857
-0.072516792 -0.3687163 0.062511839
-0.072678551 -0.36879462 0.062556118
-0.072873853 -0.36890829 0.062484916
-0.073077418 -0.36901939 0.062458664
-0.073251374 -0.36911651 0.062422156
-0.073423281 -0.36923358 0.062248401
-0.073620379 -0.36933795 0.062244095
-0.073805422 -0.36943823 0.062224835
-0.073993161 -0.36951965 0.062338211
-0.07415387 -0.36959654 0.062388256
-0.074359216 -0.36971778 0.062302016
-0.074566349 -0.36982796 0.0622942
-0.074759007 -0.36993438 0.062261067
-0.074948072 -0.37004405 0.062194508
-0.075130165 -0.37013963 0.062196027
-0.075302273 -0.37023029 0.062195282
-0.075494461 -0.37032607 0.0622302
-0.075678095 -0.37042528 0.062213257
-0.075869076 -0.37054053 0.062116705
-0.076052792 -0.37064049 0.062095147
-0.07622613 -0.37072352 0.062148601
-0.076383717 -0.37080565 0.062153678
-0.076558061 -0.37089661 0.062158696
-0.076757886 -0.37101617 0.062064409
-0.076933727 -0.3711051 0.062087864
-0.077126428 -0.37120306 0.062110104
-0.077324733 -0.37131426 0.062065404
-0.077503681 -0.37141082 0.062049642
-0.077693656 -0.3715215 0.061979614
-0.077870712 -0.37160769 0.062024981
-0.078056008 -0.37170762 0.062009193
-0.078250952 -0.37182513 0.061911456
-0.078432217 -0.37192222 0.061900292
-0.078610577 -0.3720054 0.061969876
-0.078791723 -0.37210241 0.061958704
-0.078978032 -0.3722131 0.061876006
-0.079136387 -0.37229282 0.061899543
-0.079340972 -0.3724103 0.061835222
-0.079518862 -0.37249959 0.061863285
-0.079701185 -0.3725937 0.061875179
-0.079890057 -0.37271369 0.061740573
-0.080068484 -0.37280503 0.061757099
-0.080243416 -0.37288639 0.061826698
-0.080422282 -0.37297904 0.061836302
-0.080602288 -0.37308323 0.061774392
-0.080790065 -0.37319487 0.061690539
-0.080968112 -0.37328583 0.061708227
-0.081124723 -0.37336162 0.061751366
-0.081302121 -0.37345931 0.061722919
-0.081510216 -0.37357581 0.061677039
-0.081688255 -0.3736673 0.061691254
-0.081862137 -0.37375432 0.061720487
-0.082026593 -0.37384731 0.061678257
-0.082189284 -0.3739346 0.061667182
-0.082405746 -0.37405306 0.061637402
-0.08258871 -0.37415296 0.061613545
-0.08276847 -0.3742519 0.06158508
-0.08292082 -0.37432298 0.061644398
-0.083115883 -0.37443739 0.061567429
-0.08325766 -0.37452286 0.061496459
-0.083419435 -0.37460878 0.061491143
-0.083606645 -0.37471676 0.06142921
-0.083805665 -0.37481472 0.061473325
-0.084010631 -0.3749257 0.061452832
-0.084170647 -0.37500504 0.061484426
-0.084370889 -0.37512165 0.061410896
-0.084557563 -0.37521681 0.061430849
-0.084729023 -0.37530926 0.061416261
-0.084867939 -0.37537184 0.061484858
-0.085069813 -0.37551439 0.06124755
-0.085262641 -0.37561244 0.061269786
-0.085440472 -0.37569341 0.061352052
-0.085596323 -0.3757838 0.061297171
-0.085782029 -0.37587526 0.061337888
-0.085964985 -0.37598613 0.061242521
-0.086152591 -0.37609008 0.061208259
-0.086328425 -0.37617689 0.061245553
-0.086515404 -0.37627769 0.061229751
-0.086694308 -0.3763645 0.061277419
-0.08684206 -0.37644568 0.061254863
-0.087018423 -0.37653631 0.061269097
-0.087225556 -0.37665391 0.06121283
-0.087403014 -0.37675533 0.061160158
-0.08758004 -0.37685424 0.061122488
-0.087759823 -0.37695089 0.061109021
-0.087935373 -0.37703595 0.061156705
-0.088111296 -0.37712473 0.061181307
-0.088282436 -0.37723255 0.061065238
-0.088436104 -0.37731916 0.061027654
-0.088602193 -0.37740472 0.061039627
-0.088797428 -0.3775028 0.061069921
-0.088974252 -0.37761307 0.060957283
-0.089172684 -0.3777146 0.060976028
-0.08934845 -0.37780738 0.060974114
-0.089527391 -0.37790057 0.06098026
-0.08968354 -0.37798142 0.060988806
-0.089849606 -0.37808284 0.060896978
-0.090031609 -0.37817413 0.060926169
-0.090210363 -0.37827024 0.06091271
-0.090392306 -0.37836751 0.060902692
-0.090574034 -0.37847206 0.060844235
-0.090752721 -0.37856126 0.060875751
-0.090914622 -0.37865892 0.06079432
-0.091086194 -0.37875813 0.060735911
-0.091284871 -0.37884459 0.060853843
-0.091459706 -0.37894252 0.060815021
-0.091624439 -0.37903938 0.060748562
-0.09178292 -0.37912709 0.060720198
-0.091974556 -0.37922168 0.060760885
-0.092162222 -0.37932318 0.060742773
-0.092336945 -0.379417 0.060730487
-0.092512466 -0.37950292 0.0607724
-0.092679314 -0.37960479 0.060680557
-0.092838429 -0.37968382 0.060711004
-0.093025319 -0.37978864 0.060668685
-0.093188874 -0.37988541 0.060598772
-0.093365945 -0.37998381 0.060564548
-0.093544453 -0.38007253 0.060598381
-0.093699753 -0.38015312 0.060605779
-0.093896553 -0.38025871 0.060592245
-0.094064176 -0.38034916 0.060577676
-0.094238773 -0.38044006 0.060583837
-0.094402432 -0.38053194 0.060546219
-0.094610751 -0.38064945 0.060494568
-0.094766773 -0.38072598 0.0605308
-0.094938099 -0.38081482 0.060539283
-0.095107459 -0.38092664 0.060390923
-0.09527681 -0.38100809 0.060440935
-0.095445774 -0.38109145 0.060477108
-0.095621094 -0.38119227 0.06042099
-0.09581241 -0.38131443 0.060280599
-0.095989756 -0.38140681 0.060286753
-0.096154742 -0.38147834 0.060386382
-0.096334465 -0.3815755 0.060369454
-0.096488327 -0.38165918 0.060351491
-0.096659526 -0.38174742 0.060363427
-0.09683273 -0.38184097 0.060347691
-0.097017117 -0.38194588 0.060296141
-0.097213738 -0.3820484 0.060302213
-0.097368181 -0.38214001 0.060234651
-0.097528383 -0.38223624 0.060156673
-0.097730286 -0.38233465 0.060207702
-0.097913429 -0.38243148 0.060204599
-0.098089471 -0.38251716 0.060249969
-0.098243073 -0.38260019 0.060235463
-0.09842933 -0.38271666 0.060114715
-0.098578081 -0.38279238 0.060131364
-0.098761737 -0.38287058 0.060251668
-0.098919272 -0.38297033 0.060141422
-0.099101685 -0.38308465 0.060021825
-0.099268548 -0.38316458 0.060073011
-0.099436618 -0.38326621 0.05998693
-0.099622741 -0.38335648 0.060036872
-0.09978421 -0.38344684 0.060001574
-0.099954993 -0.38354263 0.059962772
-0.10012619 -0.38362274 0.060027771
-0.10030004 -0.38372034 0.059987806
-0.10048246 -0.38382456 0.059933964
-0.10063727 -0.38391122 0.059899844
-0.10081215 -0.38399965 0.059923306
-0.10098778 -0.38409376 0.059912167
-0.10115867 -0.38418183 0.059924103
-0.1013303 -0.38428196 0.059859924
-0.10151727 -0.38436544 0.059957154
-0.10168657 -0.38446239 0.059905671
-0.10183299 -0.38455421 0.059809312
-0.10200393 -0.38465449 0.059741676
-0.10220394 -0.38475719 0.059758112
-0.10237761 -0.38483545 0.059843853
-0.10253692 -0.38492113 0.059831634
-0.10269923 -0.38500875 0.059817083
-0.10286193 -0.38510737 0.059732191
-0.10304652 -0.38520107 0.059754454
-0.1032286 -0.38528675 0.059820563
-0.10339671 -0.38538942 0.059727564
-0.10356463 -0.38548654 0.059670318
-0.10373884 -0.3855654 0.059753761
-0.10393067 -0.38565126 0.059852116
-0.10407374 -0.38573918 0.059769608
-0.10423131 -0.38584214 0.059638597
-0.1043962 -0.38595217 0.059486791
-0.10459135 -0.38604489 0.05955169
-0.10475615 -0.38612428 0.059599411
-0.10492818 -0.38621631 0.059589438
-0.10508715 -0.38631651 0.059481487
-0.10526539 -0.38640705 0.059502631
-0.10545509 -0.38649619 0.05957216
-0.10561714 -0.38659763 0.059466504
-0.10579452 -0.38668913 0.059478421
-0.1059557 -0.38677245 0.059488107
-0.10615535 -0.38687143 0.059527606
-0.10630324 -0.38696668 0.05941394
-0.10647382 -0.38705969 0.05939243
-0.10665306 -0.38715413 0.059391655
-0.10683521 -0.38724178 0.059445076
-0.10700285 -0.38732424 0.059482418
-0.10716537 -0.38741535 0.059445951
-0.10733582 -0.38750848 0.059423298
-0.10750096 -0.38761419 0.05930033
-0.10767065 -0.38769105 0.059381481
-0.10783896 -0.38778573 0.059341535
-0.10800985 -0.38788247 0.059296973
-0.10816645 -0.38797343 0.05924093
-0.10834813 -0.38806614 0.05925975
-0.10854058 -0.38815126 0.059365019
-0.10870541 -0.38824427 0.059323937
-0.10886421 -0.38833746 0.059260964
-0.109047 -0.3884297 0.05928671
-0.1092025 -0.38851726 0.059249125
-0.10937457 -0.38861287 0.059216078
-0.10953447 -0.38870877 0.059139267
-0.10970776 -0.38880339 0.059116609
-0.10987753 -0.38889283 0.059115864
-0.11005956 -0.38898572 0.059134685
-0.11022498 -0.38908151 0.059077457
-0.11039862 -0.38917229 0.05908132
-0.11057168 -0.38926345 0.059080567
-0.11075293 -0.389357 0.05909247
-0.11090732 -0.38946235 0.058934946
-0.11107948 -0.3895435 0.058996484
-0.11125717 -0.38963905 0.058983013
-0.11141801 -0.38972661 0.058963865
-0.11157555 -0.38981929 0.058899749
-0.11175805 -0.38990891 0.058941629
-0.11193493 -0.3899982 0.058966238
-0.1121144 -0.39009291 0.058964312
-0.11228056 -0.39018115 0.058958977
-0.11244439 -0.39028037 0.058874078
-0.11260969 -0.39036247 0.058905646
-0.11277648 -0.39045689 0.058862254
-0.11295032 -0.39055112 0.058844194
-0.11313417 -0.39064071 0.058890685
-0.11330362 -0.39073387 0.058864582
-0.11347596 -0.39083508 0.05879578
-0.11364336 -0.39091974 0.058818121
-0.11385135 -0.39098072 0.059134394
-0.1139751 -0.39109978 0.058782086
-0.11415072 -0.39119637 0.058754802
-0.1143246 -0.39128762 0.058756351
-0.11450931 -0.3913835 0.058764774
-0.11467799 -0.39147395 0.058753669
-0.11483654 -0.39156541 0.058701076
-0.11500669 -0.39165822 0.058679573
-0.11517224 -0.39174986 0.058650028
-0.11533546 -0.39183655 0.058644705
-0.11550692 -0.39192599 0.058649734
-0.11567992 -0.39202064 0.058625918
-0.11584428 -0.39211553 0.058570988
-0.11601964 -0.39221215 0.058542557
-0.11619549 -0.39229739 0.058590237
-0.11634941 -0.39239293 0.058494993
-0.11652631 -0.39248347 0.058511525
-0.11669046 -0.39257279 0.058492359
-0.11687112 -0.39267042 0.058475427
-0.11704262 -0.39275742 0.058496594
-0.11721434 -0.3928498 0.058483165
-0.11737775 -0.39294207 0.058442086
-0.11754303 -0.39303109 0.058428686
-0.11772531 -0.39312837 0.058419827
-0.1179101 -0.39321703 0.058475532
-0.11805528 -0.39331189 0.058354955
-0.11822657 -0.39340708 0.058321923
-0.11841241 -0.39349824 0.058364943
-0.11858951 -0.39358678 0.058395311
-0.11874517 -0.39368361 0.058297761
-0.11891624 -0.39377126 0.058313161
-0.11908775 -0.39386392 0.058297422
-0.11926202 -0.39395589 0.058295518
-0.11943661 -0.39405033 0.058278617
-0.11959669 -0.39414084 0.058237553
-0.11977199 -0.39423266 0.058240253
-0.11994685 -0.39432955 0.058208354
-0.12011766 -0.39441758 0.058220301
-0.12029292 -0.39450955 0.058221843
-0.12045868 -0.39460605 0.058161162
-0.120616 -0.39469954 0.058091275
-0.12079443 -0.39479089 0.058107801
-0.12096201 -0.39488217 0.058087461
-0.12114593 -0.3949725 0.058129344
-0.12132222 -0.3950645 0.05813434
-0.12148807 -0.39515859 0.0580898
-0.12165289 -0.39525282 0.058040641
-0.12184223 -0.39534479 0.058090568
-0.12201155 -0.39543593 0.058077149
-0.12217465 -0.39553049 0.058019929
-0.12234545 -0.39562595 0.057983436
-0.12251128 -0.39571774 0.057953887
-0.12267934 -0.39581138 0.057919707
-0.12285627 -0.39590582 0.05791086
-0.12302959 -0.39599642 0.057914719
-0.12320133 -0.39608955 0.057896681
-0.12337649 -0.39618218 0.057893611
-0.12354884 -0.39627525 0.057877872
-0.12372807 -0.39636737 0.057892092
-0.12389418 -0.39646143 0.057848692
-0.12407391 -0.39655575 0.057850223
-0.12425526 -0.39664775 0.057872504
-0.12441792 -0.39674014 0.057827968
-0.12459191 -0.39683321 0.057817988
-0.12477218 -0.39692342 0.057848349
-0.12492834 -0.39701873 0.057762325
-0.12509753 -0.39711246 0.057731599
-0.12525213 -0.39720786 0.057639822
-0.12544423 -0.39729899 0.057704724
-0.12562102 -0.39739195 0.057705112
-0.12580274 -0.39748856 0.057698563
-0.12596218 -0.39757925 0.057654046
-0.12614378 -0.39766979 0.057686701
-0.12630998 -0.39776599 0.057629466
-0.12648453 -0.39785936 0.057619479
-0.12666804 -0.39795199 0.057645209
-0.12684162 -0.39804554 0.057630621
-0.12700224 -0.39814022 0.05756418
-0.12716947 -0.39823434 0.057524245
-0.12736212 -0.39832643 0.057584535
-0.12751625 -0.39842159 0.057492752
-0.12768708 -0.39851546 0.057466637
-0.12787333 -0.3986083 0.057500433
-0.128041 -0.39870244 0.057461645
-0.12822095 -0.39879581 0.057470094
-0.1284022 -0.39888918 0.057483144
-0.12855916 -0.39898404 0.057402886
-0.1287363 -0.39907774 0.057399809
-0.12891363 -0.39916956 0.057409421
-0.12909496 -0.39926314 0.057421319
-0.12926127 -0.39935941 0.057364084
-0.12943073 -0.39945361 0.057331055
-0.12960021 -0.39954785 0.057298031
-0.12976205 -0.39964053 0.05724889
-0.12993863 -0.39973637 0.057229668
-0.1301275 -0.39982808 0.057279602
-0.1302951 -0.39992434 0.057226967
-0.13047715 -0.40001827 0.057238862
-0.13066189 -0.40011224 0.057259977
-0.13084485 -0.40020633 0.057274181
-0.13101178 -0.40029904 0.057242315
-0.13118707 -0.40039703 0.057204645
-0.13134983 -0.40048984 0.057157811
-0.13153544 -0.40058407 0.057180069
-0.13172287 -0.4006784 0.057208091
-0.13189009 -0.40077302 0.057164699
-0.13205236 -0.4008677 0.057104021
-0.13225536 -0.40096033 0.057196558
-0.1324071 -0.4010551 0.057099022
-0.13258278 -0.40114975 0.057084415
-0.13273469 -0.40124446 0.056988031
-0.1329239 -0.40133917 0.057019502
-0.13309978 -0.40143394 0.057004903
-0.133239 -0.40152851 0.056865897
-0.13343263 -0.40162343 0.056911185
-0.13361381 -0.40171832 0.056913868
-0.13379818 -0.40181336 0.056926906
-0.13396868 -0.40190652 0.056904253
-0.13415679 -0.40200171 0.05692881
-0.13433498 -0.40209684 0.05691997
-0.13451642 -0.40219206 0.056921482
-0.1347059 -0.40228921 0.056937963
-0.13485533 -0.40238208 0.056845043
-0.13504696 -0.40247771 0.05687882
-0.1352132 -0.40257272 0.056829654
-0.13539086 -0.40266806 0.056817356
-0.13556755 -0.40276343 0.056801595
-0.13574864 -0.402859 0.056799658
-0.13591574 -0.4029541 0.056752793
-0.13610101 -0.40304995 0.056763526
-0.13628606 -0.40314582 0.056773104
-0.1364592 -0.40324128 0.056744669
-0.13664341 -0.40333727 0.056750797
-0.13680829 -0.40343401 0.056685489
-0.13698119 -0.40352792 0.056666285
-0.137162 -0.40362388 0.056660891
-0.13733101 -0.40371925 0.056618638
-0.13751239 -0.40381533 0.056614392
-0.13768561 -0.40391102 0.056584805
-0.13788381 -0.40400818 0.056631237
-0.13805686 -0.40410551 0.056590114
-0.13823378 -0.40420154 0.056570902
-0.13841116 -0.40429765 0.056552827
-0.13858865 -0.40439379 0.05653476
-0.13874123 -0.4044883 0.056441821
-0.13895586 -0.40458706 0.056534316
-0.13912398 -0.40468267 0.056487456
-0.13931692 -0.40478167 0.056503914
-0.13948409 -0.40487576 0.056463979
-0.1396738 -0.40497461 0.056470074
-0.13987954 -0.40507329 0.056532621
-0.14005479 -0.40516967 0.05650533
-0.14022917 -0.40526754 0.056465361
-0.14039952 -0.40536204 0.056433484
-0.14058878 -0.40546119 0.056436129
-0.14076036 -0.40556043 0.056377716
-0.14092894 -0.40565789 0.056320466
-0.14112216 -0.40575156 0.056372687
-0.14131719 -0.40585446 0.056370687
-0.14147018 -0.4059476 0.056288138
-0.14166287 -0.40604591 0.056308065
-0.14183462 -0.40614381 0.056258872
-0.1420058 -0.40623575 0.056246594
-0.14217654 -0.40633509 0.056184724
-0.14236981 -0.4064337 0.056204651
-0.14255883 -0.40653345 0.05620268
-0.14271735 -0.40662721 0.056135099
-0.14290921 -0.40672296 0.056168869
-0.14311352 -0.40682742 0.05618874
-0.14328369 -0.40692395 0.056143023
-0.14345354 -0.40702191 0.05608692
-0.14361182 -0.40711573 0.056018192
-0.14379868 -0.40721416 0.05601738
-0.14401987 -0.40731654 0.056108691
-0.14418876 -0.40741453 0.056049135
-0.1443688 -0.40751094 0.056037977
-0.14454424 -0.40760973 0.055995695
-0.14472364 -0.40770617 0.055982228
-0.14490794 -0.40780327 0.055981427
-0.1450963 -0.40790373 0.055972539
-0.14529097 -0.40800223 0.055998228
-0.14543797 -0.40809625 0.055889167
-0.14562982 -0.40819591 0.055897571
-0.14582977 -0.40829808 0.055917464
-0.14602463 -0.40839964 0.055923536
-0.14618447 -0.40849677 0.055838652
-0.14638945 -0.40859979 0.055870052
-0.14656955 -0.4086996 0.055836976
-0.14672095 -0.4087956 0.055730216
-0.14692968 -0.40889797 0.055778906
-0.051367812 -0.35730159 0.064390197
-0.051578198 -0.35742465 0.064309657
-0.051775318 -0.357535 0.064266086
-0.051977038 -0.35764623 0.064232893
-0.052207503 -0.35776287 0.064263016
-0.052396409 -0.35785496 0.064310625
-0.052616443 -0.35798308 0.06423004
-0.052805066 -0.35807502 0.064277656
-0.05303311 -0.35821283 0.064161271
-0.053245742 -0.35833296 0.064107262
-0.053438246 -0.35842979 0.064136386
-0.053659242 -0.3585577 0.06406042
-0.053835236 -0.35865447 0.064033106
-0.053992257 -0.35871458 0.064180061
-0.054184597 -0.35881874 0.064160749
-0.054434486 -0.35896945 0.064035051
-0.054651868 -0.35908186 0.064047925
-0.054816384 -0.35916799 0.064050645
-0.055005163 -0.35926852 0.064042889
-0.055239625 -0.35938194 0.064107597
-0.055438507 -0.35949484 0.064053647
-0.055651568 -0.35961008 0.064033076
-0.055818055 -0.35969409 0.064056568
-0.056026384 -0.35980383 0.064055637
-0.056272488 -0.35995734 0.063898809
-0.056461822 -0.36004931 0.063948713
-0.056683902 -0.36018416 0.06383121
-0.056879789 -0.36028698 0.063832648
-0.05706659 -0.36037868 0.063875645
-0.057274241 -0.36049372 0.063837804
-0.057477266 -0.36060581 0.063803449
-0.057676859 -0.36071378 0.0637841
-0.057903167 -0.36085546 0.063636579
-0.058090396 -0.36094826 0.063673817
-0.058269419 -0.36103073 0.063750312
-0.058479384 -0.36115512 0.0636594
-0.058672816 -0.36125064 0.063700058
-0.058852401 -0.36133397 0.063773088
-0.059026659 -0.36142945 0.063748091
-0.059284199 -0.36159128 0.063576199
-0.05948351 -0.36170036 0.063548788
-0.059675649 -0.36179751 0.063574456
-0.059875958 -0.36190817 0.063540116
-0.060082354 -0.36202696 0.063473433
-0.060260214 -0.3621226 0.063459948
-0.060442172 -0.36222094 0.06344299
-0.060627595 -0.36230978 0.063499846
-0.060839966 -0.36241722 0.063527733
-0.061049562 -0.36253262 0.063494503
-0.061266474 -0.36266667 0.063364334
-0.061460458 -0.36277026 0.063354231
-0.06162693 -0.36283392 0.063510388
-0.061828882 -0.36294845 0.063456424
-0.062011674 -0.36303413 0.06352482
-0.062200822 -0.36313149 0.063538976
-0.062432658 -0.36328757 0.063316442
-0.062626243 -0.36339748 0.06326367
-0.062790565 -0.36346409 0.063393295
-0.063003257 -0.36358249 0.063350812
-0.063199781 -0.36368778 0.063338414
-0.06340611 -0.36381009 0.063248649
-0.063610211 -0.36392644 0.063190065
-0.063802347 -0.36402926 0.06317883
-0.063980304 -0.36410886 0.063270323
-0.064189479 -0.36423621 0.063157484
-0.064383075 -0.36434156 0.063134708
-0.064574763 -0.36444432 0.063122317
-0.064768255 -0.3645466 0.063119143
-0.064961344 -0.36465168 0.063096367
-0.065163583 -0.36476704 0.063037783
-0.065351367 -0.36487463 0.062980413
-0.065546662 -0.36497027 0.063026845
-0.065732002 -0.36506453 0.063047938
-0.065924779 -0.36516663 0.063043624
-0.066112116 -0.36526409 0.063050851
-0.066309065 -0.36537614 0.062995754
-0.066490754 -0.36546531 0.063037634
-0.06669274 -0.36558199 0.062969819
-0.066880226 -0.36568022 0.062972449
-0.067076668 -0.36578882 0.062938116
-0.067257144 -0.3658765 0.062985763
-0.067448631 -0.3659777 0.062982604
-0.067641109 -0.36608425 0.062948287
-0.067826897 -0.36620951 0.062768653
-0.068035275 -0.36630884 0.06283579
-0.068229564 -0.36641526 0.062808394
-0.068420701 -0.36652055 0.062777542
-0.068617046 -0.3666307 0.062732831
-0.068794385 -0.36671406 0.0627978
-0.068967469 -0.36680949 0.062769338
-0.069145635 -0.36691341 0.062702782
-0.069367833 -0.36702836 0.062715635
-0.06955795 -0.36713308 0.062684789
-0.069755636 -0.36724678 0.062621623
-0.069940142 -0.36734256 0.06263002
-0.070130862 -0.36744499 0.062616482
-0.070315763 -0.36754167 0.062620282
-0.070500128 -0.36763349 0.062654063
-0.070688099 -0.36773571 0.062632456
-0.070888534 -0.36785561 0.062538125
-0.07107611 -0.36795759 0.062516518
-0.07126265 -0.36805376 0.062529527
-0.071446627 -0.36816251 0.062451415
-0.071598977 -0.36824524 0.062434591
-0.071805865 -0.3683567 0.062417511
-0.0719833 -0.36844134 0.062474404
-0.072146162 -0.36852592 0.062481754
-0.072349362 -0.36864445 0.062405866
-0.072565109 -0.36875051 0.062454499
-0.072720096 -0.36882985 0.062468816
-0.072923064 -0.3689442 0.062419459
-0.073095277 -0.36903316 0.062430222
-0.073282339 -0.36912233 0.062490527
-0.073517971 -0.36927652 0.062293366
-0.073699728 -0.36937013 0.062306397
-0.073852502 -0.36945081 0.062304556
-0.074070215 -0.36956656 0.062296677
-0.07423009 -0.3696467 0.062322497
-0.074399732 -0.36974651 0.062253676
-0.074589454 -0.36985686 0.062184762
-0.07479196 -0.36996815 0.062153865
-0.074958898 -0.37002712 0.062342308
-0.075130686 -0.37013757 0.062211193
-0.075365886 -0.37027031 0.062152453
-0.075540483 -0.37036636 0.062125146
-0.075752005 -0.37048185 0.062097676
-0.075934447 -0.37057886 0.062091094
-0.076107115 -0.37067142 0.06207994
-0.076305553 -0.37078142 0.062043294
-0.076478124 -0.37086844 0.062067904
-0.076661564 -0.37095678 0.062121302
-0.076849483 -0.37105525 0.062123924
-0.077041857 -0.37117603 0.061996169
-0.077219188 -0.37127456 0.06196193
-0.077408209 -0.37137645 0.06194609
-0.07759463 -0.37147236 0.06196025
-0.077754781 -0.37155548 0.061967611
-0.077931233 -0.37165287 0.061937988
-0.078146957 -0.37176952 0.061917409
-0.078328215 -0.3718597 0.061951216
-0.078491747 -0.37195858 0.061867423
-0.078688584 -0.37206173 0.061870009
-0.078877717 -0.3721658 0.061840322
-0.079048157 -0.3722561 0.061836105
-0.079243444 -0.37236288 0.061809845
-0.079430774 -0.37247023 0.061752483
-0.079615705 -0.37256411 0.061774738
-0.079796091 -0.37265295 0.061814308
-0.079981834 -0.37276441 0.061724655
-0.080168575 -0.37287161 0.061666138
-0.080349162 -0.37296942 0.061648026
-0.080529436 -0.37305856 0.061685298
-0.080710098 -0.37314877 0.061716788
-0.080897801 -0.37326038 0.061632887
-0.081077494 -0.37335646 0.061622862
-0.081258044 -0.37344679 0.061653204
-0.081438795 -0.3735466 0.061622404
-0.081621423 -0.37364388 0.061614674
-0.08180467 -0.37374341 0.06159424
-0.081986174 -0.37383744 0.061603814
-0.082167618 -0.37394097 0.061551094
-0.082348548 -0.37403348 0.061568748
-0.082526155 -0.3741242 0.061586406
-0.082714692 -0.37424457 0.061448291
-0.082894646 -0.37433425 0.061480943
-0.083078504 -0.3744387 0.061430514
-0.083255976 -0.37453008 0.061443564
-0.083430856 -0.37462255 0.061440475
-0.083586097 -0.37469372 0.061509009
-0.083793931 -0.37480375 0.061504621
-0.083974808 -0.37491 0.061432291
-0.084131829 -0.37500137 0.061375067
-0.084320374 -0.37510458 0.061348841
-0.08451926 -0.37521571 0.061306421
-0.084693849 -0.37530929 0.061295267
-0.084863879 -0.37540963 0.061224133
-0.085011385 -0.37544176 0.061521113
-0.085170016 -0.37554422 0.061396964
-0.085356392 -0.37565407 0.061319996
-0.085540332 -0.37578455 0.061099987
-0.085771658 -0.37589952 0.061143953
-0.085958198 -0.37599656 0.061151192
-0.086121872 -0.37606335 0.06127736
-0.086266384 -0.37614125 0.061265178
-0.086466156 -0.37626663 0.061132781
-0.086633593 -0.37633681 0.061249696
-0.086808182 -0.37645882 0.061052807
-0.087031089 -0.37658083 0.061021812
-0.087206505 -0.37666529 0.061072946
-0.087383561 -0.3767637 0.061038703
-0.087559387 -0.37685156 0.061069068
-0.087739438 -0.37695065 0.061040573
-0.087912761 -0.3770453 0.061017886
-0.088095948 -0.37714711 0.060982458
-0.088271476 -0.37723234 0.061028969
-0.088448167 -0.37733319 0.060977437
-0.088624269 -0.3774274 0.060967416
-0.088797137 -0.3775211 0.06094934
-0.088973165 -0.37761649 0.06093125
-0.089158699 -0.37771246 0.060941964
-0.089328133 -0.37780562 0.060915824
-0.08951053 -0.37790701 0.0608804
-0.089686438 -0.37801293 0.060793094
-0.089858621 -0.37809655 0.060838476
-0.090040624 -0.37818643 0.060876887
-0.090219431 -0.37827921 0.060885318
-0.090355948 -0.37835026 0.060890481
-0.090550482 -0.37847763 0.060726948
-0.090745524 -0.37856874 0.060802218
-0.09092398 -0.37866557 0.060782969
-0.091069676 -0.3787508 0.060726944
-0.091235384 -0.3788321 0.060765423
-0.091439016 -0.37895244 0.060679149
-0.091613747 -0.37904909 0.060648382
-0.091769308 -0.37913051 0.060651138
-0.091937855 -0.37921825 0.060657315
-0.092112549 -0.37931293 0.060639232
-0.092302784 -0.3794218 0.060581852
-0.092503577 -0.37952617 0.060590185
-0.092678808 -0.37961406 0.060618252
-0.092841379 -0.37969315 0.060660206
-0.092985339 -0.37978262 0.060570735
-0.093161747 -0.37988669 0.060497276
-0.093346141 -0.37998259 0.060504526
-0.093536578 -0.38008448 0.060493298
-0.093697608 -0.38017267 0.060470656
-0.093882173 -0.38026708 0.060488291
-0.094065763 -0.3803668 0.060467862
-0.094217122 -0.38044885 0.060452193
-0.094427161 -0.38055843 0.060458176
-0.094600782 -0.38065341 0.060434327
-0.094775498 -0.38074318 0.06044855
-0.094944596 -0.38084143 0.060387798
-0.095104106 -0.38093358 0.060334034
-0.095267333 -0.3810249 0.060298696
-0.095447354 -0.38110772 0.060376331
-0.095627308 -0.3812184 0.06027171
-0.095809489 -0.38130715 0.060318194
-0.095972829 -0.38139707 0.06029208
-0.096145436 -0.38148075 0.060338609
-0.096308604 -0.38158298 0.060231753
-0.096471995 -0.38167188 0.060212567
-0.096646197 -0.38176224 0.060221016
-0.096829548 -0.38185918 0.060217895
-0.096985705 -0.38194656 0.060183741
-0.097158834 -0.38203973 0.060170285
-0.097343892 -0.38214198 0.060138308
-0.097526617 -0.38224 0.060125954
-0.09772069 -0.3823387 0.060148165
-0.097867712 -0.38241881 0.060130209
-0.098031357 -0.38250592 0.060123704
-0.098231129 -0.38261893 0.060072053
-0.098423027 -0.3827225 0.060055055
-0.098574728 -0.38280046 0.060067058
-0.098735198 -0.38289401 0.060007513
-0.098910876 -0.38298905 0.059990581
-0.099083714 -0.3830815 0.059980579
-0.099267691 -0.38317594 0.059995916
-0.099421501 -0.38326564 0.059938699
-0.099598452 -0.38335001 0.059995592
-0.099777274 -0.38344651 0.0599798
-0.099980213 -0.38355926 0.059940822
-0.10016058 -0.38364545 0.059997696
-0.10029448 -0.3837181 0.059983253
-0.10046506 -0.38382828 0.059849828
-0.10064656 -0.38391277 0.059921697
-0.10084796 -0.38402045 0.05991042
-0.10101143 -0.38411364 0.059863545
-0.10116027 -0.38420266 0.05979367
-0.10133278 -0.38429478 0.059784818
-0.10150035 -0.38439417 0.059711397
-0.10167451 -0.38449001 0.05968409
-0.10185469 -0.38457716 0.059734039
-0.10203068 -0.38466421 0.059770171
-0.10218965 -0.38475043 0.05975331
-0.10235839 -0.38484144 0.059738714
-0.10253308 -0.38493046 0.059757553
-0.10270568 -0.38502809 0.059712946
-0.10288094 -0.38511071 0.059775606
-0.1030631 -0.38521904 0.059694044
-0.10321577 -0.38530707 0.059643757
-0.10338444 -0.38540334 0.059594557
-0.10356989 -0.38549608 0.059626024
-0.10373232 -0.38558325 0.059614919
-0.10390698 -0.38566715 0.059667215
-0.10407417 -0.38577005 0.05956956
-0.10424308 -0.38586557 0.059526127
-0.10441355 -0.38595414 0.05953344
-0.10459687 -0.38604948 0.059540693
-0.10475668 -0.38613915 0.059504222
-0.10492101 -0.38623896 0.059416968
-0.10510202 -0.38632673 0.059465766
-0.1052698 -0.38641316 0.059477709
-0.10542896 -0.38651752 0.059343182
-0.10559952 -0.3866201 0.059259355
-0.10579534 -0.38669887 0.059417687
-0.10598374 -0.38679424 0.059442222
-0.10614102 -0.38688114 0.05941499
-0.10631747 -0.38697818 0.059387669
-0.10648333 -0.38707986 0.059293486
-0.10665307 -0.38717353 0.059265044
-0.10682566 -0.38726038 0.059290804
-0.10700621 -0.38735372 0.05930154
-0.1071769 -0.3874509 0.05925348
-0.10734642 -0.38754037 0.059251569
-0.10753307 -0.3876332 0.059286501
-0.10769504 -0.38772863 0.059220016
-0.1078601 -0.38781327 0.059234284
-0.10804623 -0.38791081 0.059236914
-0.10820918 -0.3879931 0.059259258
-0.10839096 -0.38809788 0.059199609
-0.10857455 -0.38818541 0.059258781
-0.10874471 -0.3882786 0.059234954
-0.10890771 -0.38836887 0.059205387
-0.10907457 -0.38846421 0.059156187
-0.10925484 -0.38856959 0.059087325
-0.10942015 -0.38866571 0.059027754
-0.10956547 -0.38875955 0.05891405
-0.10976233 -0.38883907 0.05907122
-0.10993259 -0.38893193 0.059049696
-0.11010282 -0.38902479 0.059028164
-0.11025646 -0.38912764 0.058884442
-0.11045131 -0.38922006 0.05895048
-0.11061363 -0.38931388 0.058895532
-0.11079122 -0.38941643 0.058835916
-0.11098957 -0.38951066 0.058901928
-0.11115117 -0.38959086 0.058933515
-0.11132157 -0.3896732 0.058981203
-0.11149947 -0.38976532 0.058990784
-0.11165059 -0.38986155 0.058881678
-0.11182359 -0.38995957 0.05883592
-0.1120028 -0.39005435 0.058832813
-0.11218668 -0.39014679 0.058860831
-0.11236607 -0.39023829 0.058879636
-0.11252947 -0.3903279 0.058855839
-0.11269403 -0.39042345 0.058797419
-0.11285421 -0.39051771 0.058732115
-0.11302371 -0.39061072 0.058707125
-0.1132005 -0.39070988 0.058667116
-0.1133847 -0.39080247 0.058695134
-0.11354494 -0.39089024 0.05867251
-0.11371811 -0.39098167 0.05867058
-0.11389933 -0.39107272 0.058698609
-0.11406385 -0.39116788 0.058642499
-0.11422805 -0.39125702 0.058624465
-0.11441211 -0.3913531 0.058629416
-0.11458634 -0.39145017 0.058594026
-0.11476796 -0.39153543 0.058661278
-0.11494334 -0.39163506 0.058613196
-0.11511669 -0.39172956 0.058591664
-0.11529797 -0.39182401 0.058597773
-0.11546326 -0.39192152 0.058528975
-0.11562099 -0.39201307 0.058472894
-0.1157886 -0.39209822 0.058492918
-0.11597805 -0.39218989 0.058545135
-0.11614137 -0.39228511 0.058484424
-0.11631189 -0.3923806 0.058446743
-0.11649067 -0.39247054 0.058473632
-0.11666327 -0.39256534 0.05844748
-0.11682815 -0.39266264 0.058378696
-0.11698551 -0.39275137 0.058339916
-0.1171442 -0.39284503 0.058273453
-0.11732808 -0.39293361 0.058326855
-0.11753075 -0.39301935 0.058463227
-0.1177194 -0.39310953 0.058522377
-0.11792707 -0.39319173 0.058699109
-0.11804065 -0.393309 0.058323681
-0.1182206 -0.39339918 0.058352865
-0.11838473 -0.39349642 0.058281772
-0.11855306 -0.39358988 0.058249868
-0.11873287 -0.39368284 0.058260597
-0.11889628 -0.39377758 0.058203343
-0.11908319 -0.3938688 0.058249816
-0.1192479 -0.39396068 0.058215618
-0.11941054 -0.39405558 0.058154911
-0.11958764 -0.39415187 0.058134507
-0.11976964 -0.39424208 0.058170609
-0.1199355 -0.39433372 0.058142181
-0.12009804 -0.39442852 0.05808147
-0.12028259 -0.39452079 0.058112957
-0.12044769 -0.39461502 0.058064912
-0.12063338 -0.3947072 0.05810101
-0.12079898 -0.39480132 0.058055274
-0.1209681 -0.39489943 0.057995684
-0.12115915 -0.39499071 0.058055971
-0.12131142 -0.39508277 0.057978004
-0.12148551 -0.39517519 0.05797261
-0.12166145 -0.39527193 0.057945292
-0.12184384 -0.39536518 0.057962939
-0.1220206 -0.39545724 0.057969071
-0.12218443 -0.39554939 0.057930276
-0.1223585 -0.39564428 0.057908736
-0.12253433 -0.39574113 0.05788026
-0.12271191 -0.39583099 0.057903696
-0.12288798 -0.39592338 0.057905223
-0.12306482 -0.39601794 0.057895198
-0.12323249 -0.39611176 0.057858691
-0.12340536 -0.39620477 0.057845227
-0.1235861 -0.39630103 0.057837505
-0.12375566 -0.39639461 0.057809059
-0.12392064 -0.39648664 0.057774872
-0.12411396 -0.39657912 0.057835151
-0.12429824 -0.39667726 0.057827413
-0.12446632 -0.39676899 0.057805888
-0.12461741 -0.39686289 0.05771178
-0.12478492 -0.39695892 0.057660267
-0.12496962 -0.39705074 0.05769521
-0.12513936 -0.39714652 0.05765292
-0.12532476 -0.39724261 0.057662476
-0.12549075 -0.39733464 0.057631746
-0.12566589 -0.3974278 0.057625197
-0.12584223 -0.39752087 0.057623252
-0.12602118 -0.39761373 0.057631686
-0.1261902 -0.39770967 0.057585936
-0.12635821 -0.39780363 0.057549428
-0.12653407 -0.39789894 0.057531338
-0.12669252 -0.39799178 0.057469487
-0.12687892 -0.39808822 0.057480197
-0.12704496 -0.39818239 0.057435621
-0.12723379 -0.39827675 0.057468232
-0.12741071 -0.39837012 0.057466287
-0.12757719 -0.39846632 0.057410181
-0.12776013 -0.39855736 0.057443969
-0.1279311 -0.39865524 0.057392448
-0.12810026 -0.39874735 0.057372082
-0.12828502 -0.39884433 0.057373561
