# .PCD v0.7 - Point Cloud Data file format
VERSION 0.7
FIELDS x y z
SIZE 4 4 4
TYPE F F F
COUNT 1 1 1
WIDTH 952
HEIGHT 1
VIEWPOINT 0 0 0 1 0 0 0
POINTS 952
DATA ascii
-0.37486267 -0.26845306 0.060304753
-0.37507811 -0.26843819 0.060217239
-0.37526146 -0.26842073 0.060178302
-0.37545326 -0.26839215 0.060213126
-0.37563106 -0.2683697 0.060215719
-0.37584993 -0.26835504 0.060123581
-0.37605396 -0.26832652 0.060146809
-0.37627262 -0.26830029 0.060139984
-0.37646064 -0.26828021 0.060116015
-0.37664941 -0.26826096 0.060085125
-0.37685072 -0.2682381 0.060069166
-0.37703252 -0.26822034 0.060033701
-0.37724221 -0.26819381 0.0600373
-0.37745062 -0.26817024 0.060020149
-0.37765205 -0.26814801 0.059999578
-0.37784004 -0.26812446 0.060000971
-0.37804934 -0.26809782 0.060005724
-0.37824073 -0.26807371 0.060008265
-0.37843713 -0.26805523 0.059964649
-0.37864196 -0.26803291 0.059941757
-0.37884161 -0.26800933 0.05993272
-0.37905529 -0.26798826 0.059892483
-0.37926519 -0.26796764 0.059852272
-0.37945485 -0.2679373 0.059902087
-0.3796626 -0.26792401 0.059809994
-0.37985989 -0.26789823 0.059819419
-0.38003048 -0.26787871 0.059807066
-0.38020167 -0.26785001 0.059861585
-0.38042298 -0.26782975 0.059808627
-0.38061237 -0.26780415 0.059823863
-0.38081035 -0.26778468 0.059786007
-0.38100302 -0.26776889 0.059726268
-0.38120502 -0.26775002 0.059680328
-0.38142926 -0.26772422 0.059665412
-0.38160759 -0.26769447 0.059721045
-0.38180694 -0.26767236 0.059701636
-0.38199198 -0.26764649 0.059722647
-0.38218626 -0.26762861 0.059676744
-0.38240778 -0.26761097 0.059604183
-0.38258299 -0.26758224 0.059655227
-0.38278624 -0.26755476 0.059671544
-0.38298064 -0.2675378 0.059618711
-0.38317019 -0.26751956 0.059579752
-0.38338131 -0.26749897 0.059538376
-0.38357252 -0.2674711 0.059568584
-0.38376492 -0.2674517 0.059535373
-0.38394377 -0.26742899 0.059539124
-0.38415161 -0.26741019 0.059487388
-0.38434774 -0.26739129 0.059447233
-0.38453579 -0.26736477 0.059470538
-0.38473397 -0.26733571 0.059503019
-0.38493323 -0.26732332 0.059412125
-0.38513571 -0.26729533 0.05943305
-0.3853265 -0.26727441 0.059412524
-0.38552555 -0.26725498 0.059373513
-0.38571787 -0.26722965 0.059384115
-0.38590205 -0.26720312 0.0594109
-0.38610524 -0.26718506 0.059358038
-0.38629466 -0.26716182 0.059355967
-0.38649711 -0.26714277 0.059311178
-0.38667572 -0.26712084 0.059309158
-0.38688436 -0.26710823 0.059211303
-0.38707468 -0.26707876 0.059254199
-0.38727638 -0.26704943 0.059285503
-0.3874723 -0.26703417 0.059218843
-0.38767177 -0.2670089 0.05922249
-0.38786346 -0.26699305 0.059163921
-0.38805866 -0.26696658 0.059180263
-0.38825941 -0.26694536 0.059152782
-0.38844523 -0.26692414 0.059139196
-0.38864484 -0.26689994 0.059134774
-0.38884896 -0.26687846 0.059106119
-0.3890374 -0.26685423 0.05911212
-0.38923061 -0.26683381 0.059085824
-0.38942418 -0.26681492 0.05904799
-0.3896147 -0.26678509 0.059093192
-0.38981581 -0.26676744 0.059039183
-0.39001513 -0.2667433 0.059034765
-0.3902072 -0.26671955 0.059033833
-0.3904008 -0.26670253 0.058982171
-0.39060348 -0.26667765 0.058980033
-0.39078134 -0.26665613 0.058975723
-0.39099482 -0.26663068 0.058967769
-0.3911871 -0.26660895 0.058951851
-0.39137945 -0.2665877 0.058932476
-0.39156878 -0.26657057 0.05888544
-0.39177188 -0.26654971 0.058853328
-0.39197007 -0.26652053 0.05888696
-0.39214811 -0.26650196 0.058860738
-0.39234379 -0.26648077 0.058837887
-0.39255008 -0.26645857 0.058812678
-0.39274162 -0.26643381 0.058819823
-0.39292645 -0.26641345 0.058800485
-0.39311844 -0.26639381 0.058769576
-0.39330995 -0.2663689 0.058777869
-0.39350542 -0.26634929 0.058743499
-0.39368644 -0.26632833 0.058732241
-0.3938852 -0.26630628 0.058712836
-0.39408386 -0.26628327 0.058700345
-0.39427894 -0.26625934 0.058698252
-0.39447054 -0.26624131 0.058655821
-0.39466199 -0.26621592 0.058667574
-0.39484993 -0.26619521 0.058648221
-0.39504844 -0.26617271 0.058632273
-0.39524683 -0.26615337 0.058593269
-0.39544529 -0.26612917 0.058589995
-0.3956472 -0.26610702 0.058568276
-0.39582443 -0.26608419 0.05857433
-0.39601591 -0.2660588 0.058586095
-0.39619935 -0.266049 0.058490656
-0.3964017 -0.26601818 0.058532346
-0.39659622 -0.26599821 0.058501426
-0.39679074 -0.26597762 0.058475122
-0.39698532 -0.26595578 0.058458038
-0.39716938 -0.26593429 0.058447927
-0.39735982 -0.26591718 0.058399733
-0.39755845 -0.26589027 0.058416072
-0.39775661 -0.26586705 0.058405884
-0.39795068 -0.26584762 0.058371514
-0.39813501 -0.26582372 0.058378696
-0.39832532 -0.26580539 0.05833973
-0.3985199 -0.2657823 0.05833187
-0.39870718 -0.26576117 0.058315977
-0.39889696 -0.26574463 0.05826433
-0.39909455 -0.2657232 0.058241472
-0.39928928 -0.26569897 0.058241684
-0.39947176 -0.26568317 0.058191221
-0.39966848 -0.26565039 0.058252525
-0.399856 -0.26562783 0.058247015
-0.4000676 -0.26560497 0.05822178
-0.40025777 -0.26558524 0.058193192
-0.40044856 -0.26556307 0.058181889
-0.40063861 -0.26554352 0.05815215
-0.40083307 -0.26552042 0.058144286
-0.40102702 -0.26549897 0.058124907
-0.40121382 -0.26548952 0.058023695
-0.40141937 -0.2654525 0.058108017
-0.40159589 -0.26543227 0.058095634
-0.40178144 -0.26541546 0.058049776
-0.40197295 -0.26539084 0.058055773
-0.40216482 -0.26536539 0.058067523
-0.40236357 -0.26534915 0.058005456
-0.40255472 -0.2653257 0.058003381
-0.40274429 -0.2653065 0.057971332
-0.40294632 -0.26528105 0.057973824
-0.40313011 -0.2652593 0.057966013
-0.40331504 -0.26524302 0.057916697
-0.40352446 -0.26520804 0.057982557
-0.40371221 -0.26519284 0.057922844
-0.40390211 -0.26517251 0.057898864
-0.40409458 -0.26515391 0.057859886
-0.40427893 -0.26513079 0.057861298
-0.40446419 -0.26510587 0.057875402
-0.40466049 -0.265086 0.057842165
-0.40485117 -0.26506385 0.057830874
-0.40504879 -0.26504114 0.057817228
-0.40522826 -0.26502147 0.057797916
-0.40543169 -0.26500043 0.057766952
-0.40561587 -0.26497796 0.057763759
-0.40580848 -0.26495212 0.057777818
-0.40599611 -0.26493585 0.057726178
-0.40619448 -0.26490551 0.057767887
-0.40637842 -0.26488984 0.057715107
-0.40656647 -0.26487258 0.057670392
-0.40676531 -0.2648477 0.057671737
-0.40696323 -0.26482448 0.057661552
-0.40715504 -0.26480046 0.057662938
-0.40734828 -0.26477972 0.057638943
-0.40752646 -0.26476774 0.057564288
-0.40771151 -0.26474407 0.057569157
-0.40790257 -0.26472142 0.057561323
-0.40810341 -0.26468295 0.057660662
-0.40830678 -0.26465139 0.057706952
-0.40852281 -0.26462594 0.057696685
-0.40872309 -0.2645894 0.057782196
-0.40893331 -0.26454806 0.05789417
-0.40913445 -0.2645061 0.058018874
-0.40931737 -0.26448208 0.05802837
-0.40953121 -0.26444152 0.058131106
-0.40974411 -0.26439795 0.058256902
-0.40993494 -0.26436323 0.058337845
-0.41014206 -0.26432884 0.05840141
-0.41032839 -0.26429185 0.058503125
-0.410539 -0.26425326 0.05859435
-0.41074568 -0.26421595 0.058679827
-0.41095716 -0.26417696 0.058773354
-0.41116369 -0.26414061 0.058851916
-0.4113628 -0.26410142 0.05895818
-0.41156125 -0.26406777 0.059024096
-0.41177341 -0.26402932 0.059113003
-0.41199282 -0.26398605 0.0592307
-0.41219461 -0.26395327 0.059287373
-0.41241151 -0.26390982 0.059408545
-0.41260043 -0.26387328 0.059504479
-0.41280887 -0.26383311 0.059609562
-0.33760503 -0.27268133 0.063249417
-0.33779988 -0.27264518 0.063337259
-0.33804569 -0.27262279 0.063277245
-0.33829236 -0.2726008 0.063213773
-0.33850795 -0.27257133 0.06323348
-0.33876914 -0.2725516 0.063139945
-0.33900243 -0.27252668 0.063109979
-0.33925137 -0.27250424 0.063047633
-0.33947229 -0.27247646 0.063050017
-0.33964619 -0.27243537 0.063193321
-0.33990479 -0.27241722 0.06309057
-0.34015131 -0.27239618 0.063020177
-0.34035242 -0.27236363 0.063075706
-0.34061313 -0.27234492 0.06297525
-0.34080982 -0.27231133 0.063042328
-0.34104529 -0.27228633 0.063011199
-0.34129831 -0.27226761 0.062917702
-0.34153512 -0.2722432 0.062880792
-0.3417438 -0.27221301 0.062912062
-0.34198847 -0.27219251 0.062839374
-0.34222198 -0.27216914 0.062797874
-0.34242898 -0.27213714 0.062844142
-0.34263861 -0.27210748 0.062870793
-0.34287268 -0.27208292 0.062837362
-0.34309494 -0.27205688 0.062825903
-0.34331715 -0.27202925 0.062825963
-0.34355652 -0.27200815 0.062762521
-0.34378135 -0.27198148 0.062753357
-0.3439973 -0.271954 0.062758066
-0.34423539 -0.2719329 0.062695786
-0.34445548 -0.27190679 0.06268663
-0.34468397 -0.27188155 0.062663615
-0.34491503 -0.27185878 0.062619805
-0.34511355 -0.27182502 0.062686875
-0.34534377 -0.27180222 0.062644243
-0.34556049 -0.27177384 0.062654711
-0.34581515 -0.27175856 0.062534682
-0.34603733 -0.27173203 0.062526681
-0.34624016 -0.27170148 0.062566057
-0.34645978 -0.27167434 0.062564984
-0.34668988 -0.27165216 0.062517732
-0.34689671 -0.27162129 0.062555924
-0.3470962 -0.27158988 0.062604547
-0.34729093 -0.27157429 0.062541321
-0.34757316 -0.27155149 0.062451147
-0.34779513 -0.27152562 0.062438525
-0.34801191 -0.27149993 0.062429398
-0.34824306 -0.27147719 0.062385596
-0.3484509 -0.27144882 0.062404189
-0.34868684 -0.27142784 0.062343065
-0.34889019 -0.27139816 0.062375523
-0.34912869 -0.27137825 0.062304012
-0.34932896 -0.2713477 0.062345698
-0.34955609 -0.27132607 0.062297307
-0.34978151 -0.27130401 0.062253535
-0.35001096 -0.27128163 0.062208593
-0.35022396 -0.27125561 0.062205244
-0.35042313 -0.27122316 0.062261939
-0.35063821 -0.27119797 0.06225051
-0.35087481 -0.27117848 0.062177848
-0.35108113 -0.27115047 0.062195297
-0.35130319 -0.27112618 0.062171143
-0.35152507 -0.27110377 0.062133163
-0.35170695 -0.27106732 0.062234912
-0.35196808 -0.27105907 0.06205719
-0.35218367 -0.2710329 0.062052675
-0.35239229 -0.27100617 0.062058583
-0.35260853 -0.27098039 0.062050603
-0.35283446 -0.27096015 0.061992995
-0.35302797 -0.27092621 0.062065851
-0.35325447 -0.27090636 0.062004782
-0.35347536 -0.2708827 0.061977174
-0.35367393 -0.27085266 0.062016569
-0.3539232 -0.2708399 0.061882727
-0.35412955 -0.27081299 0.0618921
-0.35433888 -0.27078727 0.061889924
-0.35454869 -0.27076182 0.061885439
-0.35477781 -0.27074197 0.061822049
-0.35499394 -0.2707192 0.061792165
-0.35520127 -0.27069107 0.061809599
-0.35539979 -0.27066952 0.061786726
-0.35562259 -0.27063963 0.061802939
-0.35583827 -0.27061704 0.061771892
-0.35605937 -0.27059677 0.061718918
-0.35626543 -0.27056849 0.061738677
-0.35647494 -0.27054369 0.061729573
-0.35667551 -0.27051529 0.061755121
-0.35690621 -0.2704995 0.061660588
-0.35709906 -0.27047426 0.06167002
-0.35733065 -0.27045083 0.061630838
-0.35755041 -0.27043089 0.061576717
-0.35772705 -0.27039257 0.061696939
-0.3579492 -0.27037171 0.061647415
-0.35816139 -0.27034879 0.061622173
-0.35838637 -0.27032948 0.061558791
-0.35857868 -0.270298 0.061614357
-0.35879582 -0.27027762 0.061566018
-0.35902262 -0.27026168 0.061476111
-0.35923484 -0.27023718 0.061462387
-0.35943469 -0.27020931 0.061484475
-0.35965121 -0.27018696 0.06145113
-0.35986429 -0.27016535 0.061415493
-0.36006486 -0.27013806 0.061432973
-0.36027548 -0.27011546 0.061406575
-0.36048535 -0.27009267 0.061382473
-0.36069921 -0.27007189 0.061339915
-0.36090225 -0.27005747 0.061260507
-0.36106443 -0.27002347 0.061362348
-0.3612417 -0.26998979 0.061447978
-0.36152223 -0.26997191 0.061323211
-0.36173183 -0.26994726 0.061312966
-0.36194459 -0.26992661 0.061270416
-0.3621521 -0.26990348 0.061250944
-0.36235547 -0.26987836 0.061249949
-0.36256278 -0.26985291 0.061247781
-0.36276615 -0.26982793 0.061245635
-0.36298409 -0.26981056 0.061174221
-0.3631874 -0.26978576 0.061170928
-0.36339229 -0.26976183 0.061159547
-0.36360115 -0.2697401 0.061128549
-0.36379889 -0.26971504 0.061132196
-0.36400276 -0.26969582 0.061087377
-0.3642157 -0.26966667 0.061107095
-0.36442947 -0.2696481 0.061048388
-0.36462215 -0.269618 0.061093576
-0.36481765 -0.26959714 0.061068401
-0.36503908 -0.2695756 0.061024658
-0.3652457 -0.26955351 0.060998268
-0.36546126 -0.26953408 0.060944177
-0.36564955 -0.26950172 0.061010137
-0.36586133 -0.26948294 0.06095491
-0.36606905 -0.26946196 0.0609193
-0.3662692 -0.26944461 0.06086411
-0.36647919 -0.26941726 0.060873467
-0.36667904 -0.26939192 0.060877107
-0.36687818 -0.2693662 0.060884207
-0.36708733 -0.26934397 0.060856663
-0.3672958 -0.26932418 0.060811825
-0.36748809 -0.26929444 0.060854707
-0.36769792 -0.26927575 0.060800634
-0.36789447 -0.26924878 0.060819268
-0.36810023 -0.26922774 0.060785979
-0.36829558 -0.26920581 0.06076888
-0.36848217 -0.26918399 0.060758747
-0.36868122 -0.26915893 0.060761228
-0.36891487 -0.26913649 0.060712807
-0.36911982 -0.26911557 0.060679518
-0.36931774 -0.26909 0.060686622
-0.36950824 -0.26905939 0.060737595
-0.36972925 -0.26904982 0.060606193
-0.36993167 -0.26902762 0.060584448
-0.37012577 -0.26899973 0.060612325
-0.37032333 -0.26897123 0.060641352
-0.37051168 -0.2689423 0.060681947
-0.37073302 -0.26893097 0.060563236
-0.37091845 -0.26890317 0.060598083
-0.37113485 -0.26888552 0.060530134
-0.37133655 -0.26886359 0.060507234
-0.3715378 -0.26884139 0.060486645
-0.37172937 -0.26881519 0.060504168
-0.37193951 -0.26879346 0.060472004
-0.37213445 -0.26877001 0.060466439
-0.37231481 -0.26874849 0.060459796
-0.37252787 -0.26872611 0.060429927
-0.37272653 -0.26870924 0.060372449
-0.37292913 -0.26868215 0.060386449
-0.37312162 -0.26866058 0.060369357
-0.37329936 -0.2686339 0.060403094
-0.37351555 -0.26861471 0.060346678
-0.37371171 -0.26860005 0.060275368
-0.37393108 -0.2685734 0.060270846
-0.37411925 -0.26854151 0.060333356
-0.37430084 -0.26851109 0.060391285
-0.37445086 -0.26847842 0.060494341
-0.37470713 -0.26848081 0.060242839
-0.37490761 -0.26845995 0.060213029
-0.37509641 -0.26843613 0.060215563
-0.37529951 -0.26842171 0.060136154
-0.37551048 -0.26840726 0.06004978
-0.37572339 -0.26837561 0.060087949
-0.375893 -0.26833788 0.060210526
-0.37609524 -0.26833123 0.060074609
-0.37627843 -0.26829854 0.060147524
-0.37649983 -0.26829126 0.059998818
-0.37668985 -0.26826137 0.060045175
-0.37687188 -0.2682274 0.06012848
-0.37707481 -0.26820219 0.060128637
-0.37726432 -0.2681841 0.060088504
-0.37750059 -0.26816431 0.060018152
-0.37768903 -0.26813695 0.060047224
-0.37788975 -0.26811841 0.06000011
-0.378104 -0.26809287 0.059992142
-0.37829533 -0.2680777 0.059928931
-0.37849766 -0.26805711 0.059895657
-0.37869197 -0.26803213 0.059901632
-0.37885681 -0.26800096 0.0599804
-0.37904999 -0.26797926 0.059963308
-0.37926462 -0.2679548 0.059947267
-0.37945804 -0.26793841 0.059890971
-0.37965369 -0.26791534 0.059881937
-0.37985817 -0.26789838 0.059819825
-0.38005555 -0.26787776 0.059791178
-0.38024703 -0.26784986 0.059821382
-0.38044557 -0.26783097 0.059778892
-0.3806411 -0.26780838 0.059766408
-0.38083231 -0.26778537 0.059760861
-0.38102758 -0.26776266 0.059749529
-0.38122827 -0.26774743 0.059678204
-0.38142154 -0.2677168 0.059726842
-0.3815977 -0.26769504 0.059725985
-0.38181522 -0.26767662 0.059662651
-0.38200563 -0.26764745 0.059703238
-0.38222849 -0.26763168 0.059615657
-0.38242635 -0.26760206 0.059652749
-0.38262123 -0.26758566 0.059595291
-0.38280028 -0.26755694 0.059642851
-0.38297424 -0.26753843 0.05962009
-0.38318017 -0.26752177 0.059554502
-0.38338333 -0.26749462 0.059568502
-0.38356787 -0.26747495 0.059544533
-0.38375312 -0.26745659 0.059510194
-0.38396552 -0.26743239 0.059494156
-0.3841655 -0.2674135 0.059450518
-0.38435236 -0.26738492 0.059489958
-0.38455048 -0.26736999 0.059418652
-0.38473508 -0.26733714 0.059491552
-0.38493377 -0.26731649 0.059461758
-0.38513073 -0.26729265 0.059457336
-0.38531756 -0.26727143 0.059442583
-0.38552016 -0.26725158 0.059403539
-0.3857182 -0.2672224 0.059437171
-0.38591087 -0.26720595 0.059382021
-0.38610315 -0.26718912 0.059330344
-0.38630179 -0.26716989 0.059290163
-0.38651443 -0.26714864 0.059252221
-0.38671103 -0.26712528 0.059244342
-0.38689467 -0.26709789 0.059278041
-0.38708827 -0.26707646 0.05925864
-0.38728413 -0.26705149 0.059263457
-0.38748211 -0.26703203 0.059225585
-0.38767076 -0.26700795 0.059230424
-0.38785559 -0.26699388 0.059164949
-0.3880541 -0.26696637 0.059185885
-0.38825381 -0.26694232 0.059180297
-0.38845024 -0.26691961 0.05916781
-0.38864458 -0.26690218 0.059118427
-0.38883871 -0.26687256 0.059158996
-0.38903648 -0.26685485 0.059108436
-0.38923326 -0.26683432 0.059079796
-0.38942537 -0.26681042 0.059080012
-0.38961774 -0.26678759 0.059072152
-0.38980687 -0.26676655 0.059053935
-0.39000827 -0.26675108 0.058983758
-0.39019507 -0.26672095 0.059034742
-0.39039236 -0.26670441 0.058976114
-0.39058077 -0.26668143 0.058972891
-0.39077687 -0.26666033 0.058948867
-0.39097199 -0.26663464 0.058959447
-0.39116454 -0.26661462 0.058930825
-0.39136353 -0.26659036 0.058927551
-0.39154854 -0.26656953 0.058911659
-0.39175507 -0.26654762 0.058884118
-0.39194009 -0.26652741 0.05886361
-0.39214283 -0.26650518 0.058841866
-0.3923279 -0.26648641 0.058810979
-0.39252636 -0.26645967 0.058826149
-0.39271864 -0.26644218 0.058779087
-0.39290312 -0.26641956 0.058777031
-0.39309105 -0.26639506 0.058785342
-0.39329702 -0.26637244 0.058763575
-0.39350304 -0.26635185 0.058726821
-0.39367723 -0.26633817 0.058668312
-0.39387542 -0.26630661 0.058719233
-0.39406353 -0.26628792 0.058684878
-0.39426568 -0.26626655 0.058657359
-0.39444646 -0.26624498 0.058650713
-0.39464495 -0.26622328 0.058628991
-0.3948434 -0.26620254 0.05860034
-0.3950277 -0.26617473 0.058636345
-0.39522609 -0.26615351 0.058611155
-0.39540339 -0.26612845 0.05863335
-0.39561227 -0.26610798 0.058593128
-0.39579678 -0.26607984 0.058631431
-0.3959882 -0.26605588 0.058632802
-0.39618248 -0.26604113 0.058563821
-0.39639801 -0.26602203 0.058507413
-0.39659983 -0.26599741 0.058504112
-0.39675879 -0.265982 0.058472205
-0.39693841 -0.26596889 0.058404442
-0.39713001 -0.26594144 0.058431178
-0.39733922 -0.26591292 0.058449768
-0.39752194 -0.26590088 0.058371603
-0.39773449 -0.26587334 0.058379799
-0.39791542 -0.26584849 0.05839736
-0.39811689 -0.26582578 0.058380231
-0.3983005 -0.26580575 0.058359727
-0.39851323 -0.26577774 0.05837138
-0.39868236 -0.26576123 0.058338262
-0.39887348 -0.26573777 0.058336176
-0.39906746 -0.26571724 0.058309857
-0.39926067 -0.26570013 0.058259323
-0.39945099 -0.26568004 0.05823303
-0.39963982 -0.26565155 0.058270164
-0.39982915 -0.26563537 0.058216188
-0.4000206 -0.26561046 0.058224473
-0.40023118 -0.26559103 0.058175016
-0.40041786 -0.26557109 0.05815104
-0.40059936 -0.26554519 0.058175527
-0.40079546 -0.26551625 0.058209158
-0.40099192 -0.26549795 0.058164384
-0.40118751 -0.2654821 0.058102302
-0.40137339 -0.26546431 0.058063339
-0.40156221 -0.26543719 0.058090098
-0.40174395 -0.26542148 0.058039621
-0.40193501 -0.26539803 0.058037534
-0.40212607 -0.26537457 0.058035444
-0.4023239 -0.26535124 0.058026411
-0.40251845 -0.26532766 0.058021996
-0.40271351 -0.26530278 0.058026817
-0.4028978 -0.26528832 0.057964791
-0.40309516 -0.26526612 0.05794768
-0.4032712 -0.26524672 0.057929523
-0.40347207 -0.2652241 0.057912394
-0.40366709 -0.26519936 0.057916053
-0.40386197 -0.26517513 0.057916258
-0.40405655 -0.26515156 0.057911854
-0.4042497 -0.26513129 0.05788438
-0.4044393 -0.26511869 0.057803884
-0.40463036 -0.26509538 0.057800639
-0.40482843 -0.26506448 0.057846956
-0.40502286 -0.26504141 0.057839096
-0.40520248 -0.26502138 0.057822071
-0.40539569 -0.26500741 0.057748467
-0.40560129 -0.26498184 0.057748616
-0.40578777 -0.26495486 0.057776541
-0.40597075 -0.26494104 0.057711072
-0.40615907 -0.26491699 0.057715915
-0.40635553 -0.26489019 0.057733409
-0.40654752 -0.2648657 0.057738237
-0.40672991 -0.26485258 0.057668153
-0.40692583 -0.26483276 0.057634905
-0.40711746 -0.26480892 0.057635125
-0.40730971 -0.26478407 0.057642259
-0.40750128 -0.26475489 0.05768168
-0.4076938 -0.26474082 0.057609238
-0.40788728 -0.26471958 0.057588696
-0.40807772 -0.26469794 0.057573918
-0.40826824 -0.26467612 0.05756031
-0.40846807 -0.26465002 0.057569716
-0.4086509 -0.26463008 0.057549216
-0.40884131 -0.26460859 0.057533287
-0.40902218 -0.26459661 0.057456296
-0.40921581 -0.26456529 0.057509549
-0.40944919 -0.2645236 0.057602972
-0.40965137 -0.26448509 0.057701163
-0.4098579 -0.26445016 0.057769351
-0.41006994 -0.26441234 0.057853661
-0.41026935 -0.26437891 0.05791726
-0.41047183 -0.2643415 0.058007386
-0.41067806 -0.26430377 0.058096331
-0.41086507 -0.26427045 0.058170378
-0.41108078 -0.26422936 0.05827542
-0.41128203 -0.26419067 0.058375917
-0.41147777 -0.26415536 0.058456846
-0.41169199 -0.26411742 0.058539987
-0.41188696 -0.26407951 0.058640514
-0.41209736 -0.264043 0.058716755
-0.41230392 -0.2640076 0.0587884
-0.41251513 -0.26396656 0.058896929
-0.41273087 -0.26392844 0.058980063
-0.41293699 -0.26388651 0.059100147
-0.41312459 -0.2638517 0.059184566
-0.41333589 -0.26381603 0.059253879
-0.41354895 -0.26377463 0.059363551
-0.41375732 -0.26373914 0.059434034
-0.33756858 -0.2726765 0.063318297
-0.33783144 -0.27265814 0.063213222
-0.33805281 -0.27262843 0.063229427
-0.33828443 -0.27260277 0.063206367
-0.33851579 -0.27257717 0.063183323
-0.33873412 -0.27254847 0.063194931
-0.33897629 -0.27252418 0.063152224
-0.33920136 -0.27249733 0.0631442
-0.33945593 -0.27247638 0.063065678
-0.33967876 -0.27244914 0.063062273
-0.33993384 -0.27242863 0.062980287
-0.34010598 -0.27238867 0.063116677
-0.34035429 -0.27236819 0.063040495
-0.34057298 -0.27234021 0.063046344
-0.34077471 -0.27230635 0.063111082
-0.34100783 -0.27228224 0.063075341
-0.34125119 -0.27226096 0.06300956
-0.34150147 -0.27224165 0.062922992
-0.34172311 -0.27221331 0.062928811
-0.34194458 -0.27218658 0.062923111
-0.34218535 -0.27216515 0.062860802
-0.34240431 -0.27213794 0.062860876
-0.34263101 -0.27211291 0.062837854
-0.34285152 -0.27208626 0.062832154
-0.34308216 -0.2720609 0.062807962
-0.34329793 -0.27203315 0.062814966
-0.3435303 -0.27201009 0.062772311
-0.34377244 -0.27198988 0.062699616
-0.34398136 -0.27196047 0.062725104
-0.34418017 -0.27192822 0.062780648
-0.3444387 -0.27191305 0.06265597
-0.34468678 -0.27189511 0.062561333
-0.3448959 -0.27186441 0.06259606
-0.34511152 -0.27183729 0.062598452
-0.34530854 -0.27180478 0.062657453
-0.345534 -0.27178067 0.062628672
-0.34577376 -0.27176094 0.062554836
-0.34598121 -0.2717317 0.062580347
-0.34619817 -0.27170536 0.062575817
-0.34641826 -0.27168006 0.062560894
-0.34665969 -0.27165961 0.062490508
-0.34687161 -0.27163202 0.062499844
-0.34708411 -0.27160466 0.062506869
-0.34730297 -0.27157936 0.062493101
-0.34754178 -0.27156037 0.062414661
-0.34775117 -0.27153227 0.062429778
-0.34797651 -0.27150929 0.06239292
-0.3481966 -0.27148476 0.062372223
-0.34841299 -0.2714574 0.062375776
-0.34862423 -0.27143019 0.062382817
-0.34885246 -0.27140859 0.062333249
-0.34909016 -0.2713902 0.062251359
-0.34927961 -0.27135611 0.062328845
-0.34951192 -0.2713362 0.062263116
-0.34972742 -0.27131084 0.062252834
-0.34993485 -0.27128285 0.06226911
-0.35015678 -0.27125981 0.062235728
-0.35040358 -0.27124533 0.062116884
-0.35062039 -0.27121899 0.06211235
-0.35078806 -0.27118134 0.062236078
-0.35102299 -0.27115953 0.062181875
-0.35124284 -0.27113628 0.062151961
-0.35145548 -0.27111062 0.062146299
-0.35166433 -0.27108371 0.062153343
-0.35188618 -0.27106148 0.062114194
-0.3520993 -0.27103624 0.062105075
-0.35230151 -0.2710053 0.062147904
-0.35254049 -0.27098957 0.062045246
-0.35275814 -0.27096629 0.062017653
-0.35297877 -0.27094421 0.0619785
-0.35320678 -0.27092499 0.061911646
-0.3533943 -0.2708908 0.061991457
-0.35362816 -0.27087399 0.061901506
-0.35382876 -0.27084482 0.061932806
-0.35401759 -0.27080923 0.062021825
-0.35424417 -0.27079004 0.06195613
-0.35448062 -0.27077478 0.061852328
-0.35469332 -0.27075052 0.061836287
-0.35489702 -0.27072287 0.061853737
-0.35510999 -0.27069888 0.061835393
-0.35531855 -0.27067125 0.061848208
-0.35548359 -0.27063435 0.061968476
-0.35573292 -0.27061909 0.061853081
-0.35595894 -0.27060074 0.061781622
-0.35617223 -0.27057734 0.061758667
-0.35637945 -0.27055159 0.061758801
-0.35659999 -0.27053142 0.061705813
-0.35680482 -0.27050483 0.061714038
-0.35702783 -0.27048385 0.061664499
-0.35722473 -0.27045828 0.061672758
-0.35744715 -0.27043518 0.061639369
-0.35765541 -0.27041039 0.06163143
-0.35787484 -0.27039051 0.061577298
-0.35807768 -0.27036354 0.061590139
-0.35829514 -0.27034092 0.061557926
-0.35850173 -0.27031788 0.061538465
-0.35870525 -0.2702893 0.061562829
-0.35891399 -0.27026522 0.06154912
-0.35912609 -0.27024278 0.06152039
-0.3593345 -0.27021876 0.061506689
-0.35953894 -0.27019301 0.061509132
-0.359743 -0.27016717 0.061512742
-0.35996091 -0.2701456 0.061472461
-0.36018619 -0.27012983 0.061382554
-0.36038446 -0.27010155 0.061409257
-0.36058903 -0.27007627 0.061408255
-0.36080515 -0.27005664 0.061355293
-0.36101821 -0.27003565 0.061315037
-0.36121967 -0.27000919 0.061325572
-0.36142877 -0.26998648 0.061301477
-0.36163381 -0.26995957 0.061312001
-0.36185119 -0.26994118 0.061248653
-0.3620424 -0.26990986 0.061304219
-0.36224887 -0.26988623 0.061289363
-0.36246216 -0.26986617 0.061242193
-0.36266658 -0.26984167 0.061235413
-0.36286506 -0.26981181 0.061273649
-0.36308169 -0.26979384 0.061208002
-0.36328837 -0.2697708 0.061188538
-0.36349803 -0.26974946 0.061154053
-0.36370191 -0.2697227 0.061164588
-0.36391243 -0.26970202 0.06112434
-0.36412036 -0.26968008 0.061095644
-0.36432692 -0.26965752 0.061072711
-0.36453614 -0.26963654 0.061035931
-0.36473015 -0.26960725 0.061074182
-0.36493501 -0.26958147 0.061076637
-0.36514947 -0.26956373 0.061010994
-0.36534873 -0.26953754 0.061021555
-0.36555487 -0.26951537 0.060996324
-0.36575723 -0.26948848 0.061009169
-0.3659724 -0.26947176 0.060935445
-0.36619014 -0.26945412 0.060866341
-0.36637872 -0.26942202 0.060929988
-0.36657608 -0.26939514 0.06094747
-0.36677444 -0.26938239 0.060860001
-0.36699855 -0.26935565 0.060851976
-0.36719686 -0.26932958 0.060862534
-0.36741486 -0.26931298 0.060785346
-0.36760581 -0.26928249 0.060835153
-0.36780742 -0.26925868 0.060826089
-0.36801076 -0.26923606 0.060806632
-0.36822623 -0.26921853 0.06073869
-0.36841503 -0.26918674 0.060800035
-0.36862969 -0.2691718 0.060713634
-0.36882702 -0.2691457 0.060725346
-0.36901736 -0.26911497 0.060777459
-0.3692157 -0.26910427 0.060675003
-0.36944094 -0.26907659 0.060672745
-0.36964726 -0.26905689 0.060629051
-0.36984649 -0.26902944 0.060648836
-0.37002251 -0.26901007 0.060630668
-0.37021172 -0.26897869 0.060688552
-0.37045395 -0.26896349 0.06057895
-0.37064469 -0.26895186 0.060490362
-0.37084889 -0.26891595 0.060567785
-0.37104166 -0.26888725 0.060602583
-0.37123173 -0.26886925 0.060561292
-0.37145177 -0.26885462 0.060467944
-0.37164688 -0.26883113 0.060462371
-0.37186596 -0.26879999 0.060491275
-0.37207198 -0.26878503 0.060412992
-0.3722499 -0.26875836 0.060446721
-0.37245145 -0.2687369 0.060420357
-0.37263134 -0.2687051 0.060489818
-0.37283462 -0.26869535 0.060375802
-0.37303197 -0.2686606 0.060450941
-0.37327546 -0.26863948 0.060384013
-0.37345046 -0.26862442 0.060334712
-0.37366533 -0.26860085 0.060311742
-0.37385121 -0.26857412 0.060338505
-0.37401551 -0.26854676 0.060389593
-0.37421906 -0.26852804 0.060341306
-0.37445188 -0.26850963 0.060264044
-0.37466767 -0.26848015 0.06028375
-0.37487254 -0.26846313 0.060221612
-0.37504861 -0.26844278 0.06021037
-0.37523329 -0.26841527 0.060244061
-0.37546393 -0.26840356 0.060119532
-0.37568301 -0.26836988 0.060166884
-0.37588245 -0.26834869 0.060140528
-0.37606534 -0.2683275 0.060129255
-0.37627566 -0.26830921 0.06007171
-0.37646854 -0.268278 0.06012496
-0.37667412 -0.26825526 0.06010434
-0.3768734 -0.26823455 0.060074527
-0.37705144 -0.26821303 0.060070194
-0.37724975 -0.26819575 0.060016166
-0.37744007 -0.2681661 0.060060211
-0.37765533 -0.26814139 0.060045313
-0.3778607 -0.26812354 0.059988946
-0.37804937 -0.26810965 0.059918821
-0.37825194 -0.26808476 0.059916675
-0.37844035 -0.26806211 0.059911132
-0.37863803 -0.26803187 0.059952825
-0.37883404 -0.26802257 0.059842303
-0.37901646 -0.26799327 0.059890993
-0.37920213 -0.26796767 0.059909686
-0.37940297 -0.26795068 0.059851035
-0.37962079 -0.26792565 0.059836127
-0.37982652 -0.26790056 0.059832811
-0.38002756 -0.2678746 0.059839889
-0.38021585 -0.26785761 0.059792839
-0.38041002 -0.26783314 0.059795335
-0.38058522 -0.26780459 0.059845217
-0.38079691 -0.26778251 0.059814192
-0.38098249 -0.26776776 0.05975331
-0.38122678 -0.26774243 0.059716351
-0.38140821 -0.26772252 0.05969701
-0.38158435 -0.26770076 0.059696145
-0.38176847 -0.26768491 0.059644494
-0.38197798 -0.26766089 0.059629627
-0.38216835 -0.26763171 0.059670202
-0.38238114 -0.26761281 0.059614956
-0.38256973 -0.26758683 0.059633628
-0.38275975 -0.26757511 0.05954621
-0.38296974 -0.2675465 0.05956478
-0.38315979 -0.26752302 0.059563845
-0.38334921 -0.26750496 0.059523694
-0.38354069 -0.26747769 0.059549283
-0.38374835 -0.26746488 0.059453692
-0.38395092 -0.26743704 0.059473459
-0.38415545 -0.26741269 0.059465528
-0.3843506 -0.26739219 0.059438042
-0.38453999 -0.26736832 0.059440572
-0.38474974 -0.26734695 0.059406102
-0.38493735 -0.26732722 0.059379801
-0.38513371 -0.26729494 0.059437651
-0.38533241 -0.2672748 0.059404381
-0.38551801 -0.26725906 0.059350416
-0.38571352 -0.26723272 0.0593656
-0.38589948 -0.26721022 0.059361227
-0.38609654 -0.26718727 0.059349872
-0.38629159 -0.26716849 0.059309706
-0.38648325 -0.26714215 0.059328366
-0.38668758 -0.26711908 0.059311211
-0.38688838 -0.26709679 0.059291776
-0.38708368 -0.26707956 0.059240073
-0.38727874 -0.26705262 0.059259877
-0.38746828 -0.26704052 0.059175905
-0.38765669 -0.26701596 0.059184201
-0.38785639 -0.26699176 0.059179757
-0.38805979 -0.26696756 0.059171844
-0.38825643 -0.26694548 0.059154727
-0.38843489 -0.26692468 0.059144624
-0.38863543 -0.2668919 0.059202451
-0.38881537 -0.26687592 0.059155442
-0.38901517 -0.26685265 0.059144072
-0.38920784 -0.26684329 0.05903703
-0.38942024 -0.26681328 0.059063658
-0.38962331 -0.26678929 0.059054583
-0.38982338 -0.26676816 0.059027076
-0.39000243 -0.26675138 0.058986984
-0.3901895 -0.26672244 0.059028737
-0.39039204 -0.26669678 0.059032351
-0.39058191 -0.26668024 0.058980674
-0.39076766 -0.26666215 0.058944009
-0.39097431 -0.26663974 0.058919925
-0.39117044 -0.26661974 0.058887828
-0.39135119 -0.26659536 0.058901936
-0.39154282 -0.26657075 0.058907911
-0.39173871 -0.26655045 0.058878113
-0.39194047 -0.2665213 0.058908258
-0.39213327 -0.26650515 0.058850799
-0.39232492 -0.26648164 0.058848698
-0.39252356 -0.26645583 0.058856949
-0.39270118 -0.26643544 0.058844544
-0.39290386 -0.26641464 0.058812402
-0.39310694 -0.26639929 0.058739901
-0.39329821 -0.26637265 0.058760874
-0.39349014 -0.26635507 0.058714952
-0.39369914 -0.2663258 0.058739297
-0.39388353 -0.266303 0.058738392
-0.39407119 -0.2662718 0.058796283
-0.39425969 -0.26626641 0.05866389
-0.39445114 -0.2662462 0.058637571
-0.39464247 -0.26622272 0.058635473
-0.39482322 -0.26620147 0.058626518
-0.39501458 -0.2661761 0.058638263
-0.39522359 -0.26615483 0.058603786
-0.39540783 -0.26613191 0.058604028
-0.39560619 -0.26610911 0.058590371
-0.39580074 -0.26609105 0.058545589
-0.39598465 -0.26607287 0.058511242
-0.39617932 -0.26605037 0.058498751
-0.39637059 -0.26602596 0.058503579
-0.39655486 -0.26600194 0.05851189
-0.39674917 -0.26598278 0.058475185
-0.39693311 -0.26596177 0.058461595
-0.39714161 -0.26593947 0.058435198
-0.397347 -0.26591393 0.058435339
-0.39753827 -0.2658895 0.058440167
-0.3977192 -0.26586494 0.058455423
-0.39791992 -0.26584736 0.058401383
-0.39810276 -0.26583245 0.058343969
-0.3983022 -0.26580092 0.058393739
-0.39848876 -0.26578382 0.058348995
-0.39868 -0.26575971 0.058351513
-0.39887005 -0.26574174 0.058310218
-0.39906299 -0.26572606 0.058249302
-0.39925227 -0.2656948 0.058306023
-0.39943963 -0.26567274 0.058297027
-0.39963612 -0.26565585 0.058241859
-0.39982262 -0.26563704 0.05820981
-0.40001199 -0.26562023 0.058160443
-0.40020624 -0.26559749 0.058150254
-0.40040854 -0.26557028 0.058165405
-0.40060893 -0.26553801 0.058219776
-0.4007979 -0.265522 0.058164645
-0.40099239 -0.26549861 0.058159068
-0.40117985 -0.26547593 0.058154695
-0.40136117 -0.26546198 0.058091521
-0.40156665 -0.26543596 0.05809512
-0.401768 -0.26541233 0.058084909
-0.40196612 -0.26538816 0.058081627
-0.4021408 -0.26537302 0.058033481
-0.40233546 -0.26534897 0.058032528
-0.40252116 -0.26533103 0.057994712
-0.40270796 -0.26530999 0.057978801
-0.40290299 -0.2652851 0.057983603
-0.40309852 -0.26525906 0.057996474
-0.40328857 -0.2652384 0.057974782
-0.40348417 -0.26521236 0.057987668
-0.40367359 -0.26520902 0.057839118
-0.40387914 -0.26517531 0.057899222
-0.40408301 -0.26515341 0.057874002
-0.40426627 -0.26512527 0.057913464
-0.4044444 -0.26510862 0.057873376
-0.4046317 -0.26507917 0.057918586
-0.40482524 -0.26506516 0.057844982
-0.40500408 -0.26504666 0.057817571
-0.40519398 -0.265026 0.057795882
-0.4053877 -0.26500428 0.057778791
-0.40557852 -0.26498821 0.057722487
-0.40576667 -0.26496434 0.057726175
-0.40596214 -0.26493925 0.057732128
-0.40615445 -0.26491392 0.057742722
-0.40635714 -0.26488793 0.057748646
-0.40654075 -0.26487261 0.057693537
-0.40673375 -0.26485223 0.057667211
-0.40692422 -0.26483041 0.057653595
-0.40712073 -0.26480377 0.057669923
-0.40730691 -0.2647894 0.057605576
-0.4074997 -0.26476368 0.057618465
-0.40769061 -0.26474121 0.05760945
-0.40789369 -0.2647095 0.057656892
-0.40808201 -0.26469675 0.057578694
-0.40827042 -0.26467833 0.057542019
-0.40846062 -0.26465702 0.057524942
-0.4086594 -0.26463765 0.057485905
-0.40883803 -0.26462406 0.057422746
-0.40903115 -0.26459327 0.057472542
-0.40922299 -0.26457444 0.057435848
-0.4094063 -0.26455367 0.057421103
-0.40960363 -0.26453149 0.057403985
-0.40979955 -0.26450664 0.05740764
-0.4099904 -0.26448447 0.057396319
-0.41017592 -0.2644653 0.057367731
-0.41037774 -0.26442781 0.057458989
-0.41062137 -0.26437777 0.057604257
-0.41083044 -0.26434895 0.057625134
-0.41101497 -0.26431847 0.05768073
-0.41121039 -0.26428664 0.057736285
-0.41142064 -0.26424825 0.057826351
-0.41162843 -0.26421347 0.057892218
-0.41182441 -0.26417747 0.057977736
-0.4120355 -0.26413491 0.058097795
-0.41222823 -0.26409966 0.058181033
-0.41243613 -0.26406595 0.058238823
-0.41265416 -0.26402393 0.058348455
-0.41285801 -0.26398385 0.058457013
-0.41306284 -0.26395082 0.058512513
-0.4132666 -0.26391155 0.058615293
-0.41346458 -0.26387954 0.058669675
-0.41367993 -0.26383865 0.058773562
-0.41389021 -0.26379648 0.058891304
-0.41410342 -0.26375884 0.058973294
-0.41430968 -0.26372206 0.059055313
-0.41451186 -0.26368657 0.059131585
-0.41471651 -0.26365218 0.059197456
-0.41492942 -0.26360875 0.059322119
-0.41514462 -0.26356316 0.059460595
