# .PCD v0.7 - Point Cloud Data file format
VERSION 0.7
FIELDS x y z
SIZE 4 4 4
TYPE F F F
COUNT 1 1 1
WIDTH 1101
HEIGHT 1
VIEWPOINT 0 0 0 1 0 0 0
POINTS 1101
DATA ascii
-0.28589538 -0.26021013 0.059292518
-0.28610018 -0.26016635 0.059428882
-0.28626534 -0.26011857 0.059629992
-0.28647524 -0.26010144 0.059566844
-0.28665096 -0.26008233 0.05954881
-0.28683472 -0.26008132 0.059391208
-0.28708711 -0.26005882 0.059329033
-0.28727868 -0.26003101 0.059360519
-0.28747466 -0.26000831 0.059350468
-0.28767082 -0.25998592 0.059338115
-0.28786728 -0.25995922 0.059356898
-0.28806072 -0.25993371 0.059369922
-0.28826451 -0.25992092 0.059280276
-0.28846055 -0.25989887 0.059265614
-0.28865537 -0.25987539 0.059262495
-0.28885123 -0.25985333 0.059247836
-0.28904405 -0.25982222 0.059302382
-0.28921264 -0.25981626 0.059194431
-0.28945035 -0.25979811 0.059113868
-0.2896308 -0.25975555 0.059263021
-0.28983054 -0.25973934 0.05920222
-0.29001877 -0.25973478 0.059066512
-0.29019716 -0.25969991 0.059161477
-0.29040161 -0.25967997 0.059123714
-0.29062098 -0.25965932 0.059077825
-0.29081085 -0.25964132 0.059038974
-0.291004 -0.25962257 0.059002422
-0.29120159 -0.25959292 0.059041947
-0.29138592 -0.25956047 0.05911383
-0.29158562 -0.25954017 0.059083004
-0.29176775 -0.2595228 0.059046492
-0.29197642 -0.25950503 0.058989115
-0.29217994 -0.25949198 0.058901776
-0.29237631 -0.25946027 0.058957458
-0.29253441 -0.25944188 0.058949869
-0.29274312 -0.25941843 0.058934011
-0.29292893 -0.25939509 0.05893784
-0.29316631 -0.25938278 0.058814615
-0.29336041 -0.25935388 0.058851853
-0.29352233 -0.25932872 0.058890373
-0.29373369 -0.25930369 0.058883727
-0.2939415 -0.25927925 0.058875941
-0.29413673 -0.25926027 0.058839377
-0.29430294 -0.25924405 0.058808696
-0.29451409 -0.2592192 0.058800891
-0.29471737 -0.25918522 0.058866918
-0.29488036 -0.25916201 0.058890454
-0.29508793 -0.25914642 0.058818091
-0.29526788 -0.25912803 0.058790803
-0.29546976 -0.25911787 0.058683872
-0.29566127 -0.25910109 0.058634639
-0.29587203 -0.25908637 0.058553029
-0.29604077 -0.25906938 0.058525808
-0.29624492 -0.25902724 0.058650643
-0.29643375 -0.25900403 0.058651
-0.29661375 -0.25898755 0.058609884
-0.29682299 -0.25897032 0.058547899
-0.29705095 -0.25893113 0.058629964
-0.2972497 -0.25891644 0.058558792
-0.29744226 -0.25889403 0.058549903
-0.29763696 -0.25886646 0.05857677
-0.29782435 -0.25885206 0.058513712
-0.29799148 -0.25883132 0.058515314
-0.29817629 -0.25880796 0.05852031
-0.29836026 -0.25878122 0.058550678
-0.29855832 -0.25876725 0.058474883
-0.29874817 -0.2587502 0.058429118
-0.298951 -0.25872654 0.058420196
-0.29915029 -0.25870344 0.058410134
-0.29935282 -0.25867853 0.05841044
-0.29954717 -0.25864878 0.058453444
-0.29975015 -0.25862619 0.05843645
-0.29994717 -0.25861174 0.058365285
-0.30011201 -0.25860089 0.058296554
-0.30029678 -0.25857958 0.058286551
-0.30050275 -0.25855488 0.058282234
-0.30069795 -0.25853086 0.058282573
-0.30088636 -0.25851035 0.058263328
-0.30109265 -0.2584894 0.058231324
-0.30129063 -0.25845814 0.05828239
-0.301476 -0.25844461 0.058214724
-0.30167067 -0.25841531 0.058254272
-0.30185583 -0.25840229 0.058183149
-0.30206522 -0.25837877 0.058167286
-0.30225641 -0.25834927 0.058211457
-0.3024514 -0.25832355 0.058224477
-0.30263603 -0.25830585 0.058187954
-0.30281362 -0.25829598 0.058100723
-0.30303696 -0.25827107 0.058082491
-0.30321059 -0.25824243 0.05813596
-0.30340198 -0.25822756 0.058072887
-0.30360052 -0.25819841 0.058107801
-0.30377823 -0.25815967 0.0582316
-0.30396232 -0.25814852 0.058147799
-0.30414981 -0.25813586 0.05807206
-0.30434766 -0.25812256 0.057991657
-0.30456778 -0.25808841 0.058043785
-0.30477774 -0.25805125 0.058127083
-0.30494806 -0.25802901 0.058136746
-0.30513451 -0.25802246 0.058017194
-0.30531591 -0.25799385 0.058063712
-0.30550021 -0.25797147 0.058061786
-0.30568996 -0.25796217 0.057959512
-0.30587849 -0.25793329 0.058001392
-0.30606508 -0.25791946 0.05793488
-0.30625904 -0.25790161 0.057891395
-0.30645937 -0.25788689 0.057819061
-0.30664936 -0.25787076 0.057766378
-0.30684972 -0.25783417 0.057854325
-0.30707669 -0.25780484 0.057864904
-0.30728361 -0.25778997 0.057787932
-0.30742955 -0.25778535 0.057690457
-0.30763438 -0.25776222 0.05767576
-0.30784002 -0.25773537 0.057687581
-0.30803716 -0.25771567 0.057654466
-0.30823013 -0.25768453 0.057709012
-0.30841318 -0.25766626 0.057678252
-0.30858722 -0.25764281 0.057693668
-0.30877551 -0.25763035 0.057615619
-0.30898327 -0.25759628 0.057678178
-0.30918705 -0.25756478 0.057725754
-0.3093586 -0.2575506 0.057675444
-0.30954364 -0.25751394 0.057777308
-0.30972275 -0.25748622 0.057819217
-0.30990705 -0.25747475 0.057737723
-0.31010008 -0.25745684 0.057695404
-0.31029212 -0.25744155 0.057634633
-0.31050277 -0.25742117 0.057594538
-0.31069097 -0.25739709 0.057601832
-0.31088585 -0.25737327 0.057601009
-0.31107339 -0.25736925 0.057461843
-0.31126478 -0.25733659 0.057529077
-0.31145495 -0.25731617 0.057507526
-0.31164381 -0.25729057 0.05752518
-0.31183085 -0.25726962 0.057510559
-0.31202734 -0.25725016 0.057476297
-0.31222042 -0.25723067 0.0574455
-0.31241325 -0.25720397 0.057467755
-0.31260413 -0.25718945 0.057402384
-0.31279606 -0.2571649 0.057409652
-0.31299165 -0.25714698 0.057365011
-0.31317639 -0.25713071 0.057318106
-0.31336448 -0.25710726 0.057320781
-0.31355831 -0.2570858 0.057303824
-0.3137449 -0.2570723 0.057235003
-0.31393215 -0.25705051 0.057226144
-0.31412703 -0.25702685 0.057224173
-0.3143163 -0.25700766 0.057194553
-0.31452194 -0.25697625 0.057239819
-0.31471008 -0.25694677 0.057286311
-0.31490237 -0.25692219 0.057293575
-0.31509736 -0.2569108 0.057201661
-0.31528053 -0.25689662 0.057140931
-0.31547728 -0.25688156 0.057074368
-0.31565881 -0.25686979 0.0569975
-0.31583935 -0.25685385 0.056951776
-0.31604114 -0.25682417 0.056987822
-0.31623858 -0.25680193 0.056973159
-0.3164227 -0.25679079 0.056889366
-0.31659997 -0.25677982 0.0568102
-0.31681517 -0.25674471 0.05687388
-0.31700903 -0.25672293 0.056859229
-0.31719023 -0.25670046 0.056860775
-0.31739429 -0.25666308 0.056951024
-0.31759512 -0.25662103 0.057078179
-0.3178041 -0.25659677 0.057068072
-0.31798771 -0.25658584 0.056983124
-0.318183 -0.25656718 0.056944251
-0.31836993 -0.25655109 0.056893893
-0.31855705 -0.2565254 0.05691386
-0.31874672 -0.25650081 0.056923442
-0.31894708 -0.25648403 0.056866098
-0.31914288 -0.25646454 0.056832992
-0.31932503 -0.25645033 0.056773413
-0.31952098 -0.25643048 0.056742616
-0.31970286 -0.25640777 0.056745306
-0.31989416 -0.25638124 0.056767564
-0.32009214 -0.25636303 0.056722917
-0.32027951 -0.25634599 0.056679469
-0.32048514 -0.25632605 0.05664055
-0.32066903 -0.25629696 0.056688208
-0.32085544 -0.25627702 0.056666672
-0.32105583 -0.25624371 0.056730404
-0.32126573 -0.25621474 0.056753747
-0.32146448 -0.25619173 0.056743685
-0.32164183 -0.25617132 0.05673372
-0.32183987 -0.25615689 0.056661393
-0.32203346 -0.25615513 0.056500293
-0.32220724 -0.25613499 0.056491494
-0.32238093 -0.25612244 0.056427345
-0.32257432 -0.25609076 0.056485336
-0.32278445 -0.25604746 0.056613613
-0.32299471 -0.25601166 0.056686528
-0.32319927 -0.25598967 0.056663767
-0.32336995 -0.25599828 0.056447413
-0.3235864 -0.25596648 0.056485713
-0.32373545 -0.25597379 0.056298271
-0.32392415 -0.25594458 0.05634246
-0.32412839 -0.25590909 0.056418858
-0.32433456 -0.25587851 0.056457207
-0.32452932 -0.25585014 0.056489825
-0.32471108 -0.25585884 0.056263052
-0.32488409 -0.25584981 0.056173529
-0.32506013 -0.255831 0.056153186
-0.32526344 -0.25579715 0.056218065
-0.32547653 -0.25575364 0.05634518
-0.32570323 -0.25570309 0.056511432
-0.32590991 -0.2556794 0.05649903
-0.32607433 -0.25569147 0.056263104
-0.32626697 -0.25566903 0.056254223
-0.32646334 -0.25563684 0.056313362
-0.3266471 -0.25562319 0.056248013
-0.32685462 -0.25559264 0.056285199
-0.32708168 -0.25557655 0.05619891
-0.3272725 -0.25555608 0.056177355
-0.3274357 -0.25554103 0.056140926
-0.32764521 -0.2555148 0.056144662
-0.32782018 -0.25549752 0.056113936
-0.32804558 -0.25547406 0.056083016
-0.32822731 -0.25545344 0.056070723
-0.32840911 -0.25542712 0.05609994
-0.32860282 -0.2554014 0.056114115
-0.3288092 -0.25537005 0.05615823
-0.32902229 -0.25535786 0.056055859
-0.32919961 -0.25534141 0.056017064
-0.32934746 -0.25533721 0.055914961
-0.32958108 -0.25529036 0.056047745
-0.32977137 -0.25527894 0.055960461
-0.32995424 -0.25526038 0.055932023
-0.33016548 -0.2552281 0.055978417
-0.33035061 -0.25521037 0.055941895
-0.33055273 -0.25519136 0.055899527
-0.3307192 -0.25517887 0.055841174
-0.33091766 -0.25515509 0.05583689
-0.33114111 -0.25510544 0.055999689
-0.33132169 -0.25509676 0.05590092
-0.33152279 -0.25507107 0.055908151
-0.33170497 -0.25505841 0.055837046
-0.33189845 -0.25504157 0.055786647
-0.33213672 -0.25498345 0.055997822
-0.33232078 -0.25496441 0.05597169
-0.33251196 -0.25496438 0.055800214
-0.33269358 -0.25494725 0.055762559
-0.33286598 -0.25493735 0.055679955
-0.33307308 -0.25490496 0.055730984
-0.33326879 -0.25488403 0.055708252
-0.3334609 -0.25486356 0.055685531
-0.33367056 -0.25483903 0.055676587
-0.3338657 -0.25481158 0.055702288
-0.33404189 -0.25480106 0.055620827
-0.33424264 -0.25477183 0.055654582
-0.33443698 -0.25475216 0.055623788
-0.3346495 -0.25472116 0.055659793
-0.33482438 -0.2547116 0.055572573
-0.33504087 -0.25467554 0.055642013
-0.335226 -0.2546674 0.055535149
-0.33543953 -0.25463375 0.055589601
-0.33559796 -0.25463393 0.055445947
-0.33580989 -0.25459716 0.055524621
-0.33599448 -0.25458485 0.055448893
-0.24597813 -0.26465416 0.062632859
-0.24625809 -0.26463887 0.062493287
-0.24645749 -0.26460567 0.062557027
-0.24668972 -0.26457903 0.062543355
-0.24690732 -0.26455039 0.062557429
-0.24713665 -0.26452932 0.062505715
-0.24735919 -0.26449439 0.062561281
-0.24761078 -0.26447293 0.062492184
-0.24783388 -0.26444599 0.062488925
-0.24807732 -0.26443359 0.062361054
-0.24833724 -0.26440388 0.062344961
-0.24852872 -0.26436755 0.062438712
-0.24876289 -0.26434383 0.062401969
-0.24900703 -0.26432124 0.062347896
-0.24920119 -0.26428729 0.062422026
-0.24947545 -0.26427284 0.062281333
-0.24968316 -0.26424256 0.062316202
-0.24990052 -0.26421332 0.06233488
-0.25011531 -0.26418504 0.062348962
-0.25036252 -0.26416397 0.062281042
-0.25062248 -0.26414812 0.062163465
-0.25083017 -0.26411662 0.062207565
-0.25104606 -0.26408896 0.062215872
-0.25127491 -0.26406336 0.062197611
-0.25150302 -0.26403928 0.062168971
-0.25171337 -0.2640087 0.062203825
-0.25194961 -0.26398706 0.062149782
-0.25217363 -0.26396048 0.062143072
-0.25243476 -0.26394624 0.06201281
-0.25262815 -0.2639111 0.062096167
-0.25286204 -0.26388928 0.062045593
-0.25308666 -0.26386327 0.062034264
-0.25328651 -0.26383176 0.062085316
-0.2535274 -0.26381066 0.062023178
-0.25376394 -0.26379013 0.061961055
-0.25399175 -0.26376542 0.061937034
-0.25419068 -0.26373389 0.061989233
-0.25441661 -0.2637088 0.061969828
-0.25465167 -0.26368827 0.061908871
-0.25486639 -0.26365998 0.061922953
-0.25509608 -0.26363808 0.061877012
-0.25529873 -0.26360622 0.061928038
-0.25555667 -0.26359329 0.061790869
-0.2557337 -0.26355353 0.061922744
-0.25595739 -0.26353014 0.061892968
-0.25617835 -0.26350424 0.061883949
-0.25642443 -0.2634882 0.061780289
-0.25666511 -0.26346889 0.061705466
-0.25686008 -0.2634367 0.06176576
-0.25708115 -0.26341128 0.061753288
-0.25731736 -0.26339266 0.061677337
-0.257523 -0.26336232 0.061714523
-0.25775898 -0.2633439 0.061637409
-0.2579847 -0.26332042 0.061606482
-0.25819212 -0.2632927 0.061622895
-0.2583873 -0.26325908 0.061693564
-0.25864565 -0.2632488 0.061536796
-0.2588433 -0.26321614 0.06159823
-0.25908694 -0.26320118 0.061488807
-0.2592884 -0.26316994 0.061536383
-0.25949961 -0.26314396 0.06153664
-0.25972223 -0.26312023 0.061510332
-0.25995824 -0.26310322 0.061422847
-0.26017669 -0.26307827 0.061409235
-0.26037598 -0.26304838 0.061448753
-0.26059315 -0.26302311 0.061438605
-0.26081175 -0.26299846 0.061422694
-0.2610321 -0.26297453 0.061399847
-0.26125893 -0.26295501 0.061338931
-0.26145837 -0.26292354 0.061389968
-0.26167294 -0.2628997 0.061371766
-0.2618922 -0.26287574 0.061350085
-0.26210609 -0.2628518 0.061333038
-0.26232961 -0.26282969 0.061294038
-0.26252937 -0.26280054 0.061327785
-0.26275682 -0.26278016 0.061272621
-0.26297706 -0.26275909 0.061229028
-0.26317441 -0.26273119 0.061255861
-0.26339129 -0.26271099 0.061208822
-0.26364112 -0.26269403 0.061108589
-0.26383433 -0.26266268 0.061164282
-0.26405156 -0.26263899 0.061142601
-0.26424858 -0.26260719 0.061198272
-0.26446906 -0.26258498 0.061162744
-0.26468134 -0.26256156 0.061143398
-0.26492137 -0.26254767 0.061029375
-0.26510888 -0.2625142 0.06110584
-0.26532066 -0.26248881 0.061101481
-0.26553512 -0.2624667 0.061070599
-0.26574486 -0.26244059 0.061073169
-0.26596549 -0.26242137 0.061015725
-0.26618087 -0.26239789 0.060994059
-0.26639163 -0.26237464 0.060974725
-0.26660413 -0.26235011 0.060963444
-0.26680842 -0.26232418 0.060969491
-0.26702672 -0.2623024 0.060932823
-0.2672379 -0.26227975 0.060908869
-0.26744616 -0.26225367 0.060912594
-0.26765838 -0.26223168 0.060882866
-0.2678715 -0.26220801 0.060864672
-0.26806718 -0.26217857 0.060904205
-0.26828727 -0.2621583 0.060854837
-0.2685183 -0.26214331 0.060756996
-0.26873383 -0.26212123 0.060724951
-0.26892984 -0.26209223 0.06076102
-0.2691372 -0.26206642 0.060763597
-0.26935709 -0.26204902 0.06069348
-0.26955128 -0.26201931 0.060736477
-0.26977164 -0.26200011 0.060679045
-0.26998591 -0.26198038 0.060630858
-0.27016872 -0.26194513 0.060724642
-0.27039075 -0.26192713 0.060656816
-0.27060747 -0.26190901 0.06059479
-0.2708137 -0.26188332 0.060597375
-0.27102104 -0.26186067 0.060576893
-0.2712273 -0.26183516 0.060578328
-0.27144194 -0.2618165 0.060522065
-0.27164885 -0.26179153 0.060518883
-0.27183163 -0.26175627 0.060612671
-0.27205408 -0.26173964 0.06053447
-0.27224556 -0.26171154 0.060568251
-0.27243465 -0.26169455 0.060522474
-0.27266985 -0.26166788 0.060506485
-0.27288193 -0.26164621 0.060474463
-0.27308524 -0.26162231 0.060466681
-0.2732926 -0.26159826 0.060456574
-0.27349976 -0.26157671 0.060428023
-0.27370024 -0.26154891 0.060451388
-0.2739017 -0.26152429 0.060450539
-0.27411756 -0.26150548 0.060394272
-0.27431652 -0.26147959 0.060404964
-0.27452114 -0.26145443 0.060405254
-0.27472806 -0.26143339 0.060373239
-0.27493811 -0.26141167 0.060343523
-0.27514237 -0.26138657 0.060343809
-0.27535981 -0.26136962 0.060272545
-0.27556497 -0.26134801 0.060246315
-0.27576795 -0.26132241 0.060251217
-0.27597132 -0.26129994 0.060233057
-0.27619019 -0.26128453 0.060149103
-0.27637976 -0.26125351 0.060205966
-0.27658913 -0.26123232 0.060172789
-0.27678624 -0.26120618 0.060186949
-0.27699268 -0.26118332 0.060168773
-0.27720189 -0.26116532 0.06011254
-0.27740124 -0.26113796 0.060133599
-0.27760637 -0.26111749 0.060099293
-0.2778081 -0.26109189 0.060105361
-0.27801993 -0.26107624 0.060029507
-0.27822354 -0.26105216 0.060022876
-0.27841905 -0.26102245 0.060064718
-0.27863622 -0.26100802 0.059975013
-0.2788327 -0.26098529 0.059964947
-0.27899918 -0.26096889 0.059935421
-0.27924174 -0.26093924 0.059934393
-0.27944157 -0.26091293 0.059947379
-0.27962857 -0.26088032 0.060018085
-0.27985027 -0.2608704 0.059891462
-0.28003091 -0.26084912 0.059884921
-0.28020158 -0.26081708 0.059966072
-0.28041452 -0.26081091 0.059819877
-0.28062662 -0.26079461 0.059748642
-0.28085706 -0.26075637 0.059821464
-0.28102115 -0.26073915 0.059800014
-0.28120777 -0.26070628 0.059873022
-0.28139293 -0.26067892 0.059906833
-0.28164235 -0.260656 0.059850428
-0.28185099 -0.26063082 0.059847239
-0.28205171 -0.2606096 0.059822179
-0.28223154 -0.26059204 0.059789129
-0.28244451 -0.26056728 0.059778996
-0.28266069 -0.26054543 0.059744641
-0.28285867 -0.26052237 0.059735734
-0.2830655 -0.26050353 0.059687581
-0.28324923 -0.26048645 0.059647597
-0.28342003 -0.26045409 0.059731048
-0.28360963 -0.26043123 0.059727937
-0.28384197 -0.2604022 0.059731569
-0.28404513 -0.26039219 0.05962231
-0.28424329 -0.2603817 0.059521154
-0.2844072 -0.26034653 0.059631158
-0.28464118 -0.26033545 0.059502177
-0.28487316 -0.26031089 0.059473515
-0.28506923 -0.26028314 0.059500352
-0.28522179 -0.2602607 0.05952739
-0.28545818 -0.26024097 0.059459507
-0.2856617 -0.26021263 0.059484016
-0.28586078 -0.26018816 0.059484325
-0.28605846 -0.26016653 0.059465043
-0.28626028 -0.26014516 0.059439965
-0.28645462 -0.26012015 0.059448369
-0.28664476 -0.26010385 0.059396826
-0.28683832 -0.26006919 0.059476726
-0.28705901 -0.26006508 0.059308589
-0.28723282 -0.2600536 0.059236355
-0.28740746 -0.26002485 0.059289817
-0.28763226 -0.25998935 0.059347682
-0.28783605 -0.25996664 0.059330668
-0.28801921 -0.25994316 0.059337962
-0.28818995 -0.25993365 0.059254214
-0.28841493 -0.25990331 0.059274018
-0.28857547 -0.2598615 0.059435941
-0.28879267 -0.25989169 0.059019879
-0.28901005 -0.2598418 0.059189625
-0.28921792 -0.25980994 0.059236035
-0.28938961 -0.25978738 0.059246831
-0.28957626 -0.25977451 0.05917339
-0.289781 -0.25975454 0.059135631
-0.28997874 -0.2597414 0.059054069
-0.29018599 -0.25970882 0.059106238
-0.29039216 -0.25968584 0.059089221
-0.29056042 -0.25967017 0.059052758
-0.29077715 -0.25964588 0.059035696
-0.29097053 -0.25962162 0.059039496
-0.29115182 -0.25959665 0.059059478
-0.29138511 -0.25958058 0.0589674
-0.2915844 -0.2595537 0.058985002
-0.29178587 -0.25952405 0.059021052
-0.29198319 -0.25950673 0.058970626
-0.29216933 -0.25948367 0.05897215
-0.29236844 -0.2594699 0.058894042
-0.29254225 -0.25943887 0.058964811
-0.2927098 -0.259417 0.058974475
-0.29290515 -0.25939706 0.058944818
-0.29314098 -0.2593818 0.058844648
-0.29332489 -0.25936973 0.058767766
-0.29349506 -0.25933871 0.058842003
-0.29370552 -0.25930446 0.058903374
-0.29390025 -0.2592687 0.058990195
-0.29408553 -0.25926024 0.05888563
-0.29426759 -0.25923753 0.058888309
-0.29448813 -0.2592164 0.058844715
-0.29468691 -0.25918913 0.058865786
-0.294871 -0.25917119 0.058831565
-0.29505357 -0.25915 0.058822721
-0.29524854 -0.2591317 0.058781531
-0.2954447 -0.25912583 0.058648087
-0.29565042 -0.25909787 0.05866798
-0.29588875 -0.2590771 0.05860585
-0.29608741 -0.25905031 0.058623463
-0.29625911 -0.25903121 0.058608897
-0.2964325 -0.25901711 0.058556274
-0.29662284 -0.25899875 0.058519717
-0.29681751 -0.25897148 0.058544263
-0.29701674 -0.25894669 0.058546882
-0.29719636 -0.25891826 0.058593396
-0.29738876 -0.25889522 0.058589127
-0.29758385 -0.25885612 0.058700152
-0.29777759 -0.25886381 0.058469862
-0.29800704 -0.25882915 0.058517322
-0.29820594 -0.25880358 0.058525696
-0.29837921 -0.25877801 0.058557257
-0.2985867 -0.25875753 0.058520634
-0.29876596 -0.25874209 0.058472592
-0.29894879 -0.25872684 0.058419928
-0.29913414 -0.25870687 0.058399536
-0.29933605 -0.25867888 0.058422904
-0.2995398 -0.25866061 0.058373611
-0.29972449 -0.25863788 0.05837398
-0.29991844 -0.25862712 0.058278594
-0.30011281 -0.25859785 0.058318134
-0.30032161 -0.25859204 0.058173113
-0.30049962 -0.25857517 0.058136612
-0.30068216 -0.25853851 0.058240771
-0.3008658 -0.25850883 0.058293037
-0.30107152 -0.25848243 0.058301397
-0.30127028 -0.25845799 0.05830171
-0.30147371 -0.25844574 0.058208592
-0.30166209 -0.25842777 0.0581709
-0.30185002 -0.25840449 0.058172405
-0.30205938 -0.25838143 0.058153071
-0.30226174 -0.25836238 0.058110703
-0.30244961 -0.25833926 0.058111057
-0.30264807 -0.25831407 0.058117136
-0.30283237 -0.25829029 0.058125585
-0.30302039 -0.25827867 0.058041759
-0.30319399 -0.25826043 0.058019117
-0.30338171 -0.25823972 0.058002181
-0.30356237 -0.2582173 0.058003716
-0.30376759 -0.25820139 0.057935968
-0.30397674 -0.2581681 0.05799159
-0.30416134 -0.25813657 0.058056533
-0.3043631 -0.25811616 0.058024552
-0.30456829 -0.25809583 0.057989083
-0.3047528 -0.25806919 0.058018282
-0.30494756 -0.25804681 0.058007084
-0.30512783 -0.25802919 0.057974033
-0.30531883 -0.25800869 0.057952464
-0.30550265 -0.25798938 0.057928622
-0.30569309 -0.25797272 0.057879388
-0.30590469 -0.25795332 0.057831213
-0.30609506 -0.25793558 0.057790052
-0.30628961 -0.25791246 0.057784613
-0.30648407 -0.25788978 0.057775717
-0.30665889 -0.25788105 0.05768273
-0.3068403 -0.25785318 0.05772347
-0.30703518 -0.25782797 0.057733022
-0.30727026 -0.25779167 0.057787374
-0.30745998 -0.25777543 0.057735842
-0.30762714 -0.25775123 0.057762809
-0.30781397 -0.257732 0.057735495
-0.30804753 -0.25768897 0.057840597
-0.30821705 -0.25765613 0.05792867
-0.30839941 -0.25765559 0.057768758
-0.30857819 -0.25762728 0.057815287
-0.30878121 -0.2575987 0.057842094
-0.30897492 -0.25756699 0.057900086
-0.30916539 -0.2575472 0.05787392
-0.30934688 -0.25751114 0.057974625
-0.30953953 -0.25749579 0.057913847
-0.30972984 -0.25746545 0.057964936
-0.30991802 -0.25745302 0.057886872
-0.31010908 -0.25743124 0.057874534
-0.31029826 -0.25741506 0.057822995
-0.31048927 -0.25740308 0.057739161
-0.310675 -0.25738636 0.057694554
-0.31086627 -0.25736347 0.057690285
-0.31105831 -0.25733858 0.057699852
-0.31125271 -0.25731641 0.057687499
-0.3114422 -0.25729829 0.057649799
-0.31163087 -0.25728202 0.05759941
-0.31182048 -0.25726327 0.057566319
-0.31200939 -0.25724602 0.057522856
-0.31219935 -0.25722611 0.057497837
-0.31239325 -0.25720477 0.057479717
-0.31258506 -0.25718057 0.057484664
-0.31277663 -0.257157 0.057485014
-0.31296805 -0.25713375 0.057483051
-0.31316167 -0.2571131 0.057460316
-0.31335309 -0.25709003 0.057457201
-0.31354371 -0.25706863 0.057442565
-0.31373414 -0.25704756 0.057425607
-0.31393185 -0.2570253 0.057410933
-0.31412596 -0.25700364 0.057395123
-0.31431055 -0.2570003 0.057253659
-0.31450188 -0.25698355 0.057204418
-0.31469032 -0.25696588 0.057164405
-0.31488538 -0.25692976 0.057253532
-0.31507984 -0.25691324 0.057199664
-0.31528452 -0.25689012 0.057184961
-0.31545454 -0.25688148 0.057095446
-0.31564191 -0.25686535 0.057045065
-0.31583357 -0.25683612 0.057086922
-0.31603515 -0.25681257 0.057077996
-0.31621715 -0.25679979 0.057008035
-0.31640038 -0.25679016 0.056913853
-0.31659177 -0.2567564 0.056989156
-0.31677714 -0.25673783 0.056958389
-0.3169685 -0.25671491 0.056954123
-0.31716064 -0.25668576 0.056994822
-0.31736848 -0.25665784 0.057012394
-0.31756672 -0.25663474 0.057003483
-0.31774473 -0.25663221 0.056862041
-0.31793174 -0.25661108 0.056848567
-0.31811765 -0.25658679 0.056859314
-0.31830615 -0.2565636 0.056859668
-0.31851324 -0.25653246 0.056901455
-0.31869915 -0.25650394 0.056943335
-0.31889775 -0.25647604 0.056969017
-0.31909621 -0.25643951 0.057058118
-0.31927827 -0.25645238 0.056800202
-0.3194392 -0.25645369 0.056646153
-0.31963876 -0.25642017 0.056712188
-0.31984296 -0.25638071 0.05681742
-0.320034 -0.25635895 0.056805078
-0.32020384 -0.25636056 0.05664061
-0.32041278 -0.25631976 0.056751579
-0.3206158 -0.256291 0.056779549
-0.32080004 -0.25627795 0.056709576
-0.3210105 -0.25624815 0.056738675
-0.32118794 -0.25624332 0.056614533
-0.32137084 -0.25623941 0.056478843
-0.32155359 -0.25621599 0.056486137
-0.32176116 -0.25618589 0.056519855
-0.32193878 -0.25616875 0.056485664
-0.32215282 -0.2561388 0.056512438
-0.32233551 -0.25612327 0.056462072
-0.3225109 -0.25610498 0.056438275
-0.32270318 -0.25607833 0.056460518
-0.32290661 -0.25603914 0.056564596
-0.32311687 -0.25600338 0.056637503
-0.32331511 -0.25598481 0.056595147
-0.32349598 -0.25597137 0.056530967
-0.32369667 -0.25594309 0.056557789
-0.32387131 -0.25592601 0.056525916
-0.32406664 -0.25591394 0.056438603
-0.32426712 -0.25589624 0.056388173
-0.32446161 -0.25586805 0.056419637
-0.32464144 -0.25584877 0.056399267
-0.32482877 -0.25583154 0.05635697
-0.32501227 -0.25580519 0.056385018
-0.32519177 -0.25578955 0.056338135
-0.32544658 -0.25575826 0.056338206
-0.32560673 -0.25573665 0.056352518
-0.32581332 -0.25571597 0.056318209
-0.32600021 -0.25568667 0.056364693
-0.32617944 -0.25565264 0.056452729
-0.32637778 -0.25565267 0.056274299
-0.32657126 -0.25563565 0.056225047
-0.32674307 -0.25561827 0.056197796
-0.32692721 -0.25560415 0.0561359
-0.32712379 -0.25556907 0.056215789
-0.32730865 -0.25553939 0.0562669
-0.32748961 -0.25553131 0.056163505
-0.32769352 -0.25550452 0.056176476
-0.32789549 -0.25548252 0.056156028
-0.32806972 -0.25546595 0.05612069
-0.32826012 -0.25544316 0.056116428
-0.32844618 -0.25542435 0.056086808
-0.32865554 -0.2553958 0.056107834
-0.32883856 -0.2553854 0.056019418
-0.32903397 -0.25534719 0.056123529
-0.3292253 -0.25533217 0.056061603
-0.32942533 -0.25530395 0.056088425
-0.32960838 -0.25529072 0.05602077
-0.32980886 -0.25526494 0.056029148
-0.32998249 -0.25525445 0.055950001
-0.33016664 -0.25523746 0.055908866
-0.33037075 -0.25520873 0.05593567
-0.3305541 -0.25518462 0.055947579
-0.33073667 -0.25517428 0.055859163
-0.33092594 -0.25515303 0.055844534
-0.33110145 -0.25514072 0.055776909
-0.3313157 -0.25510651 0.055834815
-0.33151895 -0.25508153 0.055835098
-0.33170715 -0.25506136 0.055813543
-0.33189875 -0.25504598 0.055753928
-0.33210206 -0.25501862 0.055771515
-0.33228016 -0.25500917 0.055680819
-0.33245566 -0.2549918 0.055650093
-0.33264092 -0.25496918 0.05564931
-0.24597013 -0.2646513 0.06266091
-0.24620309 -0.26462615 0.062635727
-0.24641407 -0.26459423 0.062679797
-0.24666929 -0.26457471 0.062593415
-0.24686551 -0.26454079 0.062665224
-0.24709964 -0.26451629 0.062634252
-0.24736692 -0.26450017 0.062512092
-0.24756737 -0.26446748 0.062571198
-0.24782363 -0.26444736 0.062488265
-0.24804518 -0.26442012 0.062488493
-0.24828196 -0.26439685 0.062445991
-0.24850926 -0.26437128 0.062428895
-0.24873133 -0.2643429 0.062437184
-0.24898002 -0.26432306 0.062358893
-0.24922541 -0.26430252 0.062288694
-0.2494753 -0.26428333 0.06220464
-0.24964541 -0.26424319 0.062345721
-0.24981979 -0.26420406 0.062475264
-0.25011021 -0.26419443 0.062284973
-0.25033915 -0.26417005 0.062257506
-0.25053379 -0.26413652 0.062328156
-0.25070691 -0.26409709 0.06246116
-0.25098702 -0.26408696 0.062283594
-0.25122452 -0.26406536 0.062228419
-0.25145471 -0.2640402 0.062205542
-0.25169235 -0.26401889 0.062148057
-0.25194484 -0.26400191 0.062045544
-0.25217786 -0.26397958 0.061999608
-0.25234821 -0.26393953 0.062139541
-0.2525481 -0.26390785 0.062191729
-0.25280568 -0.26389119 0.062082279
-0.25302476 -0.2638652 0.062075593
-0.25324264 -0.26384065 0.062059693
-0.25347629 -0.26381746 0.062019512
-0.25369096 -0.26379043 0.062024377
-0.25394449 -0.26377505 0.061909176
-0.25414255 -0.26374328 0.061963677
-0.25433493 -0.26370811 0.062048182
-0.25457561 -0.26368925 0.061969936
-0.25482255 -0.26367247 0.061870903
-0.25501615 -0.26363954 0.061938107
-0.25524631 -0.26361787 0.061889865
-0.25545508 -0.26358968 0.061908588
-0.25567895 -0.26356453 0.061891504
-0.25592348 -0.26354772 0.061794803
-0.25611767 -0.26351517 0.061858539
-0.25634512 -0.26349321 0.061814927
-0.25653642 -0.26345801 0.061900593
-0.25677198 -0.26343885 0.06182928
-0.25699234 -0.26341492 0.061806448
-0.25722304 -0.26339445 0.061748989
-0.25745282 -0.26337203 0.061706517
-0.25765368 -0.26334196 0.061746027
-0.25855473 -0.2632533 0.061585445
-0.25874507 -0.26321995 0.061658431
-0.25895536 -0.26319349 0.061663315
-0.25917047 -0.26316687 0.061664708
-0.25939724 -0.26314625 0.061611883
-0.25961772 -0.26312357 0.061579831
-0.25984821 -0.26310453 0.061511993
-0.26006055 -0.26307923 0.061506491
-0.26028553 -0.26305851 0.061455972
-0.26048213 -0.26302582 0.061518557
-0.26070538 -0.26300469 0.061472654
-0.26093453 -0.26298583 0.061404832
-0.26114017 -0.2629585 0.061420105
-0.26135981 -0.26293448 0.061398432
-0.26158461 -0.26291442 0.061343297
-0.26177806 -0.26288274 0.061401278
-0.26199076 -0.26285833 0.061388858
-0.26220715 -0.26283348 0.061376426
-0.26243478 -0.26281494 0.061307445
-0.26265946 -0.26279348 0.061262697
-0.26286265 -0.26276582 0.06128259
-0.26306704 -0.26273865 0.061297871
-0.26328933 -0.26271856 0.061245061
-0.26350611 -0.26269445 0.06122686
-0.26370642 -0.26266587 0.061255991
-0.26392227 -0.26264155 0.061240092
-0.26413229 -0.26261699 0.06123114
-0.26435611 -0.2625961 0.061182939
-0.26456577 -0.26257157 0.061173987
-0.26477936 -0.26254877 0.061148882
-0.26499102 -0.26252529 0.061130691
-0.26520836 -0.26250219 0.061104424
-0.2654098 -0.2624746 0.06112548
-0.265634 -0.2624546 0.061070345
-0.26583546 -0.26242715 0.061090261
-0.26604611 -0.26240155 0.061088219
-0.26625448 -0.2623772 0.061079267
-0.26646748 -0.26235494 0.061050709
-0.26666239 -0.26232484 0.061096001
-0.26688504 -0.26230487 0.061042033
-0.26709944 -0.26228356 0.061005402
-0.26731223 -0.26225945 0.060990661
-0.26751494 -0.2622309 0.061017483
-0.26773944 -0.26221448 0.060935844
-0.26795629 -0.26219258 0.0609015
-0.26815891 -0.26216418 0.06092716
-0.26838604 -0.26214951 0.060830519
-0.26860142 -0.26212728 0.06079964
-0.26879883 -0.26209891 0.060829945
-0.269016 -0.26207772 0.060789831
-0.26921922 -0.26205227 0.06079359
-0.26944456 -0.26203528 0.060715392
-0.26965263 -0.26201239 0.06069608
-0.26985303 -0.26198348 0.060727518
-0.27005294 -0.26195669 0.060743965
-0.27026337 -0.26193288 0.06072925
-0.27046865 -0.26190889 0.060720317
-0.27066806 -0.26187965 0.060755216
-0.27088621 -0.26186717 0.060650546
-0.27110031 -0.26184085 0.060650796
-0.27129954 -0.2618165 0.060649969
-0.271516 -0.261794 0.060620233
-0.27172282 -0.26177627 0.060564019
-0.27193803 -0.26175094 0.060556196
-0.27213702 -0.26172188 0.060589954
-0.27234811 -0.26169941 0.060564853
-0.27255666 -0.26167816 0.060532853
-0.27277747 -0.26166126 0.060458139
-0.27297676 -0.26163518 0.060469992
-0.27317882 -0.26160812 0.060486428
-0.27337843 -0.26158231 0.060495965
-0.27359951 -0.26156619 0.060415488
-0.2738035 -0.26154047 0.060420394
-0.27400649 -0.26151425 0.060429916
-0.2742247 -0.26149955 0.060341384
-0.27442187 -0.26147011 0.060379751
-0.27463055 -0.26145011 0.060338527
-0.27483571 -0.26142552 0.060334202
-0.2750327 -0.26139876 0.060352981
-0.27525085 -0.26138219 0.060278274
-0.27545822 -0.26135921 0.06026011
-0.27565843 -0.26133192 0.060280025
-0.27585888 -0.2613076 0.060278032
-0.27607363 -0.26128954 0.060217179
-0.27626884 -0.26126206 0.060242876
-0.27647969 -0.26124182 0.060201637
-0.27669138 -0.26122224 0.060154632
-0.27690241 -0.26120245 0.060109939
-0.277091 -0.26117089 0.060171396
-0.27729538 -0.26114687 0.060163621
-0.27749914 -0.26112545 0.060137406
-0.27770838 -0.26110491 0.060099639
-0.27791941 -0.26108575 0.060050324
-0.27812013 -0.26105964 0.060061011
-0.27831268 -0.26103091 0.060098253
-0.27850339 -0.26100996 0.060080156
-0.2786963 -0.26100296 0.059958298
-0.27894026 -0.26097423 0.059949197
-0.27913269 -0.26094252 0.060008332
-0.27934015 -0.26092175 0.059974037
-0.27953479 -0.26089481 0.059996277
-0.27971625 -0.26086444 0.060055457
-0.27990618 -0.2608532 0.059967041
-0.28016073 -0.26083961 0.059838004
-0.28035203 -0.26082346 0.059784174
-0.28050503 -0.26077452 0.060004875
-0.28075778 -0.2607668 0.05983435
-0.2809433 -0.26074648 0.059816275
-0.28114936 -0.26072919 0.059757769
-0.28136292 -0.26070121 0.059770703
-0.28155914 -0.26066935 0.059827514
-0.28174698 -0.26065475 0.059765633
-0.28197342 -0.26063418 0.059712801
-0.28213322 -0.26061746 0.059691377
-0.28235641 -0.26058736 0.059711188
-0.2825686 -0.26055861 0.059731051
-0.2827529 -0.26054901 0.059635743
-0.28292063 -0.26052141 0.059686918
-0.28315866 -0.26050478 0.059594836
-0.28335381 -0.2604759 0.059630916
-0.28355303 -0.26046196 0.059553985
-0.28374022 -0.26043341 0.059594706
-0.2839669 -0.26039562 0.059667531
-0.28418246 -0.26038599 0.059544422
-0.28438345 -0.26036283 0.059533201
-0.28456056 -0.26034042 0.059538227
-0.28477925 -0.26031479 0.05952923
-0.28494152 -0.26029795 0.059506647
-0.28512168 -0.26027879 0.059485137
-0.28535709 -0.26025397 0.059455324
-0.28555417 -0.26023161 0.05944182
-0.28575644 -0.26019791 0.059506685
-0.28596655 -0.26018941 0.059380136
-0.28615159 -0.26016316 0.059405878
-0.28637487 -0.26014346 0.059349604
-0.28657171 -0.26012585 0.05930151
-0.28676337 -0.26008937 0.05939639
-0.28695902 -0.26007065 0.059357524
-0.28713837 -0.26006088 0.059268005
-0.28734571 -0.26002845 0.059319004
-0.28754258 -0.26000234 0.059333164
-0.28774559 -0.25998825 0.059253924
-0.28795567 -0.2599591 0.059278391
-0.28816673 -0.259936 0.059257917
-0.28836036 -0.25991595 0.059230581
-0.28855073 -0.25989696 0.059198663
-0.28874108 -0.25987306 0.059202474
-0.28894895 -0.25984639 0.059210815
-0.28914326 -0.25981745 0.059248045
-0.28932896 -0.25979793 0.059224211
-0.28952619 -0.25977823 0.0591911
-0.28973356 -0.25975651 0.059163712
-0.28988487 -0.25972763 0.059239164
-0.29007605 -0.25970522 0.059231441
-0.29033208 -0.25968653 0.059138138
-0.29053757 -0.25966269 0.05912805
-0.29073358 -0.25964218 0.059101865
-0.2909323 -0.25962013 0.059084889
-0.29112369 -0.25959879 0.059069097
-0.29128429 -0.25958389 0.059033837
-0.29149845 -0.25956228 0.058999501
-0.29170489 -0.25954714 0.058924854
-0.29190952 -0.25951663 0.058964349
-0.29208851 -0.2594946 0.058964744
-0.29226413 -0.25948006 0.058913291
-0.29245713 -0.25944924 0.058965508
-0.29264662 -0.25942561 0.058968164
-0.29284957 -0.25939876 0.058982302
-0.2930631 -0.25937739 0.058946811
-0.29326576 -0.25935736 0.058911379
-0.29348364 -0.25934508 0.058805555
-0.29367098 -0.25931793 0.058835901
-0.29386845 -0.25929585 0.058820076
-0.29406342 -0.25928447 0.058728185
-0.29427743 -0.259258 0.058729593
-0.29445285 -0.25922963 0.058779582
-0.29464388 -0.25920221 0.058808751
-0.29482505 -0.25918651 0.058760721
-0.29501104 -0.2591649 0.05875187
-0.29522121 -0.25913844 0.058756754
-0.29543605 -0.2591235 0.058672845
-0.29560739 -0.25911266 0.05859834
-0.29578409 -0.25907752 0.058696747
-0.2960031 -0.25905517 0.058663547
-0.29621196 -0.25903594 0.058616549
-0.29640591 -0.25900659 0.058657244
-0.29661831 -0.2589874 0.058606774
-0.29682478 -0.25897321 0.058525208
-0.2970157 -0.25894594 0.058553226
-0.29718965 -0.25892326 0.058562867
-0.29737702 -0.25889611 0.058593206
-0.29758316 -0.25889534 0.058413658
-0.29779226 -0.25885436 0.058525756
-0.29797897 -0.25883833 0.058475398
-0.29818442 -0.25881022 0.058496438
-0.29838091 -0.25879014 0.058466785
-0.2985737 -0.2587702 0.058439467
-0.2987628 -0.25875056 0.058413301
-0.2989386 -0.25873712 0.058353771
-0.29910934 -0.25871769 0.058342684
-0.29933578 -0.25868592 0.058371708
-0.29954168 -0.25866044 0.058373138
-0.29971457 -0.25863302 0.058418531
-0.29990515 -0.25862375 0.058315124
-0.30010176 -0.2586087 0.058248591
-0.30028459 -0.25857532 0.058328513
-0.30048546 -0.25856608 0.058215849
-0.30065867 -0.25854048 0.058247399
-0.30088574 -0.25851339 0.058241837
-0.30108491 -0.25849408 0.058204107
-0.3012518 -0.2584762 0.058184959
-0.30144411 -0.25846216 0.058114979
-0.30163893 -0.25843772 0.058118775
-0.30184805 -0.25841281 0.058113284
-0.30201837 -0.25839576 0.058084901
-0.30220652 -0.2583805 0.058027618
-0.30239415 -0.25835586 0.058039509
-0.30260247 -0.25831133 0.058178127
-0.30282244 -0.25829342 0.058111496
-0.30301383 -0.25827351 0.058085322
-0.30320159 -0.25825465 0.058054566
-0.30339995 -0.25823152 0.058045655
-0.30356973 -0.25822386 0.05794926
-0.30375364 -0.2582069 0.057908133
-0.30395183 -0.25818282 0.057906151
-0.30418935 -0.2581442 0.057975475
-0.30438098 -0.25811291 0.058032315
-0.30454788 -0.25808606 0.058078881
-0.30474597 -0.25806594 0.058048073
-0.30493286 -0.25805351 0.057971198
-0.30510557 -0.25804108 0.057907071
-0.30529708 -0.25801405 0.057932779
-0.30549118 -0.25799569 0.057892762
-0.30568078 -0.25798526 0.057798591
-0.30587831 -0.25793844 0.05796377
-0.30608833 -0.25793028 0.057834916
-0.3062712 -0.2579155 0.057778813
-0.3064568 -0.25788242 0.057854116
-0.30666658 -0.25785127 0.057893593
-0.30686939 -0.25784081 0.057787824
-0.30707872 -0.25781226 0.057808854
-0.30725577 -0.2577903 0.057810411
-0.30743718 -0.25778091 0.057716265
-0.30763412 -0.25776219 0.057676248
-0.30781797 -0.25774005 0.057673171
-0.30801436 -0.25770831 0.057728834
-0.30819944 -0.25768146 0.057759177
-0.30844215 -0.25764409 0.057814647
-0.30862257 -0.25763604 0.057711288
-0.3088032 -0.25761366 0.057712838
-0.30899292 -0.25759554 0.057675146
-0.30916864 -0.25757831 0.057643279
-0.30935881 -0.25755823 0.05761943
-0.30955827 -0.25754109 0.057565559
-0.30973721 -0.25751293 0.057610918
-0.30993885 -0.25747806 0.057685006
-0.31013072 -0.2574631 0.057621941
-0.31032908 -0.25743872 0.057622265
-0.31052616 -0.25742787 0.057524599
-0.31069607 -0.25741655 0.057454716
-0.31089842 -0.25738081 0.057534561
-0.31109408 -0.25736368 0.057484172
-0.3112745 -0.25735077 0.057416547
-0.31144559 -0.25733551 0.057374325
-0.31165802 -0.25729239 0.057499092
-0.3118481 -0.25727201 0.057477541
-0.31204942 -0.25726488 0.057348732
-0.31224465 -0.25723979 0.057357132
-0.31241542 -0.25722489 0.057312608
-0.31261224 -0.25719628 0.057345208
-0.31280357 -0.25717273 0.057345562
-0.31299764 -0.2571651 0.057227157
-0.31319192 -0.25713506 0.057272449
-0.31337813 -0.2571153 0.05724977
-0.31359062 -0.25707564 0.057349168
-0.3137576 -0.25707474 0.057205509
-0.31394854 -0.25705206 0.057200097
-0.31414321 -0.25702858 0.057196978
-0.3143419 -0.25700384 0.057199597
-0.31452858 -0.25698936 0.057137713
-0.31471375 -0.2569713 0.0571035
-0.31490678 -0.25693876 0.057168402
-0.31510746 -0.2569046 0.057237886
-0.31531829 -0.25688231 0.057211634
-0.31550762 -0.25687447 0.057099015
-0.31570348 -0.25686628 0.056982912
-0.31589004 -0.25684553 0.056967132
-0.31605214 -0.25683835 0.056874223
-0.31623915 -0.25681123 0.056904569
-0.3164362 -0.25677866 0.056965996
-0.31664485 -0.25673819 0.057074636
-0.31683493 -0.25672787 0.056979306
-0.31702763 -0.25669771 0.057026919
-0.31721127 -0.25669196 0.05690394
-0.31740993 -0.25666282 0.056938842
-0.31760246 -0.25664324 0.056909215
-0.31781253 -0.25661677 0.056914099
-0.31799674 -0.25659016 0.056943294
-0.31818646 -0.25657469 0.056886006
-0.31839237 -0.25654513 0.056917422
-0.3185637 -0.25652799 0.056889031
-0.31875375 -0.25650728 0.056869786
-0.31893295 -0.2564972 0.056782577
-0.31913745 -0.25647882 0.056733292
-0.31934175 -0.25644299 0.056811977
-0.31952941 -0.25642115 0.056803122
-0.31971863 -0.25640166 0.056775808
-0.31992096 -0.25636905 0.056832604
-0.32010064 -0.25636631 0.0566912
-0.32027739 -0.25635451 0.056618981
-0.32048839 -0.25631517 0.056717239
-0.3206819 -0.25628206 0.056785598
-0.32086223 -0.25627783 0.056654565
-0.32106858 -0.25626096 0.056592602
-0.32126153 -0.25623283 0.056625217
-0.321459 -0.25621107 0.056607097
-0.32164893 -0.25618297 0.056642033
-0.32184127 -0.25615978 0.056638926
-0.32203194 -0.25614625 0.056566648
-0.32221192 -0.2561301 0.056523234
-0.32240331 -0.25610432 0.056539726
-0.32259244 -0.25607398 0.056591958
-0.32278833 -0.25605428 0.05656001
-0.32298946 -0.2560395 0.056487691
-0.32316408 -0.2560257 0.056431621
-0.32337791 -0.25598949 0.056504503
-0.32357368 -0.25595942 0.056548644
-0.3237614 -0.25595224 0.056432564
-0.32395115 -0.25592545 0.056458291
-0.32413802 -0.25589505 0.056512833
-0.32432896 -0.25587738 0.056470528
-0.32449555 -0.25587878 0.056310739
-0.32469904 -0.25585768 0.056282215
-0.32491988 -0.25582188 0.056345843
-0.32510963 -0.25579554 0.056368109
-0.32531083 -0.25577378 0.056346506
-0.3255049 -0.25574645 0.05637221
-0.32567298 -0.25574231 0.056251604
-0.32587793 -0.25571364 0.056277256
-0.32607475 -0.25569007 0.05627298
-0.32626063 -0.25567111 0.05624453
-0.32645905 -0.25565225 0.056204494
-0.32664731 -0.25563097 0.056191016
-0.3268528 -0.25560224 0.056216676
-0.32704577 -0.25557661 0.056230843
-0.32724378 -0.25554925 0.056253079
-0.32743168 -0.25553748 0.05617043
-0.32761177 -0.25551531 0.056170829
-0.32779914 -0.25549227 0.056171197
-0.32800454 -0.25547284 0.056128822
-0.3281914 -0.25546181 0.056041583
-0.32839105 -0.25542766 0.056112215
-0.32858863 -0.25541249 0.056045674
-0.32877189 -0.25539058 0.056041442
-0.32896498 -0.25535989 0.056092512
-0.3291634 -0.25533849 0.056070924
-0.32936072 -0.2553153 0.056063179
