# .PCD v0.7 - Point Cloud Data file format
VERSION 0.7
FIELDS x y z
SIZE 4 4 4
TYPE F F F
COUNT 1 1 1
WIDTH 1284
HEIGHT 1
VIEWPOINT 0 0 0 1 0 0 0
POINTS 1284
DATA ascii
-0.30255973 -0.31614223 0.047326285
-0.30278078 -0.31618214 0.047359742
-0.3029685 -0.31622458 0.047299571
-0.30317163 -0.31626588 0.047282171
-0.3033585 -0.31630537 0.047250967
-0.30357072 -0.31634712 0.04724741
-0.30375612 -0.31638876 0.047190741
-0.30395126 -0.31642875 0.047171064
-0.30417624 -0.31646973 0.047201023
-0.30436015 -0.31651255 0.047129296
-0.30459356 -0.31655711 0.047139518
-0.30479777 -0.31659865 0.04712211
-0.304988 -0.31663913 0.047087416
-0.30520555 -0.31667888 0.047115095
-0.30539227 -0.31671765 0.047090843
-0.30557269 -0.31675979 0.047019139
-0.30579981 -0.3168011 0.047050238
-0.30600613 -0.31683978 0.047066413
-0.30620712 -0.31688079 0.047047868
-0.30638161 -0.31692335 0.046959981
-0.20104223 -0.29585919 0.052253388
-0.20127666 -0.29591 0.052201048
-0.20151959 -0.29596505 0.052122016
-0.20176189 -0.29601875 0.052055731
-0.20200321 -0.29607326 0.051979024
-0.20224905 -0.29613009 0.051887229
-0.20250481 -0.2961908 0.051775686
-0.2027521 -0.29624984 0.051664189
-0.2029714 -0.29629397 0.051650174
-0.20319158 -0.29633862 0.051632669
-0.2034286 -0.29639173 0.051561784
-0.20365819 -0.29644126 0.051512949
-0.20388119 -0.29648757 0.051483847
-0.20410979 -0.2965368 0.051436171
-0.20434791 -0.29659089 0.051357169
-0.20458628 -0.29664403 0.051288597
-0.20482284 -0.29669762 0.051211908
-0.2050457 -0.29674438 0.05117818
-0.2052733 -0.29679361 0.051128201
-0.20551337 -0.29684934 0.05103644
-0.20574343 -0.29690006 0.050976012
-0.20597175 -0.29695001 0.050920233
-0.20620006 -0.29700008 0.050863303
-0.20643298 -0.29705137 0.050802868
-0.20666407 -0.29710308 0.05073433
-0.20689964 -0.29715726 0.050649546
-0.20712757 -0.29720756 0.050589129
-0.20735799 -0.29725805 0.050532185
-0.20759989 -0.2973159 0.050421886
-0.20781752 -0.2973612 0.050392807
-0.20803997 -0.29740909 0.050346334
-0.20826481 -0.29745835 0.050290577
-0.208492 -0.29750896 0.050225537
-0.2087177 -0.29755762 0.050177891
-0.20894055 -0.29760617 0.050125614
-0.20916769 -0.2976571 0.050057098
-0.20938596 -0.29770342 0.050018758
-0.20961204 -0.29775268 0.049965311
-0.20983654 -0.29780257 0.049902607
-0.21005717 -0.29785043 0.049852662
-0.21027747 -0.29789823 0.049802728
-0.21049938 -0.29794571 0.049759723
-0.21071336 -0.29799026 0.049730677
-0.21093628 -0.29803982 0.049667984
-0.21115446 -0.29808688 0.049621537
-0.21137616 -0.29813465 0.049575061
-0.21158999 -0.29817951 0.049542539
-0.21181516 -0.2982294 0.049480986
-0.21203125 -0.29827571 0.049438026
-0.21224554 -0.29832113 0.049400862
-0.21245742 -0.29836527 0.049371831
-0.2126765 -0.29841217 0.049328841
-0.21294786 -0.29848602 0.049112946
-0.21313915 -0.29851177 0.049232315
-0.21329266 -0.29852724 0.049382027
-0.21350777 -0.29857931 0.049277671
-0.21380937 -0.29866984 0.048950378
-0.2140183 -0.29871735 0.048880808
-0.21423654 -0.29876173 0.048862159
-0.21438666 -0.29877383 0.049039699
-0.21460453 -0.2988224 0.048977036
-0.21482062 -0.2988686 0.048935231
-0.21503213 -0.29891369 0.048895765
-0.21524544 -0.29895845 0.048863247
-0.21546626 -0.29900479 0.048829518
-0.21566246 -0.29904553 0.048804052
-0.2158747 -0.29909146 0.048757635
-0.21608898 -0.29913718 0.048717007
-0.21630011 -0.29917961 0.048704185
-0.21650265 -0.29922149 0.04867984
-0.21670924 -0.29926437 0.048653156
-0.21693164 -0.29931238 0.04860552
-0.21712822 -0.29935241 0.048588157
-0.21733491 -0.2993941 0.048574209
-0.21754093 -0.29943699 0.048546366
-0.21774912 -0.29947972 0.048524305
-0.21794893 -0.29952052 0.048505757
-0.21814543 -0.29955772 0.048517358
-0.21834345 -0.29959434 0.048538223
-0.21853252 -0.29962695 0.048582308
-0.21871489 -0.29965535 0.048656538
-0.218885 -0.29967272 0.04882006
-0.2179931 -0.29872015 0.056861758
-0.21827605 -0.2988123 0.056480121
-0.21842985 -0.298812 0.056793183
-0.21861798 -0.29883915 0.056891717
-0.21883778 -0.29888532 0.056858003
-0.21917441 -0.29890957 0.057285845
-0.21969134 -0.2989561 0.057847027
-0.22126883 -0.29963499 0.054013647
-0.22147366 -0.29967362 0.05402752
-0.22170822 -0.29971972 0.054023836
-0.22194692 -0.29977259 0.053958725
-0.22213516 -0.29980549 0.053998176
-0.22234195 -0.29984763 0.053979598
-0.22256054 -0.29989243 0.053957473
-0.22276652 -0.29994193 0.053861279
-0.22293656 -0.29996982 0.053915903
-0.22319184 -0.30002752 0.053834472
-0.22338122 -0.30006546 0.053824104
-0.22359271 -0.3001056 0.053835616
-0.22380137 -0.30014172 0.053883068
-0.22399212 -0.30017477 0.053925976
-0.22419174 -0.30021644 0.053898171
-0.22440475 -0.30027628 0.053709261
-0.22459106 -0.3003124 0.053711645
-0.22483522 -0.30035466 0.053766996
-0.22503807 -0.3003929 0.053780876
-0.22522366 -0.3004328 0.053742722
-0.22545913 -0.30048335 0.053695008
-0.22565414 -0.30052006 0.053708941
-0.22583452 -0.30055839 0.053676613
-0.22605461 -0.30060166 0.053673014
-0.2262695 -0.30064753 0.053632375
-0.22648296 -0.30069017 0.053621858
-0.22669271 -0.30073884 0.053541861
-0.22688593 -0.30077451 0.053562753
-0.22706816 -0.30080816 0.053582545
-0.22729048 -0.30085605 0.053536072
-0.22747031 -0.30089009 0.053546615
-0.22765134 -0.30092061 0.053596534
-0.22788739 -0.30098236 0.053434126
-0.22806595 -0.30101091 0.053499121
-0.22828859 -0.30105492 0.053493187
-0.22850345 -0.30110201 0.053439815
-0.22867005 -0.30112764 0.053510666
-0.22890176 -0.30118442 0.053391151
-0.22909488 -0.30121818 0.053431734
-0.22929442 -0.30125991 0.053402767
-0.22948614 -0.30129495 0.053427141
-0.22970438 -0.30133823 0.053420082
-0.22989893 -0.30138087 0.053371452
-0.23008081 -0.30141243 0.053412095
-0.23032455 -0.30147874 0.053218365
-0.23052152 -0.3015137 0.053254299
-0.23071165 -0.30154505 0.053313434
-0.23090817 -0.30158487 0.05329838
-0.231106 -0.30162862 0.053245105
-0.23131293 -0.30167291 0.053204514
-0.23151135 -0.30170938 0.053227685
-0.23173143 -0.30175537 0.053196281
-0.23191571 -0.30179232 0.053185944
-0.23212142 -0.30183592 0.053149987
-0.23233677 -0.30188054 0.053123251
-0.23251979 -0.30191937 0.053090908
-0.23269221 -0.30194503 0.053173319
-0.23290291 -0.30199108 0.053122275
-0.23311459 -0.30204126 0.053030677
-0.23330902 -0.30207425 0.053081676
-0.23351681 -0.30211782 0.053050347
-0.23371647 -0.3021653 0.052962311
-0.23390071 -0.30219394 0.053037696
-0.23411377 -0.30224338 0.05295651
-0.23429716 -0.30228677 0.052877828
-0.23450498 -0.30232158 0.052936867
-0.23471607 -0.30235988 0.052966915
-0.23491387 -0.30239993 0.052951857
-0.23510107 -0.30243498 0.05296699
-0.23529421 -0.30247334 0.052960075
-0.23549913 -0.30252498 0.052839562
-0.23569247 -0.30256045 0.052862763
-0.23590365 -0.30260602 0.052817516
-0.2360961 -0.30263707 0.052884746
-0.23629175 -0.30267882 0.052847691
-0.23650025 -0.30272523 0.052788556
-0.23669785 -0.30277333 0.052690092
-0.23688357 -0.3028073 0.052713338
-0.23708594 -0.30284309 0.052751549
-0.23729002 -0.30288851 0.052693598
-0.23749626 -0.30292919 0.052688923
-0.23767254 -0.30295908 0.052735396
-0.23786455 -0.30299732 0.05272733
-0.23807262 -0.30304858 0.052617215
-0.23827218 -0.30308494 0.052643862
-0.2384534 -0.30311736 0.052674085
-0.23867032 -0.30317307 0.052536115
-0.23887104 -0.30321121 0.052546538
-0.23907782 -0.30325356 0.05252564
-0.23928773 -0.30329174 0.052554533
-0.23949169 -0.30333915 0.052475736
-0.23968144 -0.30337527 0.052485056
-0.23985432 -0.30340034 0.052574411
-0.24005195 -0.3034482 0.052478269
-0.24025756 -0.30348957 0.052465484
-0.2404639 -0.30353218 0.052441113
-0.2406335 -0.3035666 0.052427389
-0.2408271 -0.30359921 0.052480709
-0.24102619 -0.30364063 0.052454062
-0.24124853 -0.3036893 0.052399475
-0.2414383 -0.30372608 0.052401848
-0.241653 -0.30377302 0.052349627
-0.24182801 -0.3038176 0.052242018
-0.24203023 -0.30384874 0.052327737
-0.24223006 -0.30388683 0.052337006
-0.24242468 -0.30393311 0.052251294
-0.24260671 -0.30396211 0.052318592
-0.24278589 -0.30398539 0.05243919
-0.24299671 -0.30404502 0.052247975
-0.24318019 -0.30407667 0.052290931
-0.2433777 -0.30412373 0.052202892
-0.24357334 -0.30416054 0.05221682
-0.24377131 -0.30420241 0.052183226
-0.24397145 -0.30424213 0.052176267
-0.24416116 -0.30428049 0.052162424
-0.24435057 -0.30431834 0.052153207
-0.24455597 -0.30435538 0.052184451
-0.24476439 -0.30439976 0.05214617
-0.24493943 -0.3044349 0.052135877
-0.24512975 -0.30447561 0.052098863
-0.24532592 -0.30451468 0.052090771
-0.2455207 -0.30455905 0.052024759
-0.24573083 -0.30460063 0.052018907
-0.24592212 -0.3046357 0.052042119
-0.24610543 -0.30467683 0.051986605
-0.24628806 -0.30470586 0.052055053
-0.24649103 -0.30475712 0.05193454
-0.24668792 -0.30480024 0.051885895
-0.2468936 -0.30483934 0.051896289
-0.24707995 -0.3048692 0.05196356
-0.24726844 -0.30490676 0.051955506
-0.24745353 -0.30494443 0.051939368
-0.24765433 -0.30499169 0.051855952
-0.24784037 -0.30503458 0.051787674
-0.24803957 -0.30507624 0.051758718
-0.24823143 -0.3051157 0.051737897
-0.24842335 -0.30513754 0.051898975
-0.24861026 -0.30516782 0.051962767
-0.24880247 -0.30523035 0.051704459
-0.24900028 -0.30526534 0.05174154
-0.24919847 -0.30530268 0.051755451
-0.24938634 -0.30534032 0.051745087
-0.2495833 -0.30539817 0.051544677
-0.24977927 -0.30541497 0.051765963
-0.24996704 -0.30545238 0.051757924
-0.25016928 -0.30549756 0.051698823
-0.25036752 -0.30553678 0.051693037
-0.25055167 -0.30557573 0.051661842
-0.25074655 -0.30562305 0.051565718
-0.25094813 -0.30566645 0.051523991
-0.25113541 -0.30569971 0.051557664
-0.25132278 -0.30573156 0.051606387
-0.25151718 -0.30577251 0.051575132
-0.25170794 -0.30581173 0.05155433
-0.25189558 -0.30584151 0.051625066
-0.25208542 -0.30589548 0.051450185
-0.25228927 -0.30594769 0.051321566
-0.2524814 -0.30596668 0.051512759
-0.2526654 -0.30599931 0.05154644
-0.25286126 -0.30605468 0.051369213
-0.25306728 -0.3060841 0.05148039
-0.25325036 -0.30612352 0.051442251
-0.25343484 -0.30617622 0.051269725
-0.25363865 -0.30619904 0.05144462
-0.25383788 -0.30624846 0.05133573
-0.25402474 -0.30628535 0.05133117
-0.25421748 -0.30632877 0.051270954
-0.2544156 -0.30636418 0.051304564
-0.25460443 -0.30639282 0.051389195
-0.2547895 -0.30643654 0.051310498
-0.25498205 -0.30647928 0.051257238
-0.2551789 -0.30651969 0.051236399
-0.25537306 -0.30655634 0.051249169
-0.25555974 -0.30659321 0.051244609
-0.25575241 -0.30663449 0.051206425
-0.25593913 -0.30667102 0.051205333
-0.2561352 -0.30671287 0.051168278
-0.25632787 -0.30675349 0.051137041
-0.25651902 -0.30678818 0.051163733
-0.25671533 -0.30682895 0.051138259
-0.25691065 -0.30686304 0.051179983
-0.25710118 -0.30690816 0.05109778
-0.25729376 -0.3069483 0.051071174
-0.25748178 -0.30698174 0.051104844
-0.25765899 -0.30701381 0.051130451
-0.2578496 -0.30706537 0.050982218
-0.25804594 -0.30709782 0.051042479
-0.25823542 -0.30713615 0.051028624
-0.25843108 -0.30718428 0.050925542
-0.25863254 -0.3072218 0.050944064
-0.25881684 -0.3072553 0.050969638
-0.25899819 -0.3072938 0.050937306
-0.25920394 -0.30733731 0.050902516
-0.25939429 -0.30737388 0.050908357
-0.25957593 -0.30740559 0.050946683
-0.25976428 -0.30744526 0.050916627
-0.2599549 -0.30748156 0.050925948
-0.26013759 -0.30752346 0.050861165
-0.2603333 -0.30756378 0.050839171
-0.26052085 -0.30760416 0.05079985
-0.26072162 -0.307643 0.050803319
-0.26090735 -0.30768037 0.050791807
-0.2611005 -0.3077186 0.050786056
-0.26129061 -0.30775556 0.050787263
-0.26148269 -0.30779025 0.050816268
-0.26165929 -0.30784318 0.050625246
-0.26185778 -0.30787507 0.050695919
-0.26204309 -0.30790809 0.050728433
-0.26222599 -0.30795306 0.05063238
-0.26242256 -0.30799198 0.050626598
-0.26261011 -0.30802721 0.050640564
-0.26281106 -0.3080616 0.050690372
-0.2629911 -0.30810466 0.050608236
-0.26317939 -0.30814767 0.05054342
-0.26337081 -0.30818334 0.050560839
-0.26356319 -0.3082222 0.050546978
-0.26376626 -0.30825499 0.05061762
-0.26395452 -0.30829778 0.050555125
-0.26412663 -0.30834737 0.050389625
-0.26431572 -0.30838898 0.050341021
-0.26451895 -0.3084181 0.050449897
-0.26470059 -0.30845496 0.050434936
-0.26490092 -0.30849069 0.050469682
-0.26509753 -0.30853689 0.050388612
-0.26530644 -0.30857283 0.050438371
-0.26548263 -0.3086071 0.05043966
-0.26567307 -0.30864054 0.050477944
-0.26585075 -0.30868754 0.050350629
-0.26605952 -0.3087239 0.050395757
-0.2662358 -0.30876154 0.050362289
-0.2664223 -0.30881137 0.050223343
-0.26661444 -0.30884367 0.050276678
-0.26680794 -0.30888167 0.050274387
-0.26700234 -0.30892542 0.050214179
-0.26719519 -0.30896068 0.050238546
-0.26738319 -0.30899936 0.050217748
-0.2675738 -0.30903935 0.050188847
-0.26776072 -0.30907872 0.050158788
-0.26794988 -0.30911663 0.05014842
-0.26814392 -0.30914542 0.050242286
-0.26833749 -0.30918947 0.050177451
-0.26853934 -0.30923107 0.050154261
-0.26871774 -0.3092671 0.05014164
-0.26889914 -0.30930698 0.050095398
-0.26908866 -0.30934474 0.050087348
-0.26927298 -0.30938283 0.050065421
-0.26947743 -0.30942014 0.050092041
-0.2696591 -0.30945703 0.050077077
-0.26984963 -0.309497 0.050048165
-0.27002242 -0.30954158 0.049935941
-0.27021754 -0.30958155 0.049916279
-0.27039301 -0.30961913 0.049881659
-0.27060288 -0.30965111 0.049974278
-0.2707729 -0.30969423 0.04987134
-0.27096564 -0.30973038 0.049886443
-0.27117726 -0.30976182 0.049988315
-0.2713854 -0.3098003 0.050010271
-0.27156058 -0.30984557 0.049895715
-0.27175519 -0.30988833 0.049845926
-0.27197677 -0.30991298 0.050038107
-0.27215704 -0.30996281 0.049886461
-0.27233779 -0.31000268 0.049839068
-0.27251899 -0.31004229 0.049795143
-0.27270743 -0.31007612 0.049825333
-0.2728835 -0.31011808 0.049746685
-0.27308685 -0.31015673 0.049757093
-0.27328491 -0.31019327 0.04977911
-0.27346587 -0.31023294 0.049734034
-0.27365845 -0.31027195 0.049719006
-0.27384186 -0.31030828 0.049713314
-0.27402309 -0.3103478 0.049670544
-0.27422535 -0.31038713 0.049671687
-0.27441972 -0.31042764 0.04964507
-0.27460214 -0.31046444 0.049632423
-0.27478963 -0.31050137 0.049629014
-0.27497768 -0.31054443 0.04956305
-0.27517849 -0.31058237 0.04957578
-0.27535319 -0.31062227 0.049515679
-0.27554837 -0.31065834 0.049536556
-0.2757498 -0.31069618 0.049551602
-0.2759313 -0.31073552 0.049511157
-0.27612302 -0.31077504 0.049489193
-0.27631971 -0.31081477 0.049475305
-0.27652007 -0.31085116 0.049503103
-0.27670473 -0.31089133 0.049460322
-0.27689454 -0.31092769 0.049467325
-0.27708235 -0.3109687 0.049422212
-0.27727458 -0.31100619 0.049422249
-0.27747917 -0.31104332 0.049451176
-0.27767414 -0.31108382 0.049425721
-0.27784476 -0.31112492 0.049344793
-0.27805471 -0.31116042 0.049401496
-0.27823195 -0.31120303 0.049318209
-0.27842343 -0.31124097 0.049312457
-0.27861616 -0.31128034 0.049293965
-0.27882361 -0.31131691 0.049334463
-0.27899334 -0.31135997 0.049231529
-0.27917856 -0.31139812 0.049210753
-0.27938342 -0.31143564 0.049236201
-0.27959386 -0.31146973 0.049307965
-0.2797713 -0.31151569 0.049191087
-0.27995124 -0.31155547 0.04914254
-0.28016394 -0.31158915 0.049223561
-0.28036401 -0.31162661 0.04923977
-0.28053832 -0.31167328 0.049109001
-0.28070959 -0.31171554 0.049017645
-0.28092664 -0.31174824 0.04911717
-0.28113583 -0.31178501 0.049158823
-0.28132519 -0.31182733 0.049103271
-0.28151855 -0.31187022 0.049050007
-0.28171372 -0.31190595 0.049074359
-0.28191304 -0.31194395 0.049083628
-0.28209326 -0.31198537 0.04901886
-0.28228486 -0.31202543 0.048991106
-0.28246385 -0.31206551 0.048937928
-0.28266677 -0.31210431 0.048946016
-0.2828505 -0.31214318 0.048914831
-0.2830627 -0.31217977 0.048964571
-0.28325987 -0.31221858 0.048961107
-0.28345484 -0.31225953 0.04893101
-0.28363284 -0.31229827 0.048889425
-0.28382403 -0.31233701 0.048874408
-0.28400427 -0.31237993 0.048794575
-0.28421861 -0.31241637 0.048850097
-0.28442499 -0.31245169 0.048901036
-0.28460896 -0.31249374 0.048837405
-0.28479928 -0.31253436 0.048801541
-0.28498703 -0.31257704 0.048739053
-0.28519732 -0.31261021 0.048820075
-0.28536493 -0.31265435 0.048702098
-0.28556073 -0.31269377 0.048689373
-0.28572637 -0.31273672 0.048579514
-0.28593543 -0.31277338 0.048622314
-0.28612503 -0.31281418 0.048582979
-0.28634 -0.31284973 0.048648924
-0.28652057 -0.31288955 0.048601538
-0.28674862 -0.31292406 0.048704468
-0.28690934 -0.31297076 0.048545983
-0.2871058 -0.31300887 0.048548318
-0.28729659 -0.31304809 0.048527516
-0.28751013 -0.31308439 0.048583038
-0.28770566 -0.31312421 0.048565686
-0.28790477 -0.3131634 0.048562206
-0.28808716 -0.31320435 0.0485067
-0.28829086 -0.31324276 0.048520565
-0.28848255 -0.31328341 0.048487015
-0.28869063 -0.31332108 0.048517086
-0.2888788 -0.31336105 0.048483558
-0.28906524 -0.31340268 0.048429176
-0.28928256 -0.31344026 0.048478886
-0.28946847 -0.31348068 0.048436102
-0.28965685 -0.3135207 0.04840257
-0.28984216 -0.31356254 0.048343558
-0.29006264 -0.31359851 0.048416425
-0.29025605 -0.31364039 0.048373595
-0.29043788 -0.31368023 0.048328515
-0.29063207 -0.3137207 0.048301898
-0.29084286 -0.3137598 0.048322681
-0.29105023 -0.31379825 0.048343487
-0.29122382 -0.31384075 0.04825443
-0.29140738 -0.31388295 0.048188489
-0.29163143 -0.31391892 0.048268273
-0.29180118 -0.31396323 0.048152596
-0.29200998 -0.3140004 0.04818961
-0.29224032 -0.31403571 0.048289061
-0.29242808 -0.31407738 0.048236996
-0.29259443 -0.31412339 0.048097007
-0.29280192 -0.31416097 0.048127081
-0.29299498 -0.31420311 0.048080776
-0.29323962 -0.31423807 0.04821258
-0.29339162 -0.31428599 0.048024017
-0.29361996 -0.31432214 0.048110738
-0.29381305 -0.31436318 0.048076022
-0.29400679 -0.31440535 0.048030868
-0.29420319 -0.31444356 0.048032045
-0.29439574 -0.31448472 0.047995005
-0.29461643 -0.31452945 0.047977507
-0.29480025 -0.314567 0.047960222
-0.29499552 -0.31460428 0.04796835
-0.29518485 -0.31464595 0.047919746
-0.29537651 -0.31468612 0.047890835
-0.29557636 -0.31472534 0.04788851
-0.29574996 -0.3147701 0.047776282
-0.29595718 -0.31480613 0.047821421
-0.29617488 -0.31484571 0.047851436
-0.29635531 -0.31488618 0.047797091
-0.29659969 -0.31492165 0.047923103
-0.29677933 -0.31496802 0.047806211
-0.29698762 -0.31501001 0.047792248
-0.29718962 -0.31504929 0.047793396
-0.29738337 -0.31509069 0.047756355
-0.29758826 -0.31513089 0.047754008
-0.29778513 -0.31517422 0.047703039
-0.29799214 -0.31521431 0.047706474
-0.29819071 -0.31525302 0.047706474
-0.29838684 -0.31529096 0.047709972
-0.29859877 -0.31533399 0.047692519
-0.2987836 -0.31537643 0.04762657
-0.29899573 -0.31541291 0.047677465
-0.29919019 -0.31545556 0.047628835
-0.29936129 -0.31549495 0.047566444
-0.29956949 -0.3155385 0.047536269
-0.299806 -0.31557402 0.047646105
-0.2999903 -0.31561771 0.047566261
-0.30020306 -0.31566203 0.047537211
-0.30038795 -0.31570134 0.047503702
-0.30060503 -0.31574214 0.047519818
-0.30081895 -0.31578007 0.047559123
-0.30099964 -0.31582305 0.047479294
-0.30120569 -0.3158628 0.047483888
-0.30138364 -0.3159039 0.047417969
-0.30158406 -0.31594524 0.047394801
-0.30179772 -0.3159866 0.047398183
-0.3019926 -0.31602743 0.047369253
-0.30221218 -0.31606737 0.047399253
-0.30239573 -0.31610811 0.047348369
-0.30260676 -0.31614983 0.047342509
-0.30282542 -0.31619105 0.047357451
-0.30300802 -0.31623295 0.047292672
-0.30322286 -0.31627452 0.047296055
-0.30341342 -0.31631383 0.047274102
-0.30362275 -0.31635693 0.047250867
-0.30380601 -0.31639883 0.047187239
-0.30400196 -0.31643885 0.047168724
-0.30422992 -0.31647977 0.047205627
-0.30441844 -0.31652337 0.047135025
-0.30465654 -0.31656873 0.047146387
-0.30485386 -0.31661081 0.047109317
-0.30504969 -0.31665003 0.04709892
-0.30527359 -0.31669149 0.047121942
-0.3054595 -0.31672943 0.047104634
-0.30563837 -0.31677374 0.047007442
-0.30586722 -0.31681505 0.047042023
-0.30607957 -0.31685445 0.047062799
-0.30628669 -0.31689522 0.047059283
-0.30646279 -0.31693876 0.046964414
-0.20087254 -0.29582319 0.052283522
-0.2010992 -0.2958701 0.052255522
-0.20133848 -0.2959221 0.052200805
-0.20158911 -0.2959809 0.052098505
-0.20183198 -0.29603603 0.052018266
-0.20207365 -0.29609072 0.051940367
-0.20231511 -0.29614425 0.051874042
-0.20258507 -0.29621077 0.051731072
-0.20282552 -0.29626647 0.051640425
-0.20304334 -0.29630986 0.051631019
-0.20327124 -0.29635715 0.051601857
-0.20350266 -0.29640749 0.051548339
-0.2037282 -0.296455 0.051512245
-0.20395748 -0.29650444 0.051463373
-0.20419407 -0.29655647 0.051402874
-0.20442739 -0.29660818 0.051338911
-0.20466396 -0.29666042 0.05127611
-0.20490807 -0.29671782 0.051175002
-0.20512733 -0.29676273 0.05115284
-0.20535991 -0.29681453 0.051086575
-0.2055914 -0.29686588 0.051022634
-0.2058236 -0.29691648 0.050967947
-0.20605789 -0.2969695 0.050892401
-0.20629078 -0.2970207 0.050833084
-0.20652117 -0.29707193 0.050767984
-0.20675543 -0.29712406 0.050701704
-0.20698577 -0.29717553 0.050634298
-0.20721951 -0.2972289 0.050554112
-0.20745184 -0.29728165 0.050477415
-0.20768662 -0.29733455 0.050404184
-0.20789883 -0.29737696 0.050393656
-0.20813225 -0.29742938 0.050322745
-0.20835739 -0.2974788 0.050265793
-0.20858522 -0.29752979 0.050198387
-0.20880702 -0.29757768 0.050150726
-0.20903304 -0.29762661 0.050100718
-0.20925984 -0.29767737 0.05003332
-0.20948453 -0.29772583 0.04998564
-0.20970346 -0.29777262 0.04994379
-0.20992951 -0.297822 0.04988914
-0.21015108 -0.2978704 0.049835682
-0.21037716 -0.29792136 0.049764827
-0.21058945 -0.29796493 0.04974271
-0.21081105 -0.29801232 0.049699679
-0.21103108 -0.29806033 0.049647383
-0.21125053 -0.29810673 0.04961016
-0.21146935 -0.29815426 0.049560197
-0.21169198 -0.29820263 0.049509056
-0.21191019 -0.29825005 0.049459092
-0.21212789 -0.29829592 0.049424201
-0.21234493 -0.29834285 0.049376566
-0.21256331 -0.29838932 0.049337026
-0.21278736 -0.29844043 0.049260378
-0.21304438 -0.2985034 0.049127921
-0.21322675 -0.29852685 0.049253143
-0.21338508 -0.29854786 0.049355328
-0.21361385 -0.29859924 0.049285613
-0.21390924 -0.29869485 0.048893359
-0.21410798 -0.29873362 0.048893336
-0.21427953 -0.29874948 0.049075402
-0.2144925 -0.29879943 0.048988398
-0.21471 -0.29884636 0.048941914
-0.21491772 -0.29888916 0.048918661
-0.21513182 -0.29893431 0.048883788
-0.21534279 -0.29897916 0.048845463
-0.21556439 -0.29902747 0.048793159
-0.21576522 -0.299068 0.048779227
-0.21597809 -0.2991128 0.048745517
-0.21619897 -0.2991595 0.048708282
-0.21639234 -0.29919878 0.048692077
-0.2166045 -0.29924345 0.048658371
-0.2168237 -0.29929093 0.048609562
-0.21701854 -0.29932985 0.048600294
-0.21722409 -0.29937074 0.048592128
-0.21743274 -0.29941514 0.048553813
-0.21764433 -0.2994599 0.04851779
-0.21784246 -0.29949957 0.048507348
-0.21804336 -0.2995379 0.048516586
-0.21824069 -0.2995756 0.048524685
-0.2184398 -0.29961288 0.048540883
-0.21861912 -0.29963934 0.048629045
-0.21880311 -0.29966545 0.048729923
-0.21895489 -0.2996743 0.048944548
-0.21785352 -0.29867283 0.057069257
-0.21841621 -0.29886022 0.056267537
-0.2185044 -0.29881534 0.056908965
-0.21873151 -0.29886618 0.056841567
-0.21921873 -0.29889408 0.057535082
-0.22114597 -0.29960662 0.054059006
-0.22136632 -0.2996558 0.053995125
-0.22158472 -0.29969066 0.054074943
-0.2218338 -0.29974872 0.053977292
-0.22204176 -0.29978964 0.053973742
-0.22223051 -0.29982287 0.054010861
-0.22245175 -0.29986942 0.053975943
-0.22266206 -0.29991606 0.053917915
-0.22285308 -0.29995883 0.053861171
-0.22307239 -0.29999849 0.053893477
-0.22328644 -0.30004621 0.05383195
-0.2234748 -0.3000834 0.053827349
-0.22370279 -0.30012554 0.053851496
-0.22390029 -0.30016151 0.053878136
-0.22407489 -0.30019072 0.053928085
-0.2243062 -0.30024767 0.053806197
-0.22449696 -0.3002972 0.053678762
-0.22468907 -0.30032527 0.053776115
-0.22494096 -0.30037534 0.053766511
-0.2251329 -0.30041367 0.053757265
-0.22535762 -0.30046439 0.053686406
-0.22556043 -0.30050272 0.053699113
-0.22573607 -0.30053732 0.053695746
-0.22592638 -0.30057254 0.053715482
-0.22617085 -0.3006261 0.053654939
-0.22636743 -0.30066636 0.053635225
-0.22658756 -0.30071425 0.053584099
-0.22679463 -0.30076084 0.053520296
-0.22698492 -0.30079412 0.053559721
-0.22718555 -0.30083349 0.053557381
-0.22738177 -0.30087391 0.05353535
-0.22757691 -0.30090895 0.053566646
-0.22776324 -0.30094835 0.053535406
-0.22797343 -0.30099586 0.053468123
-0.22816622 -0.30102673 0.053537659
-0.22841634 -0.30108422 0.053448111
-0.22858755 -0.30111367 0.053488806
-0.22878113 -0.30115727 0.05342856
-0.22900356 -0.30120137 0.053421445
-0.22920859 -0.30124283 0.053406324
-0.22940612 -0.30128282 0.053391255
-0.22958905 -0.30131266 0.05345159
-0.2298089 -0.30136231 0.053381912
-0.22999218 -0.30139503 0.053413268
-0.23019929 -0.30144385 0.053326298
-0.23043486 -0.30150038 0.053217139
-0.23062281 -0.30153233 0.05326584
-0.23080954 -0.30156314 0.053323839
-0.23101451 -0.30161065 0.05324614
-0.23121564 -0.30165485 0.053195126
-0.23142135 -0.30169263 0.0532194
-0.23162894 -0.30173492 0.053200785
-0.23183461 -0.30177552 0.053196095
-0.23203155 -0.301819 0.05314393
-0.23223463 -0.30186006 0.053128831
-0.23243974 -0.30190322 0.053096324
-0.23260614 -0.30193153 0.05313937
-0.23280957 -0.30196741 0.053178716
-0.23302206 -0.30202112 0.053052314
-0.23322368 -0.30206123 0.053044174
-0.23342812 -0.3020983 0.053073078
-0.23362811 -0.30214596 0.052983832
-0.23381253 -0.30218083 0.052995488
-0.23402983 -0.30222222 0.053005777
-0.2342068 -0.3022618 0.05295375
-0.23441918 -0.30230761 0.05290845
-0.23462652 -0.30234817 0.052907225
-0.23480964 -0.30237222 0.053027809
-0.23501892 -0.30242148 0.052940823
-0.23519854 -0.30244809 0.05302782
-0.23541054 -0.30250406 0.052877091
-0.23560546 -0.30254456 0.052851591
-0.23580734 -0.30258283 0.052863143
-0.23601434 -0.30262354 0.052859597
-0.23620513 -0.30265954 0.052872378
-0.23639864 -0.30269876 0.052857324
-0.23661324 -0.30275241 0.052735537
-0.23679599 -0.30278996 0.05271592
-0.23699388 -0.30282757 0.052726328
-0.23719263 -0.30287004 0.052688066
-0.23739952 -0.30290762 0.05271697
-0.2375973 -0.30294913 0.052686825
-0.23777048 -0.30297491 0.052769229
-0.23797137 -0.30302456 0.052661438
-0.23818524 -0.30307144 0.052608028
-0.23836973 -0.30310407 0.052642852
-0.23855321 -0.30313942 0.052647561
-0.23877633 -0.30319518 0.052521087
-0.23898692 -0.30323842 0.052498981
-0.23917957 -0.30327398 0.052519854
-0.23938742 -0.30331352 0.052530214
-0.23958975 -0.30335861 0.052472234
-0.23976479 -0.30338681 0.052533768
-0.23994677 -0.30342051 0.052552387
-0.2401537 -0.30346829 0.05247584
-0.24036698 -0.30351171 0.052457191
-0.24054489 -0.30354911 0.05242949
-0.24072264 -0.30358142 0.052453931
-0.24092728 -0.30362147 0.052452721
-0.24112391 -0.30365881 0.052463137
-0.24134158 -0.30371016 0.052371461
-0.24153338 -0.303745 0.052398134
-0.24173351 -0.30379415 0.052293822
-0.24190421 -0.30383125 0.052254573
-0.24211334 -0.30386308 0.052347183
-0.24231637 -0.30390683 0.052304275
-0.24249581 -0.30394867 0.052233681
-0.24267198 -0.30396643 0.052405287
-0.24288459 -0.30401668 0.052314803
-0.24306729 -0.30405927 0.052243039
-0.24325277 -0.30409479 0.052250046
-0.24345259 -0.30413994 0.052186295
-0.24364184 -0.30417687 0.052186333
-0.24383746 -0.30421355 0.052201394
-0.24404228 -0.30425623 0.052173518
-0.24421822 -0.30429277 0.052150466
-0.24441016 -0.30432877 0.052165553
-0.24462524 -0.30437309 0.0521411
-0.24481456 -0.30441082 0.052133031
-0.24499348 -0.30444729 0.052116901
-0.24518292 -0.30448559 0.052103028
-0.2453762 -0.30452552 0.052079871
-0.24557564 -0.30457354 0.051985987
-0.2457727 -0.30460605 0.052047387
-0.24597147 -0.30465314 0.051961623
-0.24614444 -0.30468303 0.052001156
-0.24633151 -0.30471516 0.052046396
-0.24653122 -0.30476657 0.051917754
-0.24673204 -0.30481148 0.051858619
-0.24692987 -0.30484638 0.051896844
-0.2471232 -0.30487669 0.051973335
-0.2472983 -0.30491444 0.051936381
-0.24747971 -0.30495059 0.051928349
-0.24768411 -0.30499846 0.05184602
-0.24786718 -0.30504301 0.051754557
-0.24806586 -0.30508202 0.051752217
-0.24825722 -0.30511856 0.051760353
-0.24844579 -0.30513996 0.05191914
-0.24863032 -0.30517563 0.051922679
-0.24882193 -0.30523431 0.051702544
-0.24901977 -0.30526888 0.051744249
-0.24920732 -0.30530334 0.05176631
-0.2493991 -0.30534378 0.051735036
-0.24959257 -0.30540073 0.051536907
-0.24978489 -0.30541492 0.051777948
-0.24997647 -0.30545497 0.051750153
-0.25017539 -0.30550107 0.05167482
-0.25036651 -0.30553722 0.051686436
-0.25055081 -0.30557811 0.051635515
-0.25073504 -0.30562034 0.051570684
-0.25094384 -0.30566579 0.051521946
-0.25112766 -0.30569783 0.051561404
-0.25131512 -0.30572993 0.051607795
-0.25150961 -0.30577123 0.051573046
-0.25169697 -0.30580935 0.051556874
-0.25187761 -0.30583775 0.051627643
-0.2520676 -0.30589184 0.051451545
-0.25226808 -0.30594274 0.051329847
-0.25245681 -0.30596027 0.051529195
-0.25264081 -0.30599391 0.051552434
-0.25283307 -0.30605051 0.051355463
-0.25303224 -0.30607748 0.05147827
-0.25321874 -0.30611891 0.051426183
-0.25340369 -0.30616945 0.051276758
-0.25360388 -0.30619258 0.051441282
-0.25379959 -0.30624199 0.051325403
-0.25398329 -0.30627668 0.051337056
-0.25417602 -0.30632079 0.051269863
-0.25437072 -0.30635554 0.051303469
-0.25456306 -0.3063851 0.051385768
-0.25474462 -0.30642858 0.051302418
-0.25493401 -0.30646968 0.051259577
-0.25512719 -0.30651027 0.051229466
-0.25531805 -0.30654594 0.051245712
-0.25550464 -0.30658334 0.051235341
-0.25569421 -0.30662292 0.05120872
-0.25588459 -0.30666006 0.051208749
-0.25607371 -0.30670065 0.051170547
-0.25626642 -0.30674151 0.051136956
-0.25645399 -0.30677584 0.051160187
-0.25665054 -0.30681634 0.051138163
-0.25684249 -0.30684951 0.05118221
-0.25703293 -0.3068952 0.051094174
-0.2572225 -0.30693373 0.051077988
-0.25741348 -0.30696931 0.0510954
-0.2575919 -0.30699906 0.051147647
-0.25777546 -0.30704969 0.050994754
-0.25796777 -0.30708259 0.051042285
-0.25815803 -0.30711961 0.051043469
-0.25834638 -0.30716723 0.050931115
-0.25855032 -0.30720747 0.050926432
-0.25873205 -0.30723876 0.050969388
-0.25891426 -0.30727598 0.050952084
-0.25911221 -0.30731967 0.050899923
-0.25930193 -0.30735734 0.050893009
-0.25948536 -0.3073864 0.050962597
-0.25967377 -0.30742618 0.050931357
-0.25986397 -0.30746329 0.050931387
-0.2600438 -0.30750373 0.050875865
-0.26023895 -0.30754507 0.050842259
-0.26042718 -0.3075847 0.050812177
-0.2606214 -0.30762169 0.050821453
-0.2608124 -0.3076629 0.050780926
-0.26100075 -0.30769706 0.05080761
-0.26119277 -0.30773687 0.050783299
-0.26137975 -0.30776784 0.050840128
-0.26155743 -0.30781987 0.050660633
-0.2617493 -0.30785957 0.050637472
-0.26193658 -0.30788568 0.050745279
-0.26212266 -0.30793196 0.050642207
-0.26231775 -0.30797258 0.050615564
-0.26250234 -0.30800658 0.050636478
-0.26270336 -0.30804098 0.050686277
-0.26288435 -0.30808324 0.050614517
-0.26307058 -0.30812427 0.050565906
-0.26326305 -0.30816317 0.050552025
-0.26345116 -0.30819806 0.050570607
-0.26365304 -0.30823207 0.050626181
-0.26384282 -0.30827358 0.050579868
-0.26401788 -0.30832073 0.050445572
-0.26420158 -0.30836746 0.050333243
-0.26440448 -0.30840066 0.050399248
-0.26459086 -0.30843341 0.050436378
-0.26478282 -0.30846897 0.050456103
-0.26497594 -0.3085146 0.050373845
-0.26518673 -0.30855259 0.050406199
-0.26536906 -0.30858546 0.050434086
-0.26555386 -0.30861995 0.05045037
-0.26573533 -0.30865714 0.050431915
-0.26592499 -0.30870166 0.050354309
-0.26612559 -0.3087343 0.050421491
-0.26630059 -0.30878299 0.050270975
-0.26649219 -0.30882239 0.050250139
-0.26668414 -0.30885503 0.05029998
-0.26687959 -0.30889496 0.050281439
-0.26707056 -0.30893803 0.050221212
-0.26726177 -0.30897456 0.050229348
-0.26744848 -0.30901423 0.050195798
-0.26764372 -0.30905423 0.050176106
-0.26782447 -0.30909172 0.050153013
-0.26801339 -0.30912387 0.050201721
-0.26821095 -0.30916241 0.050201707
-0.26841143 -0.30919918 0.05022601
-0.26860103 -0.30924571 0.050127555
-0.26876864 -0.30927986 0.05011265
-0.26895869 -0.30931738 0.050108049
-0.26914492 -0.30935717 0.050072182
-0.26933938 -0.3093949 0.050074507
-0.26953378 -0.30942991 0.05010464
-0.26972398 -0.30946746 0.050100032
-0.26989862 -0.30951387 0.049972694
-0.27008665 -0.30955255 0.049951881
-0.27026144 -0.30959854 0.04982917
-0.27046651 -0.30962262 0.049993664
-0.27063978 -0.30966932 0.049860541
-0.27083486 -0.30970424 0.049892977
-0.27103508 -0.30973655 0.049962483
-0.27124375 -0.30977222 0.050014544
-0.27143493 -0.30981448 0.049963582
-0.27160725 -0.30985874 0.049853645
-0.27182794 -0.30989349 0.049939238
-0.27202469 -0.30992809 0.049978621
-0.27220109 -0.30997741 0.049824633
-0.27238601 -0.31001526 0.049806148
-0.27257031 -0.31005111 0.049807377
-0.27274719 -0.31009042 0.049757659
-0.2729468 -0.31012389 0.049814414
-0.2731303 -0.31016707 0.049738009
-0.27333766 -0.31020406 0.049773857
-0.27351657 -0.31024244 0.049738035
-0.27370396 -0.31028157 0.049711429
-0.2738857 -0.31031647 0.049717307
-0.27407643 -0.31035861 0.049666345
-0.27427524 -0.31039727 0.049667481
-0.2744588 -0.31043804 0.049616568
-0.27464274 -0.3104721 0.049635172
-0.27483201 -0.31051049 0.049620144
-0.27502316 -0.31055239 0.049572669
-0.27521116 -0.31059128 0.049549535
-0.27539769 -0.31062868 0.049539164
-0.27559221 -0.31066507 0.049555387
-0.27578908 -0.31070268 0.04956349
-0.27597055 -0.31074414 0.049501002
-0.27615979 -0.31078264 0.049484819
-0.27635956 -0.31082129 0.049488265
-0.27655387 -0.31085998 0.049480155
-0.27673808 -0.31089836 0.049454734
-0.27692655 -0.31093526 0.049453624
-0.27711621 -0.3109737 0.049438592
-0.27731192 -0.311012 0.049437426
-0.27751151 -0.31105095 0.0494374
-0.2776942 -0.31108996 0.049402718
-0.2778739 -0.31112993 0.049351826
-0.2780804 -0.31116664 0.049388833
-0.27825561 -0.3112081 0.049313635
-0.27844614 -0.3112464 0.049302075
-0.27863824 -0.31128421 0.049298622
-0.27884078 -0.31132239 0.049312487
-0.27901629 -0.3113637 0.049239606
-0.27919921 -0.31140262 0.049206078
-0.27940196 -0.31143904 0.049238481
-0.27961162 -0.31147164 0.049324136
-0.27978152 -0.31151992 0.049167857
-0.27996948 -0.31155738 0.049159795
-0.28017691 -0.31159091 0.049231566
-0.2803703 -0.31162861 0.049231581
-0.28054121 -0.31167632 0.049083397
-0.28071979 -0.31171653 0.049027883
-0.280936 -0.31174785 0.049140152
-0.28114009 -0.31178609 0.049156327
-0.28132501 -0.31182802 0.049096134
-0.2815142 -0.3118704 0.04903939
-0.28171664 -0.31190586 0.049081065
-0.28191414 -0.3119444 0.04908105
-0.28209016 -0.31198534 0.049012795
-0.28227711 -0.3120234 0.048996627
-0.28246129 -0.31206381 0.048950348
-0.28265727 -0.31210282 0.048942231
-0.28284284 -0.31214127 0.048919111
-0.28304619 -0.31217691 0.048960779
-0.2832514 -0.31221694 0.04896073
-0.28343901 -0.31225657 0.048929483
-0.2836197 -0.31229475 0.048899442
-0.28380737 -0.31233281 0.048884425
-0.28398365 -0.31237516 0.048802271
-0.28419989 -0.31241119 0.048865873
-0.28440452 -0.31244695 0.048908699
-0.28458342 -0.3124887 0.048838109
-0.28477731 -0.31252855 0.048817258
-0.28495863 -0.3125712 0.048742022
-0.28517315 -0.31260499 0.048825342
-0.2853342 -0.31264761 0.048709676
-0.28553247 -0.31268507 0.048722401
-0.28569806 -0.31272957 0.048596274
-0.28589535 -0.31276727 0.048604377
-0.28609109 -0.31280535 0.048605528
-0.28629696 -0.31284139 0.048648346
-0.28648964 -0.31288165 0.048620544
-0.28670377 -0.31291616 0.048695762
-0.28687146 -0.31296009 0.048580043
-0.28705299 -0.31299976 0.048536092
-0.2872569 -0.3130393 0.048538357
-0.28746036 -0.31307474 0.048582345
-0.28765684 -0.31311443 0.048568442
-0.2878556 -0.31315231 0.048577689
-0.28804308 -0.31319237 0.048541814
-0.28823325 -0.31323192 0.048516348
-0.28842795 -0.31327206 0.048494335
-0.2886298 -0.31330952 0.048514001
-0.28882796 -0.31334773 0.04851862
-0.28899887 -0.31339082 0.048417952
-0.2892192 -0.3134279 0.048479222
-0.28939945 -0.31346798 0.048428327
-0.28959459 -0.31350818 0.04840631
-0.28977787 -0.3135491 0.048353076
-0.2899923 -0.31358477 0.048416693
-0.29018524 -0.31362543 0.048385426
-0.29036897 -0.31366631 0.048333354
-0.29056048 -0.31370592 0.048310198
-0.29076394 -0.31374496 0.048317105
-0.29096767 -0.31378269 0.048337914
-0.29116061 -0.31382346 0.048305482
-0.29133746 -0.31386548 0.048227951
-0.29152694 -0.31390423 0.048209447
-0.29171848 -0.31394655 0.048158485
-0.29193047 -0.31398195 0.048219807
-0.2921468 -0.31401935 0.04826951
-0.29236469 -0.31405538 0.048336577
-0.29250565 -0.31410515 0.048106316
-0.29272243 -0.31414142 0.048168764
-0.29290801 -0.31418592 0.048083067
-0.29312956 -0.31422165 0.048160546
-0.29330346 -0.31426531 0.04805987
-0.29352444 -0.3143025 0.048121125
-0.29371962 -0.31434327 0.048093315
-0.29390568 -0.31438529 0.048034281
-0.29410899 -0.31442261 0.048058566
-0.29429871 -0.31446174 0.048036586
-0.29451072 -0.31450525 0.048014469
-0.29469359 -0.31454653 0.047956608
-0.2948826 -0.31458464 0.047943894
-0.29507983 -0.31462413 0.047933459
-0.29526609 -0.31466383 0.047898754
-0.29546756 -0.31470403 0.047889449
-0.29565498 -0.31474599 0.047833867
-0.29582241 -0.31478447 0.047773778
-0.29607245 -0.31481904 0.047920626
-0.29624084 -0.31486443 0.047790997
-0.29646432 -0.31489998 0.047874261
-0.29667249 -0.31494081 0.047871873
-0.29686189 -0.31498381 0.047809333
-0.29707035 -0.31502584 0.047795352
-0.29726622 -0.31506473 0.047788396
-0.29745004 -0.31510496 0.047743276
-0.29766551 -0.31514522 0.047761694
-0.29785398 -0.31518838 0.047695681
-0.2980645 -0.3152281 0.047709499
-0.29825652 -0.31526536 0.047711838
-0.29845467 -0.31530312 0.047721092
-0.29866666 -0.31534952 0.047668848
-0.29884803 -0.31538793 0.047637649
-0.29906863 -0.31542584 0.047690801
-0.29924086 -0.31546739 0.047608662
-0.29943874 -0.31550756 0.047592428
-0.29962978 -0.31554842 0.047555376
-0.29985565 -0.31558824 0.047599226
-0.30005887 -0.31562912 0.047586434
-0.30025113 -0.31567213 0.047529671
-0.30043814 -0.31571132 0.047501914
-0.30066368 -0.3157514 0.047542293
-0.30086088 -0.31578976 0.047543436
-0.30105504 -0.3158327 0.047491301
-0.30123088 -0.31587294 0.047430009
-0.30143172 -0.31591424 0.047407962
-0.30162081 -0.31595552 0.047362808
-0.30183768 -0.3159956 0.047385857
-0.30205113 -0.31603602 0.047398489
-0.3022556 -0.31607512 0.047406547
-0.30243394 -0.3161163 0.047340598
-0.30265296 -0.31615749 0.047356684
-0.30286765 -0.31619903 0.047360051
-0.30304831 -0.31624112 0.04728945
-0.30324906 -0.31628275 0.047263928
-0.30345654 -0.31632191 0.047277763
-0.30365333 -0.31636387 0.047240674
-0.30384174 -0.31640446 0.047201321
-0.30404377 -0.3164441 0.047198959
-0.30426043 -0.31648684 0.047194198
-0.30445078 -0.31653035 0.047128178
-0.30468869 -0.31657377 0.047159214
-0.30488232 -0.31661513 0.047122147
-0.30506879 -0.31665498 0.047086276
-0.30528203 -0.31669617 0.047090806
-0.30547795 -0.31673449 0.047089651
-0.30566448 -0.31677738 0.047022484
-0.30589271 -0.31681779 0.047065169
-0.30609187 -0.31685898 0.047040813
-0.30629495 -0.31689805 0.047046557
-0.30648565 -0.31694177 0.046979379
-0.20085302 -0.29581878 0.052289695
-0.20109037 -0.29586971 0.052241888
-0.20132528 -0.29592073 0.0521883
-0.20157422 -0.2959775 0.052103333
-0.20181563 -0.29603195 0.052027684
-0.20205986 -0.2960867 0.051954336
-0.20230861 -0.29614377 0.051865898
-0.20257786 -0.29620993 0.051725183
-0.202815 -0.29626396 0.051644929
-0.20303647 -0.29630798 0.051636614
-0.20325898 -0.29635376 0.051612068
-0.20350148 -0.29640841 0.051536422
-0.20373213 -0.29645726 0.051496759
-0.20395879 -0.2965042 0.051468711
-0.20419 -0.29655471 0.051412828
-0.2044328 -0.29660997 0.051331386
-0.20466724 -0.29666236 0.051262725
-0.20490994 -0.29671779 0.051178962
-0.20512816 -0.2967622 0.051160235
-0.20536506 -0.29681495 0.051092729
-0.20560515 -0.29686946 0.051013611
-0.20583808 -0.29692042 0.050956562
-0.20606782 -0.29697111 0.050896045
-0.20630075 -0.29702228 0.050836675
-0.20653082 -0.29707336 0.050772682
-0.20677102 -0.29712856 0.050686616
-0.20700561 -0.29718098 0.050617971
-0.20723705 -0.29723188 0.050558597
-0.20746975 -0.29728484 0.05048069
-0.20770761 -0.29733935 0.050396949
-0.20792153 -0.29738265 0.050380576
-0.20815226 -0.29743364 0.0503189
-0.20838365 -0.29748511 0.050253745
-0.20861065 -0.29753435 0.050202515
-0.20883745 -0.29758489 0.050137389
-0.2090638 -0.29763401 0.050086174
-0.2092863 -0.29768249 0.050033815
-0.20951103 -0.29773095 0.049986087
-0.20973349 -0.29777831 0.049945317
-0.2099631 -0.29782963 0.049877856
-0.21018499 -0.29787824 0.049823184
-0.21041167 -0.29792818 0.049763851
-0.2106262 -0.29797164 0.049747463
-0.21084845 -0.29801938 0.049702071
-0.21107164 -0.29806912 0.049638119
-0.21129265 -0.29811642 0.049595051
-0.21150738 -0.29816169 0.049560126
-0.21173094 -0.29821059 0.049505442
-0.21195666 -0.29826084 0.049441475
-0.2121731 -0.29830599 0.049411181
-0.21238676 -0.29835105 0.049376264
-0.21260574 -0.29839784 0.049334362
-0.21284279 -0.29845354 0.049236722
-0.21308844 -0.29851148 0.049133237
-0.21326697 -0.29853272 0.049273528
-0.2134355 -0.29855955 0.049336225
-0.21369767 -0.29862443 0.049194399
-0.21395209 -0.29870227 0.048903115
-0.2141605 -0.29874519 0.048879825
-0.21432427 -0.29875794 0.04907814
-0.21454644 -0.29881039 0.048984066
-0.21476421 -0.29885748 0.048936378
-0.21497422 -0.29890162 0.048903801
-0.21518829 -0.29894677 0.04886888
-0.21540275 -0.29899076 0.04884671
-0.21561283 -0.29903668 0.048795596
-0.21582282 -0.29907969 0.048774596
-0.21603788 -0.29912579 0.048731565
-0.21625763 -0.29917184 0.048698928
-0.21645415 -0.29921153 0.04868497
-0.21666148 -0.2992548 0.048655886
-0.21688336 -0.29930395 0.048595428
-0.21708535 -0.29934415 0.048587233
-0.21729036 -0.29938471 0.048581339
-0.21749736 -0.29942814 0.048549946
-0.21770839 -0.29947257 0.048516199
-0.21790756 -0.29951289 0.048501071
-0.21810819 -0.29955104 0.048511431
-0.2183124 -0.29958987 0.048521765
-0.21850264 -0.29962316 0.048561163
-0.21868227 -0.2996498 0.048648134
-0.21886045 -0.29967222 0.048775673
-0.21901619 -0.29968026 0.049006492
-0.21794093 -0.29869714 0.056994237
-0.21842715 -0.29882798 0.056622725
-0.21858403 -0.29883119 0.056905694
-0.21880597 -0.29887867 0.056862608
-0.219164 -0.29891518 0.057206921
-0.21926458 -0.29888549 0.057716209
-0.22124702 -0.29963055 0.054015361
-0.22145739 -0.29967105 0.054021027
-0.22169498 -0.29971734 0.054021884
-0.22193143 -0.29977044 0.053949751
-0.22211623 -0.29980278 0.053988017
-0.22232831 -0.29984474 0.053982079
-0.22254524 -0.29989022 0.05394946
-0.22275253 -0.29993865 0.053867068
-0.22292045 -0.2999669 0.053913549
-0.22317463 -0.3000237 0.053838976
-0.22336373 -0.3000614 0.053830869
-0.22357666 -0.3001025 0.053835355
-0.22378714 -0.30013987 0.053873464
-0.22398449 -0.30017367 0.053922091
-0.22417717 -0.30021417 0.053891938
-0.22439119 -0.30027267 0.053719111
-0.22457641 -0.3003079 0.053728409
-0.22482859 -0.300354 0.053760476
-0.22502801 -0.30039167 0.053773154
-0.22521667 -0.30043173 0.053739551
-0.22544877 -0.30048177 0.053690612
-0.22564708 -0.30051878 0.053707935
-0.22582583 -0.30055577 0.053685986
-0.22605154 -0.30060118 0.053671852
-0.22626324 -0.30064663 0.053628828
-0.22647427 -0.30068952 0.053611308
-0.22668396 -0.30073807 0.053532384
-0.22687973 -0.30077347 0.053561315
-0.22706524 -0.30080742 0.053584516
-0.22728048 -0.30085403 0.05353684
-0.22745971 -0.30088753 0.053551964
-0.22764072 -0.30091789 0.053602997
-0.22787395 -0.30097958 0.053435858
-0.22805738 -0.30100739 0.053518169
-0.22829625 -0.30105773 0.053479619
-0.22849962 -0.30110225 0.0534297
-0.22866176 -0.30112645 0.053506348
-0.2289 -0.30118385 0.05339364
-0.22909865 -0.30121979 0.053422555
-0.22929813 -0.30126143 0.053394668
-0.22948445 -0.30129418 0.053431772
-0.22971001 -0.30134124 0.053400256
-0.2299014 -0.30138105 0.053374749
-0.23008715 -0.30141595 0.053388678
-0.23033117 -0.30148244 0.053193644
-0.23052537 -0.30151483 0.053250402
-0.23071456 -0.30154523 0.053317614
-0.23091558 -0.30158904 0.053270027
-0.23111026 -0.30162984 0.053241022
-0.23132069 -0.3016746 0.053202644
-0.23152366 -0.30171254 0.053219944
-0.23173961 -0.30175728 0.053193122
-0.23192275 -0.30179578 0.053164184
-0.23213412 -0.30183917 0.053142034
-0.23234229 -0.30188239 0.053115264
-0.23251873 -0.30191758 0.053107224
-0.23271118 -0.3019484 0.053176738
-0.23292509 -0.30200046 0.053069972
-0.23312774 -0.30204451 0.053023528
-0.23333326 -0.30207968 0.053074423
-0.23353067 -0.30212459 0.05300831
-0.23372556 -0.30216712 0.052961916
-0.2339291 -0.30220032 0.053029038
-0.23412272 -0.30224484 0.052959487
-0.23432535 -0.30229279 0.052872479
-0.23453058 -0.3023279 0.052923378
-0.23472366 -0.30235624 0.053019539
-0.23493332 -0.3024058 0.052930173
-0.23511696 -0.30243355 0.053013653
-0.23532239 -0.30248544 0.052891862
-0.23551585 -0.30252755 0.05284664
-0.23572011 -0.30256507 0.052870892
-0.23592965 -0.30260864 0.052842945
-0.23612191 -0.30264279 0.052877691
-0.23631573 -0.30268228 0.052860275
-0.23653354 -0.30273601 0.052744217
-0.23671475 -0.30277529 0.052703701
-0.2369163 -0.30281362 0.052714057
-0.23711713 -0.30285484 0.052693125
-0.23732492 -0.30289346 0.052712709
-0.23752269 -0.30293486 0.052683685
-0.23769927 -0.30296111 0.052768357
-0.23790018 -0.30301064 0.052661669
-0.23811415 -0.30305755 0.052608211
-0.23829859 -0.30309007 0.05264416
-0.23848572 -0.30312613 0.052648809
-0.2387085 -0.30318129 0.05252808
-0.23892002 -0.3032257 0.052495494
-0.23911954 -0.30326217 0.052520916
-0.23932451 -0.30330193 0.052523136
-0.23952638 -0.30334628 0.05247207
-0.23970073 -0.30337343 0.05254285
-0.23988803 -0.30341032 0.052539382
-0.2400941 -0.30345669 0.052475549
-0.24031496 -0.30350205 0.052452169
-0.24048509 -0.30353701 0.052433748
-0.24066982 -0.30357036 0.052461579
-0.24087533 -0.3036117 0.052448735
-0.24108332 -0.30365208 0.052450936
-0.24128908 -0.30369928 0.05237782
-0.24149267 -0.30373791 0.052389324
-0.24168643 -0.30378693 0.052273408
-0.24185941 -0.30382234 0.052256122
-0.24207219 -0.303855 0.052347526
-0.24227674 -0.30390143 0.052280221
-0.24246168 -0.30394155 0.052238524
-0.24263252 -0.30395523 0.052441437
-0.24284945 -0.30401364 0.052275542
-0.24303222 -0.30404994 0.052268628
-0.24322048 -0.30409095 0.052224591
-0.24342191 -0.30413273 0.052199028
-0.24361598 -0.30417284 0.052175816
-0.24381503 -0.30420989 0.052194294
-0.24401605 -0.30425122 0.052172206
-0.24419932 -0.30428958 0.052145585
-0.24439736 -0.30432439 0.052184936
-0.24461715 -0.30437201 0.052136071
-0.24479181 -0.30440584 0.052138478
-0.24497867 -0.30444565 0.052103728
-0.24517465 -0.3044838 0.052104838
-0.24536894 -0.3045263 0.052057296
-0.24557525 -0.304575 0.051970281
-0.24576727 -0.30460247 0.052073397
