# .PCD v0.7 - Point Cloud Data file format
VERSION 0.7
FIELDS x y z
SIZE 4 4 4
TYPE F F F
COUNT 1 1 1
WIDTH 1217
HEIGHT 1
VIEWPOINT 0 0 0 1 0 0 0
POINTS 1217
DATA ascii
-0.050491534 -0.37094852 0.061893851
-0.050657742 -0.37103131 0.061997991
-0.050846342 -0.37115332 0.061938249
-0.051014885 -0.37125427 0.06193627
-0.051194128 -0.37136739 0.061897337
-0.051392242 -0.37149546 0.061835237
-0.051576622 -0.37161022 0.061805513
-0.051754005 -0.37171572 0.061808102
-0.051917732 -0.37181723 0.061784238
-0.052115988 -0.37193719 0.061774038
-0.052300129 -0.37205234 0.061740853
-0.052476201 -0.37215576 0.06175153
-0.052654963 -0.37226498 0.061735656
-0.05281803 -0.3723661 0.061711788
-0.052997947 -0.37248328 0.061649788
-0.053203225 -0.37261474 0.061593425
-0.053380847 -0.37271726 0.061615631
-0.053553343 -0.37281382 0.061656304
-0.053735819 -0.37292725 0.061627734
-0.053919718 -0.37304956 0.061548416
-0.054089054 -0.37313384 0.061654843
-0.054267459 -0.37324411 0.061630901
-0.054441571 -0.37334472 0.061651967
-0.054627709 -0.37346783 0.061576083
-0.054789186 -0.37356764 0.061554547
-0.05499246 -0.37370333 0.061463587
-0.055165142 -0.37379545 0.061533101
-0.055344991 -0.37391078 0.061482631
-0.05553025 -0.37403372 0.061404452
-0.055702016 -0.37412983 0.061445139
-0.055869877 -0.37423471 0.061415479
-0.056028429 -0.37432256 0.061458535
-0.056206655 -0.37442893 0.061458811
-0.056418255 -0.37457669 0.061322838
-0.056557514 -0.37466669 0.061279491
-0.056771241 -0.3747884 0.061316501
-0.056945369 -0.37488484 0.061364092
-0.057118796 -0.37498614 0.061378244
-0.057298623 -0.3750982 0.061348528
-0.057478987 -0.37521911 0.061264604
-0.05764284 -0.37531561 0.061273042
-0.057827607 -0.37542093 0.061304424
-0.058010142 -0.37554204 0.061227422
-0.058184989 -0.37564877 0.061212726
-0.05835475 -0.37574822 0.061224587
-0.058533512 -0.37585163 0.061245617
-0.058712661 -0.37596416 0.061210148
-0.058884311 -0.37609407 0.061036311
-0.059047434 -0.37619013 0.061044738
-0.059235886 -0.37628382 0.061163761
-0.059399921 -0.3763828 0.061157197
-0.059588701 -0.3765029 0.061110139
-0.059764985 -0.37661701 0.061053924
-0.059922468 -0.37671262 0.061043926
-0.060110182 -0.37682137 0.061064921
-0.060291309 -0.37693509 0.061029442
-0.060468405 -0.37704441 0.061006658
-0.060640827 -0.37714672 0.061010431
-0.06081783 -0.37725636 0.060985349
-0.060994685 -0.37737608 0.060895678
-0.061170429 -0.37748188 0.060890205
-0.061341666 -0.37758076 0.060911283
-0.061488681 -0.37766972 0.060903646
-0.061662324 -0.3777675 0.060940858
-0.061840028 -0.37787083 0.060958445
-0.062033109 -0.37800518 0.060837548
-0.062193356 -0.37809294 0.060887516
-0.062347349 -0.37818971 0.060856774
-0.062532857 -0.3783046 0.060830504
-0.062700368 -0.37841386 0.060772017
-0.062881351 -0.37852147 0.060774595
-0.063063249 -0.37863404 0.060749486
-0.063216344 -0.37872881 0.060727976
-0.063394502 -0.3788375 0.060713269
-0.063560247 -0.37894055 0.060687087
-0.063730791 -0.37903923 0.06070701
-0.06390667 -0.37913579 0.060760353
-0.064114206 -0.37926823 0.060706288
-0.064293511 -0.37938669 0.060633913
-0.064465314 -0.37949485 0.06059847
-0.064637125 -0.37960392 0.060557269
-0.064796269 -0.37968537 0.060642984
-0.064959466 -0.37979624 0.060557995
-0.065133631 -0.37990323 0.060538694
-0.065304354 -0.38000673 0.060528629
-0.065459326 -0.38010174 0.060512882
-0.065640531 -0.38022152 0.060439333
-0.065826289 -0.38033 0.060454577
-0.065982789 -0.38041246 0.060524166
-0.066169523 -0.38053152 0.060475972
-0.066355467 -0.38064304 0.060472753
-0.066519693 -0.38074648 0.060438503
-0.066674612 -0.38084781 0.060382389
-0.066828698 -0.38093829 0.060392022
-0.067018695 -0.38107315 0.06025615
-0.067184351 -0.38115469 0.060366064
-0.067341089 -0.38123801 0.060431037
-0.0675148 -0.38136277 0.060297556
-0.067687273 -0.3814564 0.06035668
-0.067866363 -0.38156492 0.060346588
-0.068032652 -0.38165519 0.060403436
-0.068233736 -0.38178703 0.06032864
-0.068409465 -0.38191012 0.060213607
-0.06856934 -0.38200858 0.060194373
-0.068732314 -0.38210583 0.060194723
-0.068895213 -0.38220465 0.06018471
-0.069063872 -0.38232294 0.060073167
-0.069226623 -0.38241968 0.060075827
-0.069402292 -0.38251412 0.060141869
-0.069571614 -0.38260877 0.060182557
-0.069737375 -0.38270986 0.060169064
-0.069893301 -0.38281107 0.060117558
-0.070058227 -0.38292131 0.06004294
-0.07024315 -0.38302475 0.060087007
-0.070420302 -0.38314208 0.060013488
-0.070585854 -0.3832407 0.060014989
-0.07075642 -0.38335431 0.059940342
-0.070935674 -0.38344851 0.060021356
-0.071117423 -0.38355097 0.060059682
-0.071305297 -0.38365853 0.060088739
-0.071481749 -0.38377529 0.060016375
-0.071647592 -0.38389334 0.05989562
-0.071794435 -0.38397858 0.059911057
-0.071969382 -0.38408023 0.059928644
-0.072147235 -0.38418508 0.059937015
-0.072316669 -0.38429803 0.05986236
-0.07248912 -0.38439417 0.059905354
-0.072644703 -0.3844879 0.059899978
-0.072833732 -0.38462219 0.059764117
-0.07300207 -0.3847208 0.059775978
-0.073160321 -0.38481721 0.059763674
-0.073305242 -0.38489473 0.059820633
-0.07347057 -0.38500577 0.059742555
-0.073651977 -0.3851091 0.059773959
-0.073808357 -0.38519838 0.059799723
-0.073989466 -0.38531628 0.059737712
-0.074150085 -0.38541612 0.059712708
-0.074321337 -0.38550445 0.059800677
-0.074481264 -0.3855944 0.05983565
-0.074634917 -0.38571629 0.059644602
-0.07480824 -0.385833 0.059560709
-0.075003698 -0.38593856 0.059631266
-0.075157717 -0.38603443 0.059606295
-0.075324357 -0.38613695 0.059587032
-0.075502209 -0.38623962 0.059609227
-0.075666219 -0.38632873 0.059664935
-0.075822182 -0.38642907 0.059619196
-0.075978011 -0.38654861 0.0594512
-0.0761654 -0.38665587 0.059480272
-0.076343447 -0.38676703 0.059449419
-0.076512039 -0.3868638 0.059473969
-0.076675862 -0.38694498 0.059579272
-0.076830827 -0.38706347 0.059414744
-0.077019684 -0.38717616 0.059414975
-0.077200696 -0.38728034 0.059439469
-0.077337556 -0.38736853 0.059398431
-0.077505626 -0.38746646 0.059413753
-0.077688985 -0.38756621 0.059475139
-0.077845559 -0.38767073 0.059405182
-0.078030504 -0.38779804 0.059298173
-0.078204311 -0.38790029 0.059307698
-0.078350537 -0.38797823 0.059366964
-0.078517608 -0.38809228 0.059276186
-0.078669101 -0.38819686 0.059186641
-0.078842461 -0.38829264 0.059235387
-0.079001278 -0.3883985 0.059165411
-0.079181068 -0.38849777 0.059216432
-0.079348385 -0.38859668 0.059222531
-0.079526365 -0.38869908 0.059247036
-0.079687469 -0.38879445 0.059252016
-0.079867736 -0.38890001 0.059264973
-0.080022 -0.38898021 0.059340343
-0.080174431 -0.38909408 0.059195437
-0.080333643 -0.38921019 0.059062023
-0.080518886 -0.38932073 0.059062272
-0.080695346 -0.38942513 0.05906833
-0.08084558 -0.38952258 0.05901916
-0.081049547 -0.38963813 0.059058528
-0.08122275 -0.38973528 0.059098046
-0.081382446 -0.38983217 0.059088044
-0.081534304 -0.38992184 0.059094217
-0.081720822 -0.39004189 0.059039101
-0.081876986 -0.39012122 0.059127145
-0.082049206 -0.39024657 0.058984451
-0.082198948 -0.39034373 0.058935281
-0.082361795 -0.39043686 0.058961004
-0.08250393 -0.39052656 0.058930323
-0.082702383 -0.39064845 0.058908597
-0.0828638 -0.39074823 0.05888705
-0.083050042 -0.39084771 0.058961108
-0.083212502 -0.39095137 0.058918785
-0.083373412 -0.39105156 0.05889263
-0.083524071 -0.39114234 0.058887281
-0.083667353 -0.39124948 0.058750495
-0.08385361 -0.39135405 0.05879226
-0.084028438 -0.39145529 0.05881216
-0.084190115 -0.39154992 0.058824055
-0.084375747 -0.39166453 0.05880009
-0.084527291 -0.39175895 0.058775131
-0.084689565 -0.39185756 0.058763955
-0.084849805 -0.39196226 0.058706656
-0.085014358 -0.39205462 0.058743916
-0.085189991 -0.39215979 0.058741905
-0.085367091 -0.39227659 0.05867184
-0.085531011 -0.39237383 0.058675654
-0.085687861 -0.39246392 0.05869795
-0.08585576 -0.39257485 0.058630239
-0.086016625 -0.39266208 0.05868597
-0.086180687 -0.39276344 0.058664411
-0.086345024 -0.3928766 0.058569029
-0.086533897 -0.39299241 0.058549657
-0.086704694 -0.39308503 0.058608793
-0.08684054 -0.39317387 0.058559686
-0.087015405 -0.39327565 0.058576141
-0.087176189 -0.39335975 0.05865147
-0.087335959 -0.39344469 0.058717579
-0.087506555 -0.39357597 0.058531068
-0.087661728 -0.39368257 0.05844266
-0.087817475 -0.39377749 0.058430366
-0.08799357 -0.39388603 0.058408737
-0.088159628 -0.39398217 0.058427542
-0.088345669 -0.39408863 0.058456615
-0.088503249 -0.39418975 0.058412019
-0.088664867 -0.39428145 0.058442373
-0.088838242 -0.39438799 0.058423065
-0.088992357 -0.39449084 0.058354266
-0.089164652 -0.39458746 0.058393799
-0.089319304 -0.39468646 0.058351517
-0.089483768 -0.39479405 0.058291897
-0.089651883 -0.39490309 0.058236871
-0.089825779 -0.39499575 0.058307528
-0.089987464 -0.39509785 0.058272142
-0.090153366 -0.39520121 0.058244802
-0.090325929 -0.39530471 0.058241647
-0.090487354 -0.39540356 0.05822587
-0.090654351 -0.39549994 0.058246966
-0.090805665 -0.3956033 0.058164343
-0.090960801 -0.39570168 0.058127835
-0.091146886 -0.39579943 0.058212265
-0.091318637 -0.39590976 0.058162991
-0.091478668 -0.39601231 0.058118381
-0.091610849 -0.39610443 0.058034703
-0.091800384 -0.39621663 0.058040693
-0.091980323 -0.39631128 0.058121704
-0.092125431 -0.39641038 0.05804256
-0.092281252 -0.39651135 0.057992212
-0.092439175 -0.39660847 0.057974137
-0.092622846 -0.39671409 0.057999767
-0.092786431 -0.39681515 0.057978209
-0.092957161 -0.39691955 0.057962384
-0.093117453 -0.3970159 0.057958141
-0.093271725 -0.39711723 0.057899721
-0.093446992 -0.39721724 0.057928856
-0.093601853 -0.39731547 0.057892341
-0.093789369 -0.39742592 0.057901803
-0.093947291 -0.3975203 0.05790104
-0.094124787 -0.39762276 0.057923235
-0.09429621 -0.3977327 0.057875112
-0.094449714 -0.39783955 0.057778634
-0.09460251 -0.39793 0.057783663
-0.094786778 -0.39803886 0.057790831
-0.0949618 -0.39814493 0.057780754
-0.095119543 -0.39823684 0.05779497
-0.095268831 -0.39833647 0.057728507
-0.095435023 -0.39843687 0.057720769
-0.095603712 -0.39853936 0.057709567
-0.095754437 -0.39863583 0.05766847
-0.095947884 -0.39872959 0.057805918
-0.096100941 -0.39883602 0.057710595
-0.096264847 -0.39893198 0.057722483
-0.096426308 -0.39903888 0.05765596
-0.096599579 -0.39913788 0.057683945
-0.096768536 -0.39923799 0.057688888
-0.096937291 -0.39934322 0.057660386
-0.097081222 -0.39944363 0.057568569
-0.097241864 -0.39954549 0.057530876
-0.097411267 -0.39964801 0.057521977
-0.097576596 -0.39975139 0.057492331
-0.097743876 -0.399847 0.057519197
-0.097917952 -0.39994633 0.057548333
-0.098071516 -0.40005195 0.057459928
-0.098225266 -0.40015259 0.057403821
-0.098417982 -0.40025359 0.057492837
-0.098575391 -0.40035841 0.057424024
-0.098739102 -0.40045735 0.057416305
-0.09890838 -0.40055782 0.057420094
-0.0990794 -0.4006604 0.057416946
-0.099237695 -0.40076029 0.057382733
-0.0994066 -0.40086326 0.057369217
-0.099572986 -0.400962 0.057373025
-0.099751025 -0.40106604 0.057387151
-0.099893205 -0.40117052 0.057263047
-0.10006629 -0.40127069 0.057282954
-0.10024223 -0.40137058 0.057315543
-0.10040057 -0.40147504 0.057252493
-0.1005767 -0.40157506 0.057285074
-0.10074407 -0.40167618 0.057277344
-0.10089669 -0.40177906 0.057202786
-0.10107338 -0.4018814 0.057222679
-0.10123494 -0.40198326 0.057188444
-0.10140534 -0.40208858 0.057165701
-0.10156978 -0.40219015 0.057144135
-0.10173842 -0.4022913 0.05714101
-0.10190187 -0.40239301 0.057114832
-0.10207143 -0.40249419 0.05711516
-0.10225044 -0.40259242 0.05716965
-0.10241792 -0.40269819 0.057133075
-0.10256702 -0.40280116 0.057044692
-0.10274453 -0.40290397 0.057064589
-0.10292421 -0.40300465 0.057106383
-0.10308413 -0.40310678 0.057064086
-0.1032425 -0.40321109 0.057002187
-0.10341957 -0.4033142 0.057018619
-0.10355841 -0.40341759 0.056888774
-0.10372843 -0.40351704 0.056901775
-0.10392107 -0.40361944 0.056981567
-0.10407069 -0.40372416 0.056883965
-0.10424349 -0.40382162 0.056920022
-0.10441963 -0.40392309 0.056943379
-0.10458652 -0.40402701 0.056916043
-0.10476116 -0.40412867 0.056932487
-0.10492066 -0.40423295 0.056875192
-0.10508069 -0.40433717 0.056820206
-0.10523985 -0.40443939 0.056774449
-0.10543704 -0.40454853 0.056828849
-0.10559671 -0.40464687 0.056809619
-0.10573933 -0.40474558 0.056723565
-0.10592397 -0.40484741 0.056776877
-0.10609256 -0.40495345 0.056742609
-0.10626506 -0.40505949 0.056723315
-0.10643637 -0.40516171 0.056723624
-0.10660069 -0.40526208 0.05670898
-0.10675915 -0.40536445 0.056659773
-0.10692148 -0.40547061 0.056601312
-0.10709995 -0.40557107 0.056639653
-0.10727727 -0.40567544 0.056649163
-0.107435 -0.40577409 0.056620717
-0.10760004 -0.40587655 0.056595691
-0.10778254 -0.40597928 0.056635171
-0.10792899 -0.40608156 0.056541033
-0.10809042 -0.4061859 0.056490649
-0.10827481 -0.4062888 0.056535881
-0.10844107 -0.40639329 0.056502782
-0.10860895 -0.40649781 0.056475431
-0.10878005 -0.40660065 0.056471135
-0.10894902 -0.40670165 0.056470316
-0.10912094 -0.40680641 0.056456786
-0.10929392 -0.40690944 0.05645825
-0.10944495 -0.40701175 0.056381397
-0.10962003 -0.40711492 0.056389768
-0.10980096 -0.40722197 0.056395803
-0.10996717 -0.40732315 0.05638345
-0.11014228 -0.40742654 0.056390673
-0.11030932 -0.40752783 0.056380633
-0.11046107 -0.40763366 0.056284159
-0.11064543 -0.40773767 0.056322478
-0.11083066 -0.40784183 0.056363095
-0.11097783 -0.40794218 0.056283951
-0.111153 -0.40804762 0.056278475
-0.11129889 -0.40814957 0.056184351
-0.11149414 -0.40825462 0.056257207
-0.11163487 -0.40835622 0.056145798
-0.11181924 -0.40846244 0.056170274
-0.11200231 -0.40856692 0.056200515
-0.11215331 -0.4086692 0.056123663
-0.11232896 -0.4087733 0.056128573
-0.11248062 -0.40887558 0.056054018
-0.1126624 -0.40898025 0.056078505
-0.11284047 -0.40908468 0.056090321
-0.11302547 -0.40919143 0.056113634
-0.11318575 -0.40929452 0.056066725
-0.11335135 -0.40939641 0.056047454
-0.11352887 -0.40950271 0.056045435
-0.11368529 -0.4096055 0.055985857
-0.11386516 -0.40971047 0.056001123
-0.11404553 -0.40981555 0.05601754
-0.11421514 -0.40992129 0.055989034
-0.11436915 -0.41002393 0.055921387
-0.1145506 -0.41012928 0.055940107
-0.11473437 -0.41023657 0.055955354
-0.11488803 -0.41034079 0.055876181
-0.11508358 -0.41044787 0.055937506
-0.11522808 -0.41054952 0.055839919
-0.11541541 -0.41065586 0.055874757
-0.11559271 -0.41076273 0.055868123
-0.11575297 -0.41086617 0.055818904
-0.11592869 -0.4109714 0.055816893
-0.11610319 -0.41107497 0.055820651
-0.11627088 -0.41118249 0.055773705
-0.11644046 -0.41128713 0.055752113
-0.11660647 -0.41138983 0.055729397
-0.11677928 -0.41149494 0.05571701
-0.11697074 -0.41160247 0.05575991
-0.11713608 -0.41170675 0.055724494
-0.11731604 -0.41181448 0.055722464
-0.11749884 -0.41192266 0.055728488
-0.11765033 -0.41202524 0.055651635
-0.11785564 -0.41213503 0.055732511
-0.11801445 -0.41224015 0.055667151
-0.11816333 -0.41234389 0.055573013
-0.11833498 -0.41244775 0.055564091
-0.11851241 -0.412554 0.055562075
-0.11868817 -0.41266307 0.055535845
-0.11884335 -0.41276622 0.055469345
-0.11903118 -0.4128741 0.055496112
-0.11921638 -0.41298172 0.055514816
-0.11939052 -0.41309071 0.055482827
-0.11955608 -0.41319549 0.055445109
-0.11974783 -0.41330284 0.055490308
-0.1199194 -0.41341159 0.055450253
-0.12009388 -0.41351786 0.055436708
-0.12026803 -0.41362125 0.055440478
-0.12043281 -0.41372609 0.055399306
-0.12059346 -0.41383034 0.055346623
-0.12079795 -0.41394454 0.055396371
-0.12097012 -0.41404927 0.055383999
-0.12115158 -0.41415846 0.0553785
-0.12131082 -0.41426402 0.055311978
-0.12148663 -0.41437095 0.055299588
-0.12164557 -0.41447505 0.055241149
-0.12185724 -0.41459101 0.055307008
-0.12200488 -0.41469184 0.055226702
-0.12216389 -0.41479743 0.05515904
-0.12235098 -0.41490653 0.055175424
-0.12253255 -0.41501614 0.055167615
-0.12270483 -0.41512278 0.055143707
-0.1228794 -0.41522986 0.055125553
-0.12305496 -0.41533715 0.055109706
-0.12324305 -0.41544539 0.055135313
-0.12342533 -0.41555545 0.055127501
-0.12361614 -0.41566712 0.055141561
-0.12377151 -0.41577092 0.055071607
-0.12394835 -0.41587734 0.055066131
-0.12412533 -0.41598386 0.055060647
-0.12430787 -0.41609424 0.055051684
-0.037420392 -0.36684984 0.038432561
-0.037590805 -0.36695462 0.03841332
-0.037760206 -0.36706224 0.038372174
-0.037924148 -0.36716115 0.03836564
-0.038092844 -0.36726415 0.038351014
-0.038262948 -0.36737111 0.038316786
-0.038433388 -0.36747661 0.038292926
-0.038599592 -0.36757687 0.038286392
-0.038761776 -0.36767617 0.038270649
-0.038927443 -0.36777392 0.038277943
-0.039092708 -0.36787742 0.038247187
-0.03925987 -0.36798352 0.038207203
-0.039426588 -0.368083 0.038207587
-0.039594982 -0.36818892 0.038173355
-0.03976097 -0.36828977 0.038162202
-0.039921083 -0.36838728 0.038149927
-0.040084012 -0.36848649 0.038137641
-0.040250994 -0.36858904 0.038119566
-0.040421318 -0.36869612 0.038085323
-0.040586244 -0.36880052 0.03804766
-0.040754147 -0.36890689 0.038008824
-0.040914875 -0.36900386 0.038002312
-0.041076191 -0.36909953 0.038006172
-0.041235391 -0.36919251 0.03801927
-0.041394457 -0.36928976 0.038004689
-0.041548554 -0.36937824 0.038027029
-0.041714408 -0.36948046 0.03800666
-0.04188288 -0.36958861 0.037958592
-0.042040877 -0.36968267 0.037960164
-0.042201903 -0.36977875 0.037960563
-0.042363402 -0.36987782 0.037943672
-0.04252601 -0.36997628 0.037934836
-0.0426853 -0.3700726 0.037927177
-0.042842995 -0.3701714 0.037897617
-0.042998865 -0.37025854 0.037934944
-0.043154974 -0.37034839 0.037956126
-0.043310344 -0.37043962 0.037965782
-0.043466952 -0.37053031 0.037983499
-0.043614749 -0.37061337 0.038016248
-0.043763228 -0.37069029 0.038090508
-0.043910582 -0.37077034 0.038140558
-0.044056889 -0.37084651 0.038211368
-0.044197228 -0.3709189 0.038283367
-0.044341255 -0.37099171 0.038366869
-0.044480633 -0.37105772 0.038475767
-0.044620376 -0.37112412 0.038583513
-0.04475968 -0.37119228 0.038678564
-0.044895854 -0.37125072 0.038823225
-0.045025188 -0.37130401 0.038974836
-0.045160186 -0.37136027 0.039128732
-0.045290619 -0.37141731 0.03926073
-0.045423068 -0.37146679 0.039448071
-0.045549281 -0.37150928 0.039656188
-0.045673896 -0.37155426 0.039842419
-0.045799654 -0.37160066 0.040024024
-0.045922473 -0.37163967 0.040241387
-0.046044439 -0.37167159 0.04050028
-0.046169505 -0.37171048 0.040726852
-0.046295606 -0.37175053 0.04094997
-0.046420712 -0.37179416 0.041146576
-0.046554279 -0.3718394 0.041365046
-0.046089832 -0.3687256 0.059330478
-0.046277665 -0.36884442 0.059288096
-0.046459265 -0.36895663 0.059264179
-0.046648756 -0.36908227 0.059184883
-0.04683695 -0.36920601 0.059112512
-0.05204526 -0.37189645 0.061764631
-0.052192375 -0.37198329 0.061770868
-0.052354239 -0.37206674 0.061854292
-0.052544378 -0.37219968 0.061731167
-0.052737758 -0.37232509 0.061668001
-0.052924238 -0.372426 0.061734013
-0.053128105 -0.37256441 0.061628133
-0.053308003 -0.37267703 0.061595004
-0.053486113 -0.37278074 0.061611474
-0.053656861 -0.37287351 0.061669488
-0.053844675 -0.37299907 0.061584428
-0.054019839 -0.37310195 0.061595149
-0.054209229 -0.37323189 0.061488181
-0.05438412 -0.37333462 0.061498892
-0.054557167 -0.37343311 0.061529219
-0.054727264 -0.37352479 0.061591849
-0.054917749 -0.37365884 0.061462961
-0.055093322 -0.37376961 0.061425246
-0.055276275 -0.37388077 0.061412863
-0.055449944 -0.37398148 0.061431661
-0.055630609 -0.37409347 0.06140545
-0.055809051 -0.3742063 0.061365411
-0.055963293 -0.37430215 0.061341628
-0.056157704 -0.37440577 0.061420292
-0.056335688 -0.37451178 0.061421767
-0.056516793 -0.3746326 0.06134136
-0.056699172 -0.3747507 0.061282858
-0.056867938 -0.37485304 0.061272841
-0.057050079 -0.37495771 0.061298516
-0.057229746 -0.37507638 0.061226185
-0.057391487 -0.37517396 0.061219666
-0.05756522 -0.37529111 0.061134674
-0.057745021 -0.37540439 0.061096936
-0.057932109 -0.37550238 0.061183706
-0.058112174 -0.37561691 0.061139047
-0.058277279 -0.37570286 0.061218996
-0.058455616 -0.37581274 0.061197408
-0.058615357 -0.37592915 0.06106405
-0.058794849 -0.37603551 0.061068982
-0.058986187 -0.37614658 0.061088853
-0.05916721 -0.37626645 0.061014205
-0.059338979 -0.37636548 0.061036464
-0.059517182 -0.37647709 0.061003346
-0.059683632 -0.37657622 0.061004877
-0.059847675 -0.37667626 0.060991436
-0.060017258 -0.37677744 0.060991794
-0.060174912 -0.37686491 0.061033726
-0.060379222 -0.37699524 0.060980886
-0.06054382 -0.37709835 0.06095013
-0.060737275 -0.37721944 0.060914643
-0.060897261 -0.37731615 0.060906976
-0.061069887 -0.37742025 0.060900405
-0.061260071 -0.37754047 0.060858011
-0.061418079 -0.37763017 0.060887247
-0.061575886 -0.37773013 0.060850769
-0.061720815 -0.37779963 0.06095849
-0.061952304 -0.37795731 0.060835183
-0.062127102 -0.37807289 0.060764022
-0.062290087 -0.37817341 0.060743656
-0.062459376 -0.37826511 0.060802832
-0.062640041 -0.37837091 0.060815834
-0.062787339 -0.37846369 0.060785163
-0.062957354 -0.37857258 0.060738247
-0.063134447 -0.37868971 0.060665928
-0.063303612 -0.37878099 0.060727403
-0.063491456 -0.37889671 0.060704626
-0.063661553 -0.37900877 0.0606381
-0.063855104 -0.3791261 0.06062682
-0.064027235 -0.37923518 0.06058681
-0.064195983 -0.37934184 0.060549125
-0.06436985 -0.37944523 0.060551777
-0.064505279 -0.37952289 0.060571905
-0.064684831 -0.37964624 0.06046959
-0.064857699 -0.3797439 0.060504526
-0.065019123 -0.37984294 0.060487635
-0.065181725 -0.37992865 0.060559522
-0.06535244 -0.38003233 0.060548358
-0.065529853 -0.38014385 0.06051293
-0.065710388 -0.38025811 0.060471736
-0.065883517 -0.38035905 0.060487062
-0.066060558 -0.38047016 0.0604528
-0.066216528 -0.38058066 0.060342532
-0.066420428 -0.38069433 0.060393468
-0.066602662 -0.38079908 0.060419142
-0.066776313 -0.38091105 0.060366437
-0.066940255 -0.38101542 0.060325317
-0.067106918 -0.38111594 0.060318772
-0.067273989 -0.38122672 0.060248815
-0.067424983 -0.38132352 0.060206596
-0.067609824 -0.38142362 0.060271464
-0.067776166 -0.38152158 0.06027991
-0.067933097 -0.38161519 0.060280327
-0.06810572 -0.38172147 0.060259923
-0.068268918 -0.38183486 0.060158849
-0.068450704 -0.38193351 0.060221419
-0.068613663 -0.38203472 0.060196444
-0.068782605 -0.38215062 0.060101099
-0.068936311 -0.38222903 0.060185708
-0.069126949 -0.38235572 0.060104109
-0.0692866 -0.38244948 0.060113747
-0.069461815 -0.38255385 0.060115226
-0.069634087 -0.38265246 0.0601421
-0.069809154 -0.38275874 0.060130913
-0.069984242 -0.38286373 0.060127787
-0.070162319 -0.38297182 0.060116574
-0.070348978 -0.38309374 0.060049981
-0.070491999 -0.3831867 0.060002036
-0.070653796 -0.38328904 0.059965536
-0.070824973 -0.38339573 0.05993706
-0.070995905 -0.38350356 0.059900519
-0.071164019 -0.38360623 0.059885897
-0.071344405 -0.3837173 0.059864305
-0.071501285 -0.38382655 0.059765562
-0.07165613 -0.38390252 0.059869774
-0.071858644 -0.3840234 0.059869975
-0.071998939 -0.38410634 0.059875093
-0.072179273 -0.38421595 0.059862722
-0.072346084 -0.38432348 0.059812363
-0.072513841 -0.38442537 0.059801202
-0.072669074 -0.38451996 0.059788939
-0.072843805 -0.3846215 0.059806582
-0.073032759 -0.38472259 0.059880648
-0.073224172 -0.3848443 0.059833631
-0.073388986 -0.38495755 0.059739463
-0.073544085 -0.38505152 0.059730671
-0.073708557 -0.38515073 0.059724137
-0.073878281 -0.38527039 0.059608031
-0.074053049 -0.38537085 0.059632592
-0.074223891 -0.38547242 0.059635252
-0.074391387 -0.38556069 0.059709422
-0.07454519 -0.38565809 0.059674114
-0.074693032 -0.38576227 0.059573106
-0.074862041 -0.38585764 0.059608065
-0.075022094 -0.38595769 0.059579644
-0.075193107 -0.386069 0.059521191
-0.07536649 -0.38617319 0.059516925
-0.075532936 -0.38627556 0.059497699
-0.075687446 -0.38637921 0.059425481
-0.075854748 -0.38647884 0.059427008
-0.076023705 -0.38659349 0.059339732
-0.07619749 -0.38668644 0.059408113
-0.076384977 -0.38677502 0.059556
-0.076551065 -0.38687775 0.059533305
-0.076702848 -0.3869772 0.059477255
-0.076858126 -0.38708586 0.05937621
-0.077030294 -0.38719165 0.059356958
-0.077196673 -0.38728455 0.059397697
-0.077369608 -0.38739684 0.059340388
-0.077534132 -0.38749352 0.059349999
-0.077701695 -0.38758439 0.059408031
-0.077874757 -0.38768056 0.059453346
-0.078038275 -0.3878096 0.059254244
-0.078213505 -0.38790905 0.059286866
-0.07837791 -0.38802043 0.059203073
-0.078564607 -0.38811454 0.059312902
-0.078714348 -0.38821498 0.059243031
-0.078883193 -0.38832515 0.059183426
-0.079039678 -0.38842088 0.05916886
-0.079214409 -0.38852805 0.059150748
-0.079399452 -0.388639 0.059147581
-0.079569899 -0.38874599 0.059114501
-0.079726592 -0.38884109 0.059104547
-0.079880618 -0.38893369 0.059100367
-0.080044992 -0.38903651 0.059070773
-0.080230415 -0.38914058 0.059112575
-0.080393523 -0.389245 0.059068002
-0.080561638 -0.38934258 0.059085663
-0.080718681 -0.38943115 0.059118368
-0.080880232 -0.38952571 0.059130304
-0.0810441 -0.38963458 0.05906035
-0.081201151 -0.38975722 0.058877431
-0.081381328 -0.3898567 0.058928482
-0.081557743 -0.38996089 0.058935728
-0.081719935 -0.39004907 0.058990326
-0.081906877 -0.39013606 0.05914627
-0.082065567 -0.39026585 0.058924142
-0.082251571 -0.3903805 0.058901355
-0.082417808 -0.39048022 0.058898278
-0.082587898 -0.39058095 0.058903255
-0.082751803 -0.39068311 0.058875967
-0.082910508 -0.39076561 0.058953635
-0.083059683 -0.39085293 0.058964469
-0.083215825 -0.390953 0.058921076
-0.083376758 -0.39105794 0.058864988
-0.083544791 -0.39116073 0.058849208
-0.083715625 -0.39127028 0.058801137
-0.083864622 -0.39137173 0.058722023
-0.084025823 -0.39147118 0.058701675
-0.084200174 -0.39157721 0.058689333
-0.084373295 -0.39167976 0.058694284
-0.084550969 -0.39178741 0.058684237
-0.084711261 -0.39189634 0.058600463
-0.084878318 -0.3919951 0.05860661
-0.085059106 -0.39208713 0.058707241
-0.085220769 -0.39219469 0.058637299
-0.085374512 -0.39228275 0.058660798
-0.085541874 -0.39238569 0.05864156
-0.085708223 -0.39246437 0.058772251
-0.085885644 -0.39258477 0.058680322
-0.086052977 -0.3927041 0.058557309
-0.086205952 -0.39280099 0.058522008
-0.086366706 -0.39289635 0.058525875
-0.086543143 -0.39300472 0.058506601
-0.086727723 -0.3931154 0.058503427
-0.086886264 -0.39320451 0.058538437
-0.087054841 -0.3932949 0.05860338
-0.087196179 -0.39340305 0.058452815
-0.087358229 -0.39351666 0.058345973
-0.087538414 -0.3936187 0.058380887
-0.087708853 -0.39371565 0.058411218
-0.087881863 -0.39381486 0.058436938
-0.088050574 -0.39392772 0.058360048
-0.088228278 -0.39402795 0.058397274
-0.088387072 -0.39413905 0.058293901
-0.088527471 -0.39425665 0.058079924
-0.088679731 -0.39433891 0.05813456
-0.088857166 -0.39441821 0.058303241
-0.089030668 -0.39452446 0.058286294
-0.089206591 -0.39463633 0.058242805
-0.089370832 -0.39473361 0.058247808
-0.089536443 -0.39484042 0.058197454
-0.089704953 -0.39493895 0.058210507
-0.089869507 -0.39503947 0.058195904
-0.090020746 -0.39513642 0.058153681
-0.090175495 -0.39523166 0.058135666
-0.090344466 -0.39533666 0.058109511
-0.090516537 -0.39543694 0.058124848
-0.09067747 -0.39553586 0.058106799
-0.090838611 -0.39564109 0.058049545
-0.091016248 -0.39574546 0.058060255
-0.091186717 -0.39584661 0.05806407
-0.091351524 -0.3959533 0.058011409
-0.091512226 -0.39605227 0.057992212
-0.091679655 -0.39615163 0.057996042
-0.091851845 -0.39625525 0.057990626
-0.091986805 -0.39634904 0.057906974
-0.092173129 -0.39645329 0.057951078
-0.09235651 -0.39655581 0.057995193
-0.092501312 -0.39665473 0.057916112
-0.092681617 -0.3967585 0.057940636
-0.092842013 -0.39685765 0.057919141
-0.093001828 -0.3969599 0.057875723
-0.093186378 -0.39706528 0.057905994
-0.093335308 -0.39716542 0.057834961
-0.093498752 -0.39726639 0.057813443
-0.09365692 -0.3973662 0.057779271
-0.093831286 -0.39746368 0.057821121
-0.094006702 -0.39756379 0.05785029
-0.094170995 -0.39767018 0.057797629
-0.094320193 -0.39776993 0.057730056
-0.094483912 -0.39787632 0.057675101
-0.094660714 -0.39797345 0.057728469
-0.094824657 -0.39806888 0.057743851
-0.094991095 -0.39817181 0.057721157
-0.095159426 -0.39827424 0.057708845
-0.095307231 -0.39837679 0.057618219
-0.095476672 -0.39847624 0.057628959
-0.095653228 -0.39857394 0.057677716
-0.095833547 -0.39868137 0.057679184
-0.09599179 -0.39878377 0.057628863
-0.09616667 -0.39887956 0.057683401
-0.096345328 -0.39899525 0.057626065
-0.096502379 -0.39909533 0.057586126
-0.096671581 -0.39919007 0.057625692
-0.096836835 -0.39929849 0.057563812
-0.096990265 -0.39939931 0.057505433
-0.097170129 -0.39949954 0.057550728
-0.097342916 -0.39960882 0.057511866
-0.097486295 -0.39970908 0.057418954
-0.097635821 -0.39980555 0.057373285
-0.097834557 -0.39990976 0.0574646
-0.097980149 -0.4000119 0.057368219
-0.098144442 -0.40010807 0.05738014
-0.098305345 -0.40020734 0.057359785
-0.098494537 -0.40031132 0.057416562
-0.098662265 -0.40041432 0.057398483
-0.098829292 -0.40051505 0.057391934
-0.098983392 -0.4006179 0.057323188
-0.099142984 -0.40071747 0.057295915
-0.099314392 -0.40081993 0.057295114
-0.099480927 -0.40092546 0.057256296
-0.099647239 -0.40102178 0.057275116
-0.099817351 -0.40112454 0.057267405
-0.09998513 -0.40122536 0.057263162
-0.10015061 -0.40132883 0.057233565
-0.10031837 -0.40142745 0.057243161
-0.1004962 -0.40153393 0.057241179
-0.10063978 -0.40163559 0.057140186
-0.10081571 -0.40173784 0.057157822
-0.10098915 -0.40183821 0.057177771
-0.10115056 -0.40193778 0.057157412
-0.1013004 -0.40204519 0.057043709
-0.1014818 -0.40214923 0.057070538
-0.10166837 -0.40224636 0.057160765
-0.10182699 -0.40235281 0.057086226
-0.10198034 -0.40245321 0.05703016
-0.10214735 -0.40255669 0.057006322
-0.10231545 -0.40266007 0.056987092
-0.10248125 -0.40276155 0.056971323
-0.10265077 -0.40286487 0.056957852
-0.10282387 -0.40296796 0.056959353
-0.10299146 -0.40306941 0.056950495
-0.10316979 -0.40317017 0.056986567
-0.10332941 -0.4032743 0.056930471
-0.10347652 -0.40337917 0.05682255
-0.10364768 -0.40347636 0.056854039
-0.10381649 -0.40358201 0.056823265
-0.10400405 -0.40368465 0.056882359
-0.10417234 -0.4037863 0.056874655
-0.10434182 -0.40388799 0.056871556
-0.10451002 -0.40399578 0.056824647
-0.10467273 -0.40409377 0.056819279
-0.10484125 -0.40419757 0.056798887
-0.10501992 -0.40429911 0.056831498
-0.10517988 -0.40440327 0.056776561
-0.10533808 -0.40450546 0.056727391
-0.10550886 -0.40460736 0.056727745
-0.10564677 -0.40470999 0.05659911
-0.10585058 -0.40481323 0.056715779
-0.10601004 -0.40491548 0.056671213
-0.106186 -0.40501553 0.056702677
-0.10634749 -0.40511972 0.0566535
-0.10650971 -0.40522575 0.056595083
-0.10668746 -0.40532982 0.056608092
-0.10685428 -0.40543208 0.056591175
-0.10702439 -0.40553248 0.056598451
-0.10718094 -0.40564042 0.056506626
-0.10735825 -0.40574095 0.056540392
-0.10753595 -0.40583968 0.056586847
-0.10768959 -0.40594572 0.056496184
-0.10786585 -0.40605018 0.056501128
-0.10801651 -0.40615425 0.056411639
-0.10820987 -0.40625906 0.056478769
-0.10838006 -0.40635988 0.056483742
-0.10853956 -0.40646049 0.056449562
-0.10871629 -0.40656522 0.056454498
-0.10886595 -0.40666741 0.056373082
-0.10905119 -0.40677065 0.056419499
-0.10920306 -0.4068729 0.056346145
-0.1093798 -0.4069778 0.056349941
-0.10954791 -0.40708065 0.056334157
-0.10972483 -0.40718567 0.056337949
-0.10990854 -0.40728927 0.056376297
-0.11007025 -0.40739375 0.056325957
-0.11023073 -0.40749642 0.056282546
-0.11040108 -0.40760133 0.056262154
-0.11057263 -0.40770459 0.056256734
-0.11074091 -0.40780771 0.056239814
-0.11092173 -0.4079116 0.056265496
-0.1110804 -0.40801427 0.05621516
-0.11125094 -0.40811765 0.056205146
-0.11142546 -0.40822306 0.056197412
-0.11156607 -0.4083246 0.056086056
-0.1117056 -0.40842766 0.055960875
-0.11192456 -0.40853447 0.056112066
-0.11209177 -0.40863952 0.056079004
-0.11226486 -0.40874335 0.056075886
-0.1124101 -0.40884507 0.055980653
-0.11259177 -0.40895128 0.055994801
-0.11276679 -0.40905371 0.056007825
-0.11293635 -0.40915743 0.055992037
-0.11313196 -0.40926671 0.056039564
-0.11328644 -0.40936923 0.05597426
-0.11346808 -0.4094758 0.055986103
-0.11363658 -0.4095796 0.055965707
-0.11380912 -0.40968382 0.055957995
-0.1139944 -0.40979093 0.055980187
-0.11415339 -0.40989396 0.055928711
-0.11431857 -0.40999761 0.055896804
-0.11450607 -0.41010511 0.055924766
-0.1146806 -0.4102098 0.05592164
-0.11483306 -0.41031384 0.055839062
-0.11500375 -0.4104166 0.055833656
-0.11516618 -0.41052169 0.055782158
-0.11535808 -0.41063002 0.055821624
-0.11552525 -0.41073412 0.055794317
-0.11569699 -0.41083878 0.055780839
-0.11586265 -0.41094434 0.055738553
-0.11602607 -0.41104966 0.055689357
-0.116233 -0.41115859 0.055781793
-0.11638937 -0.41126317 0.055710725
-0.11656561 -0.41137016 0.055699535
-0.11672679 -0.41147375 0.055652659
-0.11688837 -0.41157743 0.055606931
-0.11707515 -0.41168433 0.055636033
-0.11726968 -0.41179389 0.055677801
-0.11743347 -0.41189796 0.055637833
-0.11758767 -0.41200233 0.055559855
-0.11776134 -0.41210777 0.055548664
-0.11795324 -0.41221574 0.055590432
-0.11813562 -0.41232401 0.055594198
-0.11828479 -0.41242772 0.05550126
-0.11845838 -0.41253185 0.055498138
-0.1186692 -0.41264585 0.055573259
-0.1188332 -0.41275024 0.055532143
-0.11895184 -0.41285101 0.055342477
-0.11917244 -0.41296518 0.0554533
-0.11934215 -0.41306752 0.055446737
-0.11952225 -0.41317445 0.055450514
-0.11968586 -0.41328335 0.055379413
-0.11984654 -0.41338885 0.055318702
-0.12001577 -0.41348982 0.055319063
-0.12022857 -0.413605 0.055394184
-0.12038328 -0.41371256 0.055297747
-0.1205525 -0.41381517 0.055287741
-0.12073515 -0.41392288 0.055296116
-0.12092218 -0.41403139 0.055315997
-0.12109293 -0.41414019 0.055272534
-0.12125292 -0.41424292 0.055226818
-0.12145045 -0.41435623 0.055255879
-0.12160799 -0.41446006 0.055194035
-0.12177832 -0.41456604 0.055166714
-0.12197097 -0.41467592 0.055199258
-0.12212396 -0.41477901 0.055124745
-0.12231901 -0.41489086 0.055153817
-0.12247725 -0.4149949 0.055093121
-0.12267321 -0.41510564 0.055132568
-0.12285787 -0.41521731 0.055123635
-0.12300076 -0.41531727 0.055030715
-0.12318181 -0.41542694 0.055020649
-0.1233781 -0.41553807 0.055058934
-0.12355657 -0.41564602 0.055050034
-0.12372678 -0.41575247 0.055019263
-0.12391314 -0.41586477 0.055012621
-0.124088 -0.4159722 0.054993358
-0.1242899 -0.41609034 0.05500856
-0.037450545 -0.36688301 0.038336542
-0.037625138 -0.36699101 0.038312688
-0.037790429 -0.36709145 0.038301561
-0.037957467 -0.36719418 0.038282353
-0.038123202 -0.36729741 0.038255084
-0.038295299 -0.36740282 0.038238164
-0.03846281 -0.36750659 0.038214345
-0.038623676 -0.36760202 0.038218234
-0.038795136 -0.36770904 0.038188629
-0.038957994 -0.3678093 0.038169444
-0.039125226 -0.36791325 0.038143314
-0.03929235 -0.36801514 0.038129877
-0.039453745 -0.36811596 0.038101468
-0.039624762 -0.36822107 0.038082242
-0.039785255 -0.36831683 0.038082674
-0.039948672 -0.36841649 0.038069256
-0.040113192 -0.36851773 0.038050063
-0.040281758 -0.3686223 0.038025077
-0.040445883 -0.36872333 0.038005885
-0.040606577 -0.36881989 0.038001709
-0.040769096 -0.36891904 0.037988283
-0.040933196 -0.3690204 0.037966788
-0.041100051 -0.36912557 0.037931435
-0.041261796 -0.3692219 0.037933011
-0.041422132 -0.36932081 0.037912685
-0.041589186 -0.36942229 0.037901551
-0.041752063 -0.36952493 0.037867375
-0.041918367 -0.36963016 0.037829723
-0.042080577 -0.3697322 0.037796702
-0.042242896 -0.36983231 0.037776358
-0.042399399 -0.36992458 0.037783727
-0.042558838 -0.3700164 0.037804924
-0.042720601 -0.37011382 0.037799578
-0.042879306 -0.3702094 0.037794251
-0.043039925 -0.37030774 0.037778534
-0.043199006 -0.37040412 0.037769735
-0.043362014 -0.37050608 0.037740171
-0.043526836 -0.37060842 0.037715212
-0.043681845 -0.37069944 0.03772489
-0.043839443 -0.37079179 0.037735716
-0.04399734 -0.37088707 0.03772923
-0.044158656 -0.37098494 0.03771928
-0.044312064 -0.37107646 0.037719745
-0.044471361 -0.37117165 0.037719026
-0.044621948 -0.3712593 0.037733331
-0.044776838 -0.37135077 0.03773956
-0.044924837 -0.3714323 0.037782706
-0.045076489 -0.3715142 0.037837382
-0.045221206 -0.37159598 0.037866708
-0.045380592 -0.37169433 0.037846386
-0.045520607 -0.37176418 0.037933405
-0.045656446 -0.37182006 0.038093083
-0.045796975 -0.37188783 0.038195089
-0.045930699 -0.37194791 0.038320191
-0.046066623 -0.37201113 0.038433746
-0.046206884 -0.37207547 0.038556509
-0.046340287 -0.37213188 0.038703524
-0.046469927 -0.3721877 0.038840163
-0.046602197 -0.37223926 0.039013706
-0.046731129 -0.37228811 0.039191876
-0.046862677 -0.37234068 0.039356194
-0.046989169 -0.37238514 0.039552826
-0.04711403 -0.37243229 0.039726395
-0.047240842 -0.37247658 0.039925329
-0.047359742 -0.37250522 0.040193498
-0.047486544 -0.37254295 0.040433947
-0.047609329 -0.37258247 0.040647894
-0.047737613 -0.37262163 0.040884886
-0.047868498 -0.37267035 0.041071117
-0.047458295 -0.36967522 0.058490135
-0.047634758 -0.36977667 0.058514718
-0.047817007 -0.36989197 0.058473535
-0.04798504 -0.36999768 0.058439322
-0.04816021 -0.37010857 0.058399327
-0.048347503 -0.37023726 0.058292389
-0.048522525 -0.37034076 0.058298521
-0.053303689 -0.37268052 0.061556712
-0.05343809 -0.37276119 0.061553799
-0.05363331 -0.37288678 0.061496414
-0.053809997 -0.37299275 0.061493307
-0.054028742 -0.37313423 0.061424281
-0.054214701 -0.37324539 0.061423443
-0.054385226 -0.37333784 0.061482638
-0.054552339 -0.37343353 0.061508417
-0.054750092 -0.37357265 0.061374899
-0.054928519 -0.37368402 0.061344109
-0.055105969 -0.37379336 0.061322555
-0.055285037 -0.37390095 0.061318286
-0.055458792 -0.37400168 0.061337102
-0.055639744 -0.37411422 0.061308607
-0.055818159 -0.37422684 0.061269753
-0.055977724 -0.37432349 0.061260961
-0.056171913 -0.374439 0.061263539
-0.056341521 -0.37452981 0.061329659
-0.056522895 -0.37465113 0.061246965
-0.056704193 -0.37476623 0.06120348
-0.056875851 -0.37486938 0.06119924
-0.057058148 -0.37498108 0.061181121
-0.057228521 -0.37508798 0.061148059
-0.057411313 -0.37520161 0.06111956
-0.057579815 -0.37530395 0.061108425
-0.057760544 -0.37541234 0.0611053
-0.05793773 -0.37551805 0.061105654
-0.058120258 -0.37563953 0.061026409
-0.058282923 -0.37573329 0.061047591
-0.058465566 -0.37584063 0.06105829
-0.058623768 -0.37592882 0.061097942
-0.058793485 -0.37603644 0.061057962
-0.058976524 -0.37614548 0.061059449
-0.05914706 -0.37624812 0.061054066
-0.059338093 -0.3763665 0.061026685
-0.059514552 -0.37648907 0.060917482
-0.059660599 -0.37658128 0.06088569
-0.05983267 -0.37668157 0.060901053
-0.059998609 -0.37676999 0.060968339
-0.060193032 -0.37688348 0.060984768
-0.060359947 -0.37698451 0.060975943
-0.060543187 -0.37710622 0.060897857
-0.060735844 -0.37722391 0.060880832
-0.060908578 -0.37732771 0.0608766
-0.061083864 -0.37744156 0.060818136
-0.061236516 -0.37754154 0.060762096
-0.061426032 -0.37765938 0.060732413
-0.061598115 -0.37776202 0.060732789
-0.061767597 -0.37785405 0.060790844
-0.061949894 -0.37797719 0.060700074
-0.062097106 -0.37805608 0.06075706
-0.06229654 -0.37819567 0.060627006
-0.062470149 -0.37829432 0.060658507
-0.062640809 -0.37839213 0.060684256
-0.062815927 -0.37849808 0.060675401
-0.062970266 -0.37859833 0.060623959
-0.063148811 -0.37870833 0.060602397
-0.063332215 -0.37881485 0.06062118
-0.063504227 -0.37892094 0.06059964
-0.063677698 -0.37903571 0.060528509
-0.063834466 -0.37912068 0.060583159
-0.064004652 -0.3792344 0.060506277
-0.0641874 -0.37933853 0.060537748
-0.064363196 -0.37945342 0.060474675
-0.064525381 -0.37955546 0.060441654
-0.064674005 -0.3796443 0.06044098
-0.064850792 -0.37974831 0.060450565
-0.06501244 -0.37984821 0.060429078
-0.065192558 -0.37995622 0.060425956
-0.065366685 -0.38006374 0.060403265
-0.065528221 -0.38016483 0.060373709
-0.065703958 -0.38026151 0.06042596
-0.065878153 -0.38037181 0.060385957
-0.066035993 -0.38046777 0.060374863
-0.066212408 -0.38057193 0.06038215
-0.066364564 -0.38067308 0.060316883
-0.066538274 -0.38078308 0.060276888
-0.066715419 -0.38090116 0.060198821
-0.066888794 -0.3810108 0.060159981
-0.067060918 -0.38109982 0.060246848
-0.067224681 -0.38120264 0.06021497
-0.06740047 -0.38130224 0.060248777
-0.067573488 -0.38140982 0.060221471
-0.067752756 -0.38152426 0.06017454
-0.067919046 -0.38161728 0.060214147
-0.068082504 -0.38172844 0.060128067
-0.06826134 -0.38183567 0.060124964
-0.068440132 -0.38193837 0.060150675
-0.068593837 -0.38202766 0.060166128
-0.068794236 -0.38216493 0.060054511
-0.068950668 -0.38226733 0.059997302
-0.069107383 -0.38235554 0.060031187
-0.06926991 -0.3824605 0.059980866
-0.069442227 -0.38255894 0.060008917
-0.069605067 -0.38265389 0.060023177
-0.069770411 -0.38276127 0.059968233
-0.069942236 -0.38286635 0.05995246
-0.070097916 -0.38296813 0.059896406
-0.070284918 -0.38308555 0.059859805
-0.070451617 -0.38317171 0.059944399
-0.070621945 -0.38328934 0.059843294
-0.070793226 -0.38339552 0.059818309
-0.070952818 -0.38348672 0.059844114
-0.071121186 -0.38358846 0.059836425
-0.071292967 -0.38368949 0.059846036
-0.071460709 -0.38379502 0.059811838
-0.071625985 -0.38389361 0.059812244
-0.071791157 -0.3839927 0.059809197
-0.071975261 -0.38410127 0.059817582
-0.072131664 -0.3841911 0.059839942
-0.072319672 -0.38431606 0.059759524
-0.072494045 -0.38443828 0.059644565
-0.072646961 -0.38452715 0.059660021
-0.072796807 -0.38461396 0.059676643
-0.07297916 -0.38472915 0.059636615
-0.073129341 -0.38481435 0.059664764
-0.073296338 -0.38491872 0.059635177
-0.073501602 -0.38504103 0.059636556
-0.073661715 -0.38512963 0.059680812
-0.073831618 -0.38524938 0.059564725
-0.073992357 -0.38534871 0.059543245
-0.074147537 -0.38544184 0.059540238
-0.074296393 -0.38553151 0.059534945
-0.074472032 -0.38562959 0.059577979
-0.074646942 -0.38574195 0.059527598
-0.074809745 -0.38584545 0.059487656
-0.07499294 -0.38595438 0.05949029
-0.075166233 -0.38604867 0.059548326
-0.075344279 -0.38615108 0.05957289
-0.075481847 -0.38624021 0.059528448
-0.07563635 -0.38634458 0.05945164
-0.075798601 -0.38643828 0.059471667
-0.075977929 -0.38655657 0.05940051
-0.0761436 -0.38665122 0.059427444
-0.0763098 -0.3867631 0.059347119
-0.076466307 -0.38684282 0.059434056
-0.076630883 -0.386949 0.059383728
-0.076807663 -0.38706267 0.059332192
-0.076987267 -0.38717839 0.059278328
-0.077136531 -0.38727397 0.059237286
-0.07732664 -0.38737577 0.05931139
-0.077477731 -0.38745952 0.059352219
-0.077630028 -0.38756475 0.059261583
-0.077794291 -0.38766217 0.059265457
-0.077955306 -0.38778082 0.059122887
-0.078125887 -0.38787383 0.059178621
-0.078298777 -0.38797772 0.059174389
-0.0784733 -0.38807875 0.05919436
-0.078643396 -0.38819444 0.059104785
-0.07881704 -0.38828984 0.059157051
-0.078961916 -0.38839099 0.059064139
-0.079123206 -0.38849941 0.058987308
-0.079298019 -0.38859969 0.059013039
-0.079466805 -0.38869622 0.059039958
-0.079642743 -0.38878861 0.05911988
-0.079791389 -0.38888311 0.059083469
-0.07996878 -0.38899896 0.059020389
-0.080145858 -0.38910261 0.059033427
-0.080313459 -0.38920715 0.059005
-0.080476597 -0.38931158 0.058960438
-0.080658257 -0.38941506 0.058991902
-0.080821864 -0.38951284 0.058991171
-0.080980532 -0.3896226 0.058895886
-0.081122085 -0.38971922 0.058819138
-0.081299566 -0.38981655 0.058873691
-0.081461452 -0.3899051 0.058924861
-0.081626132 -0.39001244 0.058867611
-0.081812605 -0.39011607 0.058916353
-0.081960849 -0.39020976 0.058883395
-0.082114771 -0.39031816 0.058778904
-0.082277864 -0.39042655 0.058708981
-0.082472198 -0.39053214 0.058774993
-0.082629204 -0.39063144 0.058739688
-0.082788222 -0.3907336 0.05869399
-0.082953468 -0.39082435 0.058743984
-0.083096765 -0.39091745 0.058696054
-0.083263442 -0.39101669 0.058697611
-0.08345741 -0.39113301 0.05869443
-0.083640113 -0.39122671 0.058791634
-0.083793759 -0.39131945 0.05878517
-0.083951212 -0.39141339 0.058785617
-0.08411219 -0.39151797 0.058731843
-0.084263556 -0.39162627 0.058618143
-0.084428251 -0.39174074 0.058515906
-0.084590301 -0.39184377 0.058475971
-0.084759288 -0.39194095 0.058499426
-0.084942453 -0.39204842 0.058511291
-0.085108452 -0.3921482 0.058507077
-0.085264191 -0.39225602 0.058412962
-0.085451633 -0.39234328 0.058568954
-0.085606202 -0.39244768 0.058492146
-0.085766159 -0.39254785 0.058462597
-0.085925542 -0.39265656 0.058376536
-0.086108342 -0.39276037 0.058410306
-0.086266905 -0.39285731 0.058395751
-0.086427137 -0.39294907 0.058420397
-0.086593933 -0.39305624 0.058372367
-0.086765788 -0.39315203 0.058415409
-0.086908914 -0.39325923 0.058277532
-0.087060265 -0.39337227 0.058133848
-0.087248392 -0.39346141 0.058280617
-0.08743012 -0.39356256 0.058327071
-0.087584354 -0.39365837 0.058303319
-0.087767027 -0.39375919 0.05835554
-0.08792825 -0.39386192 0.05831445
-0.08809232 -0.39395922 0.058318324
-0.088247187 -0.39404744 0.058345303
-0.088392727 -0.39415899 0.058188956
-0.088560946 -0.39425752 0.058200888
-0.088737838 -0.39435488 0.058253136
-0.088910528 -0.39445117 0.058296185
-0.089079872 -0.39456332 0.058226224
-0.089243568 -0.39466789 0.058182817
-0.08942204 -0.39477509 0.058178551
