# .PCD v0.7 - Point Cloud Data file format
VERSION 0.7
FIELDS x y z
SIZE 4 4 4
TYPE F F F
COUNT 1 1 1
WIDTH 1242
HEIGHT 1
VIEWPOINT 0 0 0 1 0 0 0
POINTS 1242
DATA ascii
-0.33670706 -0.10777391 0.054059267
-0.3368893 -0.10770345 0.054044925
-0.3370547 -0.10764502 0.053993735
-0.33725399 -0.10756445 0.054002397
-0.33743393 -0.10749823 0.05396501
-0.33765319 -0.10740688 0.053993218
-0.33785522 -0.10732789 0.053983428
-0.33804771 -0.10725402 0.05396444
-0.33820885 -0.10719595 0.053922489
-0.3384102 -0.10711589 0.05392193
-0.33861944 -0.1070362 0.053897135
-0.3388043 -0.10696018 0.053913914
-0.33898148 -0.10689507 0.053876527
-0.33919138 -0.10681312 0.053865567
-0.3393741 -0.10673563 0.053898491
-0.33956704 -0.10666559 0.053851835
-0.33975276 -0.10659473 0.053830568
-0.33994094 -0.10652359 0.053804673
-0.34013116 -0.10645245 0.053773019
-0.34031755 -0.10638117 0.053752899
-0.3405292 -0.10629819 0.053744242
-0.34073168 -0.10622168 0.053716011
-0.34094003 -0.10614001 0.053707354
-0.34112808 -0.10606574 0.053703371
-0.25126556 -0.1438964 0.039441008
-0.25148842 -0.14382614 0.039313555
-0.25169641 -0.14375612 0.039225336
-0.25190231 -0.14368625 0.039141741
-0.25209749 -0.14361782 0.039077774
-0.25229177 -0.14354825 0.039024189
-0.2524808 -0.14347877 0.038984459
-0.2526634 -0.14341065 0.038952813
-0.25285059 -0.14334005 0.038925763
-0.25302941 -0.14327081 0.038912583
-0.25321007 -0.14320163 0.038893618
-0.25338686 -0.14313251 0.038885057
-0.2535598 -0.14306341 0.038886875
-0.25372854 -0.14299431 0.038900238
-0.25390202 -0.14292401 0.03890897
-0.25406006 -0.14285482 0.038952339
-0.25423133 -0.14278457 0.038966846
-0.25439686 -0.1427169 0.038979068
-0.25454679 -0.14264761 0.03904552
-0.25469834 -0.14257835 0.039107349
-0.25485587 -0.14250787 0.039161105
-0.25500005 -0.14243703 0.039254092
-0.25514504 -0.14236753 0.039335549
-0.25529248 -0.14229807 0.039410077
-0.25543934 -0.14222583 0.039505363
-0.25558457 -0.14215624 0.03958682
-0.25572768 -0.14208516 0.039684426
-0.25586849 -0.14201532 0.03977973
-0.2560094 -0.14194545 0.039875034
-0.2561464 -0.14187397 0.039992247
-0.25628585 -0.1418025 0.040102549
-0.25641698 -0.14173202 0.040229015
-0.25655055 -0.14165872 0.040368151
-0.2566776 -0.14158785 0.04050846
-0.25680748 -0.14151703 0.040640689
-0.25693077 -0.14144433 0.040804069
-0.25705051 -0.14136985 0.040989373
-0.25715953 -0.14129898 0.041179311
-0.25727415 -0.14122388 0.041383069
-0.25285584 -0.14013037 0.061097026
-0.25306576 -0.1400509 0.061068766
-0.25326309 -0.13997228 0.061069362
-0.25346771 -0.13989259 0.061057258
-0.25366196 -0.13981386 0.061067082
-0.25382754 -0.13974684 0.061074689
-0.2540819 -0.13965756 0.060992114
-0.25427827 -0.13957748 0.061005391
-0.25445864 -0.13950309 0.06102334
-0.25467956 -0.13942543 0.06095238
-0.25487763 -0.13935468 0.060896482
-0.25507447 -0.13927674 0.060893625
-0.25521654 -0.1392024 0.061016589
-0.25550646 -0.13911049 0.060854357
-0.25570646 -0.13903129 0.060851492
-0.2558744 -0.13896519 0.060846403
-0.25604287 -0.13889369 0.060877062
-0.2562983 -0.13880247 0.060804851
-0.25649577 -0.13872145 0.060821593
-0.25669456 -0.13864993 0.060769152
-0.25690213 -0.13856839 0.060761645
-0.2571125 -0.1384854 0.060756445
-0.25729305 -0.13841195 0.060767464
-0.25751078 -0.13833004 0.060734563
-0.2576617 -0.13826804 0.060747977
-0.25787014 -0.13819651 0.06066899
-0.25809297 -0.13810991 0.060654528
-0.25827572 -0.13804474 0.060602121
-0.25848216 -0.13795799 0.060633831
-0.25867882 -0.13787763 0.060648266
-0.25886583 -0.13780561 0.060631592
-0.25907066 -0.1377285 0.060601044
-0.25929099 -0.13764991 0.060538158
-0.25946972 -0.137573 0.060578011
-0.25965071 -0.13750237 0.060568273
-0.25990933 -0.13741037 0.060492605
-0.2600849 -0.13733907 0.060502484
-0.26025176 -0.13726638 0.060545828
-0.2605125 -0.13719124 0.06034793
-0.26072052 -0.13710552 0.060368102
-0.26087987 -0.13702564 0.060481805
-0.26103961 -0.13695794 0.060510177
-0.26126951 -0.13689658 0.060301989
-0.26149037 -0.13680525 0.060325585
-0.26169443 -0.13671911 0.060359597
-0.26184735 -0.13665864 0.060356863
-0.26205882 -0.13657606 0.060345892
-0.2622714 -0.13649169 0.060344137
-0.26244035 -0.13641985 0.060375944
-0.26265252 -0.13634816 0.060287721
-0.26284266 -0.13627224 0.060289495
-0.26307461 -0.13618368 0.060263477
-0.26327166 -0.13610934 0.060235251
-0.2634522 -0.13603805 0.06023128
-0.26362991 -0.13596405 0.060253844
-0.26384467 -0.135883 0.060223259
-0.26401192 -0.13581549 0.060229711
-0.26422998 -0.13574196 0.060138002
-0.26440945 -0.13566861 0.060151339
-0.26459938 -0.13559993 0.060103528
-0.26479477 -0.13552156 0.060107589
-0.26499942 -0.1354477 0.060055126
-0.26516455 -0.13537337 0.060114615
-0.26539457 -0.13528791 0.060072467
-0.26556751 -0.13521782 0.060081199
-0.26575747 -0.13514979 0.060028784
-0.26596823 -0.13506666 0.060023576
-0.26615688 -0.13499165 0.060023043
-0.26636022 -0.13491364 0.060002875
-0.26654994 -0.13484371 0.059964284
-0.2667532 -0.13476121 0.059975244
-0.26693368 -0.13469362 0.059945911
-0.26713198 -0.13461462 0.059946507
-0.26731047 -0.13454664 0.059925251
-0.26749668 -0.13447143 0.059932798
-0.26772442 -0.13439405 0.059841067
-0.26792485 -0.13430636 0.059895851
-0.26811084 -0.13423857 0.059852663
-0.26832828 -0.13419032 0.059588008
-0.26852778 -0.13409281 0.059713133
-0.26870853 -0.13401394 0.059761047
-0.2689079 -0.13394101 0.059716672
-0.26910591 -0.13387027 0.059660777
-0.2692824 -0.13379261 0.059712157
-0.26948178 -0.13371749 0.059682779
-0.26962814 -0.13364746 0.059764221
-0.26984584 -0.1335634 0.059746325
-0.27004012 -0.13348931 0.059723862
-0.27021867 -0.13341498 0.059746422
-0.27040422 -0.13336138 0.059606388
-0.27059147 -0.13327727 0.059672728
-0.27078435 -0.13320307 0.059654899
-0.27097324 -0.13313013 0.059639379
-0.27114695 -0.13306223 0.059630819
-0.27134594 -0.13298795 0.059596818
-0.27154946 -0.13291286 0.059555888
-0.27175626 -0.13283648 0.059514951
-0.27194768 -0.13275686 0.059538625
-0.27211952 -0.13269137 0.059518538
-0.27230924 -0.13261943 0.059493802
-0.27251288 -0.13254781 0.059428655
-0.27270302 -0.13246788 0.059458099
-0.27287319 -0.13240203 0.059444942
-0.27307653 -0.13232219 0.059437446
-0.27326086 -0.13225123 0.059420779
-0.27343717 -0.13218547 0.059390314
-0.27363384 -0.13210577 0.05940013
-0.27383268 -0.13203004 0.059376515
-0.2740134 -0.13196369 0.059337959
-0.27420017 -0.13188843 0.059344348
-0.27439007 -0.13181175 0.059351884
-0.27458295 -0.13174556 0.059278701
-0.27477157 -0.1316684 0.059293158
-0.2749553 -0.13159803 0.059274193
-0.27516186 -0.13151771 0.059260935
-0.27534321 -0.13144629 0.059255809
-0.2755346 -0.13137701 0.059207998
-0.2757121 -0.13129744 0.059269756
-0.27590436 -0.13122566 0.059236936
-0.27609366 -0.13114923 0.059244473
-0.27627969 -0.13108392 0.059183992
-0.27645683 -0.13102034 0.059136219
-0.2766262 -0.13095249 0.059139207
-0.27682877 -0.13087079 0.05914671
-0.27699924 -0.13080701 0.059118554
-0.27719232 -0.13073656 0.059074197
-0.27738348 -0.13065839 0.059088647
-0.27757087 -0.13058138 0.059105404
-0.27775544 -0.1305095 0.059094518
-0.27792984 -0.13044515 0.059059441
-0.27811861 -0.1303761 0.059017401
-0.27833429 -0.13029285 0.058999497
-0.27851886 -0.13022846 0.058936715
-0.27870581 -0.13014796 0.058978852
-0.2788738 -0.13008 0.058986448
-0.27906674 -0.13001078 0.058934014
-0.2792592 -0.12993409 0.058934629
-0.27944559 -0.12986432 0.058904123
-0.27962622 -0.12979433 0.058890935
-0.27980384 -0.12972604 0.058874298
-0.27998632 -0.12966517 0.058793068
-0.28017485 -0.12957837 0.058874402
-0.28036061 -0.12950867 0.058845058
-0.28055048 -0.12943834 0.058808774
-0.28074211 -0.12936164 0.058811702
-0.28092292 -0.12929243 0.058792733
-0.28111783 -0.12921843 0.058767982
-0.28129357 -0.12914939 0.058761716
-0.28147033 -0.12908946 0.058689736
-0.28164709 -0.12901734 0.058701918
-0.28184444 -0.12893753 0.05871059
-0.28202349 -0.12887166 0.058673192
-0.28219992 -0.12879935 0.058687683
-0.28239381 -0.12872526 0.058666378
-0.28260317 -0.12864785 0.058625437
-0.28276393 -0.12857893 0.058659572
-0.28295359 -0.12851019 0.058612924
-0.28313991 -0.12844294 0.058565129
-0.28332624 -0.12838054 0.058483884
-0.28351456 -0.12828797 0.058605574
-0.28368321 -0.12822224 0.058595881
-0.2838555 -0.12816025 0.058550432
-0.28405601 -0.12807968 0.058555625
-0.28424439 -0.1280058 0.058548175
-0.2844106 -0.1279427 0.058526963
-0.28459069 -0.12786993 0.058534518
-0.28476796 -0.12780412 0.058501735
-0.2849614 -0.12774137 0.058403194
-0.28515488 -0.12765844 0.058444157
-0.28532916 -0.12758964 0.058440201
-0.28551829 -0.12751728 0.058420073
-0.28570274 -0.12744479 0.058413781
-0.28586966 -0.12737256 0.058453664
-0.28609598 -0.12729743 0.058350414
-0.28625515 -0.12723213 0.058363803
-0.28642449 -0.12716866 0.058336802
-0.28660855 -0.12709612 0.058331683
-0.28680226 -0.12701911 0.058331132
-0.28699049 -0.12695242 0.058274105
-0.28715783 -0.12688673 0.058267869
-0.2873393 -0.12681691 0.058251221
-0.28752983 -0.12674183 0.058246076
-0.28770339 -0.12667932 0.058200613
-0.28788948 -0.12660415 0.05820816
-0.28807485 -0.12652779 0.058226094
-0.2882514 -0.12646392 0.058181781
-0.28844196 -0.12638931 0.058173172
-0.28862199 -0.1263179 0.058171511
-0.28882939 -0.12623711 0.0581594
-0.28900436 -0.1261712 0.058133535
-0.2891899 -0.1261026 0.058097273
-0.28938016 -0.12602796 0.058089815
-0.28954342 -0.12596336 0.058087051
-0.2897093 -0.12589608 0.058095805
-0.28988674 -0.12582786 0.058079168
-0.29006997 -0.12576334 0.058021002
-0.29024714 -0.1256869 0.058062013
-0.29043502 -0.12562421 0.057978466
-0.29062933 -0.12555061 0.057952557
-0.29079691 -0.12547882 0.057987824
-0.29098481 -0.1254086 0.057956163
-0.29114735 -0.12534297 0.057962626
-0.29131395 -0.12528691 0.057891823
-0.29150566 -0.12520784 0.057910882
-0.29171619 -0.12512748 0.057887234
-0.29187614 -0.12507521 0.057808377
-0.29204845 -0.12500554 0.057815962
-0.29222685 -0.12493175 0.057835065
-0.29240429 -0.12485504 0.05787722
-0.29258621 -0.12479105 0.057819061
-0.2927669 -0.12472387 0.057786271
-0.29295406 -0.12465379 0.057755765
-0.29313016 -0.12458444 0.057750653
-0.29331264 -0.12451155 0.057752445
-0.29349428 -0.12444866 0.057687368
-0.2936652 -0.12436119 0.057821792
-0.29386684 -0.12429085 0.057753202
-0.29407459 -0.12421659 0.057694968
-0.29426029 -0.12414225 0.0576979
-0.29442072 -0.1240838 0.05766055
-0.29461855 -0.12399931 0.057700351
-0.29478592 -0.12392341 0.057764452
-0.29495108 -0.12387075 0.057674054
-0.2951366 -0.12379532 0.057685062
-0.2952942 -0.12372314 0.057750329
-0.29549277 -0.12366037 0.05763793
-0.29566562 -0.12359381 0.057622455
-0.29584944 -0.12352973 0.05755968
-0.29603559 -0.12345888 0.057537243
-0.2961975 -0.12339033 0.057565618
-0.2964111 -0.12331609 0.057491228
-0.29657236 -0.12324195 0.057559945
-0.29677919 -0.12317089 0.057482116
-0.2969462 -0.12311684 0.05739633
-0.29709864 -0.12305655 0.057393584
-0.29729882 -0.12299348 0.057278879
-0.2974993 -0.12289274 0.057423592
-0.29766852 -0.12282795 0.057405822
-0.29785758 -0.12275495 0.057390299
-0.29803696 -0.1226918 0.057333294
-0.29821268 -0.12262344 0.057322431
-0.29838812 -0.122548 0.057361133
-0.29857028 -0.12246741 0.057417121
-0.29875273 -0.12239803 0.057394702
-0.2989352 -0.12233549 0.057325006
-0.2991142 -0.12226781 0.057300285
-0.29928651 -0.12220563 0.057255987
-0.29946548 -0.12213581 0.05724626
-0.29965094 -0.12206775 0.057206534
-0.29983017 -0.12198931 0.057255611
-0.3000088 -0.12192695 0.057195149
-0.30018103 -0.12186097 0.057177369
-0.30033669 -0.12180108 0.057163101
-0.30053449 -0.12173811 0.057054158
-0.30068636 -0.12168422 0.057008766
-0.3008644 -0.12158459 0.05720773
-0.30105436 -0.12149972 0.057271771
-0.30126488 -0.12143419 0.057145499
-0.3014321 -0.12135518 0.057231508
-0.30162215 -0.12129997 0.057090301
-0.30179051 -0.12121368 0.057223581
-0.30193755 -0.12114804 0.05727274
-0.30215871 -0.12109213 0.057050742
-0.30233029 -0.12102991 0.057008754
-0.30251554 -0.12095926 0.056987476
-0.30268693 -0.12089745 0.056943178
-0.30285317 -0.12082919 0.056957699
-0.30305693 -0.12074065 0.057009008
-0.30323565 -0.12067226 0.056990057
-0.30341408 -0.12060533 0.056961883
-0.30358011 -0.12055448 0.056856498
-0.3037701 -0.12047511 0.056882478
-0.3039501 -0.12040003 0.056906182
-0.30411482 -0.12034005 0.056867674
-0.30429417 -0.12028174 0.056777235
-0.3044624 -0.12020584 0.056839027
-0.3046549 -0.12012963 0.056836173
-0.30483562 -0.12005277 0.056870259
-0.30502537 -0.11998783 0.056797087
-0.30520004 -0.11992323 0.056763154
-0.30537826 -0.11985619 0.05673613
-0.30556256 -0.11977774 0.05677136
-0.30573919 -0.11970601 0.056781244
-0.30592281 -0.11964084 0.056726526
-0.3060962 -0.11958024 0.05666839
-0.30627498 -0.11951115 0.056654055
-0.30645508 -0.11943788 0.056665078
-0.30660969 -0.11937173 0.056696925
-0.30680963 -0.11930041 0.056639861
-0.30698121 -0.11923585 0.056614015
-0.30716518 -0.11916871 0.05657199
-0.3073422 -0.11909649 0.056584172
-0.30751234 -0.119036 0.056534123
-0.30768597 -0.11896547 0.056544002
-0.30785677 -0.11889506 0.056560818
-0.30804825 -0.11882276 0.056533758
-0.30823395 -0.11874309 0.056573592
-0.30841327 -0.11868063 0.05651198
-0.30859616 -0.11860123 0.056557588
-0.30876952 -0.11853947 0.05650752
-0.30895996 -0.11846992 0.056464326
-0.30912766 -0.11840107 0.056478843
-0.30932739 -0.11832232 0.056473669
-0.30950993 -0.11825158 0.056460466
-0.30966863 -0.11819798 0.056394305
-0.30984583 -0.11812669 0.056399569
-0.31002939 -0.11806004 0.056355238
-0.31023401 -0.11797669 0.0563685
-0.31039524 -0.11791691 0.056338064
-0.31058085 -0.11784562 0.056320243
-0.31077453 -0.11776861 0.056319706
-0.31093585 -0.11770863 0.056290418
-0.31110498 -0.11764355 0.056274954
-0.31129313 -0.11757274 0.056246761
-0.3114621 -0.11750806 0.056228988
-0.31165743 -0.11742239 0.056283779
-0.31185338 -0.11735231 0.056229036
-0.31201646 -0.11728881 0.056219358
-0.31219193 -0.11722204 0.056198105
-0.31237102 -0.11714817 0.05621605
-0.31253204 -0.11708364 0.05621906
-0.31272814 -0.11701317 0.056166619
-0.31291825 -0.11694393 0.056122266
-0.31309837 -0.11687847 0.056079105
-0.31327656 -0.11679678 0.056153543
-0.313463 -0.11672949 0.056105748
-0.31364569 -0.11664484 0.056188248
-0.31378934 -0.11660306 0.056081768
-0.31397656 -0.11652012 0.05614005
-0.31415331 -0.11646084 0.056063451
-0.31436524 -0.11638525 0.056002896
-0.31456414 -0.11630968 0.055978127
-0.31471887 -0.11625233 0.055948868
-0.31492192 -0.11616959 0.055962134
-0.31509551 -0.11611091 0.055890154
-0.31526807 -0.11604513 0.055870071
-0.31545854 -0.11596657 0.05588913
-0.31564945 -0.11589166 0.055881672
-0.3158215 -0.11583108 0.055826999
-0.31600076 -0.11575029 0.055892218
-0.31619161 -0.11567992 0.055853635
-0.31633452 -0.1156336 0.05578059
-0.31653023 -0.11555128 0.055811167
-0.31672543 -0.115478 0.055780638
-0.31688863 -0.11541545 0.055764042
-0.3170737 -0.11533836 0.055787735
-0.31725717 -0.11526007 0.055824116
-0.31745127 -0.11518873 0.055783212
-0.31762272 -0.11512522 0.055750441
-0.31781387 -0.11505456 0.055713013
-0.31801811 -0.11497168 0.055723973
-0.31819504 -0.11490751 0.055680808
-0.31837147 -0.11483302 0.055710293
-0.31855071 -0.11475091 0.055784728
-0.3187497 -0.1146763 0.055753037
-0.31891865 -0.11462029 0.055675313
-0.31910729 -0.11455345 0.055618282
-0.31929284 -0.11448051 0.055611998
-0.31944227 -0.11442426 0.055589672
-0.31961045 -0.11436224 0.055555757
-0.31980845 -0.11428217 0.055564422
-0.31999967 -0.11421515 0.055501625
-0.32017475 -0.11414354 0.055514973
-0.32040006 -0.11403611 0.05563771
-0.32054511 -0.11399944 0.055492021
-0.32070231 -0.11394594 0.05542931
-0.32086793 -0.11389077 0.055355053
-0.32111368 -0.11377271 0.055495035
-0.32128426 -0.11370771 0.055474948
-0.32147172 -0.11362984 0.055497486
-0.3216663 -0.11356165 0.055433523
-0.32181844 -0.11351166 0.055360451
-0.32201511 -0.1134313 0.055374887
-0.32219326 -0.1133628 0.055358246
-0.3223584 -0.11329897 0.055345092
-0.32250834 -0.11326087 0.055195931
-0.32272947 -0.11313424 0.055462815
-0.32291108 -0.11307972 0.055340081
-0.32309803 -0.11301823 0.055250771
-0.3232936 -0.11293396 0.055295188
-0.32348818 -0.11285993 0.055271588
-0.32367274 -0.11278971 0.055249162
-0.32383764 -0.11272948 0.055211797
-0.32402658 -0.11264819 0.055253923
-0.32421923 -0.11257393 0.055237241
-0.32440627 -0.11250372 0.055207893
-0.32457942 -0.11243921 0.055177428
-0.32474545 -0.11238337 0.055106625
-0.32492822 -0.11231002 0.055110723
-0.32510594 -0.11224286 0.055086009
-0.32531887 -0.11215286 0.055122308
-0.32549524 -0.11208474 0.055107974
-0.32569546 -0.11200196 0.055129316
-0.32588068 -0.11193699 0.055068836
-0.32606974 -0.11186215 0.055066004
-0.32623965 -0.11180444 0.0549975
-0.32641581 -0.11173939 0.054962415
-0.32662785 -0.1116434 0.055042528
-0.32680154 -0.11157618 0.055029348
-0.32698643 -0.11151167 0.054966573
-0.32715219 -0.11144844 0.054947659
-0.32734731 -0.11137486 0.054919437
-0.32754669 -0.11128891 0.054964989
-0.32770935 -0.11123941 0.054859616
-0.32792333 -0.11114232 0.054942019
-0.32808959 -0.11109371 0.054820493
-0.32829607 -0.11100528 0.054863729
-0.32849616 -0.11092656 0.054857403
-0.32866257 -0.1108679 0.05480504
-0.32883286 -0.11080252 0.054788426
-0.32903513 -0.1107216 0.054791309
-0.32924336 -0.1106343 0.054821856
-0.32942653 -0.11056715 0.054782141
-0.32960284 -0.11049554 0.054792017
-0.32979083 -0.11042562 0.054758057
-0.329956 -0.11036613 0.054714926
-0.33014429 -0.11028658 0.054746687
-0.33033076 -0.11021844 0.054704648
-0.33050004 -0.11015698 0.054663815
-0.33071673 -0.11006849 0.054679353
-0.33089897 -0.10999802 0.054664999
-0.33107913 -0.10992756 0.054656424
-0.3312743 -0.10985279 0.054636277
-0.33146346 -0.10978208 0.054604605
-0.33163416 -0.10971488 0.05459952
-0.33180815 -0.1096577 0.054516014
-0.33201221 -0.10956289 0.05460998
-0.33220404 -0.10949629 0.054542568
-0.33238468 -0.10942797 0.054517847
-0.33258107 -0.10935456 0.054485016
-0.33276859 -0.10927932 0.054489098
-0.33294594 -0.10921013 0.054479368
-0.3331359 -0.10913695 0.054462697
-0.33334035 -0.10905565 0.054462116
-0.33352333 -0.10898957 0.054415487
-0.33370852 -0.10891493 0.054421879
-0.33390012 -0.10883825 0.054424804
-0.33408597 -0.10876735 0.054403525
-0.33425784 -0.10869151 0.054454923
-0.33445713 -0.10861795 0.054415163
-0.33464855 -0.10854383 0.054400787
-0.33483782 -0.10847192 0.054377191
-0.33501813 -0.10840672 0.05433172
-0.33518437 -0.10834913 0.054272451
-0.33538082 -0.10827035 0.054276511
-0.33561713 -0.10817339 0.054296594
-0.33580425 -0.10810582 0.054248795
-0.3359834 -0.10803593 0.054239068
-0.3361671 -0.10796772 0.054205112
-0.33633813 -0.10790171 0.0541908
-0.33653766 -0.10781854 0.054216754
-0.33672646 -0.10774765 0.054187402
-0.33691379 -0.10767816 0.054152284
-0.33709049 -0.10761292 0.054117199
-0.33729067 -0.10752948 0.054143149
-0.33749279 -0.10745212 0.054121826
-0.33766773 -0.10738673 0.054092512
-0.33785102 -0.1073232 0.054027427
-0.33806899 -0.10722551 0.054102905
-0.33826879 -0.10715058 0.054071214
-0.33845556 -0.10708015 0.054044176
-0.33862218 -0.10702457 0.053969916
-0.33881375 -0.10694607 0.053985514
-0.33901793 -0.10685237 0.054071415
-0.33921102 -0.10678761 0.053987853
-0.33940324 -0.10671251 0.053978093
-0.3395648 -0.1066561 0.053923447
-0.33976018 -0.10657642 0.053936727
-0.33995473 -0.10650307 0.053908508
-0.34014818 -0.10642348 0.053926408
-0.34034324 -0.10635526 0.053861298
-0.34054518 -0.10627548 0.053857267
-0.34072781 -0.10620403 0.053848691
-0.34094021 -0.10611507 0.053879224
-0.34113595 -0.10604641 0.053815257
-0.25164333 -0.14374383 0.039456356
-0.25184989 -0.14367387 0.03937158
-0.25205395 -0.14360408 0.039292578
-0.25225481 -0.14353572 0.039212424
-0.25245556 -0.14346492 0.039149571
-0.25265148 -0.14339551 0.039090194
-0.25283885 -0.14332619 0.039053909
-0.25301939 -0.14325692 0.039036084
-0.25320706 -0.14318648 0.039006714
-0.25338313 -0.14311863 0.03899122
-0.25356302 -0.14304827 0.038982634
-0.25373343 -0.14297919 0.038991362
-0.25390694 -0.14290886 0.039000094
-0.2540735 -0.14284113 0.039009996
-0.25424314 -0.14277084 0.039029114
-0.2544063 -0.14270179 0.039057478
-0.25456783 -0.1426314 0.039099686
-0.25472417 -0.1425609 0.039156895
-0.25487852 -0.14249168 0.039210659
-0.25503558 -0.14242256 0.039256331
-0.25518614 -0.14235052 0.039340094
-0.25533193 -0.14228104 0.039419249
-0.25547749 -0.14221016 0.039508782
-0.25561726 -0.14214039 0.039606407
-0.25577036 -0.14206968 0.03967401
-0.25591236 -0.14199853 0.039775088
-0.25605834 -0.14192748 0.039864622
-0.25619876 -0.14185897 0.039951868
-0.25634092 -0.14178626 0.040063322
-0.25647381 -0.1417159 0.040184036
-0.25661048 -0.14164421 0.04030358
-0.25673813 -0.14157343 0.040441602
-0.25686923 -0.14150129 0.040579613
-0.25699809 -0.14143036 0.040715329
-0.25712618 -0.14135641 0.040874112
-0.25723934 -0.14128439 0.041060612
-0.25735494 -0.14121088 0.041250572
-0.25746948 -0.14113715 0.041445132
-0.25305486 -0.14002737 0.061261404
-0.25327295 -0.13995035 0.061193891
-0.25348774 -0.13987145 0.061148301
-0.25369066 -0.13979344 0.061129265
-0.25388324 -0.13971287 0.061156392
-0.2540797 -0.13963975 0.061121233
-0.25431409 -0.13955773 0.061043285
-0.25449648 -0.13947821 0.061091207
-0.25467134 -0.13941053 0.061078012
-0.25486639 -0.13933046 0.061094753
-0.25508276 -0.13925077 0.061050311
-0.25531006 -0.13916507 0.061017364
-0.25545704 -0.13909845 0.061073456
-0.25569615 -0.13903058 0.060884785
-0.25591767 -0.13892999 0.060970649
-0.25612465 -0.13885354 0.06092969
-0.2563287 -0.13878608 0.060834534
-0.25650245 -0.13871533 0.060845569
-0.25670433 -0.13862188 0.060936093
-0.25687879 -0.13855685 0.060905609
-0.25710678 -0.1384722 0.060863443
-0.25733998 -0.13838649 0.060814336
-0.25752676 -0.13830821 0.060841471
-0.25772128 -0.13823289 0.060827076
-0.25787422 -0.13816357 0.060885452
-0.25808439 -0.13809618 0.060772989
-0.25830886 -0.13800794 0.060765427
-0.25847498 -0.13794054 0.06077417
-0.25869951 -0.13785827 0.060725097
-0.25890061 -0.13777664 0.060736038
-0.25910035 -0.13770658 0.060670894
-0.25927949 -0.13763551 0.060669225
-0.25948381 -0.1375546 0.06066633
-0.25966439 -0.13747796 0.060699262
-0.25988573 -0.13740581 0.06058906
-0.26010856 -0.13731422 0.060609184
-0.26031408 -0.13723183 0.060613208
-0.26048881 -0.13717854 0.060500838
-0.26068071 -0.13709606 0.060542956
-0.26088706 -0.13701002 0.060570039
-0.26103041 -0.1369435 0.060635369
-0.26123625 -0.13686967 0.060579423
-0.26144668 -0.13679884 0.06049002
-0.26165959 -0.13671219 0.060503244
-0.26187727 -0.13662648 0.060496852
-0.26209337 -0.13654891 0.060438566
-0.26230395 -0.13647668 0.060358386
-0.26245409 -0.13639696 0.060496353
-0.2626276 -0.13633865 0.060422044
-0.26283303 -0.13626999 0.060331505
-0.26304644 -0.13618614 0.060323961
-0.26324689 -0.13610393 0.060340695
-0.26345757 -0.13601966 0.060343549
-0.26365057 -0.13594677 0.060316473
-0.26383284 -0.13587813 0.06028942
-0.26401523 -0.13580744 0.060276214
-0.26419309 -0.13572922 0.060327597
-0.26442531 -0.13565023 0.06023467
-0.26461217 -0.13556977 0.060276799
-0.26478672 -0.13550419 0.060249776
-0.26497352 -0.13543493 0.060214639
-0.26516908 -0.13536118 0.060186408
-0.26536059 -0.13529104 0.060144335
-0.26554519 -0.13520795 0.060210697
-0.2657367 -0.13513799 0.060167477
-0.26591903 -0.13506348 0.060180791
-0.26615661 -0.13498504 0.060069397
-0.26635206 -0.13490033 0.060117275
-0.26656157 -0.13482404 0.060068242
-0.26674643 -0.13475053 0.060067706
-0.26693222 -0.13467734 0.060062561
-0.2671102 -0.13460673 0.060060896
-0.26733175 -0.13453199 0.059967998
-0.2675125 -0.13445762 0.059984781
-0.26769096 -0.134397 0.059912764
-0.2678822 -0.13431379 0.059961811
-0.26805449 -0.13424428 0.059968233
-0.26826414 -0.13416426 0.059944563
-0.26847047 -0.13408823 0.059902459
-0.26865059 -0.13401645 0.059903093
-0.26885235 -0.13393672 0.059899054
-0.26905379 -0.13386197 0.059861571
-0.26924559 -0.13378921 0.059836805
-0.26943043 -0.13371423 0.059846655
-0.26961339 -0.13363865 0.059865728
-0.26978779 -0.13357297 0.05983986
-0.26999676 -0.13349621 0.059795439
-0.27018228 -0.13341911 0.059817974
-0.27037269 -0.13334641 0.059796661
-0.27056131 -0.1332836 0.059711933
-0.27073351 -0.13320446 0.059785251
-0.27091631 -0.13313977 0.059729367
-0.27113637 -0.13305995 0.059675686
-0.27129409 -0.13299674 0.059678696
-0.27149498 -0.13291787 0.059671201
-0.27168161 -0.13284166 0.059684504
-0.27187768 -0.13276921 0.059645884
-0.27208 -0.13268843 0.059647612
-0.272259 -0.13262311 0.059606731
-0.27244905 -0.13254854 0.059599265
-0.27262565 -0.13247681 0.059609137
-0.27281576 -0.13240524 0.059580907
-0.2730009 -0.13233162 0.059580386
-0.27319616 -0.13225965 0.059540607
-0.27336273 -0.13218658 0.059587412
-0.27356243 -0.13211969 0.059500344
-0.27375495 -0.13204682 0.059474424
-0.27396169 -0.13196595 0.059464611
-0.27412727 -0.13189845 0.05947566
-0.27432075 -0.13182336 0.059462421
-0.27452075 -0.1317545 0.059388034
-0.27471402 -0.13167349 0.059416316
-0.27489752 -0.13160287 0.059399642
-0.27508089 -0.1315323 0.059382975
-0.27524421 -0.13146086 0.059427485
-0.27543274 -0.13139306 0.05937735
-0.27564946 -0.13131507 0.059320223
-0.27583224 -0.1312414 0.059326619
-0.27601597 -0.13118419 0.059216529
-0.27620739 -0.1310994 0.059275948
-0.27638474 -0.13103907 0.059205085
-0.27657592 -0.13095738 0.059243754
-0.27674332 -0.13089499 0.059214439
-0.27693352 -0.13081937 0.059213892
-0.27711889 -0.13074766 0.059199519
-0.27730414 -0.13068269 0.059139021
-0.27748191 -0.13060665 0.059175417
-0.27768236 -0.1305273 0.059172533
-0.27785772 -0.13046008 0.05915473
-0.27803493 -0.13039061 0.059147298
-0.27822867 -0.13032126 0.059093695
-0.27841249 -0.13024567 0.059110466
-0.27862713 -0.13016534 0.059075251
-0.27880549 -0.13009341 0.059081666
-0.27897629 -0.13002366 0.059093859
-0.27916479 -0.12995873 0.059024118
-0.27934083 -0.12988906 0.059021309
-0.2795181 -0.12981658 0.059034638
-0.27973112 -0.12973589 0.059006348
-0.2798878 -0.12967509 0.058995523
-0.28008872 -0.12960103 0.058954582
-0.28027517 -0.12952791 0.058947127
-0.28045431 -0.12946102 0.058916632
-0.28062612 -0.12939253 0.058917291
-0.28081304 -0.12931605 0.058931746
-0.28102869 -0.12923831 0.058875769
-0.28121203 -0.12916309 0.058891393
-0.28138 -0.12909579 0.058894373
-0.28156886 -0.12902938 0.058833852
-0.28172931 -0.12896007 0.058871448
-0.28192711 -0.12888893 0.058818989
-0.28211948 -0.12881328 0.058812667
-0.28232208 -0.12874675 0.058715217
-0.28247648 -0.12868084 0.058745913
-0.2826874 -0.12859599 0.058752224
-0.28286269 -0.12852712 0.058745958
-0.28303608 -0.12846102 0.058725853
-0.28322244 -0.12838925 0.058709171
-0.2834236 -0.1283136 0.058678605
-0.28358537 -0.12824562 0.058703512
-0.28376111 -0.12818226 0.05865803
-0.28395846 -0.12810311 0.058662079
-0.28413376 -0.12803958 0.058618911
-0.28432339 -0.12796703 0.058598761
-0.28449199 -0.12789665 0.058621339
-0.28468844 -0.12782171 0.058598865
-0.28486115 -0.12776606 0.058508415
-0.28505188 -0.12768506 0.058543615
-0.28523919 -0.12762076 0.058472726
-0.2854237 -0.12753771 0.058539093
-0.28560156 -0.12745716 0.058606625
-0.28576291 -0.12738332 0.058673047
-0.28595686 -0.12733324 0.058485661
-0.28614333 -0.12726343 0.058455143
-0.28634191 -0.12718114 0.05847764
-0.28652343 -0.12711647 0.058425218
-0.28669134 -0.12705122 0.058414362
-0.28689602 -0.1269715 0.05840224
-0.28707165 -0.12691118 0.058336001
-0.28724733 -0.12683916 0.058350485
-0.2874352 -0.12676011 0.058379937
-0.28762001 -0.12669516 0.058320589
-0.28778479 -0.12663214 0.05830282
-0.28798121 -0.12655336 0.058306869
-0.28815445 -0.12649065 0.058263697
-0.28833458 -0.1264192 0.058262024
-0.28852639 -0.12634662 0.058236111
-0.28870329 -0.12626994 0.058279417
-0.28889057 -0.12618978 0.058318097
-0.28908178 -0.12611628 0.058300242
-0.28924975 -0.12605232 0.058280163
-0.28946668 -0.12597424 0.058223028
-0.28962842 -0.12591411 0.058193728
-0.28980395 -0.12584981 0.058155179
-0.2899811 -0.12578106 0.058143128
-0.29015785 -0.1257116 0.058136858
-0.29033557 -0.12564412 0.058114432
-0.29053748 -0.12556951 0.058074649
-0.29071143 -0.12549433 0.058115665
-0.29088879 -0.12542649 0.058096699
-0.29108107 -0.1253482 0.058108836
-0.29124463 -0.12528467 0.058097988
-0.29141429 -0.12522656 0.058032915
-0.29160649 -0.12516733 0.057913583
-0.29180974 -0.1250785 0.057968352
-0.29199976 -0.12500478 0.057955127
-0.29216614 -0.1249393 0.057950035
-0.2923294 -0.12487587 0.057939187
-0.29251644 -0.12481553 0.057841778
-0.29268977 -0.12473777 0.057902399
-0.29286912 -0.12466645 0.057901889
-0.29305205 -0.12459455 0.057895593
-0.29324231 -0.12452241 0.057870835
-0.29342341 -0.12445708 0.05782418
-0.29360536 -0.12438224 0.057840955
-0.29377496 -0.12431596 0.057832398
-0.29396966 -0.12424756 0.057769559
-0.29417115 -0.12416327 0.057797819
-0.29435667 -0.12408784 0.057808816
-0.29454103 -0.12402304 0.057749469
-0.29470345 -0.12395747 0.057755925
-0.29488701 -0.12388982 0.057718497
-0.29506132 -0.12383003 0.057652261
-0.29524195 -0.1237482 0.057720937
-0.2954002 -0.12367943 0.05776085
-0.29558644 -0.12360755 0.057745315
-0.2958118 -0.12353764 0.05760859
-0.29598787 -0.1234698 0.057593085
-0.29617286 -0.12339108 0.057628304
-0.29632491 -0.12332645 0.057656709
-0.29648781 -0.12326435 0.057637781
-0.29668072 -0.12319231 0.057604939
-0.2969006 -0.1231144 0.057538576
-0.29707861 -0.12303244 0.057615325
-0.29725465 -0.12296462 0.057599831
-0.29744053 -0.12289189 0.05759123
-0.29761025 -0.1228324 0.05753538
-0.29779309 -0.12276672 0.057486422
-0.29795241 -0.12270654 0.057464048
-0.29816097 -0.12261643 0.057513043
-0.29833686 -0.12254851 0.057498701
-0.29851931 -0.12247713 0.057490107
-0.29870531 -0.12241703 0.057393853
-0.2988711 -0.12235511 0.057365693
-0.29905012 -0.12228227 0.05737672
-0.2992292 -0.12220672 0.057406187
-0.29941174 -0.12212764 0.057450637
-0.29958737 -0.12206564 0.057395935
-0.29978618 -0.12199309 0.057350378
-0.29996532 -0.1219207 0.057357948
-0.30014393 -0.12185986 0.057287082
-0.30032325 -0.12178473 0.057313088
-0.30050492 -0.12172334 0.05723761
-0.3006843 -0.12164785 0.057265922
-0.30086598 -0.12158446 0.057204276
-0.3010447 -0.12151706 0.0571784
-0.30119497 -0.12147951 0.057024583
-0.30140635 -0.1213716 0.057188887
-0.30156147 -0.12131625 0.057144627
-0.30172276 -0.12126198 0.057076119
-0.30194208 -0.1211711 0.057100862
-0.30207509 -0.12113908 0.056956321
-0.30228284 -0.12104145 0.057059512
-0.30248585 -0.12095657 0.057087764
-0.30266452 -0.12088853 0.057066496
-0.30284479 -0.12081067 0.057108644
-0.30302307 -0.12074514 0.057071235
-0.30317423 -0.12069287 0.057016596
-0.30335632 -0.12062263 0.057001077
-0.30355418 -0.12053446 0.057066247
-0.30373305 -0.12046551 0.057050742
-0.30392557 -0.12038946 0.05704673
-0.30410671 -0.12032411 0.057000078
-0.3042843 -0.12026067 0.056949984
-0.30447125 -0.12016965 0.057064772
-0.30462545 -0.12012888 0.056922477
-0.30481941 -0.12005927 0.056870021
-0.30500352 -0.11998088 0.056905247
-0.30517235 -0.1199161 0.056888618
-0.30536607 -0.1198359 0.056909978
-0.30554396 -0.1197705 0.056872558
-0.30571795 -0.11969782 0.056896269
-0.30586809 -0.11964697 0.05683472
-0.30606896 -0.11957312 0.056792632
-0.30625558 -0.1194879 0.056868207
-0.30644521 -0.11941267 0.056866508
-0.30662569 -0.11934807 0.056816399
-0.3068009 -0.11929075 0.056730561
-0.30695987 -0.11922956 0.056716263
-0.3071366 -0.11914961 0.056782648
-0.3073298 -0.11908113 0.056724429
-0.30750459 -0.11901581 0.056695092
-0.30768099 -0.11894583 0.056693435
-0.3078565 -0.11887856 0.056675632
-0.30801362 -0.11883043 0.056575999
-0.30820319 -0.11875556 0.056572001
-0.30838364 -0.11868247 0.056580707
-0.30857781 -0.11861061 0.056543242
-0.3087385 -0.11854506 0.056554317
-0.30892035 -0.11846874 0.056581467
-0.30913836 -0.11837938 0.056599304
-0.30931845 -0.11830795 0.056597631
-0.30948582 -0.11824707 0.056557935
-0.30965251 -0.1181878 0.056509022
-0.30985728 -0.11810406 0.056524582
-0.31001827 -0.11804505 0.05648952
-0.31021217 -0.11797379 0.056448601
-0.31039035 -0.11789443 0.056506906
-0.31057218 -0.11783181 0.0564395
-0.31074795 -0.11776426 0.056422845
-0.31094381 -0.11768873 0.05640614
-0.31110796 -0.11762279 0.056410279
-0.31127781 -0.11755643 0.056401722
-0.31147915 -0.1174752 0.056409217
-0.31165099 -0.11741605 0.056345295
-0.31180948 -0.11736205 0.056282561
-0.31199375 -0.11728828 0.056285486
-0.31217852 -0.11720831 0.056329943
-0.31236321 -0.11713403 0.056335174
-0.31255141 -0.11705303 0.056377299
-0.31271091 -0.11701248 0.056218848
-0.31289619 -0.11694232 0.056194104
-0.31306857 -0.11686642 0.056244351
-0.31328571 -0.11678126 0.056235656
-0.31346905 -0.11671003 0.056223594
-0.3136234 -0.1166535 0.056189708
-0.31378949 -0.11657545 0.056272268
-0.31397331 -0.11650837 0.056230225
-0.31413782 -0.11646648 0.056067139
-0.31432247 -0.11638372 0.056131199
-0.31452665 -0.11630353 0.056123689
-0.31473875 -0.11622322 0.056095403
-0.3149052 -0.11615469 0.056111071
-0.31507355 -0.11609193 0.056081757
-0.31527928 -0.11601814 0.056025807
-0.31546858 -0.11593736 0.056063324
-0.31563738 -0.11587392 0.056037463
-0.31580669 -0.11579692 0.05610387
-0.31598881 -0.11572851 0.056075666
-0.31617934 -0.11564641 0.056118947
-0.31636766 -0.11559273 0.055971939
-0.31654781 -0.11552744 0.055927597
-0.31671286 -0.11545797 0.055953655
-0.31687438 -0.11539426 0.055949725
-0.3170746 -0.11531731 0.055930696
-0.31727386 -0.11524193 0.055903602
-0.31742775 -0.11518624 0.055865102
-0.31759661 -0.11513062 0.055785049
-0.31778803 -0.11504817 0.055828325
-0.31798023 -0.11497225 0.05582431
-0.31815314 -0.114903 0.055827279
-0.31834322 -0.11483042 0.055805966
-0.31852502 -0.11476281 0.055773154
-0.31868058 -0.11471196 0.055696599
-0.31888014 -0.11463279 0.055694871
-0.3190724 -0.1145465 0.055762354
-0.31924951 -0.11447876 0.0557434
-0.31943777 -0.11440556 0.055731319
-0.31962568 -0.11432952 0.055740014
-0.3197906 -0.11426878 0.055706099
-0.31997257 -0.1142046 0.055649068
-0.32015356 -0.11413164 0.055655461
-0.32035518 -0.11404364 0.055709083
-0.32051638 -0.11397153 0.055763979
-0.32072878 -0.11386923 0.055886768
-0.32092229 -0.113829 0.055632498
-0.3210828 -0.11378086 0.05552363
-0.32126328 -0.1137026 0.055568084
-0.3214519 -0.11363593 0.055509888
-0.32162619 -0.1135693 0.05549093
-0.32179886 -0.11350482 0.0554616
-0.32197857 -0.11342803 0.055497997
-0.32216963 -0.11335206 0.055497441
-0.32235903 -0.11328143 0.05546461
-0.32253265 -0.11321589 0.055439897
-0.3227064 -0.11315932 0.055352904
-0.32284552 -0.11312287 0.055222183
-0.32305408 -0.11303076 0.055285014
-0.32323784 -0.11294952 0.055340998
-0.32344761 -0.11286228 0.055366918
-0.3236416 -0.1127803 0.055399813
-0.32382309 -0.11271115 0.055378526
-0.3240186 -0.11263908 0.055338759
-0.32419196 -0.11257717 0.05528982
-0.32437015 -0.11251216 0.055248953
-0.32456416 -0.11243068 0.055278376
-0.32472748 -0.11235857 0.055327501
-0.32491851 -0.11229213 0.055261217
-0.32510999 -0.11221683 0.055254899
-0.32526723 -0.11216332 0.055192169
-0.32547155 -0.11207557 0.055236556
-0.32565472 -0.11200491 0.055221044
-0.32583112 -0.11193961 0.055187088
-0.32600087 -0.11188213 0.055117406
-0.32621869 -0.11179234 0.0551387
-0.32638726 -0.11172833 0.055117458
-0.32658124 -0.11164802 0.055138811
-0.32674488 -0.1115898 0.055091053
-0.32693738 -0.11151661 0.055067439
-0.32713005 -0.11144067 0.055062272
-0.32730556 -0.11137155 0.055057157
-0.32749617 -0.11128791 0.055110812
-0.3276701 -0.11122076 0.055096474
-0.3278414 -0.11116417 0.055016413
-0.32803711 -0.11109519 0.054954723
-0.32822651 -0.11101589 0.054981854
-0.32842439 -0.11093219 0.055015888
-0.32860127 -0.11086454 0.054996934
-0.32878542 -0.11079866 0.054945655
-0.32896227 -0.11073352 0.054909397
-0.32917178 -0.11065204 0.054896109
-0.32933947 -0.11058255 0.054915234
-0.32951647 -0.11050782 0.054944716
-0.3297022 -0.11044515 0.054866914
-0.32987565 -0.11038387 0.054813363
-0.33007044 -0.11030441 0.054826647
-0.33024916 -0.11024453 0.054748863
-0.33044949 -0.11015937 0.054786347
-0.33063596 -0.1100844 0.054791573
-0.33080432 -0.1100263 0.054729976
-0.33100113 -0.10994287 0.054765157
-0.33119947 -0.10985801 0.054806106
-0.33138859 -0.10978514 0.054789416
-0.33156428 -0.1097308 0.054681659
-0.33175257 -0.10966111 0.054645371
-0.33193493 -0.10958643 0.054659836
-0.33211404 -0.10951522 0.054659326
-0.33228841 -0.10944673 0.054653052
-0.3324829 -0.10937089 0.054642115
-0.33266646 -0.10930191 0.054613918
-0.33286497 -0.10921347 0.054679081
-0.33305365 -0.10914597 0.05462664
-0.3332313 -0.10907666 0.054616898
-0.33341914 -0.10900147 0.054619826
-0.33363172 -0.1089293 0.054533873
-0.33381245 -0.10885711 0.054535665
-0.33399141 -0.10879096 0.054500554
-0.33416599 -0.10872287 0.054490823
-0.33434001 -0.1086617 0.054434974
-0.33450469 -0.10859721 0.054427579
-0.33469558 -0.10852366 0.054410882
-0.33488807 -0.10845062 0.054386117
-0.33508456 -0.10836966 0.054405153
-0.33528459 -0.10828945 0.054409191
-0.33545747 -0.10822956 0.054347578
-0.33565295 -0.10814783 0.054374691
-0.33586383 -0.10806549 0.054363709
-0.33606598 -0.10798962 0.054331988
-0.33625162 -0.10791564 0.05433261
-0.33639252 -0.10787446 0.054229565
-0.33660376 -0.10778413 0.054272786
-0.33678445 -0.10771112 0.054280341
-0.33697423 -0.10764133 0.054240577
-0.33716899 -0.1075669 0.054219265
-0.33736613 -0.10748835 0.054219857
-0.3375361 -0.10742378 0.0541986
-0.33774102 -0.10734197 0.054200321
-0.33791831 -0.10727831 0.054152526
-0.33811417 -0.10720127 0.054146204
-0.33827135 -0.10715061 0.054063875
-0.33849582 -0.10705669 0.054095514
-0.3386952 -0.10697476 0.054113399
-0.33888426 -0.10689674 0.054132465
-0.33907041 -0.10683274 0.054062728
-0.33924294 -0.10676815 0.054034561
-0.33944887 -0.10668426 0.054047808
-0.33964005 -0.10661576 0.05399536
-0.33981219 -0.10654798 0.053990252
-0.33998311 -0.10648686 0.053942479
-0.34019896 -0.1063962 0.053975299
-0.34039947 -0.10631948 0.053953972
-0.34060279 -0.10624031 0.05394185
-0.3407844 -0.10617159 0.053917117
-0.34096235 -0.10610085 0.0539166
-0.34115607 -0.10602149 0.053932194
-0.25153059 -0.1437604 0.039651897
-0.25174484 -0.1436929 0.039529026
-0.25195664 -0.14362171 0.039438456
-0.25215733 -0.14355326 0.039359454
-0.25236434 -0.14348496 0.039261982
-0.25255674 -0.14341547 0.039212979
-0.2527521 -0.1433448 0.039163977
-0.25293571 -0.14327547 0.039138079
-0.25311708 -0.14320752 0.039108716
-0.25329861 -0.14313835 0.03908743
-0.25347626 -0.14306922 0.039076529
-0.25365573 -0.14299886 0.03906909
-0.25382292 -0.14293104 0.039077822
-0.25399566 -0.14286204 0.039079629
-0.25416303 -0.14279433 0.03908721
-0.2543323 -0.14272536 0.039098252
-0.25449032 -0.14265485 0.039150838
-0.25465223 -0.1425858 0.039182663
-0.25480822 -0.14251661 0.039231796
-0.25495869 -0.14244594 0.03930632
-0.25511584 -0.14237678 0.039351992
-0.25526398 -0.14230736 0.039424215
-0.25540879 -0.14223644 0.03951605
-0.25555474 -0.1421669 0.039595198
-0.25570089 -0.14209595 0.039683569
-0.25584701 -0.14202634 0.039762724
-0.25598475 -0.14195639 0.039867263
-0.25612572 -0.14188649 0.039962579
-0.25626755 -0.14181659 0.040055569
-0.25640383 -0.14174639 0.04016589
-0.25654611 -0.14167497 0.040268116
-0.2566793 -0.14160448 0.040388819
-0.25680932 -0.14153376 0.040519908
-0.25693583 -0.14146277 0.040662538
-0.25706223 -0.14139166 0.040806331
-0.25718543 -0.14131883 0.040970881
-0.25730601 -0.14124569 0.041144665
-0.25742179 -0.14117213 0.041334614
-0.25753328 -0.1410996 0.041529186
-0.25313035 -0.13999118 0.061303973
-0.25335515 -0.13991298 0.061226048
-0.25354782 -0.13983403 0.06124163
-0.25375596 -0.13975646 0.061205275
-0.25394872 -0.13967764 0.061219703
-0.25412828 -0.13961191 0.061179973
-0.25436655 -0.1395267 0.061113548
-0.2545552 -0.13944952 0.061127983
-0.25475669 -0.13936824 0.061135471
-0.25495714 -0.13929772 0.061071459
-0.25512302 -0.13922209 0.061137866
-0.25536039 -0.13913739 0.061070286
-0.25550345 -0.13907216 0.061127532
-0.25576976 -0.13898712 0.060982604
-0.25595418 -0.13890813 0.061021276
-0.25616774 -0.13883057 0.060969912
-0.25636867 -0.13874801 0.060987774
-0.25657853 -0.13867024 0.060947955
-0.25678822 -0.13859069 0.060920816
-0.25696561 -0.13852233 0.060905308
-0.25716394 -0.13844348 0.060904734
-0.25734901 -0.13837057 0.060899582
-0.25755852 -0.1382876 0.060896661
-0.25773251 -0.13821907 0.060891546
-0.25793484 -0.1381353 0.060914025
-0.25815463 -0.13806926 0.060765769
-0.25837311 -0.13798024 0.060780123
-0.25853753 -0.13791069 0.060808472
-0.25873998 -0.13783303 0.060788274
-0.25893602 -0.13775842 0.060764641
-0.25914121 -0.13767551 0.060773276
-0.25933006 -0.13760392 0.060748499
-0.25951809 -0.13753033 0.060739882
-0.25972128 -0.13745521 0.060700081
-0.25995657 -0.1373615 0.060700547
-0.26013586 -0.13729471 0.060668893
-0.26032034 -0.13722487 0.060644127
-0.2605204 -0.13714565 0.060641244
-0.26068693 -0.13707294 0.060685735
-0.26093176 -0.13699144 0.060575463
-0.26113385 -0.13691692 0.060534511
-0.26130766 -0.13684565 0.060548998
-0.26152992 -0.13677296 0.060439937
-0.26168993 -0.13667864 0.060651675
-0.26193312 -0.13660181 0.060513735
-0.26212439 -0.13652992 0.060484342
-0.2623271 -0.13645199 0.060465299
-0.26249906 -0.13637228 0.06054322
-0.26268801 -0.13631284 0.060434263
-0.26289427 -0.13623166 0.060427904
-0.26306522 -0.1361582 0.060465455
-0.26329064 -0.13607258 0.06043712
-0.26349685 -0.13599591 0.060399614
-0.26367062 -0.13592532 0.060409486
-0.26386487 -0.13585059 0.060391624
-0.26402548 -0.13578373 0.060411915
-0.26424 -0.13570495 0.060366318
-0.26445594 -0.13563326 0.060267664
-0.26463431 -0.13555302 0.060331725
-0.26481748 -0.13548501 0.060297742
-0.26502812 -0.13541028 0.060234852
-0.26520571 -0.13533215 0.060286235
-0.26540804 -0.13525788 0.060242973
-0.26560184 -0.13519068 0.060174376
-0.26578447 -0.13511622 0.060186528
-0.26598212 -0.13503881 0.06017787
-0.26619899 -0.13496192 0.060112655
-0.26639628 -0.1348823 0.060120165
-0.26659873 -0.1347948 0.060168006
-0.26677644 -0.13473099 0.060120203
-0.26696277 -0.13465558 0.06012889
-0.26719528 -0.13457429 0.060050946
-0.2673752 -0.13449959 0.060072336
-0.2675437 -0.13442877 0.060098365
-0.26775882 -0.13435726 0.06000087
-0.26794881 -0.13427603 0.06003952
-0.2681272 -0.13421078 0.059999794
-0.26832286 -0.13413382 0.059993461
-0.26850143 -0.13405898 0.06001946
-0.26873246 -0.13397847 0.059940375
-0.26890022 -0.13390276 0.060002156
-0.26909226 -0.1338274 0.059994675
-0.26929432 -0.13375291 0.059953719
-0.26949227 -0.1336797 0.059915088
-0.26968166 -0.13360374 0.059919149
-0.26988199 -0.1335316 0.059866674
-0.2700713 -0.13345833 0.05985228
-0.27022174 -0.13339734 0.059859917
-0.27039769 -0.13332205 0.059896313
-0.27065307 -0.13323885 0.059768707
-0.27081686 -0.13317241 0.059777457
-0.27097431 -0.13310362 0.059819669
-0.27121037 -0.13301377 0.059791304
-0.27138728 -0.1329471 0.059765413
-0.27157798 -0.13286695 0.059794851
-0.27177835 -0.13279879 0.059714686
-0.27196902 -0.13272698 0.059686448
-0.2721616 -0.13264775 0.059704341
-0.27234623 -0.13257918 0.059670366
-0.2725158 -0.13250725 0.059701007
-0.2727243 -0.13243769 0.059608139
-0.27291152 -0.1323621 0.059615664
-0.27310449 -0.13228904 0.059589729
-0.27329552 -0.13221525 0.059574179
-0.2734758 -0.1321454 0.059560977
-0.27367222 -0.13207132 0.059532724
-0.27385542 -0.13199714 0.059541419
-0.27407211 -0.13191499 0.059513107
-0.27426609 -0.13184603 0.059456028
-0.27442476 -0.13178729 0.059425585
-0.27463332 -0.13169251 0.059506856
-0.27483225 -0.13161725 0.059479751
-0.27501816 -0.13154784 0.059448078
-0.27520889 -0.13147484 0.059427917
-0.27539092 -0.13141298 0.05935473
-0.27557111 -0.13134101 0.059356511
-0.27574903 -0.13125524 0.059459787
-0.27595413 -0.13118388 0.059388839
-0.27614579 -0.13111185 0.059359446
-0.27631393 -0.13104632 0.059349731
-0.27649027 -0.13097571 0.059352681
-0.27667886 -0.13090223 0.059341751
-0.27687129 -0.13083105 0.05930429
-0.27706903 -0.1307531 0.059299104
-0.27725309 -0.13068059 0.059293948
-0.27742401 -0.1306138 0.05928538
-0.27761185 -0.13054028 0.05927676
-0.27780977 -0.13046277 0.05926811
-0.27799961 -0.13039762 0.059196055
-0.27820584 -0.13032213 0.05915048
-0.27838573 -0.13024393 0.059196088
-0.27856112 -0.13018054 0.059151746
-0.27876517 -0.13010041 0.059144236
-0.27894619 -0.13002659 0.059156395
-0.27912951 -0.12995805 0.059125878
-0.27932441 -0.12988657 0.059083793
-0.27950308 -0.12981501 0.059086733
-0.27970463 -0.12974106 0.059043474
-0.27987888 -0.12966645 0.059079871
-0.28007156 -0.12959768 0.059025109
-0.28025466 -0.12952587 0.059017651
-0.28045207 -0.12945323 0.058976717
-0.28062615 -0.12938251 0.058986589
-0.28081629 -0.12931241 0.058947977
-0.28099564 -0.12923793 0.058969371
-0.28120399 -0.12915844 0.058945701
-0.28139275 -0.12908354 0.058943994
-0.28155848 -0.12902264 0.058908917
-0.28174204 -0.12895185 0.058893383
-0.28191623 -0.12888157 0.05889979
-0.2821202 -0.12881166 0.058821939
-0.28232637 -0.12873536 0.058782123
