# .PCD v0.7 - Point Cloud Data file format
VERSION 0.7
FIELDS x y z
SIZE 4 4 4
TYPE F F F
COUNT 1 1 1
WIDTH 1257
HEIGHT 1
VIEWPOINT 0 0 0 1 0 0 0
POINTS 1257
DATA ascii
-0.33755663 -0.095545217 0.054892741
-0.33773467 -0.095470145 0.054864526
-0.33794087 -0.095373563 0.054897361
-0.33811185 -0.095306203 0.054838028
-0.33831725 -0.095217265 0.054821268
-0.33850133 -0.095135942 0.054817263
-0.33866215 -0.095066488 0.054802939
-0.33885625 -0.094985455 0.05476661
-0.33904821 -0.094900288 0.054764882
-0.33922502 -0.094826952 0.054728605
-0.33942187 -0.094743162 0.054702643
-0.3396025 -0.094657451 0.05473901
-0.33978695 -0.094582565 0.054690022
-0.33996946 -0.094503477 0.054675639
-0.34015882 -0.094421506 0.054660082
-0.34034556 -0.094338149 0.054661829
-0.34052855 -0.094262913 0.054619763
-0.3407495 -0.094160944 0.05464448
-0.34092444 -0.094089955 0.054597821
-0.34111381 -0.094002217 0.054621477
-0.34129456 -0.093923397 0.054610554
-0.34146002 -0.093858153 0.054553546
-0.34167337 -0.093760416 0.054572519
-0.34187934 -0.093676321 0.054521162
-0.34204292 -0.093603097 0.054524135
-0.34220132 -0.093545057 0.05443947
-0.34241739 -0.093446977 0.054452665
-0.34260422 -0.093360528 0.05447517
-0.34279597 -0.093281053 0.054435387
-0.34297481 -0.093198836 0.054453298
-0.34315914 -0.093128756 0.054372028
-0.34338087 -0.093021706 0.054429028
-0.34355965 -0.09294562 0.054405428
-0.3437424 -0.09287338 0.054343753
-0.34394705 -0.092773914 0.054400809
-0.34412634 -0.092701346 0.054351829
-0.34431648 -0.092616305 0.054354724
-0.34449342 -0.09254986 0.054271169
-0.34467185 -0.092474446 0.054244108
-0.34484679 -0.092402443 0.054204378
-0.34507847 -0.092292495 0.054250963
-0.25649521 -0.13380617 0.04000691
-0.25669736 -0.13372885 0.039921001
-0.25690094 -0.13364902 0.039847761
-0.25709522 -0.13357233 0.039781466
-0.25729656 -0.13349418 0.039703626
-0.2574808 -0.13341685 0.039671954
-0.2576665 -0.13333955 0.039635662
-0.25784904 -0.13326249 0.03960745
-0.25803104 -0.13318683 0.039571177
-0.2582061 -0.1331102 0.03956259
-0.2583735 -0.13303256 0.039584
-0.25854048 -0.13295628 0.039597336
-0.25870734 -0.13288006 0.03961068
-0.25887176 -0.13280529 0.039621726
-0.25904003 -0.13272913 0.03963045
-0.25919446 -0.13265334 0.039678417
-0.25935206 -0.13257617 0.039726373
-0.25950447 -0.13250044 0.039780099
-0.25965685 -0.13242337 0.039843064
-0.25980607 -0.1323477 0.039906036
-0.25995138 -0.13227072 0.039989762
-0.2600936 -0.13219512 0.040073507
-0.26023394 -0.13211951 0.040163022
-0.26037788 -0.13204381 0.040242143
-0.26052117 -0.13196671 0.040332798
-0.26065913 -0.13188961 0.040439613
-0.26079485 -0.13181385 0.040544126
-0.26093107 -0.13173804 0.040647488
-0.26107404 -0.13166073 0.040740445
-0.26120213 -0.13158481 0.040869199
-0.26132774 -0.13150878 0.041006025
-0.26145372 -0.13143125 0.041152064
-0.26158017 -0.13135502 0.041287739
-0.26170212 -0.13127723 0.041447636
-0.26182005 -0.13120073 0.041611001
-0.26193699 -0.13112262 0.041788202
-0.2620472 -0.1310443 0.041987333
-0.262155 -0.1309672 0.04218531
-0.25774682 -0.13006923 0.061626114
-0.25796056 -0.12998302 0.061565518
-0.25816023 -0.12989646 0.061549947
-0.25837028 -0.12981038 0.061499745
-0.25852501 -0.12972395 0.061619189
-0.25876659 -0.1296376 0.061475515
-0.25897026 -0.12955332 0.061432257
-0.25915244 -0.12946112 0.061507814
-0.25935799 -0.12937535 0.061469153
-0.25953233 -0.129297 0.061474402
-0.25974908 -0.12920488 0.061444938
-0.25989807 -0.12912169 0.061559796
-0.26013738 -0.12904176 0.061379224
-0.26034963 -0.12894249 0.061412029
-0.26056665 -0.12885804 0.061329536
-0.26075134 -0.12877171 0.061357819
-0.26095545 -0.12868486 0.061330695
-0.26113796 -0.12859847 0.061365888
-0.26132318 -0.12851597 0.061366498
-0.2615377 -0.12843198 0.061288618
-0.26174513 -0.12835315 0.061196916
-0.26192716 -0.12826884 0.061219446
-0.26209617 -0.12818353 0.061288118
-0.26227134 -0.12810056 0.061322182
-0.26249596 -0.12801614 0.061216608
-0.26269495 -0.12792972 0.061202183
-0.2628966 -0.12783414 0.06124194
-0.26310453 -0.12774679 0.061206728
-0.26327366 -0.12766923 0.061222371
-0.26349252 -0.12758312 0.061145641
-0.26369777 -0.12749967 0.061091997
-0.26390058 -0.12740648 0.061112143
-0.26409978 -0.12731875 0.061105788
-0.26429963 -0.12723313 0.061083298
-0.26447511 -0.12716056 0.061045881
-0.26468208 -0.12707397 0.061008379
-0.26485217 -0.1269931 0.061043613
-0.26508886 -0.12689637 0.060985263
-0.26524889 -0.12682234 0.061004397
-0.26540607 -0.12674397 0.061061576
-0.26563099 -0.12666009 0.060951378
-0.26584166 -0.12657663 0.060881589
-0.26602817 -0.12649015 0.06090524
-0.26627329 -0.12638322 0.060890689
-0.26645878 -0.12629668 0.060917802
-0.26665634 -0.12621395 0.060882635
-0.26681492 -0.12613599 0.060932897
-0.26701191 -0.12606572 0.060814708
-0.26718822 -0.12597598 0.060891435
-0.26743263 -0.12587784 0.060819231
-0.26762941 -0.12579341 0.0607979
-0.26780555 -0.1257268 0.060717821
-0.26796654 -0.12564947 0.060756542
-0.26818725 -0.12554169 0.060821608
-0.26840043 -0.12545608 0.060758717
-0.26858315 -0.12538467 0.060691308
-0.26876915 -0.12529895 0.060711514
-0.26897326 -0.12520567 0.060728204
-0.26914987 -0.12513784 0.060655043
-0.26935369 -0.12505774 0.060582962
-0.26954681 -0.12497799 0.060540888
-0.26972261 -0.12487525 0.060707539
-0.26993996 -0.12479372 0.060604282
-0.27011564 -0.12472189 0.060561109
-0.27031934 -0.12463576 0.060530532
-0.27046099 -0.12455717 0.060636178
-0.27067941 -0.12447874 0.060508713
-0.27087599 -0.12438913 0.060523123
-0.27105439 -0.12430474 0.060557175
-0.27127931 -0.12421916 0.060458519
-0.27145535 -0.12413667 0.06048682
-0.27165076 -0.12405167 0.060473558
-0.27184057 -0.12397475 0.060422268
-0.27204895 -0.123886 0.060395136
-0.27225074 -0.12379579 0.060397997
-0.27243164 -0.12371944 0.06036979
-0.27262366 -0.1236317 0.060385361
-0.27279559 -0.12355087 0.060414828
-0.27296713 -0.12347715 0.060397025
-0.27317438 -0.1233935 0.060338765
-0.27336159 -0.12331926 0.060277112
-0.27351546 -0.12324356 0.060326226
-0.27375412 -0.1231517 0.060228679
-0.27394891 -0.12306274 0.060244247
-0.2741141 -0.12298286 0.060287561
-0.27427161 -0.12290572 0.060335517
-0.27450031 -0.12281914 0.06023223
-0.2747165 -0.12272914 0.060190093
-0.27487022 -0.12265351 0.060239211
-0.27505255 -0.12257127 0.060246743
-0.27526826 -0.12248911 0.060152721
-0.27543861 -0.12241101 0.060168356
-0.27564305 -0.12232826 0.060112406
-0.27581474 -0.12224549 0.060155712
-0.27601913 -0.1221682 0.06006287
-0.27621517 -0.12208308 0.060048457
-0.27639994 -0.12200484 0.060021393
-0.27657568 -0.12192095 0.060060069
-0.27676383 -0.12184138 0.060031846
-0.27697027 -0.12174944 0.060032394
-0.2771121 -0.12167791 0.060089611
-0.27731684 -0.12159639 0.060024448
-0.27752227 -0.12150981 0.059991565
-0.27770141 -0.12143289 0.059972577
-0.27788702 -0.12135851 0.059916694
-0.27808401 -0.12128874 0.059795059
-0.27828974 -0.12121985 0.059641112
-0.2784563 -0.12111578 0.05984468
-0.27863318 -0.12102986 0.059893727
-0.27881306 -0.12095379 0.059866689
-0.27899134 -0.12086843 0.059907656
-0.27919608 -0.12078843 0.059832118
-0.27937648 -0.12070994 0.059820056
-0.27957281 -0.12062367 0.059812553
-0.27974957 -0.12054373 0.059821256
-0.27996215 -0.12045889 0.059754908
-0.28014719 -0.12037986 0.059732459
-0.28032464 -0.12030352 0.059714638
-0.2804983 -0.12022853 0.059699133
-0.28069788 -0.12015675 0.059583254
-0.28088522 -0.12006687 0.059627667
-0.28105128 -0.11998846 0.059658296
-0.28121307 -0.11991738 0.059652053
-0.2814061 -0.11983988 0.059594989
-0.28159541 -0.11975742 0.059582904
-0.28177124 -0.11967128 0.059636574
-0.28195307 -0.11959147 0.05962912
-0.2821587 -0.11951142 0.059551254
-0.28233016 -0.11943943 0.059521928
-0.28251845 -0.11935353 0.059536364
-0.28269669 -0.11927547 0.05952777
-0.28287539 -0.11919773 0.0595157
-0.28306082 -0.11912055 0.059479415
-0.28324836 -0.11903785 0.059474252
-0.28343204 -0.11896333 0.059425279
-0.28361103 -0.11887917 0.059455879
-0.28380883 -0.11878887 0.05947144
-0.28398407 -0.11871656 0.059432872
-0.28418452 -0.11863881 0.059355035
-0.28435829 -0.11855868 0.059374124
-0.2845417 -0.11847749 0.059371267
-0.28471267 -0.11840656 0.059336185
-0.28490922 -0.11831953 0.059333291
-0.28509843 -0.11823881 0.059309673
-0.28526318 -0.11816014 0.059346084
-0.28544542 -0.11807845 0.059350152
-0.28563476 -0.1180019 0.059297711
-0.2858144 -0.11792628 0.059268352
-0.28600636 -0.11784808 0.059219364
-0.2861712 -0.11775766 0.059335321
-0.28632998 -0.11768639 0.059339464
-0.28654322 -0.11761279 0.059194721
-0.28674728 -0.1175243 0.059179123
-0.28692356 -0.11745084 0.059145175
-0.28710502 -0.1173734 0.059122726
-0.28729406 -0.1172897 0.059119865
-0.28747073 -0.11720844 0.059137791
-0.2876457 -0.11714288 0.059054263
-0.28779975 -0.11708117 0.059007689
-0.28799593 -0.11698225 0.059086651
-0.28818974 -0.11688541 0.059158713
-0.28832334 -0.11680533 0.059298974
-0.28851596 -0.1167431 0.059139308
-0.28871232 -0.11668041 0.058971554
-0.28889024 -0.11659606 0.059006769
-0.28908265 -0.1165117 0.058998123
-0.28928694 -0.11642971 0.058937564
-0.28945372 -0.11635811 0.058919773
-0.2896564 -0.11627495 0.05887191
-0.28981915 -0.11619938 0.05889333
-0.28999177 -0.11612434 0.058881298
-0.29016659 -0.1160417 0.058914214
-0.29034972 -0.11596301 0.058895223
-0.29055119 -0.11587921 0.058855426
-0.29072219 -0.11579742 0.058894128
-0.29087481 -0.11571533 0.058990516
-0.29106298 -0.11565881 0.058805492
-0.29124719 -0.11558201 0.058770362
-0.29141659 -0.11550925 0.058752567
-0.29160914 -0.11542093 0.058770448
-0.29178697 -0.11534205 0.058768764
-0.29195759 -0.11526535 0.058774028
-0.2921389 -0.11519119 0.058729678
-0.29232147 -0.11512478 0.058628835
-0.29251406 -0.11503085 0.058684755
-0.29268727 -0.11494589 0.058738425
-0.29286179 -0.11487492 0.058692947
-0.29303822 -0.11480073 0.058663603
-0.29322845 -0.1147282 0.058581188
-0.29341191 -0.11464579 0.058586411
-0.29359582 -0.11455759 0.058629673
-0.29376221 -0.11449464 0.05855424
-0.2939465 -0.11440695 0.058592897
-0.29413074 -0.1143259 0.058586583
-0.29430318 -0.11425296 0.05856071
-0.2944822 -0.11417016 0.05858209
-0.29466891 -0.1141009 0.058488149
-0.29484957 -0.1140138 0.058533728
-0.29500914 -0.11394015 0.058551706
-0.29518685 -0.11387777 0.058438197
-0.29537165 -0.1137985 0.05841805
-0.2955597 -0.113702 0.05850511
-0.29571053 -0.11361867 0.058615346
-0.29592335 -0.1135478 0.058453303
-0.2960946 -0.11347371 0.058438972
-0.29626516 -0.11340688 0.058377359
-0.29644245 -0.1133379 0.058309965
-0.29663497 -0.11324146 0.058383178
-0.29681146 -0.11316182 0.058390729
-0.29699171 -0.11309136 0.058324475
-0.29715616 -0.11302044 0.058309
-0.29733723 -0.112943 0.05828771
-0.29752067 -0.11286179 0.058284871
-0.29770142 -0.11278365 0.058269352
-0.29787323 -0.11270184 0.058305733
-0.29803768 -0.11263128 0.058287948
-0.29821032 -0.11256284 0.058230951
-0.29839474 -0.11249662 0.058123183
-0.29856682 -0.11241556 0.058153793
-0.29873982 -0.11233745 0.058161356
-0.29891935 -0.11225612 0.058171198
-0.2991226 -0.11218069 0.058069143
-0.29929936 -0.11208955 0.058153939
-0.29950458 -0.11199459 0.058178686
-0.29968235 -0.11192049 0.058144733
-0.29986098 -0.1118504 0.058080796
-0.30003637 -0.11176683 0.058118325
-0.30021307 -0.11170508 0.058003664
-0.30039239 -0.11162315 0.058018111
-0.30057237 -0.11154416 0.058010668
-0.30074838 -0.11146303 0.058029748
-0.30092582 -0.11138973 0.057991177
-0.30110383 -0.1113201 0.057926089
-0.30125323 -0.11126946 0.05781842
-0.30142659 -0.11119443 0.05780407
-0.30161223 -0.11110835 0.057827741
-0.30181324 -0.11100728 0.057906687
-0.30198941 -0.11092626 0.057924613
-0.3021661 -0.11084973 0.057910256
-0.30234626 -0.11077338 0.057884362
-0.30252293 -0.11069704 0.057868853
-0.30269918 -0.11061581 0.05788793
-0.30287316 -0.11054847 0.057819393
-0.30303416 -0.11048962 0.057732444
-0.30319339 -0.1104061 0.057818446
-0.30338386 -0.11033873 0.057700288
-0.30358237 -0.11023436 0.057809226
-0.30375922 -0.11016542 0.057742983
-0.30392596 -0.11009485 0.057718277
-0.30410558 -0.11000975 0.057753485
-0.30428874 -0.10994087 0.057667632
-0.30446842 -0.10985862 0.057683241
-0.30464485 -0.10978732 0.057634298
-0.3048082 -0.1097164 0.057622284
-0.3049944 -0.10963464 0.057614818
-0.30513442 -0.10958883 0.057502568
-0.30534065 -0.10948393 0.057591885
-0.30552682 -0.1094032 0.057577498
-0.30570292 -0.1093317 0.057530858
-0.30587676 -0.10924425 0.057599515
-0.30605626 -0.10916886 0.057569019
-0.30623287 -0.10908949 0.057574257
-0.30640912 -0.10901487 0.057548366
-0.30658504 -0.10894363 0.057500575
-0.30675781 -0.10887174 0.057466637
-0.30694175 -0.10878216 0.057519127
-0.30711851 -0.10870257 0.057525516
-0.30729482 -0.10862689 0.05750655
-0.30747029 -0.10855771 0.057446077
-0.30764613 -0.10848496 0.057408668
-0.30779615 -0.10842115 0.057388619
-0.30799067 -0.10832519 0.057452612
-0.3081575 -0.10825153 0.057448659
-0.30833274 -0.10818227 0.057389345
-0.30852556 -0.10809809 0.057378396
-0.30869669 -0.10803404 0.057296026
-0.30887643 -0.10795534 0.057287425
-0.30904108 -0.10787722 0.057320379
-0.3091968 -0.10779952 0.057377554
-0.30936718 -0.1077236 0.057378206
-0.30957359 -0.10764592 0.0572819
-0.30975714 -0.10756364 0.057285972
-0.30992585 -0.10749526 0.057240512
-0.31010297 -0.10741567 0.057245754
-0.31025869 -0.10734 0.057289109
-0.31045917 -0.10726088 0.057220485
-0.31062201 -0.10719222 0.057194643
-0.31080765 -0.10711376 0.057166424
-0.31099582 -0.10703655 0.057122055
-0.31115609 -0.1069665 0.05711351
-0.31133473 -0.10689233 0.057077244
-0.31151882 -0.10680897 0.057087075
-0.31170288 -0.10672596 0.057094593
-0.31187811 -0.10665366 0.057056032
-0.31205201 -0.10658568 0.056992114
-0.31221321 -0.10651266 0.057000857
-0.31239063 -0.10643311 0.057004947
-0.31256095 -0.10636705 0.056938719
-0.31275871 -0.10626829 0.057011921
-0.31291807 -0.10619304 0.057041429
-0.31309158 -0.10612573 0.056974046
-0.31328601 -0.10603777 0.056983843
-0.31346285 -0.10595271 0.057027135
-0.31361717 -0.10590022 0.056917146
-0.3137958 -0.10582572 0.05688319
-0.31398407 -0.10574747 0.056845739
-0.31413025 -0.10569367 0.056769207
-0.31431282 -0.10560132 0.056844771
-0.31449699 -0.10551231 0.056892641
-0.31467029 -0.10543764 0.056875993
-0.31481791 -0.10539374 0.056727979
-0.31501627 -0.10529673 0.056787342
-0.3151969 -0.10521728 0.056781046
-0.31535581 -0.10513189 0.056880876
-0.31554851 -0.10505605 0.056813434
-0.31574088 -0.10498716 0.056699879
-0.31592903 -0.10490284 0.056703936
-0.31610021 -0.10482708 0.056701131
-0.31626263 -0.10475928 0.056670669
-0.31646147 -0.10466902 0.056682762
-0.31661361 -0.10461241 0.056607373
-0.31680042 -0.10451987 0.056671377
-0.31697771 -0.10443698 0.056698527
-0.31715083 -0.10435765 0.056714155
-0.31733501 -0.10429374 0.056591406
-0.31751201 -0.10421726 0.056575894
-0.317698 -0.10413831 0.056549974
-0.31785801 -0.10407023 0.056528747
-0.31803668 -0.10398521 0.056566268
-0.31822431 -0.10390316 0.056556486
-0.31837875 -0.10383093 0.056580242
-0.31852791 -0.10379973 0.056341149
-0.31870529 -0.10370256 0.056465141
-0.31889346 -0.10359482 0.056628294
-0.31909728 -0.10352134 0.056511246
-0.31928143 -0.10344151 0.056496866
-0.31944242 -0.10338148 0.056417994
-0.31964129 -0.10328832 0.056449689
-0.31980979 -0.10322359 0.056380019
-0.31998134 -0.10314851 0.056371432
-0.32016274 -0.10307838 0.056299418
-0.32032281 -0.10300604 0.056307014
-0.32048285 -0.10293388 0.056313463
-0.32067731 -0.10284048 0.056360155
-0.32086512 -0.10277208 0.056256983
-0.32106072 -0.10268564 0.056252949
-0.32121915 -0.1026208 0.056214433
-0.32138598 -0.10254578 0.056219712
-0.32157341 -0.10246094 0.056229532
-0.32175633 -0.10238792 0.056172494
-0.32192549 -0.10231748 0.056139715
-0.32210907 -0.10222704 0.056199122
-0.3222886 -0.1021396 0.056250475
-0.3224515 -0.10207567 0.056192346
-0.32264993 -0.10198932 0.056179073
-0.32283014 -0.10190903 0.056179695
-0.32300413 -0.10184271 0.056104243
-0.32319909 -0.10175434 0.056115188
-0.3233614 -0.10168745 0.05607897
-0.32352015 -0.10161857 0.056066975
-0.32368153 -0.10154937 0.056049198
-0.32386461 -0.10147612 0.055993322
-0.32406223 -0.10138775 0.055996194
-0.3242397 -0.10130496 0.056022182
-0.32443535 -0.10121629 0.056033138
-0.32460272 -0.10114901 0.055984214
-0.3247894 -0.10107043 0.055953693
-0.32495591 -0.10099743 0.055946279
-0.32512319 -0.10091984 0.055967689
-0.32532477 -0.10083328 0.055946343
-0.32549134 -0.10076381 0.055914722
-0.32566497 -0.10069086 0.055885378
-0.32586518 -0.10060304 0.055876717
-0.32602781 -0.100536 0.0558405
-0.32620367 -0.10045664 0.055848055
-0.32637143 -0.10038562 0.055823345
-0.32655904 -0.10030611 0.055796269
-0.32673889 -0.10022142 0.05582802
-0.32690698 -0.10015008 0.055804461
-0.32707092 -0.10009094 0.055710595
-0.32729834 -0.099978641 0.055786006
-0.32746372 -0.099904962 0.055786673
-0.32763159 -0.099831007 0.055781566
-0.3278212 -0.099752314 0.05574296
-0.3279812 -0.099692203 0.055667549
-0.32815954 -0.099613428 0.05566356
-0.3283667 -0.099520318 0.055669863
-0.32853335 -0.099451333 0.055634782
-0.32870007 -0.099379249 0.055620454
-0.328897 -0.099291012 0.055624485
-0.32909495 -0.099204548 0.055613525
-0.32926017 -0.099137545 0.055569224
-0.32943326 -0.099054486 0.055610217
-0.32961154 -0.098976418 0.055601612
-0.32977086 -0.098920017 0.055503152
-0.32996979 -0.098829709 0.055515237
-0.33017468 -0.098737612 0.055521548
-0.33034253 -0.098661795 0.055529125
-0.33049524 -0.098599672 0.055489473
-0.33068833 -0.098503321 0.055560388
-0.33088154 -0.098431863 0.055461813
-0.33105278 -0.098357596 0.055448629
-0.33123985 -0.09826646 0.055502258
-0.33141172 -0.098197006 0.055454478
-0.33158559 -0.098122433 0.05543552
-0.33176574 -0.09805081 0.055377342
-0.33196613 -0.097965129 0.055353686
-0.33214918 -0.097884774 0.055346228
-0.33232307 -0.097805083 0.05536186
-0.33249825 -0.097731791 0.055330217
-0.33266553 -0.097665392 0.05527553
-0.33285403 -0.09757109 0.055346452
-0.33303124 -0.097500607 0.05528944
-0.33320552 -0.097428575 0.055252027
-0.33336562 -0.097363159 0.055212356
-0.33357498 -0.097269908 0.055212885
-0.33375126 -0.097195625 0.055184696
-0.33392021 -0.097124919 0.055154219
-0.33412376 -0.097023927 0.0552251
-0.3342973 -0.096955419 0.055165783
-0.33449465 -0.096869215 0.055154823
-0.33467495 -0.096792951 0.055127777
-0.3348451 -0.09671393 0.05515033
-0.33504614 -0.096618965 0.055187777
-0.33522072 -0.096556619 0.055083498
-0.33540353 -0.096480086 0.055050679
-0.33559465 -0.096389525 0.055088162
-0.33575863 -0.096324943 0.05503118
-0.33591631 -0.096258074 0.05500881
-0.33611375 -0.096174709 0.054978248
-0.33629221 -0.096094012 0.054986943
-0.3364864 -0.096012101 0.054956391
-0.33667269 -0.095934369 0.054921255
-0.33684394 -0.095859602 0.054911532
-0.337028 -0.095770821 0.05495825
-0.33722082 -0.095692903 0.054904643
-0.33741495 -0.095602363 0.054932892
-0.33759457 -0.095532171 0.054866642
-0.33778155 -0.095442958 0.054907598
-0.33797973 -0.09535943 0.054875884
-0.33815551 -0.095282473 0.054867294
-0.33831805 -0.095206656 0.05489102
-0.33850276 -0.095133349 0.054830529
-0.33868045 -0.095056742 0.054813858
-0.33887771 -0.094974481 0.054776382
-0.33909044 -0.09487804 0.054788437
-0.33926213 -0.094805777 0.054760259
-0.33943126 -0.094729915 0.054764371
-0.33960816 -0.094660774 0.054699276
-0.33978018 -0.094590403 0.054657262
-0.33997288 -0.094502702 0.054670535
-0.34014851 -0.094428703 0.054642346
-0.3403413 -0.094343163 0.054640613
-0.34053457 -0.09425725 0.05464004
-0.34073147 -0.094169706 0.054639466
-0.34090924 -0.094093725 0.054618187
-0.34110618 -0.094004318 0.054630287
-0.34127507 -0.093935512 0.054587126
-0.34147561 -0.093838558 0.054639567
-0.34167325 -0.09375681 0.054597482
-0.34183428 -0.093696073 0.054523215
-0.34204808 -0.093602039 0.054515667
-0.34222001 -0.093524426 0.05452323
-0.3423861 -0.0934567 0.054481234
-0.34258512 -0.093361944 0.054523297
-0.34276593 -0.093291402 0.054455899
-0.3429589 -0.093206808 0.054447249
-0.34313315 -0.093133062 0.054421373
-0.34332472 -0.093048081 0.054419655
-0.34351406 -0.092967302 0.054396033
-0.3437033 -0.092882834 0.054397784
-0.34388995 -0.092802912 0.054376479
-0.34407067 -0.092728838 0.054333281
-0.34426162 -0.092642933 0.054339632
-0.34447035 -0.092551164 0.0543321
-0.3446283 -0.092488065 0.054283209
-0.34480479 -0.092410795 0.054274619
-0.34501198 -0.092320718 0.054260172
-0.3451845 -0.092245549 0.054249279
-0.25576758 -0.13410994 0.040142909
-0.25597912 -0.13402912 0.040052414
-0.25618294 -0.1339514 0.03996424
-0.25638232 -0.13387276 0.039895684
-0.25658366 -0.13379544 0.039812133
-0.25677794 -0.13371603 0.03976433
-0.25696194 -0.13363846 0.039735008
-0.25714967 -0.13356212 0.039686084
-0.25733 -0.1334862 0.039656758
-0.25751355 -0.13340764 0.039635513
-0.2576808 -0.13333109 0.039650038
-0.25784916 -0.13325453 0.039661098
-0.25801659 -0.13317806 0.039674476
-0.25818875 -0.13310017 0.039683226
-0.25835645 -0.13302511 0.039686214
-0.25851247 -0.13294913 0.039730746
-0.25866681 -0.13287321 0.03977989
-0.25882393 -0.1327959 0.039830178
-0.25898394 -0.13271984 0.039863173
-0.25913453 -0.13264138 0.039941147
-0.259278 -0.13256572 0.040021438
-0.25942433 -0.13248862 0.04010288
-0.25956395 -0.13241298 0.040194716
-0.25971004 -0.13233583 0.040277321
-0.25984865 -0.13226013 0.040372618
-0.25999096 -0.13218296 0.040466744
-0.26012903 -0.13210715 0.040564355
-0.26027429 -0.13202986 0.040650409
-0.26040792 -0.13195401 0.040761854
-0.26053974 -0.13187811 0.040879071
-0.26067173 -0.13180213 0.040996287
-0.26079902 -0.13172469 0.041137725
-0.26092601 -0.13164856 0.041271102
-0.26105195 -0.1315695 0.041427527
-0.2611703 -0.13149315 0.041588593
-0.26128793 -0.13141525 0.041762333
-0.2614044 -0.1313372 0.041940685
-0.2615163 -0.13125895 0.042134035
-0.26162148 -0.1311805 0.042349312
-0.25717893 -0.13031241 0.061690781
-0.25739658 -0.130226 0.061619863
-0.2575725 -0.13013676 0.061694313
-0.25778931 -0.13005054 0.061624553
-0.25795528 -0.12996793 0.061684042
-0.25815856 -0.12988146 0.061656959
-0.25839233 -0.12978753 0.061588313
-0.25853479 -0.12970233 0.061736628
-0.25876406 -0.12962769 0.061550409
-0.25900304 -0.12952739 0.061509401
-0.25917226 -0.12945046 0.061520461
-0.25933754 -0.12936629 0.061592624
-0.25956541 -0.1292906 0.06141793
-0.25977945 -0.1292073 0.061336659
-0.26000449 -0.12909436 0.061423644
-0.2601983 -0.12900837 0.061421961
-0.26040092 -0.12892118 0.061401807
-0.26059207 -0.12883517 0.061408199
-0.260802 -0.12874863 0.061361507
-0.26099792 -0.12867221 0.061288349
-0.26117972 -0.12858765 0.061313219
-0.26134104 -0.12850168 0.0614096
-0.26158768 -0.12840712 0.061306328
-0.26175371 -0.12833263 0.061310485
-0.26195666 -0.12825732 0.061208479
-0.26215857 -0.12815788 0.061273631
-0.26233688 -0.12807709 0.061283514
-0.26258194 -0.12798509 0.061167568
-0.26276553 -0.1278955 0.061221249
-0.26293182 -0.12782142 0.061221939
-0.26315179 -0.12773141 0.061168306
-0.26333606 -0.12764388 0.061205838
-0.2635417 -0.1275623 0.061138421
-0.26374406 -0.12747285 0.061134405
-0.26391524 -0.12739572 0.06114085
-0.2641274 -0.12730937 0.061086088
-0.26430923 -0.12722769 0.061091356
-0.26452386 -0.12713599 0.061065406
-0.26473695 -0.12704228 0.061057895
-0.26489165 -0.12697147 0.061071306
-0.26514152 -0.12688819 0.06088157
-0.26532856 -0.12679367 0.060958289
-0.26550651 -0.12671795 0.060934752
-0.26566288 -0.12663758 0.061008088
-0.26587537 -0.12654428 0.060999442
-0.26607937 -0.12646411 0.060927413
-0.2662611 -0.12637703 0.060969561
-0.26646 -0.12630455 0.060860649
-0.26664186 -0.12621556 0.060915485
-0.26685578 -0.12612706 0.060869943
-0.26707393 -0.12603313 0.06084859
-0.26725978 -0.12594898 0.060858451
-0.26745534 -0.12586221 0.060856763
-0.26764917 -0.12579197 0.060747877
-0.26786172 -0.1256934 0.06077496
-0.26802504 -0.12562487 0.060746841
-0.26823309 -0.12553203 0.060748577
-0.26839676 -0.1254552 0.060775794
-0.26861084 -0.12537207 0.060693361
-0.26880789 -0.12528615 0.060681291
-0.26898047 -0.12520891 0.060684271
-0.2691735 -0.12512241 0.060688347
-0.26936606 -0.12504461 0.060634792
-0.26954958 -0.12496523 0.060619302
-0.26973799 -0.12488469 0.060596883
-0.26991725 -0.12479803 0.060643658
-0.27014515 -0.12471434 0.060523145
-0.27033383 -0.124623 0.060573347
-0.27050418 -0.12455031 0.060552131
-0.27072349 -0.12446316 0.060481206
-0.27090159 -0.12437194 0.060562566
-0.27109948 -0.12429177 0.060508996
-0.27128002 -0.12421251 0.060501583
-0.2714614 -0.1241312 0.060505688
-0.27168286 -0.12403597 0.060483187
-0.27188051 -0.12394927 0.060474575
-0.27207482 -0.12387358 0.06040141
-0.27224836 -0.1237954 0.060407855
-0.27243635 -0.12371843 0.060362384
-0.27262172 -0.1236362 0.060360715
-0.27280286 -0.12355058 0.060394801
-0.27297413 -0.12347443 0.060394328
-0.27319503 -0.12338471 0.060336083
-0.2733494 -0.12330911 0.060382929
-0.27352974 -0.12323556 0.060337476
-0.27375466 -0.1231498 0.060240023
-0.27391732 -0.12306427 0.060329489
-0.2741524 -0.12297179 0.060247004
-0.27432695 -0.12288962 0.060277641
-0.27451658 -0.12281936 0.060181439
-0.27471384 -0.12273897 0.060131337
-0.27490649 -0.12264468 0.060189597
-0.27507758 -0.12256928 0.060184509
-0.27525473 -0.12249324 0.060165584
-0.27544802 -0.12241206 0.060132775
-0.27564779 -0.12232527 0.060118388
-0.27582642 -0.12224738 0.060107522
-0.27600965 -0.12216321 0.06012547
-0.27620602 -0.12208609 0.060055759
-0.2763851 -0.12200595 0.06005872
-0.27658635 -0.12191479 0.060069703
-0.27678207 -0.12182981 0.060055327
-0.27696055 -0.12175233 0.060042161
-0.27712959 -0.121677 0.060042851
-0.27732241 -0.12159941 0.059986994
-0.27752712 -0.12151264 0.059957609
-0.27770537 -0.12143544 0.059943285
-0.2778838 -0.1213556 0.059946254
-0.27806011 -0.12128061 0.05992271
-0.27824426 -0.12120314 0.059892237
-0.27842429 -0.12112699 0.059865221
-0.27862123 -0.12103774 0.059876215
-0.27880642 -0.12095813 0.059857264
-0.27900657 -0.12087033 0.059848644
-0.27918798 -0.12079223 0.059830852
-0.27936476 -0.12071516 0.059819989
-0.27956289 -0.12063266 0.059781399
-0.27975398 -0.1205472 0.05978433
-0.27991205 -0.12047999 0.059763148
-0.28011614 -0.12039755 0.059706111
-0.28028888 -0.12031906 0.05971716
-0.28048486 -0.12023312 0.059708554
-0.28065282 -0.12015861 0.059706934
-0.28082603 -0.1200867 0.059671871
-0.2810297 -0.12000479 0.059612527
-0.28120932 -0.11992054 0.059642009
-0.28139907 -0.11984143 0.059605751
-0.28157285 -0.11976705 0.059585676
-0.28174794 -0.11968379 0.059622087
-0.28192538 -0.1196115 0.059576638
-0.28212053 -0.11952916 0.059546135
-0.28229812 -0.11945393 0.059520278
-0.28248256 -0.11937261 0.059515163
-0.2826547 -0.11929116 0.059548121
-0.28284141 -0.11921121 0.059526853
-0.28303215 -0.1191337 0.059476763
-0.28322989 -0.11905358 0.059423193
-0.28340578 -0.11896759 0.059475735
-0.2836141 -0.11888362 0.059416376
-0.28377661 -0.11881408 0.059397489
-0.28396839 -0.11872374 0.059431545
-0.28413665 -0.11865079 0.059418395
-0.28430849 -0.11857659 0.059402943
-0.28449059 -0.11849819 0.059385151
-0.28467926 -0.11842058 0.059341978
-0.28486931 -0.11834405 0.059287269
-0.28504941 -0.11826093 0.059307523
-0.28522831 -0.118177 0.059337009
-0.28539735 -0.11810134 0.05934
-0.28558403 -0.11803444 0.059229977
-0.28578624 -0.117952 0.059178703
-0.2859602 -0.11786856 0.059219725
-0.28613991 -0.11778934 0.059214614
-0.28630605 -0.11770786 0.059266035
-0.28650096 -0.11762831 0.05921708
-0.28671274 -0.11753773 0.059192292
-0.28686833 -0.11746837 0.059193015
-0.2870549 -0.11739086 0.059155621
-0.28725362 -0.11730251 0.059155069
-0.28741321 -0.11722393 0.059206508
-0.28756499 -0.11716001 0.059181888
-0.28775519 -0.11709902 0.059021123
-0.2879588 -0.11701104 0.059003271
-0.28814048 -0.11692569 0.059033897
-0.28832671 -0.11684442 0.059023015
-0.28848866 -0.11676344 0.059083667
-0.28868797 -0.11668076 0.059042774
-0.28887439 -0.11660908 0.058966175
-0.28906345 -0.11652163 0.058988713
-0.28921473 -0.11645352 0.058994059
-0.28938958 -0.11638037 0.058962449
-0.28957719 -0.11630594 0.058900841
-0.2897504 -0.11622657 0.058916509
-0.28994203 -0.11613697 0.058945946
-0.29010603 -0.11605269 0.059022732
-0.29028007 -0.11599939 0.058858566
-0.29048079 -0.11592507 0.058756571
-0.29065505 -0.11584201 0.058794133
-0.29083359 -0.11575331 0.058857046
-0.29100519 -0.1156882 0.058780491
-0.29120371 -0.11559621 0.058805309
-0.29136682 -0.11553761 0.058710337
-0.29154557 -0.11544898 0.058772095
-0.29173252 -0.11536485 0.058778495
-0.29191041 -0.11529186 0.058736503
-0.29207966 -0.11522509 0.0586784
-0.29225206 -0.11514522 0.058699835
-0.29245514 -0.11505952 0.058668144
-0.2926397 -0.11497848 0.058660723
-0.29281557 -0.11490963 0.058596835
-0.29299811 -0.11482592 0.058613628
-0.29317218 -0.11474854 0.058613151
-0.29334715 -0.11466617 0.058643792
-0.2935223 -0.1145905 0.058628328
-0.29370871 -0.1145061 0.058638189
-0.2938737 -0.11443444 0.058626212
-0.29404587 -0.11436095 0.058604989
-0.29423562 -0.11427525 0.05861368
-0.29442614 -0.11420511 0.058514021
-0.29459789 -0.11412418 0.058544677
-0.29477388 -0.11405069 0.058511917
-0.29495564 -0.1139731 0.058489516
-0.29513079 -0.11389845 0.058467127
-0.29532528 -0.11382233 0.05839628
-0.2954852 -0.11373393 0.058513418
-0.29566273 -0.11365619 0.058504865
-0.29584187 -0.11358181 0.05846864
-0.29601446 -0.11351068 0.05843012
-0.29619917 -0.11342313 0.058466505
-0.2963779 -0.11334842 0.05843373
-0.29655069 -0.1132872 0.058327205
-0.29673439 -0.1132157 0.058257531
-0.29691419 -0.11313526 0.058260504
-0.29710159 -0.11305449 0.058242694
-0.29728699 -0.11296883 0.058264084
-0.29745996 -0.11288041 0.058342002
-0.29765096 -0.11280939 0.058246948
-0.29784307 -0.11273161 0.05819454
-0.2980302 -0.1126508 0.058177896
-0.29818553 -0.11258733 0.058139428
-0.2983703 -0.11249959 0.058176961
-0.29856136 -0.1124077 0.058223691
-0.29874337 -0.11233459 0.058170166
-0.29889184 -0.11226111 0.058220476
-0.29908428 -0.11218625 0.05814733
-0.29925993 -0.11210442 0.058172204
-0.29942387 -0.11203323 0.058160231
-0.29959354 -0.1119561 0.058171287
-0.29979771 -0.11187177 0.058126926
-0.29999897 -0.11179094 0.058067575
-0.30017325 -0.11171871 0.058031365
-0.3003554 -0.11163332 0.05806084
-0.30053169 -0.11155359 0.058069572
-0.30071288 -0.11148101 0.058014896
-0.30089146 -0.11141416 0.057929106
-0.30107054 -0.11133099 0.057952821
-0.30124587 -0.11124575 0.058001906
-0.30142394 -0.11117761 0.057926491
-0.30160078 -0.11110237 0.057902947
-0.30178067 -0.11102409 0.057890926
-0.30195659 -0.11094181 0.057918109
-0.30212486 -0.11088176 0.057817355
-0.30231029 -0.11079253 0.057862952
-0.30246699 -0.11072184 0.057869438
-0.3026703 -0.11064011 0.057810094
-0.30285019 -0.11056336 0.057787701
-0.3030231 -0.11048394 0.057804506
-0.30320621 -0.11040558 0.057783261
-0.30336276 -0.11033124 0.057815108
-0.30355904 -0.11024939 0.057777673
-0.3037259 -0.11018149 0.057734564
-0.30391866 -0.11009715 0.057724819
-0.30407548 -0.11002929 0.057711706
-0.30424857 -0.10994962 0.057729669
-0.30443484 -0.10986885 0.057715323
-0.30463088 -0.10978611 0.057684816
-0.30480731 -0.1097063 0.057693556
-0.30498707 -0.10962588 0.057696521
-0.30515417 -0.10953785 0.05778943
-0.30534288 -0.10948007 0.057611391
-0.30551913 -0.10940578 0.057583239
-0.30569914 -0.10931998 0.057621934
-0.30585623 -0.10924692 0.057643406
-0.30601597 -0.10918286 0.057595707
-0.306205 -0.10910577 0.057547919
-0.30638853 -0.10901858 0.057585455
-0.306548 -0.10895583 0.057529688
-0.30675715 -0.10886335 0.057525657
-0.30693996 -0.10878461 0.057507865
-0.30712304 -0.10870356 0.057505049
-0.30728227 -0.10864057 0.057451591
-0.30747798 -0.10855695 0.057427999
-0.30764166 -0.108483 0.057435617
-0.30780086 -0.10841899 0.057389073
-0.30797929 -0.10834867 0.057327479
-0.3081769 -0.10825216 0.057385728
-0.30834734 -0.10817434 0.057399094
-0.3085283 -0.10808864 0.057434335
-0.30872351 -0.10800813 0.057391148
-0.30888385 -0.10793701 0.05738955
-0.30907825 -0.10786024 0.057323314
-0.30925745 -0.10778431 0.057297453
-0.30943215 -0.1077158 0.057234734
-0.30961394 -0.10762735 0.057286106
-0.30979002 -0.10755212 0.057264872
-0.30996937 -0.10747543 0.05724363
-0.31011829 -0.10741583 0.057198264
-0.3102954 -0.10733608 0.057204694
-0.31049293 -0.1072447 0.057228357
-0.3106541 -0.10718236 0.057164513
-0.31080374 -0.10711958 0.057138737
-0.31100503 -0.10702533 0.057170466
-0.31119531 -0.10694022 0.057173397
-0.31139541 -0.10685111 0.057173997
-0.31156641 -0.10679373 0.057046726
-0.31174868 -0.10670675 0.057086576
-0.31192526 -0.10662977 0.057075717
-0.31208882 -0.10656775 0.057002641
-0.31226656 -0.10648686 0.057014834
-0.31244177 -0.10640541 0.057038561
-0.31261832 -0.10633743 0.056966599
-0.3128159 -0.10624771 0.05697874
-0.31297907 -0.10618603 0.056904517
-0.3131493 -0.10610323 0.056952465
-0.31332514 -0.10602064 0.056981947
-0.31349894 -0.10595202 0.056922689
-0.31368819 -0.10587093 0.056901414
-0.31385264 -0.10579749 0.056903265
-0.31405145 -0.10571282 0.056877367
-0.31421942 -0.10563748 0.056881513
-0.31439674 -0.10555915 0.056877568
-0.31456679 -0.1054927 0.056814849
-0.31474671 -0.10541475 0.056800522
-0.31491718 -0.10533337 0.056838095
-0.31508803 -0.10526469 0.056788057
-0.31531069 -0.10516147 0.056816269
-0.3154614 -0.105096 0.056805469
-0.31565955 -0.10501959 0.05672539
-0.31582958 -0.10492755 0.056836739
-0.31602299 -0.10485598 0.056738224
-0.31618449 -0.10478418 0.056737781
-0.316347 -0.10471617 0.056708518
-0.31655115 -0.10463186 0.056664146
-0.31673679 -0.10454763 0.056675166
-0.31688184 -0.10448908 0.056634419
-0.31705713 -0.10442165 0.056562472
-0.3172403 -0.10433733 0.056581557
-0.31740248 -0.10425896 0.056623764
-0.3176088 -0.10416469 0.056640495
-0.31779683 -0.10409229 0.056563891
-0.31796482 -0.10401845 0.056557663
-0.31814548 -0.10394508 0.056509908
-0.31831571 -0.10387194 0.05649215
-0.31848311 -0.10379938 0.056479007
-0.3186709 -0.10372201 0.056437001
-0.31884813 -0.10364524 0.056422677
-0.3190124 -0.1035739 0.056410693
-0.31919366 -0.10348959 0.056435563
-0.31938523 -0.1033956 0.056494974
-0.31958655 -0.10330728 0.056486353
-0.31976297 -0.10323715 0.056429382
-0.31994709 -0.10316209 0.056382768
-0.32012728 -0.10307588 0.056423772
-0.32027605 -0.10301499 0.056387622
-0.32044527 -0.10294875 0.056326069
-0.32062113 -0.10286614 0.056355551
-0.32079557 -0.10279505 0.056311272
-0.32099938 -0.10269849 0.056351058
-0.32117414 -0.10263114 0.056280259
-0.32135201 -0.1025541 0.056265935
-0.32151353 -0.10248822 0.056225143
-0.32172254 -0.10240005 0.05619229
-0.32190603 -0.1023178 0.056196403
-0.32208821 -0.10223781 0.056188982
-0.3222416 -0.10217336 0.056163196
-0.32243919 -0.10208414 0.056171875
-0.32261363 -0.10200914 0.056154106
-0.32281461 -0.1019186 0.056161627
-0.32297754 -0.10185447 0.056104697
-0.32314783 -0.1017747 0.056131896
-0.3233158 -0.10169493 0.056166008
-0.32350835 -0.10161814 0.056105547
-0.32367745 -0.10154059 0.056121215
-0.32385787 -0.10146411 0.056095358
-0.32404137 -0.1013866 0.056067187
-0.32422394 -0.10131052 0.056032099
-0.32442877 -0.10121861 0.056037299
-0.32458606 -0.10115223 0.05601266
-0.32479104 -0.10104619 0.056113537
-0.32495365 -0.10099661 0.055958621
-0.32512057 -0.10091256 0.056025025
-0.32530764 -0.10084738 0.055902325
-0.32549646 -0.10075207 0.05597904
-0.32567868 -0.10067343 0.055962391
-0.32584447 -0.10060515 0.055925056
-0.32600099 -0.10054353 0.055870444
-0.32618684 -0.10046311 0.05585495
-0.3263649 -0.10038394 0.055854458
-0.32653141 -0.1003245 0.05575487
-0.32673094 -0.10022495 0.055828091
-0.32692891 -0.10014066 0.055802189
-0.32709503 -0.10007206 0.055765998
-0.32727808 -0.099983223 0.055816211
-0.32746014 -0.099905327 0.055794958
-0.32762587 -0.099846743 0.055691913
-0.32780117 -0.099768803 0.055691428
-0.32799697 -0.099675484 0.055733539
-0.32818902 -0.099596545 0.055689208
-0.32836872 -0.099519029 0.055672582
-0.32853758 -0.099446997 0.05565137
-0.3287009 -0.099376433 0.055637088
-0.32889527 -0.099291533 0.055626176
-0.32909766 -0.099199191 0.055641759
-0.32926655 -0.099124439 0.055638988
-0.32944116 -0.099051058 0.055609692
-0.32962716 -0.098971583 0.055587277
-0.32982376 -0.098889947 0.055547543
-0.33000499 -0.098805293 0.055574711
-0.33015734 -0.098746382 0.055514354
-0.33032659 -0.098679952 0.055453938
-0.33050984 -0.098587468 0.055528365
-0.33070028 -0.098505512 0.0555094
-0.33088115 -0.098435611 0.055437427
-0.33105639 -0.098364487 0.055390835
-0.33122846 -0.098286457 0.055400737
-0.33144286 -0.09818317 0.055454329
-0.33162647 -0.098104596 0.055433072
-0.33180106 -0.098026469 0.055436052
-0.33197144 -0.097972088 0.055290341
-0.3321352 -0.09789928 0.055289894
-0.33233112 -0.097811162 0.055296268
-0.33251336 -0.097731829 0.055284243
-0.33269334 -0.097650111 0.05529527
-0.33286643 -0.097571641 0.055305168
-0.33307454 -0.097474538 0.055335719
-0.33325633 -0.097401172 0.055284504
-0.3334389 -0.097321883 0.055271327
-0.33359832 -0.097259827 0.055210937
-0.33377761 -0.097179428 0.055215061
-0.33397642 -0.097086295 0.055246785
-0.33415845 -0.09701775 0.055162136
-0.33436942 -0.096920565 0.05518461
-0.334557 -0.096840724 0.055159885
-0.33473492 -0.09675993 0.055170931
-0.33489478 -0.096697509 0.055111699
-0.335078 -0.096610785 0.055146929
-0.33525443 -0.096541516 0.055084191
-0.33542907 -0.096469462 0.055045679
-0.33563319 -0.096376002 0.055063557
-0.33581191 -0.096304178 0.05501119
-0.33599132 -0.096224576 0.055009544
-0.33618158 -0.096137628 0.055025164
-0.33636439 -0.096059069 0.055006221
-0.33653393 -0.095990635 0.054958485
-0.3367056 -0.095915347 0.054951098
-0.33686659 -0.095854111 0.05488034
-0.33710948 -0.095730178 0.054988034
-0.3372879 -0.095658995 0.054932207
-0.33748227 -0.09556596 0.054976631
-0.33765981 -0.095480263 0.055022251
-0.33782673 -0.095417239 0.054945707
-0.33803162 -0.095335305 0.054882899
-0.33821374 -0.095262468 0.054827064
-0.33840552 -0.095170595 0.054871496
-0.33858541 -0.095098086 0.054820284
-0.33876333 -0.095021188 0.054804809
-0.33895081 -0.094938517 0.054799683
-0.33911154 -0.094873503 0.054755434
-0.33932805 -0.094777405 0.054753687
-0.33951366 -0.094692685 0.054768167
-0.33967799 -0.094624043 0.054737743
-0.33986592 -0.094543368 0.05471763
-0.34006754 -0.094452724 0.054723993
-0.34024048 -0.094385669 0.054656658
-0.34042922 -0.094302267 0.05465268
-0.34061411 -0.094224982 0.054618735
-0.34080535 -0.094133005 0.054665476
-0.34096792 -0.094070561 0.054598171
-0.34115747 -0.093992732 0.054553851
-0.34137899 -0.093884423 0.054620095
-0.34156471 -0.093806602 0.054587308
-0.34174091 -0.093728431 0.054585673
-0.34196192 -0.093605071 0.054755669
-0.34211445 -0.093561009 0.054593869
-0.34228718 -0.093498453 0.05449656
-0.34248024 -0.093415506 0.054476436
-0.34267372 -0.093332201 0.05445746
-0.3428587 -0.093249626 0.054459259
-0.34303424 -0.093176506 0.054425344
-0.34321871 -0.09309262 0.054437518
-0.34342077 -0.093004994 0.054421976
-0.34360394 -0.092926443 0.054401875
-0.34378666 -0.09285029 0.054366793
-0.34397843 -0.092767239 0.054351274
-0.34419352 -0.092669077 0.054367978
-0.34437084 -0.092598379 0.054312158
-0.34455156 -0.092514984 0.054332409
-0.34470314 -0.092465572 0.054209802
-0.34491429 -0.092365928 0.054248419
-0.34512216 -0.092271477 0.054261677
-0.25514892 -0.13437431 0.040217325
-0.25535434 -0.13429585 0.040129177
-0.2555674 -0.13421588 0.040028315
-0.25576726 -0.13413805 0.039952856
-0.25595817 -0.1340608 0.039900482
-0.25614941 -0.13398238 0.039855018
-0.25633675 -0.13390553 0.039810721
-0.25652745 -0.13382736 0.039765265
-0.25670657 -0.13375111 0.039741732
-0.25688195 -0.13367382 0.039736662
-0.25705191 -0.13359554 0.039754666
-0.25721899 -0.13351871 0.039771531
-0.25739026 -0.13344307 0.039767623
-0.25755292 -0.13336651 0.039796021
-0.257718 -0.1332899 0.03981749
-0.25787759 -0.13321352 0.039853964
-0.25803971 -0.13313839 0.0398743
-0.25819752 -0.13306212 0.03991539
-0.25834095 -0.13298631 0.03999687
-0.2584942 -0.13290885 0.040059879
-0.25863332 -0.13283443 0.040144823
-0.25878182 -0.13275841 0.040212456
-0.25892022 -0.13268128 0.040318158
-0.25905919 -0.13260542 0.040413484
-0.25920063 -0.13252947 0.040501889
-0.25933897 -0.13245355 0.040599525
-0.25947905 -0.13237891 0.040683314
-0.25962043 -0.13230146 0.040782094
-0.25975278 -0.13222548 0.040898189
-0.25988573 -0.13214943 0.041013133
-0.26001731 -0.13207193 0.041141905
-0.260149 -0.13199574 0.041261464
-0.26027429 -0.1319195 0.041400637
-0.26039323 -0.13184322 0.041559424
-0.26051012 -0.13176684 0.041725129
-0.26062667 -0.13168891 0.041902374
-0.26074469 -0.13161083 0.042076144
-0.26084709 -0.13153546 0.042278785
-0.25643998 -0.13063222 0.061751988
-0.25665039 -0.13054512 0.061707623
-0.25679842 -0.1304788 0.0617107
-0.25706106 -0.13037102 0.061648916
-0.25724843 -0.13028364 0.061676085
-0.2574608 -0.13019702 0.0616225
-0.25765863 -0.13011009 0.061615068
-0.25781801 -0.13002887 0.061684981
-0.25798142 -0.12996165 0.061647657
-0.25825 -0.1298514 0.061584707
-0.25843677 -0.12976259 0.061623417
-0.25861567 -0.12968577 0.0616045
-0.25877932 -0.1296154 0.061587937
-0.2590079 -0.12950918 0.06161847
-0.25925347 -0.12942153 0.061471418
-0.25945386 -0.12933193 0.061474353
-0.25965685 -0.12924609 0.061443843
-0.25985077 -0.12915987 0.061443336
-0.26004606 -0.12907559 0.061425533
-0.26025072 -0.12898833 0.061399639
-0.2604472 -0.12890249 0.061388742
-0.26064554 -0.12881686 0.061370932
-0.26081443 -0.12874396 0.061355509
-0.26099005 -0.12866063 0.061390787
-0.26118511 -0.12857866 0.061358001
-0.26141524 -0.12847719 0.061351635
-0.26159513 -0.12839061 0.061396129
-0.26178491 -0.12831962 0.061304547
-0.2619814 -0.12821953 0.061390504
-0.26218882 -0.12815021 0.061234325
-0.26236889 -0.12806761 0.061251149
-0.26259103 -0.12797545 0.061205603
-0.26280713 -0.12788481 0.061168153
-0.26299661 -0.12780327 0.06114921
-0.26316604 -0.12772185 0.061190274
-0.26334548 -0.12764139 0.06119442
-0.26353315 -0.12755795 0.061193928
-0.26379105 -0.12745464 0.061116017
-0.2639803 -0.12737542 0.06108208
-0.26414937 -0.12730195 0.061070114
-0.26438409 -0.1272064 0.061009549
-0.26453924 -0.12711589 0.061155565
-0.2646741 -0.1270505 0.061192103
-0.2649627 -0.12694763 0.061018415
-0.26512921 -0.12687819 0.060986854
-0.26531509 -0.1268052 0.060920659
-0.2655175 -0.12671044 0.060952406
-0.26569325 -0.12662639 0.060992301
-0.26589465 -0.12654565 0.060931824
-0.26609957 -0.12646149 0.060884021
-0.26632819 -0.12636036 0.060879968
-0.26649952 -0.12627792 0.060922176
-0.26668873 -0.12620007 0.060879022
-0.26686701 -0.12612692 0.060837053
-0.26707864 -0.12603605 0.060814597
-0.267223 -0.12596218 0.060879938
-0.2674551 -0.12586832 0.060815923
-0.26764598 -0.12578498 0.060805053
-0.26782185 -0.12570983 0.060783841
-0.26803842 -0.12561813 0.060752146
-0.26824084 -0.1255412 0.060662847
-0.26841307 -0.12545936 0.060698137
-0.26857951 -0.12537654 0.060757652
-0.26878622 -0.12528566 0.060750194
-0.26900643 -0.12519945 0.06067007
-0.26918224 -0.12512925 0.060615432
-0.26933423 -0.12504387 0.060736075
-0.26956022 -0.12495476 0.060658246
-0.26974729 -0.124876 0.060627785
-0.26992756 -0.12479381 0.060641155
-0.2701256 -0.12470628 0.060637176
-0.27031651 -0.1246241 0.060618229
-0.27048755 -0.12455365 0.060579736
-0.27071387 -0.12446101 0.060524963
-0.27089286 -0.12437888 0.060541794
-0.27110657 -0.12428606 0.060526248
-0.27131972 -0.12420928 0.060403485
-0.27149639 -0.12412225 0.060460672
-0.27165151 -0.1240465 0.060506374
-0.2718519 -0.12396725 0.060438983
-0.27204359 -0.12388846 0.060394675
-0.27221876 -0.1238082 0.060410365
-0.2724106 -0.1237202 0.060428306
-0.27257466 -0.12363724 0.060495894
-0.27277187 -0.1235745 0.060325906
-0.27298185 -0.12348656 0.060288467
-0.27314925 -0.12339976 0.060372196
-0.27336302 -0.1233154 0.060299009
-0.27353832 -0.12323068 0.060344663
-0.27372348 -0.12315599 0.060292296
-0.27393839 -0.12306502 0.060260605
-0.27414131 -0.12298073 0.060219735
-0.27430883 -0.12291388 0.060167409
-0.27447921 -0.12282795 0.060236137
-0.27466667 -0.12274698 0.060219511
-0.27486151 -0.1226607 0.060216703
-0.27504826 -0.12258988 0.060133204
-0.27524361 -0.1224937 0.060196105
-0.27540705 -0.12242103 0.060195677
-0.27560109 -0.12234256 0.060142137
-0.27579254 -0.12225558 0.060154319
-0.27598995 -0.12217323 0.060116913
-0.27618697 -0.12209089 0.060080655
-0.27635857 -0.12201069 0.060106721
-0.27653 -0.12193312 0.060115509
-0.27672541 -0.1218532 0.060067717
-0.27691832 -0.12176981 0.060051076
-0.27709582 -0.12169461 0.060025256
-0.27727494 -0.12161735 0.060008641
-0.27748111 -0.12153365 0.059953913
-0.27766395 -0.12145524 0.059933841
-0.27783871 -0.12138501 0.059882663
-0.27803957 -0.1212913 0.059912115
-0.27820373 -0.12121713 0.05991976
-0.27839261 -0.12114146 0.059862766
-0.27857149 -0.12105617 0.059901506
-0.27875352 -0.12098083 0.059862982
-0.27895391 -0.12089581 0.059834793
-0.27912539 -0.12081041 0.0598966
-0.27934414 -0.12072755 0.059798032
-0.27951208 -0.12064951 0.059820648
-0.2796731 -0.12058334 0.059783343
-0.2798723 -0.12049834 0.059758611
-0.28005189 -0.12041968 0.059750073
-0.28022525 -0.1203443 0.059738092
-0.28043494 -0.12025226 0.059729476
-0.28059289 -0.12017898 0.059749812
-0.28077304 -0.12010396 0.059714753
-0.28096434 -0.12002196 0.059693508
-0.28115919 -0.119945 0.05962728
-0.2813341 -0.11986774 0.059623368
-0.2815116 -0.11978866 0.059624057
-0.28169978 -0.11970872 0.0595982
-0.28189439 -0.11962576 0.059573486
-0.28205752 -0.11954577 0.059623785
-0.2822414 -0.11946706 0.059602559
-0.2824221 -0.11939334 0.059557121
-0.28260326 -0.1193167 0.059530135
-0.28278965 -0.11923297 0.059535407
-0.2829797 -0.11914799 0.059538372
-0.28315729 -0.11906953 0.059534445
-0.28335017 -0.11899327 0.059469383
