# .PCD v0.7 - Point Cloud Data file format
VERSION 0.7
FIELDS x y z
SIZE 4 4 4
TYPE F F F
COUNT 1 1 1
WIDTH 1297
HEIGHT 1
VIEWPOINT 0 0 0 1 0 0 0
POINTS 1297
DATA ascii
-0.241272 -0.20005296 0.053123511
-0.24145555 -0.20003417 0.053116117
-0.2416463 -0.2000154 0.053102937
-0.24181437 -0.19999437 0.053124413
-0.2420141 -0.19998008 0.053070851
-0.24222109 -0.19995737 0.053073771
-0.24239573 -0.19994405 0.053032957
-0.24259464 -0.19991925 0.053057805
-0.24277931 -0.19989458 0.053093068
-0.24295601 -0.19988759 0.053003833
-0.24314336 -0.19986045 0.053055227
-0.24334113 -0.19984263 0.05302934
-0.24351707 -0.19983478 0.052947022
-0.24371849 -0.19981812 0.052909609
-0.24389604 -0.19979359 0.052949492
-0.24406977 -0.19977991 0.052912146
-0.24425963 -0.19976091 0.052901275
-0.24444163 -0.19973934 0.052915793
-0.24464384 -0.1997271 0.052844934
-0.24481256 -0.19970913 0.052843343
-0.24498713 -0.19968633 0.052872859
-0.24520253 -0.19967175 0.052808892
-0.24536791 -0.19965507 0.052800383
-0.24555475 -0.19963998 0.052763
-0.24572444 -0.19961053 0.052845571
-0.24590041 -0.19959411 0.052826669
-0.24608549 -0.19958934 0.052714348
-0.24628109 -0.1995663 0.052728821
-0.24650013 -0.19953685 0.052772067
-0.24667589 -0.1995206 0.052752007
-0.24686326 -0.19951262 0.05266159
-0.2470421 -0.19949496 0.052649599
-0.24724135 -0.19947356 0.05264907
-0.24744084 -0.19945461 0.052630108
-0.24763 -0.19943693 0.05261001
-0.24781908 -0.19941896 0.052592225
-0.24799074 -0.19940051 0.052591778
-0.24818313 -0.19938171 0.052577443
-0.24837865 -0.19935836 0.05259423
-0.24854326 -0.19933741 0.052618012
-0.24872477 -0.19930747 0.052694783
-0.24893498 -0.19930357 0.052555885
-0.24910656 -0.19928405 0.052563503
-0.249292 -0.19927128 0.052509982
-0.24949445 -0.19925202 0.052491009
-0.24968308 -0.19924235 0.052412115
-0.24985799 -0.19922043 0.052434724
-0.25004297 -0.19920912 0.052370824
-0.25024891 -0.19917922 0.05242794
-0.25042036 -0.19916078 0.052427493
-0.2505849 -0.19914405 0.052420147
-0.25078657 -0.19913328 0.052338909
-0.25099233 -0.19910961 0.052349899
-0.25116041 -0.19908968 0.052363299
-0.25136274 -0.19906747 0.052366231
-0.25153187 -0.19903778 0.052451111
-0.25169465 -0.19903758 0.052322701
-0.25187141 -0.19903104 0.052230015
-0.25208446 -0.19900301 0.052267507
-0.25229022 -0.19897981 0.052275039
-0.25247857 -0.19896035 0.052268781
-0.25265664 -0.19894215 0.052261397
-0.25286469 -0.19892572 0.052217044
-0.25304908 -0.19890949 0.052190043
-0.25323397 -0.19889009 0.052186102
-0.25339356 -0.19886282 0.05226063
-0.25357997 -0.19885308 0.052184045
-0.25378573 -0.19883019 0.052189276
-0.25396076 -0.19881029 0.05219689
-0.25414455 -0.19879599 0.052156053
-0.25431526 -0.19878013 0.052137166
-0.25448918 -0.19876473 0.052112501
-0.25466397 -0.19874579 0.052113198
-0.25487572 -0.19871306 0.05218643
-0.25506189 -0.19868948 0.052212466
-0.25524673 -0.19868255 0.05211629
-0.25542587 -0.19866034 0.052137725
-0.25561523 -0.19864841 0.052074976
-0.2557922 -0.19863328 0.052045695
-0.25597581 -0.19861792 0.052012928
-0.25617009 -0.19860016 0.051989362
-0.25634778 -0.19858247 0.051978521
-0.25653288 -0.19857192 0.051908862
-0.25671503 -0.19855998 0.051851898
-0.25689429 -0.19854665 0.051807616
-0.25708389 -0.198523 0.051831335
-0.25727192 -0.19849516 0.051887337
-0.2574569 -0.19848385 0.051823437
-0.25764522 -0.19847204 0.051760688
-0.2578246 -0.19845775 0.051723324
-0.25802007 -0.19843611 0.051727436
-0.25820288 -0.1984213 0.051691212
-0.25839013 -0.19840367 0.05167228
-0.25857538 -0.19838315 0.051676407
-0.25876611 -0.19836499 0.051658615
-0.2589528 -0.1983415 0.051683493
-0.25914285 -0.19831796 0.051706061
-0.25932363 -0.19830711 0.051642172
-0.25952187 -0.19827366 0.051731583
-0.25969723 -0.19826058 0.051688474
-0.25987664 -0.19825205 0.051608443
-0.26007578 -0.19823019 0.051611386
-0.26026648 -0.19820596 0.051638559
-0.26045236 -0.19818489 0.051646143
-0.26064092 -0.19816494 0.051643353
-0.26083091 -0.1981425 0.051657844
-0.26101398 -0.19812097 0.051671203
-0.26120156 -0.198103 0.05165457
-0.26140332 -0.19808832 0.051602162
-0.26160029 -0.1980653 0.051615484
-0.26178116 -0.19804773 0.051601179
-0.26195943 -0.19802919 0.051596098
-0.26215047 -0.19802128 0.051502213
-0.26233971 -0.19800562 0.051467132
-0.26253828 -0.19798024 0.051496584
-0.26271817 -0.19796917 0.051435009
-0.26291567 -0.19794561 0.051451787
-0.26308525 -0.19793548 0.051391397
-0.26327819 -0.1979093 0.051431242
-0.26348546 -0.19789046 0.05140534
-0.2636629 -0.19786859 0.051425632
-0.26383787 -0.19786428 0.051317953
-0.26403317 -0.19784422 0.051310528
-0.2641927 -0.19782537 0.051322788
-0.26439267 -0.19780777 0.051293448
-0.2645694 -0.19779159 0.051272236
-0.26476321 -0.19776936 0.051282097
-0.26494175 -0.19776358 0.051182486
-0.26511508 -0.1977476 0.051162433
-0.26527011 -0.19774745 0.051039811
-0.26548737 -0.19770697 0.051166072
-0.26565307 -0.19769275 0.05113912
-0.26587856 -0.19766261 0.051182352
-0.26609421 -0.19764115 0.051169105
-0.26625967 -0.19762337 0.051168673
-0.26641995 -0.19761597 0.051095612
-0.26659402 -0.19760692 0.051023681
-0.26678801 -0.19756971 0.051144235
-0.26696387 -0.19755098 0.051142618
-0.26716563 -0.19752757 0.051154777
-0.26736638 -0.19751661 0.051075853
-0.26754245 -0.19751233 0.050967012
-0.26774281 -0.19747974 0.051048353
-0.26793626 -0.19746253 0.05102133
-0.26812616 -0.1974387 0.051046208
-0.2683076 -0.1974245 0.051006529
-0.26849306 -0.19740924 0.05097146
-0.26867333 -0.19739626 0.050923716
-0.26888114 -0.19736677 0.050976206
-0.26905847 -0.19735365 0.050931931
-0.26924241 -0.19733667 0.0509107
-0.26941848 -0.19730155 0.051030152
-0.26962611 -0.19729264 0.050930455
-0.26981112 -0.19728118 0.050867714
-0.26998755 -0.19725598 0.050913367
-0.27019829 -0.19723397 0.050908212
-0.27037358 -0.19722603 0.050827041
-0.2705617 -0.19720817 0.050809257
-0.27073696 -0.19719073 0.050798427
-0.27091554 -0.19717622 0.050763376
-0.27110976 -0.19715846 0.05073981
-0.27129966 -0.1971298 0.05080042
-0.27147725 -0.19711633 0.050758444
-0.27166688 -0.19710311 0.050704919
-0.27185261 -0.19708176 0.050714813
-0.27204299 -0.19706489 0.050687797
-0.27222145 -0.19705054 0.050651595
-0.27240023 -0.19703008 0.050660346
-0.2726022 -0.19700247 0.050703637
-0.27281371 -0.19697756 0.05071922
-0.27297711 -0.19697152 0.050633475
-0.27316085 -0.19695802 0.050586883
-0.27334452 -0.19693345 0.050622143
-0.27354854 -0.19691278 0.050612383
-0.27374798 -0.19689898 0.050555374
-0.27394062 -0.19688031 0.050539877
-0.27411321 -0.19686316 0.050529055
-0.27429038 -0.19685005 0.050484776
-0.27447635 -0.19683458 0.050450865
-0.27464986 -0.19681406 0.05046425
-0.27485386 -0.19679105 0.050471783
-0.27505308 -0.1967748 0.050433218
-0.27523509 -0.19676536 0.050357804
-0.27536443 -0.19676423 0.050262917
-0.27556208 -0.19673645 0.050310828
-0.27578902 -0.19670475 0.050364427
-0.27598152 -0.19668406 0.050363928
-0.27618766 -0.19666223 0.050361082
-0.2763795 -0.19663975 0.050374418
-0.27655974 -0.19662428 0.050345119
-0.27674609 -0.19660877 0.050311193
-0.27688795 -0.19660941 0.050193228
-0.27712429 -0.19657342 0.050271016
-0.2773014 -0.1965533 0.050278623
-0.27749443 -0.1965279 0.050312709
-0.27766848 -0.19651978 0.050233852
-0.27786106 -0.19649956 0.050229892
-0.27804601 -0.19647828 0.050239787
-0.27823666 -0.19646201 0.050208163
-0.27843305 -0.19644137 0.050204191
-0.27860239 -0.19642754 0.050171461
-0.27879694 -0.19640383 0.050191708
-0.27897137 -0.19639754 0.050099015
-0.27917245 -0.19636908 0.050149225
-0.2793667 -0.19634806 0.050149873
-0.27954981 -0.19633088 0.050130952
-0.27974665 -0.19631471 0.050093539
-0.27992985 -0.1962997 0.050058477
-0.28010854 -0.19628361 0.050034948
-0.28029639 -0.19626312 0.050036758
-0.28048727 -0.19624697 0.050003983
-0.28067023 -0.19622794 0.049998891
-0.28087348 -0.19620734 0.049989145
-0.28105909 -0.19618864 0.049979433
-0.28121808 -0.19618449 0.049883325
-0.28144497 -0.19613488 0.050069511
-0.28166321 -0.19608743 0.050246492
-0.28185785 -0.19608787 0.050088029
-0.28199065 -0.19610178 0.049879003
-0.28218547 -0.19608319 0.049861204
-0.28237465 -0.19606443 0.049849175
-0.28256854 -0.19604251 0.049856737
-0.2827557 -0.19602317 0.049850494
-0.28295681 -0.19599253 0.049916837
-0.28313521 -0.19598722 0.049813759
-0.28332978 -0.19596709 0.049807485
-0.28351116 -0.1959518 0.049775884
-0.28369513 -0.19592893 0.049798466
-0.28388992 -0.1959108 0.049777206
-0.28409889 -0.19589317 0.049740914
-0.28427351 -0.1958766 0.049724318
-0.28444657 -0.19586298 0.049686968
-0.28463367 -0.19584225 0.0496911
-0.28483 -0.19581757 0.049717102
-0.28501704 -0.19580464 0.049663581
-0.28520793 -0.19578928 0.049625039
-0.28540409 -0.19576493 0.049648732
-0.28560704 -0.19574764 0.049614772
-0.28578642 -0.19573396 0.049572803
-0.285965 -0.19571525 0.049568869
-0.28617492 -0.19568817 0.04960176
-0.28636631 -0.19566901 0.049590886
-0.28655371 -0.19564873 0.049591549
-0.28675765 -0.19562744 0.049586408
-0.28692779 -0.19562504 0.049468357
-0.28712317 -0.1956 0.049497828
-0.287321 -0.19558434 0.049455807
-0.28751105 -0.19556627 0.049438018
-0.28769571 -0.19554611 0.04943984
-0.28791165 -0.1955215 0.049449652
-0.28809226 -0.19550568 0.049422663
-0.28827313 -0.19548796 0.049409516
-0.28849438 -0.19546917 0.049372043
-0.28867239 -0.19544803 0.049386565
-0.28887039 -0.19542909 0.049368754
-0.28907675 -0.19540878 0.049354382
-0.28928155 -0.19538942 0.049334247
-0.28946471 -0.19537067 0.049326852
-0.28964138 -0.19535232 0.049321774
-0.28983623 -0.19533543 0.049291287
-0.29004765 -0.19530913 0.049317259
-0.29022539 -0.19529703 0.049264915
-0.2904079 -0.19528227 0.049228691
-0.29057655 -0.19526866 0.049194824
-0.29080546 -0.19523612 0.04925302
-0.29101208 -0.19521952 0.049210977
-0.29117456 -0.19520783 0.049167898
-0.29137358 -0.19518566 0.049173139
-0.29157221 -0.19516867 0.049140342
-0.29177916 -0.19514878 0.049122509
-0.2919549 -0.19512179 0.049182002
-0.29214692 -0.19510537 0.049150374
-0.29233605 -0.19508895 0.049121052
-0.29253697 -0.19506456 0.04914128
-0.29272091 -0.19505741 0.049047414
-0.29293105 -0.19502658 0.049107976
-0.29310906 -0.19501789 0.049030259
-0.29331833 -0.19499244 0.04905162
-0.29352832 -0.19497454 0.049016483
-0.29372659 -0.19495668 0.048990607
-0.29391354 -0.19493394 0.049009714
-0.29411247 -0.19491583 0.048984986
-0.2943145 -0.19489303 0.048992526
-0.29449025 -0.19488099 0.048941344
-0.29469073 -0.19485915 0.048943125
-0.29487246 -0.19484709 0.048887309
-0.29506105 -0.19483151 0.048852231
-0.29525059 -0.19481394 0.048830986
-0.29543003 -0.19480464 0.048756722
-0.2956247 -0.19477998 0.048783887
-0.29585946 -0.19474992 0.048819013
-0.29606146 -0.19473071 0.048800044
-0.29623672 -0.19471468 0.048778836
-0.29644066 -0.19469012 0.048797898
-0.29664171 -0.19466712 0.048807751
-0.29683757 -0.19465122 0.048769198
-0.29704952 -0.19462875 0.048766337
-0.29723421 -0.19461997 0.048683994
-0.29742667 -0.19459711 0.048699636
-0.29763359 -0.1945744 0.048702557
-0.29782343 -0.19455588 0.048688229
-0.29802328 -0.1945397 0.048648503
-0.29822946 -0.1945233 0.048605308
-0.29842931 -0.19449717 0.048639379
-0.20365191 -0.20698644 0.03182102
-0.20379797 -0.20695861 0.03191058
-0.20393547 -0.20692855 0.032023232
-0.2040768 -0.20689702 0.032143932
-0.20420651 -0.20686485 0.032278519
-0.20433475 -0.20683222 0.032417707
-0.20446494 -0.2068 0.032552283
-0.20458978 -0.20676509 0.032711096
-0.20469981 -0.2067274 0.032902222
-0.1978236 -0.20426938 0.056582808
-0.19803908 -0.20424716 0.056575321
-0.19826646 -0.20422834 0.056533214
-0.19847101 -0.20420325 0.056555744
-0.19869675 -0.20418569 0.056505565
-0.19887465 -0.20416392 0.056524694
-0.19914228 -0.20414312 0.056465179
-0.19933853 -0.20412827 0.056418546
-0.19956058 -0.20410238 0.056432951
-0.19979662 -0.2040806 0.056405805
-0.20001477 -0.20405996 0.056384474
-0.20022686 -0.20403609 0.056391992
-0.20045154 -0.20401755 0.056349888
-0.20069869 -0.20400579 0.056239694
-0.20087467 -0.20397303 0.056341864
-0.20109367 -0.20395152 0.056326289
-0.20130262 -0.20393343 0.056293454
-0.2015308 -0.20391172 0.056272101
-0.20174974 -0.20389208 0.056242701
-0.20193464 -0.20386693 0.056281418
-0.20217878 -0.20384879 0.056220811
-0.20236021 -0.20382105 0.056281459
-0.20255627 -0.20380434 0.05624865
-0.20282882 -0.20378736 0.05615684
-0.20305552 -0.20377079 0.05609858
-0.20322293 -0.20374206 0.056177709
-0.20345911 -0.20372213 0.056136727
-0.20362133 -0.2037033 0.056146681
-0.20386221 -0.20368677 0.056076858
-0.20410343 -0.20366552 0.056041636
-0.20428351 -0.20364773 0.056029629
-0.20453374 -0.20362131 0.056025509
-0.20474127 -0.20359932 0.056022659
-0.20496053 -0.20357795 0.056005944
-0.20518455 -0.20356166 0.055947691
-0.20538691 -0.2035365 0.055972539
-0.20559926 -0.20351648 0.055951223
-0.2058194 -0.2034975 0.055916052
-0.20602646 -0.20347588 0.055910893
-0.20623991 -0.20345654 0.05588381
-0.20642015 -0.20343265 0.055916779
-0.20665596 -0.20341261 0.055876948
-0.20686202 -0.20339093 0.055872943
-0.20708045 -0.20337199 0.055838935
-0.20728448 -0.20334975 0.055840705
-0.20749468 -0.20332982 0.055820543
-0.20769134 -0.2033104 0.055807348
-0.20793606 -0.2032961 0.055717912
-0.20813112 -0.20327093 0.055748533
-0.20834978 -0.20325632 0.055682227
-0.20855899 -0.20325097 0.055554837
-0.208754 -0.20321335 0.055677708
-0.20895129 -0.20319107 0.055685259
-0.20915405 -0.20316726 0.055699717
-0.20935212 -0.20314722 0.055689976
-0.20958515 -0.20312592 0.055661689
-0.20977834 -0.20311528 0.055586223
-0.20995983 -0.20309095 0.055621497
-0.2102128 -0.20306659 0.055600077
-0.21041992 -0.20304869 0.05556725
-0.21060386 -0.20302923 0.055564452
-0.21075006 -0.20299858 0.055674773
-0.21103793 -0.20298478 0.05554717
-0.21125783 -0.20296863 0.055491246
-0.21146192 -0.20294811 0.055480327
-0.21165752 -0.20292225 0.055515565
-0.21185488 -0.20291071 0.055443548
-0.21207453 -0.20288524 0.05545681
-0.21227561 -0.2028638 0.05545513
-0.21248676 -0.20284469 0.05542805
-0.21269165 -0.20282501 0.055410214
-0.21289219 -0.2028016 0.055423524
-0.21310516 -0.20278557 0.055372231
-0.21331382 -0.20276782 0.055337086
-0.21351627 -0.20274746 0.055326175
-0.21372138 -0.20272636 0.055318721
-0.21392152 -0.20270517 0.055315882
-0.21413872 -0.20269164 0.055242665
-0.21433967 -0.20266896 0.05525022
-0.21450235 -0.2026476 0.055278614
-0.21473818 -0.2026305 0.055216882
-0.21493922 -0.20261016 0.055207122
-0.21511103 -0.20258686 0.055242423
-0.21532112 -0.20257084 0.055193432
-0.21556021 -0.2025495 0.055160522
-0.21575893 -0.20252629 0.05517384
-0.21596013 -0.20250857 0.055144478
-0.21616283 -0.20248523 0.055155475
-0.21635772 -0.20247114 0.055104226
-0.21657068 -0.20245294 0.055069074
-0.21673454 -0.20243487 0.055072106
-0.21694328 -0.20241041 0.055086549
-0.21716195 -0.20239314 0.055039845
-0.21735731 -0.20237325 0.055031262
-0.21758768 -0.20235099 0.055012207
-0.21778198 -0.20233074 0.055007085
-0.21796584 -0.2023007 0.055082709
-0.21819431 -0.20229359 0.05495296
-0.21837513 -0.20227572 0.054940954
-0.21856181 -0.2022541 0.054951992
-0.21879826 -0.20223571 0.054899476
-0.21899122 -0.20221062 0.054931264
-0.21919189 -0.20219202 0.054908819
-0.21938996 -0.20217915 0.054846033
-0.21958043 -0.20215759 0.054853607
-0.21980585 -0.202141 0.054796509
-0.21999238 -0.20211504 0.054839838
-0.2201875 -0.20209625 0.054823175
-0.22040217 -0.20208129 0.05476265
-0.22059476 -0.20205888 0.054774836
-0.22079672 -0.20204186 0.05473971
-0.22098999 -0.20201752 0.054765716
-0.22118327 -0.20199566 0.054773282
-0.22138478 -0.20197868 0.05473816
-0.22158657 -0.20196198 0.054700729
-0.22178775 -0.20194255 0.054684062
-0.22197933 -0.20192508 0.054660492
-0.22217748 -0.20190145 0.05467727
-0.22238326 -0.20189025 0.054596011
-0.22254017 -0.20186996 0.054620966
-0.22275671 -0.20184746 0.054614633
-0.22298035 -0.20182952 0.054569077
-0.22317865 -0.20181164 0.054543182
-0.22336444 -0.20178591 0.05458536
-0.22355962 -0.20176619 0.054575626
-0.22374819 -0.20176119 0.054462116
-0.22395219 -0.20173118 0.054521542
-0.22410676 -0.20170693 0.054577641
-0.22432031 -0.20171623 0.054338388
-0.22456081 -0.20168588 0.054371193
-0.22474796 -0.20165581 0.054444499
-0.22494087 -0.20163523 0.054442849
-0.225117 -0.20162019 0.05441355
-0.22533807 -0.20160221 0.05437031
-0.22553422 -0.20158128 0.054368641
-0.22572047 -0.20155925 0.05438314
-0.22591551 -0.20153767 0.054387242
-0.22610278 -0.2015135 0.054416724
-0.22623728 -0.20148659 0.054508623
-0.22650379 -0.20148163 0.054332651
-0.22669558 -0.20146398 0.05431024
-0.2268956 -0.20144655 0.05427973
-0.22706005 -0.20143604 0.054226249
-0.22722109 -0.20140456 0.054330762
-0.22746442 -0.20140521 0.054131787
-0.22767505 -0.20137152 0.054213103
-0.22787575 -0.20135525 0.054173373
-0.22806929 -0.20133664 0.054156717
-0.22825707 -0.2013135 0.054178141
-0.22844602 -0.20129132 0.054191474
-0.22864871 -0.20127718 0.054134443
-0.22883585 -0.20125365 0.054159321
-0.22903048 -0.20123975 0.054106914
-0.22920875 -0.20121218 0.054168716
-0.22941662 -0.20119967 0.054095522
-0.22958386 -0.20118652 0.054059338
-0.22976273 -0.20116293 0.054091152
-0.22999544 -0.20114152 0.054064024
-0.23019002 -0.20112497 0.054031219
-0.23038384 -0.20110789 0.054003034
-0.23057128 -0.20108151 0.054048672
-0.23077399 -0.20107283 0.053951278
-0.23096247 -0.20105118 0.053961154
-0.23115443 -0.20102914 0.05397103
-0.23134519 -0.20100974 0.053962458
-0.23154208 -0.20099637 0.053904288
-0.23173483 -0.20097534 0.053906083
-0.23192656 -0.20095724 0.053887133
-0.23211707 -0.20093802 0.05387741
-0.23230399 -0.20091918 0.053867687
-0.23248622 -0.20090754 0.053808402
-0.23269179 -0.20088826 0.053787105
-0.23288998 -0.2008654 0.053798113
-0.23307711 -0.20084313 0.053813763
-0.23327774 -0.20083544 0.053710606
-0.23344538 -0.20080464 0.053804725
-0.23362727 -0.20079367 0.053740826
-0.23384331 -0.20076968 0.053746022
-0.23402897 -0.20074598 0.053773209
-0.23422526 -0.20073456 0.053701203
-0.23441565 -0.20071207 0.053715691
-0.23460543 -0.2006934 0.053702511
-0.23480316 -0.20067979 0.053645488
-0.23499013 -0.20065798 0.053657677
-0.23517838 -0.20063776 0.053657189
-0.23536885 -0.20062041 0.053633619
-0.23556204 -0.20060183 0.053616975
-0.23575142 -0.20058335 0.053602636
-0.23593017 -0.20056586 0.053589486
-0.23612353 -0.20055288 0.053531311
-0.23632492 -0.20053077 0.053534247
-0.23651153 -0.200509 0.053546436
-0.23669216 -0.20048414 0.053586323
-0.23686755 -0.20047294 0.053529367
-0.23706561 -0.2004624 0.053449277
-0.23727214 -0.2004374 0.053469494
-0.23746398 -0.20041819 0.053458609
-0.23765457 -0.20040286 0.053420056
-0.23784144 -0.20038199 0.053425327
-0.23802939 -0.20036289 0.053416759
-0.23822185 -0.20034517 0.053394347
-0.23841003 -0.20032667 0.05338116
-0.23859911 -0.20030978 0.053355299
-0.23878504 -0.20028779 0.053369798
-0.23894869 -0.20027176 0.05335784
-0.23915672 -0.20025626 0.053306554
-0.23933059 -0.2002326 0.053342998
-0.2395433 -0.20021939 0.053270951
-0.2397337 -0.20019925 0.053268146
-0.23991494 -0.20018257 0.053246912
-0.24010825 -0.20016119 0.053251017
-0.24029259 -0.20013656 0.053286277
-0.24048434 -0.20012669 0.053206205
-0.24066982 -0.20011191 0.053167664
-0.24086483 -0.20009454 0.053140637
-0.2410475 -0.20006649 0.05320242
-0.24121264 -0.2000394 0.053271178
-0.24142636 -0.20003171 0.053157609
-0.24161303 -0.20001243 0.053151347
-0.24180156 -0.19999763 0.053110499
-0.24199198 -0.19997904 0.05309616
-0.2421761 -0.19996284 0.053069148
-0.24236716 -0.19994621 0.053039823
-0.24254996 -0.19992703 0.053035878
-0.24274269 -0.19990571 0.053039983
-0.24292968 -0.19988841 0.053018745
-0.24310932 -0.19987068 0.053006731
-0.24329901 -0.19985123 0.052999321
-0.24346392 -0.19983241 0.053006958
-0.24364018 -0.19981566 0.052990355
-0.2438477 -0.19979663 0.052965596
-0.24405283 -0.19978191 0.052910849
-0.24424292 -0.19976476 0.052886143
-0.24442706 -0.19973922 0.052928321
-0.24461314 -0.19972062 0.052917451
-0.24478687 -0.19970912 0.052863955
-0.24495435 -0.19968723 0.052892342
-0.24515392 -0.19966656 0.052886054
-0.24533968 -0.19964723 0.05288095
-0.24551596 -0.19963296 0.052845895
-0.24570307 -0.19962065 0.052787747
-0.24589786 -0.19959474 0.05282414
-0.24605748 -0.19956762 0.052897517
-0.24626336 -0.19956356 0.052763209
-0.2464415 -0.19954209 0.05278004
-0.24661537 -0.19953758 0.052674651
-0.24680687 -0.19951279 0.052705284
-0.24698526 -0.19949332 0.052707121
-0.24718466 -0.19947517 0.052682377
-0.24735612 -0.19945613 0.052686542
-0.24754813 -0.19943471 0.052691799
-0.24776077 -0.19941124 0.052695855
-0.24795325 -0.19939493 0.052663065
-0.24813843 -0.19937472 0.052664883
-0.248327 -0.19935368 0.052670151
-0.24849236 -0.19934869 0.052575164
-0.24867077 -0.19933356 0.052544709
-0.24887311 -0.19931665 0.052508436
-0.24905457 -0.19929263 0.05254139
-0.24923614 -0.19927266 0.052544378
-0.24942802 -0.19925158 0.052547336
-0.24962677 -0.19923334 0.052523747
-0.24979462 -0.19921857 0.052499089
-0.24997279 -0.19919631 0.052521691
-0.25016794 -0.19918033 0.052484274
-0.25037321 -0.19916451 0.052437603
-0.25053748 -0.19914825 0.0524268
-0.25072587 -0.19912739 0.05243092
-0.25090346 -0.19911501 0.052380867
-0.25106791 -0.19909547 0.052394271
-0.251252 -0.19908488 0.052325755
-0.25147772 -0.19906203 0.052314784
-0.25165597 -0.19903992 0.052336223
-0.25182286 -0.199029 0.052283894
-0.25201201 -0.19900104 0.052339904
-0.25221038 -0.19898097 0.052330151
-0.25238797 -0.19896454 0.052310087
-0.25256917 -0.19894648 0.052299228
-0.25274777 -0.19892354 0.052326433
-0.25295269 -0.19890417 0.052306298
-0.25312334 -0.19888881 0.052283943
-0.25332689 -0.19887628 0.052214216
-0.25350723 -0.19886188 0.052176841
-0.25367928 -0.19883858 0.052212141
-0.25387618 -0.19882458 0.052158576
-0.25405794 -0.19880302 0.052173086
-0.25424659 -0.19878088 0.052186433
-0.25442263 -0.1987696 0.052129462
-0.25461212 -0.19875735 0.052069001
-0.25478289 -0.19873978 0.052062787
-0.2549715 -0.1987178 0.052074973
-0.25516954 -0.19869776 0.052065231
-0.25536123 -0.19867685 0.052067034
-0.2555429 -0.19865625 0.052074626
-0.2557275 -0.19863704 0.05206953
-0.25591886 -0.19861741 0.052062113
-0.25607949 -0.1986109 0.051982123
-0.25628054 -0.19859163 0.051964294
-0.25645787 -0.19857414 0.051952299
-0.25664669 -0.19855215 0.051964484
-0.25681108 -0.19854321 0.051899478
-0.25700349 -0.19852035 0.05191512
-0.25720283 -0.19850531 0.051867317
-0.25737721 -0.19848689 0.051864546
-0.25756398 -0.19846199 0.051899806
-0.25775263 -0.19844079 0.051906236
-0.2579315 -0.19842748 0.051861946
-0.25811443 -0.19841219 0.05182917
-0.25830546 -0.19839308 0.051818296
-0.25848559 -0.19837652 0.051797066
-0.25865543 -0.19836108 0.051775858
-0.2588529 -0.19834204 0.051759202
-0.25903818 -0.19832136 0.051764477
-0.25921172 -0.19830489 0.051747881
-0.25938913 -0.19829378 0.0516886
-0.25958428 -0.19827935 0.051639661
-0.25977704 -0.19825023 0.051701415
-0.25995246 -0.19823636 0.051664054
-0.26011762 -0.19822344 0.051627874
-0.26029149 -0.19820617 0.051617049
-0.26049027 -0.19817857 0.051662643
-0.26067704 -0.19816738 0.051596433
-0.26086852 -0.19814168 0.05163398
-0.26102722 -0.1981229 0.051646244
-0.26120561 -0.19810919 0.051605411
-0.26141751 -0.19808751 0.051596783
-0.26159063 -0.19807717 0.051535215
-0.26178074 -0.19805971 0.051512808
-0.26195469 -0.19804242 0.051501967
-0.26210853 -0.19804224 0.051380489
-0.26234853 -0.19800602 0.051457118
-0.26251993 -0.19798777 0.051455513
-0.26270443 -0.19796903 0.051446956
-0.26288939 -0.19794962 0.051443018
-0.26307005 -0.19793193 0.051429849
-0.26325428 -0.19791852 0.051382087
-0.26344362 -0.19790207 0.051352765
-0.26362407 -0.19788003 0.051371887
-0.26380676 -0.19785947 0.051378332
-0.26397535 -0.19785459 0.051279876
-0.26417023 -0.19783023 0.051304732
-0.26436862 -0.19780113 0.051361866
-0.26455623 -0.1977872 0.051315252
-0.26473972 -0.19776577 0.051327452
-0.26492041 -0.19774401 0.051344275
-0.2651189 -0.19772814 0.051303394
-0.26530603 -0.19771053 0.051284451
-0.26547179 -0.1977002 0.051228657
-0.26564199 -0.19768815 0.051182091
-0.2658411 -0.19766316 0.051208086
-0.26602787 -0.197642 0.051215678
-0.26620331 -0.19762331 0.051214062
-0.26639768 -0.19760461 0.051197402
-0.26659665 -0.19758026 0.051218785
-0.26676896 -0.19757703 0.051105328
-0.26694202 -0.19755749 0.051111795
-0.26712534 -0.19754076 0.051089406
-0.26731536 -0.19751613 0.051120039
-0.26748988 -0.19749878 0.051109198
-0.26766288 -0.19749048 0.051032636
-0.26787457 -0.19745559 0.051122032
-0.26806226 -0.19744118 0.051078871
-0.26823524 -0.19742571 0.051055349
-0.26844996 -0.19740544 0.051034037
-0.26863438 -0.19738422 0.051043924
-0.26879543 -0.19737844 0.050958175
-0.26895297 -0.19737975 0.050822839
-0.26915973 -0.19735114 0.050869577
-0.26933575 -0.1973324 0.05086796
-0.26953399 -0.19730985 0.050876658
-0.269721 -0.1972829 0.050926905
-0.26992643 -0.19725958 0.0509356
-0.27011207 -0.19724399 0.050902817
-0.27031022 -0.19723143 0.050837725
-0.2704781 -0.19721495 0.050825749
-0.27063996 -0.19719522 0.050842624
-0.27084833 -0.19716613 0.050891664
-0.27101734 -0.19715793 0.050817419
-0.27120876 -0.19713971 0.050799616
-0.27140361 -0.19711815 0.050803721
-0.27160668 -0.1971007 0.050770894
-0.27178654 -0.1970848 0.050745055
-0.2719523 -0.19707353 0.050696187
-0.27214015 -0.1970588 0.050655335
-0.27232784 -0.19704127 0.050635234
-0.27251217 -0.19701259 0.050700478
-0.27274624 -0.19697218 0.050812874
-0.27290666 -0.19697441 0.050668314
-0.27308419 -0.19696079 0.050627489
-0.27326524 -0.19693838 0.050648917
-0.27344257 -0.19692494 0.05060694
-0.273635 -0.19690894 0.050571844
-0.27382612 -0.19689135 0.050549433
-0.27399397 -0.19687815 0.050513238
-0.27419072 -0.19685031 0.050562311
-0.27437097 -0.19683702 0.050516866
-0.27455488 -0.19681789 0.05051177
-0.27475131 -0.19678806 0.050575826
-0.27496931 -0.19676603 0.050564874
-0.27512616 -0.19676492 0.050447993
-0.27532297 -0.19674532 0.050435945
-0.2755318 -0.19671322 0.050506897
-0.27572322 -0.19669577 0.050483327
-0.27588478 -0.19668293 0.050449461
-0.27608174 -0.19666348 0.050436262
-0.2762641 -0.19664608 0.050419644
-0.27643111 -0.19663623 0.050359242
-0.27662164 -0.19660735 0.050421
-0.27683175 -0.19657512 0.050491951
-0.2770198 -0.19657516 0.050341543
-0.27720338 -0.19655932 0.050312236
-0.27738369 -0.19653419 0.050354432
-0.277565 -0.19651549 0.050348185
-0.27776283 -0.19649813 0.050318837
-0.27797496 -0.19648141 0.05027331
-0.27815133 -0.19645965 0.050293606
-0.27834526 -0.19644536 0.050244659
-0.27849981 -0.19643342 0.050209656
-0.27867022 -0.19641636 0.050199986
-0.27886388 -0.19640227 0.050149892
-0.27904931 -0.19638078 0.050160933
-0.27924967 -0.19635722 0.050175399
-0.27945676 -0.19633326 0.050187543
-0.27963611 -0.19631648 0.050168622
-0.27982461 -0.19629748 0.050158896
-0.28002051 -0.19628188 0.050118022
-0.28020075 -0.19627108 0.050054133
-0.28037933 -0.19625065 0.050062887
-0.28058377 -0.19622682 0.05007619
-0.2807802 -0.19620664 0.050068751
-0.28097302 -0.19618483 0.050076317
-0.28116351 -0.19616686 0.050057366
-0.2813555 -0.19614576 0.050060328
-0.28154257 -0.19613236 0.050010249
-0.28172314 -0.19611514 0.049993623
-0.28189695 -0.19609849 0.049978174
-0.28207743 -0.19608346 0.049945418
-0.28228897 -0.19605948 0.049954087
-0.28249007 -0.19604473 0.049902819
-0.28266716 -0.19601792 0.049960017
-0.28284103 -0.19600749 0.049898438
-0.283034 -0.19598021 0.049946368
-0.28324795 -0.195963 0.049903136
-0.28342497 -0.19594257 0.049913052
-0.28359413 -0.19593529 0.04983189
-0.28376836 -0.19592266 0.049786452
-0.28396213 -0.19590308 0.049776722
-0.2841503 -0.19588722 0.049743943
-0.28435603 -0.19585998 0.049781457
-0.28454128 -0.19584802 0.049722154
-0.28475162 -0.19581607 0.049790792
-0.28492996 -0.19580859 0.049703836
-0.28509554 -0.19579782 0.049651515
-0.28530052 -0.19576769 0.049710941
-0.28550199 -0.19574931 0.049686193
-0.28568289 -0.19574016 0.049609609
-0.28585544 -0.19572692 0.049569946
-0.28605914 -0.19569428 0.049648978
-0.28626835 -0.19566759 0.049679562
-0.28643781 -0.19566372 0.04957303
-0.28664064 -0.19563928 0.049592104
-0.28684416 -0.19561632 0.049599644
-0.28703901 -0.19560052 0.04956108
-0.28720263 -0.19559291 0.049486838
-0.28741884 -0.19556065 0.049553152
-0.28761733 -0.19554633 0.049500745
-0.28778219 -0.19553797 0.049431119
-0.28797442 -0.19551326 0.049460597
-0.28819078 -0.19548488 0.049498081
-0.28837231 -0.1954702 0.049461864
-0.2885409 -0.19546144 0.049392227
-0.28876132 -0.19543089 0.049442388
-0.28896281 -0.19541329 0.049411874
-0.2891663 -0.19539112 0.049413655
-0.28932247 -0.19538447 0.049338281
-0.28953648 -0.1953529 0.049401145
-0.28973603 -0.19533661 0.04936257
-0.28990448 -0.1953263 0.04930447
-0.29009917 -0.19530101 0.049336243
-0.29031745 -0.19528255 0.049298767
-0.29048973 -0.19527011 0.049253345
-0.29069176 -0.19524091 0.04930817
-0.29089132 -0.19522649 0.049255747
-0.29107592 -0.19521055 0.04922644
-0.29128054 -0.19518842 0.049227055
-0.29146147 -0.19517457 0.049185067
-0.29167512 -0.19514757 0.049214482
-0.29186672 -0.1951312 0.049182847
-0.29204607 -0.19510865 0.049206592
-0.29226786 -0.19508871 0.049177185
-0.29245564 -0.19507134 0.049155932
-0.29266027 -0.19504328 0.049200363
-0.29285437 -0.19502102 0.049210235
-0.29300013 -0.19502328 0.049077243
-0.29318672 -0.19500354 0.049074449
-0.29338151 -0.1949826 0.049073931
-0.29357544 -0.19496848 0.049023833
-0.29379886 -0.1949387 0.049065918
-0.29395497 -0.19493532 0.048966337
-0.29416838 -0.19490944 0.048987683
-0.29437646 -0.19488646 0.048991751
-0.2945711 -0.19486289 0.049010847
-0.29473737 -0.19485421 0.048942368
-0.29492849 -0.19484022 0.048893437
-0.29511988 -0.19482309 0.048867568
-0.29533651 -0.19479296 0.048917737
-0.29554915 -0.19477105 0.048910256
-0.29573709 -0.19475584 0.048872862
-0.29592913 -0.19473708 0.048858527
-0.2961379 -0.19471434 0.048860282
-0.29633534 -0.19469592 0.048839007
-0.29653659 -0.1946771 0.048817717
-0.2967408 -0.19465096 0.048848316
-0.29692119 -0.19463392 0.048830543
-0.29710045 -0.19462042 0.048787411
-0.2973021 -0.19460015 0.0487765
-0.29749444 -0.19458602 0.048727568
-0.29770207 -0.19456434 0.048722409
-0.29790172 -0.19454522 0.048704587
-0.29811752 -0.1945211 0.048710942
-0.29831073 -0.19450097 0.04870582
-0.20357162 -0.2069485 0.032165952
-0.20370904 -0.20691831 0.032279775
-0.20385554 -0.20688917 0.032378569
-0.20399572 -0.20685837 0.032494683
-0.20412591 -0.20682615 0.032629281
-0.20425668 -0.20679277 0.032771949
-0.20438261 -0.20675805 0.032928478
-0.20450798 -0.20672308 0.033087306
-0.20461851 -0.2066841 0.0332877
-0.19811319 -0.20423615 0.056597717
-0.19831866 -0.20421126 0.056617923
-0.19852954 -0.20418642 0.05663351
-0.19876596 -0.20417038 0.056563668
-0.19898099 -0.20415148 0.056531951
-0.19921854 -0.20413141 0.056490947
-0.19941831 -0.20410372 0.056536548
-0.19961768 -0.20408058 0.0565487
-0.19986038 -0.2040623 0.056490377
-0.20006563 -0.2040379 0.056507125
-0.20026378 -0.20400992 0.056556195
-0.20049627 -0.20399366 0.05649098
-0.20072843 -0.2039759 0.056437306
-0.20095062 -0.20395686 0.056400951
-0.20116611 -0.20393433 0.056395762
-0.20137677 -0.203912 0.056392893
-0.20157559 -0.20389095 0.056390058
-0.20181911 -0.20387243 0.056332886
-0.20203564 -0.20385057 0.056321926
-0.20224169 -0.20383202 0.056294847
-0.20246308 -0.20380698 0.056303479
-0.20266651 -0.20378777 0.056283325
-0.20289311 -0.20377433 0.056201987
-0.20311862 -0.20374762 0.056219831
-0.20332035 -0.20372157 0.056251585
-0.20354214 -0.20370367 0.056207165
-0.20371543 -0.20367351 0.056292042
-0.20391737 -0.20366429 0.056199241
-0.20415764 -0.20364439 0.056154761
-0.20437188 -0.20361608 0.056193411
-0.2046181 -0.20360006 0.056115467
-0.2048326 -0.20357874 0.056102205
-0.20502634 -0.2035573 0.056106299
-0.20522414 -0.20353729 0.056096546
-0.20544882 -0.20350941 0.056123622
-0.20567165 -0.20349295 0.05606766
-0.20589349 -0.20347457 0.056026697
-0.20608151 -0.2034567 0.056008898
-0.20624289 -0.20343485 0.056041915
-0.20649448 -0.20341499 0.055988178
-0.20672983 -0.20338783 0.056001391
-0.20692605 -0.20336442 0.056018166
-0.20714468 -0.20335433 0.055918392
-0.20737174 -0.20332977 0.055918939
-0.2075797 -0.20330727 0.055919528
-0.20777388 -0.20328875 0.05590171
-0.20801508 -0.2032714 0.055837635
-0.20821476 -0.20324792 0.055852093
-0.20842332 -0.20322599 0.055848069
-0.20863575 -0.20320737 0.055816356
-0.2088206 -0.20319125 0.055788185
-0.20905563 -0.20316678 0.055781785
-0.20925486 -0.20314163 0.055808928
-0.2094703 -0.20312457 0.055763375
-0.20968479 -0.20310542 0.055733968
-0.20988868 -0.20308413 0.055728808
-0.2101012 -0.20306629 0.055691328
-0.21030538 -0.20304528 0.055683859
-0.21051656 -0.20302524 0.055663686
-0.21072164 -0.20300476 0.055651605
-0.21092661 -0.20298244 0.055653363
-0.21114326 -0.20296679 0.055596258
-0.21135031 -0.20294549 0.055588793
-0.21150869 -0.20291397 0.055695634
-0.21174154 -0.20290142 0.055602729
-0.21196561 -0.20288545 0.05554216
-0.21216713 -0.20286022 0.055568144
-0.21238652 -0.20284647 0.055494897
-0.21258591 -0.20282441 0.05549898
-0.21277642 -0.20279865 0.055537678
-0.21299735 -0.20278396 0.055470187
-0.2132027 -0.20276469 0.055448882
-0.21342334 -0.20275018 0.05538024
-0.21362996 -0.20273173 0.055352002
-0.21382219 -0.20270702 0.055381473
-0.2140076 -0.20267931 0.055438653
-0.21419807 -0.20265588 0.055460058
-0.21441707 -0.20264123 0.055393718
-0.21460879 -0.20262267 0.055378217
-0.21476868 -0.20260626 0.055372022
-0.21500671 -0.20258614 0.055331018
-0.21522619 -0.2025702 0.055273905
-0.21544556 -0.20254803 0.055262942
-0.21564916 -0.20252492 0.055271626
-0.21583696 -0.20251143 0.055221528
-0.21603602 -0.20249487 0.055185243
-0.21625827 -0.20246804 0.055206556
-0.21646562 -0.20245138 0.055164479
-0.21663378 -0.20243751 0.055132885
-0.21683158 -0.20242514 0.055066612
-0.21706615 -0.20238934 0.055144414
-0.21725726 -0.20237832 0.055073552
-0.21743611 -0.2023524 0.055122659
-0.21765585 -0.20232926 0.05511862
-0.21786831 -0.20230924 0.055097286
-0.2180488 -0.20229328 0.055071425
-0.21824759 -0.2022755 0.055044368
-0.21844852 -0.20225438 0.055040363
-0.21865551 -0.2022365 0.055007517
-0.21884698 -0.20221749 0.054995473
-0.21906301 -0.20219538 0.054986823
-0.21927863 -0.20217782 0.054944716
-0.21946202 -0.20215234 0.054986905
-0.21966888 -0.20213495 0.054950591
-0.21986741 -0.20211549 0.054936219
-0.22004196 -0.20209721 0.054932296
-0.22025868 -0.20207845 0.054898262
-0.22045892 -0.20205536 0.054909259
-0.22066545 -0.20204082 0.054852191
-0.22086373 -0.2020217 0.054835513
-0.2210694 -0.20200941 0.0547623
-0.22126684 -0.20198509 0.054784842
-0.22145969 -0.2019681 0.054756638
-0.22165254 -0.20194115 0.054802261
-0.22185171 -0.20192303 0.054777503
-0.22204131 -0.20190437 0.054764312
-0.22224867 -0.2018863 0.054732613
-0.22244194 -0.20186491 0.054736707
-0.22263816 -0.20184539 0.054724652
-0.22281127 -0.20181681 0.054798
-0.22302195 -0.2018012 0.054745536
-0.22322901 -0.20178877 0.054672316
-0.22341256 -0.20176421 0.054707583
-0.22360243 -0.20175986 0.054588269
-0.22380921 -0.20173156 0.054632697
-0.22401763 -0.20172071 0.054546796
-0.22421154 -0.20169224 0.054602791
-0.22441307 -0.20167713 0.054553803
-0.224611 -0.20165977 0.054524437
-0.22481175 -0.20164442 0.054477774
-0.22499873 -0.20161982 0.054510713
-0.22518706 -0.20159616 0.054535586
-0.22538364 -0.20158112 0.054490082
-0.22558725 -0.20156251 0.054465309
-0.22578453 -0.20154537 0.054434799
-0.22597541 -0.20152377 0.054442357
-0.22616792 -0.2015034 0.054439537
-0.22632459 -0.20148969 0.054416046
-0.22650677 -0.20147385 0.054387875
-0.22669765 -0.20145552 0.054371212
-0.22694792 -0.20143315 0.054337103
-0.22712494 -0.20141071 0.054361992
-0.2273095 -0.20140022 0.054292299
-0.22752701 -0.2013686 0.05435285
-0.22771999 -0.20134926 0.054341953
-0.22792399 -0.20133872 0.05425721
-0.2280834 -0.20131209 0.05432713
-0.22829907 -0.20129187 0.054304648
-0.22844997 -0.20125821 0.05443342
-0.22868802 -0.20125321 0.054280534
-0.22888771 -0.20124002 0.054218866
-0.22908428 -0.20122777 0.0541526
-0.22924671 -0.20121375 0.054126795
-0.2294641 -0.20118229 0.054186188
-0.22962926 -0.20116392 0.054190356
-0.22985768 -0.20115247 0.054092854
-0.23004098 -0.20113637 0.054065838
-0.23024134 -0.20111094 0.054094136
-0.23042716 -0.20108661 0.054125935
-0.23062122 -0.20106982 0.054095428
-0.23081866 -0.20105265 0.054064907
-0.23100676 -0.20103058 0.054078244
-0.23119926 -0.2010127 0.054056969
-0.23138684 -0.2009902 0.054073766
-0.23156859 -0.20097722 0.054024838
-0.2317352 -0.20095341 0.054068219
-0.23193148 -0.20093964 0.054013487
-0.2321361 -0.20092669 0.053946041
-0.23230822 -0.20090462 0.053972114
-0.23249617 -0.20088287 0.053983141
-0.23273709 -0.20086804 0.053900599
-0.23293464 -0.20085664 0.053827412
-0.23312047 -0.20082888 0.053884581
-0.23330773 -0.20080674 0.05389908
-0.23349719 -0.20078701 0.053893954
-0.2336922 -0.20077354 0.053838067
-0.23387893 -0.20075098 0.053856015
-0.23406976 -0.20073313 0.053835906
-0.23426203 -0.20071262 0.053834237
-0.23445877 -0.20070192 0.053756431
-0.2346471 -0.20068154 0.053757083
-0.23483692 -0.20066302 0.053742733
-0.23502791 -0.20064139 0.053750291
-0.23521852 -0.20062403 0.053726718
-0.23541431 -0.20060861 0.05368467
-0.23560064 -0.2005861 0.053702619
-0.23578031 -0.20056477 0.053717136
-0.23597524 -0.20054367 0.05371777
-0.23615681 -0.20052993 0.053674601
-0.23634924 -0.20052093 0.053587582
-0.2365586 -0.20049953 0.05357895
-0.23674415 -0.20047633 0.053602669
-0.23693317 -0.20045805 0.053587172
-0.23712301 -0.20044108 0.053561289
-0.23731008 -0.2004202 0.05356656
-0.23748425 -0.20040788 0.053518802
-0.23768769 -0.20038384 0.053534407
-0.23784123 -0.20036298 0.053566284
-0.2380648 -0.20034721 0.053504556
-0.23823896 -0.20032975 0.053494867
-0.23845646 -0.20031075 0.053461984
-0.23864129 -0.20029899 0.053401511
-0.23883024 -0.20026965 0.053467907
-0.23902278 -0.20025255 0.053440865
-0.23921594 -0.20023678 0.053403437
-0.23940258 -0.20021611 0.05340755
-0.23959143 -0.20019956 0.053379357
-0.23978104 -0.20017779 0.053389229
-0.2399476 -0.20017469 0.053279214
-0.24016105 -0.20014288 0.053344388
-0.24034365 -0.20012186 0.053354278
-0.24054091 -0.20010845 0.053296078
-0.24073617 -0.20009886 0.053211357
-0.24092489 -0.20007592 0.053230461
-0.24110462 -0.20004913 0.053285342
-0.24129136 -0.20003764 0.053221408
-0.24148881 -0.20001815 0.053208191
-0.24168335 -0.20000878 0.053122323
-0.24186775 -0.19998445 0.053155273
-0.2420581 -0.19996572 0.053142071
-0.24223335 -0.19994532 0.053153142
-0.24241866 -0.19992307 0.053169943
-0.24260271 -0.19990689 0.053142924
-0.24281393 -0.19988699 0.053121593
-0.24299878 -0.19986355 0.053147633
-0.24319136 -0.19985205 0.053079065
-0.24337789 -0.19983374 0.053065874
-0.24356344 -0.19981255 0.053074606
-0.24373183 -0.19979337 0.053082228
-0.24390483 -0.19977759 0.053061005
-0.24411669 -0.19976152 0.05301084
-0.24429174 -0.19974115 0.0530219
-0.2444998 -0.19972488 0.052976366
-0.24467915 -0.19970763 0.052960895
-0.24488574 -0.19968653 0.05295226
-0.24507418 -0.19966348 0.052972522
-0.24525347 -0.1996464 0.052955892
-0.24543267 -0.19962917 0.052940421
-0.2456259 -0.19961199 0.052913368
-0.24582918 -0.19959296 0.052892067
-0.24601081 -0.19957095 0.052910037
-0.24620439 -0.19955686 0.052859921
-0.24637362 -0.19954428 0.052817944
-0.24656555 -0.19952163 0.052832421
-0.24673754 -0.19950534 0.052815817
-0.2469161 -0.19948646 0.052813035
-0.24708448 -0.19946977 0.052802201
-0.24726653 -0.19945131 0.052793641
-0.2474561 -0.19943826 0.052738927
-0.24764739 -0.1994096 0.05279839
-0.2478472 -0.1993964 0.052736722
-0.24802651 -0.19938852 0.052652042
-0.2482145 -0.19936052 0.052709214
-0.24842705 -0.19933644 0.052717868
-0.24858719 -0.19929914 0.05286622
-0.24876267 -0.19928947 0.052797705
-0.24895178 -0.19928022 0.052715302
-0.24914396 -0.19926472 0.052676737
-0.24933261 -0.1992496 0.052638169
-0.24951775 -0.19923998 0.052561544
-0.24970616 -0.1992213 0.052549507
-0.249898 -0.1991999 0.052554756
-0.25009677 -0.19917591 0.052573834
-0.25027487 -0.19915895 0.052557204
-0.25047314 -0.199147 0.052487474
-0.25067863 -0.1991246 0.052489229
-0.25084633 -0.19910815 0.052477248
-0.25103071 -0.19909535 0.052424856
-0.25125739 -0.19906227 0.052488834
-0.25145209 -0.19904681 0.052447941
-0.25163704 -0.19902647 0.05245091
-0.25181448 -0.1990127 0.052411221
-0.25200254 -0.19899453 0.052395716
-0.2521883 -0.19896771 0.052445974
-0.25235894 -0.19895342 0.05241552
-0.2525461 -0.19894111 0.052357353
-0.25275484 -0.198919 0.052354492
-0.25294253 -0.1989021 0.052329764
-0.25311682 -0.19888493 0.052317765
-0.2532807 -0.19886935 0.052302331
-0.25347558 -0.1988495 0.05229374
-0.2536526 -0.198835 0.05225981
-0.25385129 -0.19881272 0.052266199
-0.25401437 -0.19878554 0.05233727
-0.25418812 -0.19877061 0.052309129
-0.25437376 -0.19874771 0.05233055
-0.25455716 -0.19877367 0.051992111
-0.25477913 -0.19872503 0.052174911
-0.25497353 -0.19870649 0.052157078
-0.25515616 -0.1986825 0.052188892
-0.25533903 -0.1986694 0.052139953
-0.25551853 -0.19865619 0.052094493
-0.25571752 -0.1986331 0.052106649
-0.25589445 -0.19858588 0.052314937
-0.25605693 -0.1985745 0.052269522
-0.25625187 -0.19857444 0.052114446
-0.25645569 -0.19855706 0.052080449
-0.25665277 -0.19853058 0.052119132
-0.25682011 -0.19851387 0.052109461
-0.25702378 -0.19849665 0.052074313
-0.25720772 -0.19847938 0.05205537
-0.25739673 -0.19846593 0.052004106
-0.2575829 -0.19845107 0.051965546
-0.2577571 -0.19843329 0.051958166
-0.25791767 -0.19841681 0.051951967
-0.25813544 -0.19839653 0.051928312
-0.25834647 -0.19836919 0.05196235
-0.25853407 -0.19835076 0.051949155
-0.25870574 -0.19833152 0.051954467
-0.25890702 -0.19831878 0.051888186
-0.25907776 -0.19830152 0.051879656
-0.25925604 -0.19828892 0.051830739
-0.25945589 -0.19827181 0.0517979
-0.2596406 -0.19825242 0.051793952
-0.25980657 -0.19823818 0.051766977
-0.25999638 -0.19822153 0.051738784
-0.26018867 -0.19818155 0.051881295
-0.26037082 -0.19817351 0.051795449
-0.26055759 -0.19815063 0.051815718
-0.26074827 -0.19813842 0.051754072
-0.2609224 -0.19812095 0.051744383
-0.26110494 -0.19810009 0.051753115
-0.26128197 -0.19808887 0.051694974
-0.26147819 -0.19807215 0.051662154
-0.26166183 -0.19805491 0.051643204
-0.2618632 -0.19802953 0.05167035
-0.26205179 -0.19801472 0.051629473
-0.26223224 -0.19800267 0.051574782
-0.26241505 -0.19798163 0.051584676
-0.26260486 -0.19795966 0.051595695
-0.26277524 -0.19794323 0.051581398
-0.26295447 -0.19792786 0.051552083
-0.2631408 -0.19791627 0.051489308
-0.26333463 -0.19789326 0.051504929
-0.26353359 -0.19787219 0.051502094
-0.26371014 -0.19785602 0.05148086
-0.26389754 -0.1978334 0.051498808
-0.26408064 -0.19780797 0.051540997
-0.26427841 -0.19778889 0.051524319
-0.26444861 -0.19777732 0.051474273
-0.26464808 -0.19776461 0.051409144
-0.26483095 -0.19774418 0.051414415
-0.26501203 -0.19771351 0.051496979
-0.26520276 -0.19770393 0.05141573
-0.26537928 -0.19768792 0.051393338
-0.26556635 -0.19766642 0.051403217
-0.26574087 -0.19764891 0.051393528
-0.26592681 -0.19763704 0.051333055
-0.2661159 -0.19761315 0.051359072
-0.26629522 -0.19761725 0.051185586
-0.26650703 -0.19758858 0.051228851
-0.26668215 -0.19757038 0.051223766
-0.26689002 -0.1975468 0.051232435
-0.26706499 -0.19753268 0.051197361
-0.26723358 -0.19751862 0.051166922
-0.26742685 -0.19749396 0.051195238
-0.26762256 -0.19746296 0.051268533
-0.26781204 -0.19745024 0.05121151
-0.26798582 -0.19743748 0.051167212
-0.26817122 -0.19741507 0.051185176
-0.2683489 -0.19740143 0.051144328
-0.26853877 -0.19738463 0.051117294
-0.26875013 -0.19736129 0.051121343
-0.26892713 -0.19734836 0.051075887
-0.26910803 -0.1973244 0.051108845
-0.26928946 -0.19730334 0.051119901
-0.26947865 -0.19728738 0.051087096
-0.2696754 -0.19727653 0.051010445
-0.26983413 -0.1972696 0.050935045
-0.2700308 -0.19723928 0.051002569
-0.27021673 -0.19722024 0.050995149
-0.27043027 -0.19719839 0.050986506
-0.27061096 -0.19718161 0.050966412
-0.27079409 -0.19716553 0.050939396
-0.27097034 -0.19714706 0.050935462
-0.27118379 -0.19712241 0.05094758
-0.27137217 -0.19710732 0.050909013
-0.27155235 -0.19709715 0.050840478
-0.2717393 -0.19707145 0.050881498
-0.27194616 -0.19705048 0.050871722
-0.27211806 -0.19703934 0.050817054
-0.27230039 -0.19702411 0.050784271
-0.27250677 -0.19699788 0.050813705
-0.27268702 -0.19698179 0.050788995
-0.27285379 -0.19696964 0.050745875
-0.27302569 -0.19694711 0.050775405
-0.27325031 -0.19692422 0.050765574
-0.27340865 -0.19692248 0.050652124
-0.273563 -0.19691043 0.050618254
-0.27376592 -0.19687413 0.050724979
-0.27394438 -0.19685979 0.050688747
-0.27414757 -0.19683982 0.050674364
-0.27433315 -0.19681926 0.050678477
-0.27452111 -0.19680732 0.050616842
-0.27471018 -0.19677596 0.050698228
-0.27494445 -0.19674534 0.050737966
-0.27513424 -0.1967371 0.050647493
-0.27528578 -0.19673531 0.050539829
-0.27548337 -0.19670753 0.050587736
-0.27565414 -0.19669464 0.050546907
-0.27583417 -0.19668667 0.050462227
-0.27604213 -0.1966556 0.050526265
-0.27623001 -0.19664118 0.050483081
-0.27641043 -0.19662538 0.050456069
-0.27660418 -0.19660129 0.050479777
-0.27680394 -0.19658466 0.050443489
-0.27698913 -0.19656757 0.050422229
-0.27716762 -0.19654621 0.050437897
-0.2773433 -0.19653669 0.050368223
-0.27753055 -0.1965133 0.050391939
-0.27774277 -0.19648707 0.050416749
-0.27792922 -0.19646922 0.050400097
-0.27811709 -0.19645262 0.05037307
-0.27830365 -0.19643475 0.050356418
-0.27850324 -0.19642079 0.050300531
-0.27867687 -0.19639902 0.050323129
-0.27888843 -0.19637379 0.050341014
-0.27905738 -0.1963625 0.05028981
-0.27926564 -0.19633763 0.050307713
-0.27942923 -0.19632363 0.050280746
-0.27964139 -0.19630271 0.05026634
-0.27983049 -0.19628769 0.050226614
-0.28000876 -0.19627181 0.050201915
-0.28019741 -0.19625279 0.050192177
-0.28038591 -0.19623394 0.050181303
-0.28056577 -0.19620839 0.050226949
-0.28077048 -0.19619308 0.050176803
-0.28094172 -0.19618452 0.050103683
-0.28113374 -0.19616544 0.050091639
-0.28131706 -0.196142 0.05011883
-0.28150928 -0.19612291 0.050106775
-0.2816807 -0.19611415 0.050034802
-0.28186819 -0.19609012 0.050063137
-0.28206223 -0.1960699 0.050058004
-0.28225678 -0.1960535 0.05002404
-0.28245944 -0.19602753 0.05005464
-0.28264126 -0.19601376 0.050011471
-0.28282583 -0.19599813 0.049979832
-0.28300855 -0.19598177 0.049955126
-0.28320512 -0.19595817 0.049973059
-0.28339043 -0.19594215 0.049943727
-0.28358132 -0.19592445 0.049922448
-0.28378332 -0.19589947 0.049946133
-0.28395557 -0.19589016 0.049877618
-0.28415638 -0.19586609 0.04989554
-0.28434229 -0.19584985 0.049867354
-0.28453749 -0.19582763 0.049876064
-0.28473544 -0.19580948 0.049852461
-0.28491557 -0.19579324 0.049828909
-0.28512189 -0.19576983 0.049837589
-0.28531143 -0.19575337 0.049808245
-0.28548494 -0.19573955 0.049772028
-0.28567967 -0.19571614 0.049789954
-0.28586668 -0.19570321 0.049736395
