# .PCD v0.7 - Point Cloud Data file format
VERSION 0.7
FIELDS x y z
SIZE 4 4 4
TYPE F F F
COUNT 1 1 1
WIDTH 1278
HEIGHT 1
VIEWPOINT 0 0 0 1 0 0 0
POINTS 1278
DATA ascii
-0.25020319 -0.16848192 0.052698821
-0.25042376 -0.1684324 0.052647211
-0.25065076 -0.16838236 0.052586287
-0.2508674 -0.16833265 0.0525451
-0.25108683 -0.16828197 0.052506212
-0.25130403 -0.16823252 0.052461557
-0.25152904 -0.1681827 0.052402966
-0.25174639 -0.16813347 0.052355994
-0.25196433 -0.16808304 0.052318268
-0.2521818 -0.16803405 0.052268989
-0.25240061 -0.16798392 0.052226633
-0.25261647 -0.16793492 0.052180838
-0.25283122 -0.1678845 0.052150078
-0.25304583 -0.16783555 0.052106604
-0.25331575 -0.16778685 0.05194011
-0.25347713 -0.16772825 0.05209709
-0.25387841 -0.16763298 0.052048534
-0.25419873 -0.16759478 0.051680446
-0.25458896 -0.16749005 0.05173834
-0.25475886 -0.16743995 0.051802773
-0.25497785 -0.16739111 0.051748853
-0.25518784 -0.16734253 0.051712357
-0.2554006 -0.16729298 0.051678143
-0.25561208 -0.16724484 0.051634699
-0.25583702 -0.16719437 0.051581878
-0.25603011 -0.16714656 0.051575586
-0.25624293 -0.16709742 0.051537912
-0.25645405 -0.1670496 0.051492155
-0.25665829 -0.16699928 0.051483452
-0.25687006 -0.16695026 0.05144693
-0.25707939 -0.16690092 0.051418535
-0.25729054 -0.16685045 0.051395893
-0.25749049 -0.16680278 0.051373355
-0.25769582 -0.16675457 0.051343832
-0.25790522 -0.16670561 0.051311962
-0.2581073 -0.16665702 0.051292874
-0.25830394 -0.16660753 0.051293496
-0.2585035 -0.16655704 0.051296387
-0.25869557 -0.16650683 0.051313221
-0.25887901 -0.16645348 0.051376376
-0.25905702 -0.16639909 0.051460385
-0.25920367 -0.16633873 0.051664896
-0.25807184 -0.16574895 0.059272371
-0.25831264 -0.16570063 0.059166238
-0.258407 -0.16561922 0.059668317
-0.25862315 -0.16557109 0.05961442
-0.259105 -0.16537941 0.060228746
-0.26114887 -0.16525821 0.056813385
-0.26137722 -0.16521022 0.056731634
-0.26157054 -0.16514695 0.056859449
-0.26183376 -0.16509289 0.056754276
-0.26203945 -0.1650435 0.056734003
-0.26221609 -0.16499451 0.056774095
-0.26244366 -0.1649414 0.056738593
-0.26265797 -0.16489068 0.056711309
-0.26285607 -0.16485277 0.056607865
-0.26303959 -0.1647982 0.056681421
-0.26328945 -0.16474748 0.056576364
-0.26347607 -0.16469944 0.05658631
-0.26369289 -0.16464223 0.056609869
-0.26388752 -0.16458873 0.056649804
-0.26406094 -0.16454107 0.056685291
-0.26429111 -0.16449341 0.0565966
-0.26450118 -0.16446182 0.056412131
-0.2646836 -0.16440712 0.056489162
-0.26492363 -0.16434304 0.056521766
-0.26511148 -0.16429576 0.056522451
-0.26533732 -0.1642476 0.05644767
-0.26554528 -0.16419435 0.056456268
-0.26572457 -0.16415079 0.056443166
-0.26590827 -0.16410454 0.056443889
-0.26615271 -0.16404827 0.056398995
-0.26633459 -0.16400366 0.056389332
-0.26656687 -0.16395004 0.056348018
-0.26678205 -0.16390361 0.05628141
-0.26696128 -0.16385423 0.056319173
-0.26715755 -0.16380616 0.056308221
-0.26736432 -0.16375732 0.056281004
-0.2675482 -0.16370744 0.056312934
-0.26773703 -0.16366561 0.056263909
-0.26795605 -0.16361903 0.056190334
-0.26813781 -0.16356423 0.056269687
-0.26839164 -0.16350813 0.056202751
-0.26855838 -0.16346121 0.056246392
-0.26875666 -0.16342101 0.056162596
-0.26896846 -0.16336586 0.05617927
-0.26916981 -0.16331811 0.0561544
-0.26937053 -0.163268 0.056151509
-0.26955274 -0.16321787 0.056189235
-0.26977277 -0.16316824 0.056139935
-0.26994908 -0.16312051 0.056169622
-0.27016446 -0.16307856 0.056063719
-0.27040356 -0.16302748 0.055985339
-0.27058843 -0.16297628 0.056026522
-0.27076885 -0.16292568 0.056072362
-0.27097613 -0.16288349 0.055986177
-0.27118328 -0.16283429 0.055961259
-0.2713744 -0.16278577 0.055965386
-0.27158797 -0.16273458 0.055943884
-0.27178594 -0.16268422 0.055949114
-0.27198681 -0.16264005 0.055894196
-0.27219063 -0.16259235 0.055863522
-0.27239466 -0.16254486 0.055830546
-0.27255628 -0.1624987 0.055878863
-0.27275613 -0.16244441 0.055914123
-0.27297169 -0.16240494 0.055786252
-0.27317259 -0.16235384 0.055791449
-0.27336743 -0.16230255 0.055811729
-0.27357662 -0.16226068 0.055718593
-0.27375686 -0.16221303 0.055738997
-0.27397582 -0.16216035 0.055718601
-0.27415732 -0.16212673 0.055614144
-0.27436092 -0.1620694 0.055667877
-0.27457568 -0.16201763 0.055648677
-0.27474704 -0.16196291 0.055750079
-0.27495083 -0.16191933 0.055683576
-0.27512628 -0.16186665 0.055758364
-0.27534679 -0.16183217 0.055576112
-0.27554473 -0.16178314 0.055569775
-0.27574533 -0.16173281 0.055569191
-0.27593535 -0.16167952 0.055617265
-0.2761299 -0.16163455 0.055583209
-0.27633014 -0.16158707 0.055558361
-0.27654055 -0.16154848 0.055433989
-0.2767252 -0.1615012 0.055441648
-0.2769202 -0.161448 0.055478103
-0.27713025 -0.16140379 0.05540346
-0.27732205 -0.16135179 0.055436477
-0.27750888 -0.16130289 0.05545336
-0.27768597 -0.16125418 0.055489983
-0.27790341 -0.16121517 0.055353999
-0.27809998 -0.16116317 0.055376574
-0.27828228 -0.16111474 0.055399276
-0.2784878 -0.16107512 0.055294603
-0.27869925 -0.16102339 0.055282369
-0.27890289 -0.1609764 0.055245928
-0.27910575 -0.16092229 0.055273075
-0.2793211 -0.16087356 0.055226129
-0.27950466 -0.16082974 0.055206046
-0.279668 -0.16077836 0.055295959
-0.27986592 -0.16073811 0.055213317
-0.28006715 -0.16068999 0.055191919
-0.28027785 -0.16063845 0.055179693
-0.2804448 -0.16060038 0.055145875
-0.2806344 -0.16054721 0.055193953
-0.28083199 -0.16050027 0.055170283
-0.28105137 -0.16044854 0.055140637
-0.28124481 -0.16040224 0.055120468
-0.28144976 -0.16035412 0.055090949
-0.28163713 -0.16032223 0.054958686
-0.28183135 -0.16026539 0.055028684
-0.28203386 -0.16021162 0.055053521
-0.28222859 -0.16017099 0.054981321
-0.28240007 -0.16012195 0.055033013
-0.28256625 -0.16006388 0.055174932
-0.28279063 -0.16003016 0.054977611
-0.28297061 -0.1599806 0.055015363
-0.2831665 -0.15994191 0.05492349
-0.28336194 -0.1598902 0.054946084
-0.28355736 -0.15984714 0.054893523
-0.28375795 -0.15979625 0.054897569
-0.28394663 -0.15975115 0.054877441
-0.28413489 -0.15970574 0.054860786
-0.28433183 -0.15965113 0.054905321
-0.28453925 -0.15960306 0.054870002
-0.28471333 -0.15956135 0.054852307
-0.28490654 -0.15951698 0.054815955
-0.28509799 -0.15947077 0.054799274
-0.28529909 -0.159426 0.054748982
-0.28550729 -0.15937468 0.054740243
-0.28569141 -0.15932514 0.054768704
-0.28587291 -0.15928794 0.054695465
-0.28604785 -0.15923752 0.054751754
-0.28625602 -0.15919723 0.054647058
-0.28645611 -0.15915231 0.054600243
-0.286659 -0.1591002 0.05461004
-0.28684014 -0.15904675 0.054678999
-0.28702316 -0.15900147 0.054672789
-0.28721169 -0.15895826 0.054636475
-0.28740937 -0.15891662 0.054566555
-0.28759778 -0.15887982 0.054474756
-0.28779405 -0.15883055 0.05447422
-0.28798908 -0.15878572 0.054437838
-0.28816694 -0.15872006 0.054620117
-0.28834939 -0.15866776 0.054676346
-0.28855523 -0.15864784 0.054399423
-0.28874511 -0.15859486 0.054445181
-0.28894019 -0.15854378 0.054463144
-0.2891272 -0.15849975 0.05443725
-0.2893301 -0.15847075 0.054245904
-0.28950649 -0.15839963 0.054479048
-0.28970009 -0.15835328 0.054458879
-0.28990224 -0.15830852 0.054406263
-0.29009467 -0.15826023 0.054405756
-0.29028243 -0.15821867 0.054356731
-0.29047897 -0.1581797 0.054266017
-0.29068276 -0.15813135 0.054241128
-0.29086348 -0.15808345 0.05426269
-0.29105008 -0.15803102 0.054310784
-0.29124388 -0.15798676 0.054272123
-0.29143283 -0.15794012 0.054264709
-0.29161289 -0.15789014 0.054305919
-0.29180884 -0.15786314 0.054112315
-0.29201064 -0.15782166 0.054031961
-0.29219544 -0.15775228 0.054231517
-0.29238108 -0.15770754 0.05421488
-0.2925784 -0.15767674 0.054051325
-0.29277259 -0.15761112 0.054197624
-0.2929602 -0.157574 0.054110453
-0.29315957 -0.15754002 0.053970002
-0.29334977 -0.15747142 0.054151013
-0.29355183 -0.15743467 0.054029033
-0.29373661 -0.15738827 0.054028589
-0.29392624 -0.15734744 0.053969145
-0.29412729 -0.15729141 0.054017115
-0.29430735 -0.15723956 0.054074526
-0.29449725 -0.15720119 0.053993106
-0.29468638 -0.15715955 0.053941764
-0.29488492 -0.15710945 0.053943511
-0.29507288 -0.15706095 0.053954598
-0.2952612 -0.157015 0.053942569
-0.29544994 -0.1569728 0.053897001
-0.29564512 -0.15692514 0.053884909
-0.29583365 -0.1568826 0.05384282
-0.2960251 -0.15683401 0.053846944
-0.29621312 -0.15678655 0.053848788
-0.29641172 -0.15673909 0.053827412
-0.29660305 -0.1566872 0.053860441
-0.29679486 -0.15664662 0.053794041
-0.2969934 -0.15660158 0.053751864
-0.29717779 -0.15654944 0.053802289
-0.2973519 -0.15650785 0.053783447
-0.29754671 -0.15647264 0.053663842
-0.29773819 -0.15641753 0.053724609
-0.29792953 -0.15637256 0.053697523
-0.29812393 -0.15633439 0.053604513
-0.29832935 -0.15627885 0.053638574
-0.29850686 -0.15623309 0.053648598
-0.29869092 -0.15619126 0.053610004
-0.2988961 -0.15614057 0.053602457
-0.29908398 -0.15609314 0.053604297
-0.29926151 -0.15604763 0.053612012
-0.29944906 -0.15600361 0.053584959
-0.29964411 -0.15595278 0.053600606
-0.29983434 -0.15591326 0.053528436
-0.30002198 -0.15586749 0.053516414
-0.30021262 -0.15582362 0.053481236
-0.3004109 -0.15577373 0.053481832
-0.30059862 -0.15572713 0.053476747
-0.30078948 -0.15568161 0.053455435
-0.30097747 -0.15563363 0.053461902
-0.30116534 -0.15558647 0.053461436
-0.30135199 -0.15555979 0.053285252
-0.30154687 -0.1554956 0.053417675
-0.30173036 -0.15545312 0.053386033
-0.30191922 -0.15541501 0.053304624
-0.30210707 -0.1553676 0.053306472
-0.30229893 -0.15531744 0.05332331
-0.3024987 -0.15526238 0.053365506
-0.30268002 -0.15522696 0.053277239
-0.3028692 -0.15518612 0.05321895
-0.30306095 -0.15513653 0.053231169
-0.30325228 -0.1550885 0.053230669
-0.30344903 -0.15503366 0.053277515
-0.30364096 -0.15499358 0.053206496
-0.30381772 -0.15496939 0.053030401
-0.30401948 -0.15491836 0.053033277
-0.3042089 -0.15485792 0.053144939
-0.30439138 -0.1548169 0.053102892
-0.30459094 -0.15476388 0.053127751
-0.3047941 -0.15471794 0.053083226
-0.30498415 -0.15466546 0.053124353
-0.30516785 -0.1546212 0.053107738
-0.30535072 -0.15457143 0.053140838
-0.30554175 -0.15453915 0.053003926
-0.30573815 -0.15447976 0.053091243
-0.30591673 -0.15444702 0.052985657
-0.30611721 -0.15440626 0.052901834
-0.30630448 -0.15435393 0.052947618
-0.30649906 -0.15430589 0.052940156
-0.30669722 -0.1542632 0.052878324
-0.30688348 -0.15421338 0.052904461
-0.3070738 -0.15416786 0.052884318
-0.30726713 -0.1541224 0.052857213
-0.30745289 -0.15407975 0.052822076
-0.30763769 -0.15403308 0.052823946
-0.30783105 -0.15397619 0.052896261
-0.30802697 -0.15393151 0.052856416
-0.30822805 -0.15388836 0.052792251
-0.30839831 -0.15384653 0.052783836
-0.30858922 -0.15379994 0.052771784
-0.30877471 -0.15375763 0.052734345
-0.30896205 -0.15371206 0.052721161
-0.30916044 -0.15365788 0.052758753
-0.30934769 -0.1536126 0.052743256
-0.30953133 -0.15357327 0.05268386
-0.30971688 -0.15353546 0.052607112
-0.30990309 -0.15349641 0.052539606
-0.3100929 -0.15344226 0.052595772
-0.31028634 -0.15339637 0.052572131
-0.31046635 -0.15335768 0.052515082
-0.31066316 -0.15330216 0.052567709
-0.31086239 -0.15324327 0.052644603
-0.31106207 -0.15319261 0.052648656
-0.31124964 -0.15315987 0.052523337
-0.31144923 -0.15310512 0.052563231
-0.31166193 -0.15303594 0.052700117
-0.31183308 -0.15301396 0.052517127
-0.31202343 -0.15296857 0.05249583
-0.31220129 -0.15292856 0.052454986
-0.31239384 -0.15288009 0.052455634
-0.31257889 -0.15283418 0.052450567
-0.31276864 -0.15279344 0.052389968
-0.31297022 -0.15273687 0.052441403
-0.3131538 -0.15269676 0.052388944
-0.31334397 -0.15265168 0.052365333
-0.31352955 -0.15260524 0.052363724
-0.3137103 -0.15256503 0.052318234
-0.31391525 -0.15251186 0.052332647
-0.31410232 -0.15247075 0.05228132
-0.31428874 -0.15242343 0.052285485
-0.31447288 -0.15237892 0.052270018
-0.31466663 -0.1523364 0.052216318
-0.31485361 -0.15229185 0.05219505
-0.31504077 -0.15224713 0.052174937
-0.31523973 -0.15219493 0.052194018
-0.31542787 -0.15214585 0.052209735
-0.31561336 -0.15210645 0.052146859
-0.31580371 -0.15206133 0.052123245
-0.31600356 -0.15200837 0.052146953
-0.31619564 -0.15196136 0.052136045
-0.31637987 -0.15192015 0.052091669
-0.31657043 -0.15187179 0.052095808
-0.31676 -0.15182765 0.052065261
-0.31695545 -0.151777 0.052078597
-0.31715959 -0.15172283 0.052103423
-0.31734154 -0.15168421 0.052041736
-0.31751955 -0.15164682 0.051977769
-0.31772888 -0.15158725 0.052038386
-0.31790444 -0.15155247 0.051957101
-0.31809524 -0.15150709 0.051934637
-0.31828973 -0.15145788 0.051937584
-0.31848663 -0.15140899 0.051932409
-0.31866631 -0.15136972 0.051881146
-0.31884846 -0.15133062 0.051822916
-0.31905076 -0.15127626 0.051853538
-0.31926095 -0.15121129 0.051959239
-0.31943163 -0.1511893 0.051777408
-0.3196207 -0.15114051 0.051788494
-0.31982508 -0.15108177 0.051852625
-0.32001865 -0.15103398 0.051845163
-0.32019487 -0.15100594 0.051703755
-0.32037625 -0.15096493 0.051664032
-0.32059035 -0.15089712 0.051785883
-0.32078472 -0.15085125 0.051759921
-0.3209739 -0.15081041 0.051701643
-0.32117727 -0.15075843 0.05170913
-0.32136565 -0.15071087 0.051710967
-0.32156506 -0.15066281 0.05169306
-0.32175055 -0.15061811 0.05167643
-0.32192478 -0.15058392 0.051592838
-0.32211363 -0.1505409 0.051554214
-0.32231432 -0.15048695 0.051584847
-0.32249951 -0.15044497 0.051545098
-0.32271108 -0.15038125 0.051636908
-0.32290089 -0.15033984 0.051582079
-0.32309294 -0.15029177 0.051580425
-0.32326511 -0.1502593 0.051486447
-0.32345793 -0.15021515 0.051448945
-0.32364795 -0.15016666 0.051455386
-0.32385382 -0.150111 0.051489443
-0.32404751 -0.15006173 0.05149471
-0.32423803 -0.15001747 0.051463
-0.32441798 -0.14998028 0.051393233
-0.32462212 -0.14992864 0.051396094
-0.32480615 -0.14988351 0.051386409
-0.32498455 -0.14984323 0.051346723
-0.32516974 -0.14980577 0.051267661
-0.32534301 -0.14977196 0.051182926
-0.3255631 -0.14970279 0.051303558
-0.32574067 -0.1496675 0.051222257
-0.32594863 -0.14960881 0.051278256
-0.32612646 -0.1495712 0.051216606
-0.32635173 -0.14950046 0.051339511
-0.32650113 -0.14948843 0.051117416
-0.32671335 -0.14942455 0.051209223
-0.32689571 -0.14938527 0.051152155
-0.32710475 -0.14932631 0.051208146
-0.3272962 -0.14927971 0.051194929
-0.32748845 -0.1492345 0.051167835
-0.32767117 -0.14919502 0.051111914
-0.32787704 -0.14913896 0.051149443
-0.32806271 -0.14909713 0.051107377
-0.32826868 -0.14904119 0.051143739
-0.32844314 -0.14900827 0.051048592
-0.3286455 -0.14895336 0.051083833
-0.3288371 -0.14890701 0.051068299
-0.32902935 -0.14886206 0.051038891
-0.32921529 -0.14882018 0.050996825
-0.32941014 -0.14877325 0.050978951
-0.32961252 -0.14871874 0.051010732
-0.329804 -0.14867638 0.050960522
-0.32998776 -0.14863436 0.050924249
-0.33018452 -0.14858618 0.050913289
-0.33039138 -0.14853041 0.050946191
-0.33059075 -0.14848037 0.050945625
-0.33075851 -0.14845233 0.05082278
-0.33093792 -0.14841366 0.0507669
-0.3311595 -0.14834717 0.05086093
-0.33134523 -0.14830744 0.050800364
-0.3315469 -0.14825417 0.050822902
-0.33177346 -0.14818445 0.050934233
-0.33193141 -0.14816523 0.050755985
-0.33212966 -0.14811639 0.050747339
-0.33232081 -0.14807452 0.050693654
-0.3325212 -0.1480225 0.050708115
-0.33274201 -0.14796099 0.050760537
-0.33291453 -0.14792749 0.050674647
-0.33312464 -0.14787211 0.050697114
-0.33330965 -0.14783138 0.050646961
-0.33350873 -0.14778061 0.050653324
-0.33371091 -0.14772774 0.050671227
-0.33390704 -0.14768423 0.050620977
-0.33410159 -0.14764017 0.050578836
-0.33428743 -0.14759564 0.050559886
-0.33447778 -0.147548 0.050558232
-0.33466646 -0.14750648 0.050506894
-0.33485949 -0.14745869 0.050500602
-0.33505702 -0.1474127 0.050468832
-0.3352212 -0.14738329 0.050365679
-0.33545694 -0.1473062 0.05052086
-0.33563223 -0.14727561 0.050403744
-0.33583775 -0.14721951 0.050442427
-0.33604968 -0.14716075 0.050490305
-0.3362391 -0.14712371 0.050398491
-0.33644569 -0.14707185 0.050397865
-0.33663973 -0.14702541 0.050377689
-0.33682513 -0.14698325 0.050339088
-0.33703527 -0.14692917 0.050349984
-0.33722746 -0.14688718 0.050295152
-0.33743599 -0.14683431 0.050299115
-0.33762461 -0.14678711 0.050297491
-0.33781701 -0.14673893 0.050295822
-0.33802709 -0.1466898 0.050263945
-0.33820936 -0.14664844 0.050225381
-0.33842835 -0.14658749 0.050276667
-0.3385984 -0.14655569 0.050181556
-0.33878082 -0.14651428 0.050142977
-0.33898783 -0.14646286 0.050137717
-0.33920732 -0.14640193 0.050187849
-0.33940631 -0.14635584 0.050153751
-0.33960199 -0.14631191 0.050108135
-0.33978453 -0.14627059 0.050068405
-0.34000728 -0.14620793 0.050126594
-0.34021497 -0.14615354 0.050145604
-0.3403984 -0.14611612 0.050070025
-0.34058332 -0.14607489 0.050024498
-0.34077141 -0.14603166 0.049989343
-0.34096843 -0.14598566 0.049958739
-0.34117886 -0.14593126 0.049971953
-0.34139219 -0.14587653 0.049981661
-0.34158474 -0.14582926 0.049971905
-0.34176537 -0.14579228 0.049898662
-0.34198275 -0.14573242 0.049944181
-0.34219593 -0.14567944 0.049938869
-0.34237635 -0.14564265 0.049864475
-0.34258062 -0.14559391 0.049841899
-0.34278116 -0.14554198 0.049855195
-0.34298047 -0.14549501 0.049828041
-0.34315863 -0.14545693 0.049769845
-0.34336796 -0.14540254 0.049785383
-0.3435781 -0.14535178 0.049767379
-0.34378803 -0.14530122 0.049748223
-0.34400302 -0.14524901 0.049732491
-0.34419966 -0.1452039 0.049694944
-0.34438995 -0.14515999 0.049660932
-0.34459472 -0.1451074 0.049670726
-0.34479854 -0.14505544 0.049677048
-0.34498376 -0.14501865 0.049592212
-0.34520477 -0.14495654 0.049649253
-0.34540063 -0.14491084 0.049618661
-0.34560019 -0.14486036 0.049621563
-0.34579226 -0.14481959 0.049556315
-0.24129568 -0.17044698 0.055079367
-0.24152583 -0.17039402 0.055036958
-0.24176693 -0.17034057 0.054974802
-0.24200842 -0.17028847 0.054899931
-0.24225473 -0.17023557 0.054821551
-0.24250516 -0.17018431 0.054720022
-0.24275538 -0.1701307 0.054639295
-0.24301669 -0.17008042 0.054505292
-0.2432369 -0.1700289 0.054472215
-0.24346034 -0.1699764 0.054440279
-0.24369368 -0.16992344 0.054390907
-0.24392319 -0.16987155 0.054340404
-0.24415007 -0.16981834 0.054307275
-0.24437398 -0.16976628 0.0542707
-0.24461794 -0.1697145 0.054187708
-0.24485102 -0.16966332 0.054123312
-0.24509048 -0.16961148 0.054050781
-0.24532199 -0.16956042 0.053988703
-0.24554938 -0.16950789 0.053948633
-0.24579066 -0.16945784 0.053856425
-0.24602176 -0.16940583 0.053803604
-0.24624985 -0.16935498 0.053747341
-0.24648386 -0.16930343 0.053684093
-0.24671009 -0.16925263 0.053631313
-0.24694772 -0.16920164 0.053555321
-0.24718267 -0.16915186 0.053474724
-0.2474156 -0.16910073 0.053410333
-0.24764277 -0.1690505 0.053350609
-0.24788892 -0.16900082 0.053244479
-0.24811304 -0.16895056 0.053191729
-0.24832681 -0.16889811 0.053180665
-0.24855798 -0.16884874 0.053104721
-0.24878649 -0.16879791 0.053047303
-0.2490086 -0.16874789 0.052996874
-0.24923451 -0.16869837 0.052933693
-0.24946204 -0.16864778 0.052876279
-0.24968092 -0.16859777 0.052832812
-0.24989954 -0.16854782 0.052789338
-0.25012907 -0.1684978 0.05272267
-0.25035042 -0.16844837 0.052668765
-0.25057226 -0.16839774 0.052624121
-0.25079483 -0.16834867 0.052564438
-0.25101498 -0.16829807 0.052523263
-0.25123292 -0.16824868 0.052476339
-0.25145504 -0.16819853 0.052427061
-0.25167418 -0.1681495 0.052374341
-0.2518889 -0.16809867 0.052347094
-0.25210997 -0.16805011 0.052286271
-0.2523281 -0.16799988 0.052246276
-0.25254184 -0.16795063 0.052207474
-0.25275695 -0.16790023 0.052175596
-0.25297087 -0.16785119 0.052134477
-0.25322679 -0.16780347 0.051990129
-0.25340325 -0.16774401 0.052121565
-0.25380045 -0.16764961 0.052074283
-0.25407413 -0.16759771 0.05192747
-0.25455016 -0.16751361 0.051618259
-0.25467661 -0.16745299 0.051869191
-0.25489935 -0.16740759 0.051777139
-0.25511405 -0.16735968 0.051724456
-0.25532615 -0.16731004 0.051692605
-0.25553736 -0.16726035 0.051663071
-0.25575274 -0.16720842 0.051643912
-0.255959 -0.16716263 0.051591299
-0.25617215 -0.16711353 0.051552501
-0.25638133 -0.1670654 0.051513739
-0.25659409 -0.16701493 0.051487662
-0.25679141 -0.16696659 0.051476739
-0.25700426 -0.16691783 0.051435638
-0.25722736 -0.16686782 0.051382884
-0.25741792 -0.16682011 0.05138126
-0.25761849 -0.1667711 0.05136916
-0.25782603 -0.16672179 0.05134429
-0.2580328 -0.16667402 0.051307853
-0.25823775 -0.16662444 0.051291093
-0.25843173 -0.16657454 0.05130101
-0.25862837 -0.16652359 0.051314376
-0.25881177 -0.16647342 0.051349808
-0.258993 -0.16641968 0.051421098
-0.25915462 -0.16636223 0.051567696
-0.25929517 -0.16629902 0.051810406
-0.25788409 -0.16573675 0.059789248
-0.2582013 -0.16571379 0.059295278
-0.25837323 -0.16564989 0.059475318
-0.25853556 -0.16558734 0.059664674
-0.25875267 -0.16553949 0.059606187
-0.25906447 -0.16541108 0.060041659
-0.25954309 -0.16521382 0.060711533
-0.26128426 -0.16522798 0.056780379
-0.26149511 -0.16517785 0.056755476
-0.26170555 -0.1651168 0.056826517
-0.2619518 -0.16506432 0.056744672
-0.26214421 -0.16501547 0.056748815
-0.26234958 -0.16496433 0.056744762
-0.26255697 -0.16491188 0.056747638
-0.26277423 -0.16486758 0.05665794
-0.26293856 -0.16482499 0.056669265
-0.2631931 -0.16476604 0.056625489
-0.2633954 -0.16472018 0.05658216
-0.26359516 -0.16466804 0.056598965
-0.26379192 -0.16461322 0.056645848
-0.26398903 -0.16456041 0.056674235
-0.26416975 -0.16451477 0.056676172
-0.26441899 -0.16447443 0.056482174
-0.26460102 -0.16443524 0.056425147
-0.26481879 -0.1643689 0.056526184
-0.26502207 -0.16431615 0.056540638
-0.26520243 -0.16427471 0.056506749
-0.26544037 -0.16422018 0.056460805
-0.26564229 -0.16416924 0.056462564
-0.26582459 -0.16412865 0.056417093
-0.26601896 -0.16407759 0.056436252
-0.26624873 -0.16402513 0.056390379
-0.26643381 -0.16397746 0.056400366
-0.26666957 -0.16392708 0.05632323
-0.26686773 -0.16387746 0.056321554
-0.26704353 -0.1638312 0.056339722
-0.2672675 -0.16377951 0.056299668
-0.26745114 -0.1637338 0.056295812
-0.2676281 -0.16368592 0.056325525
-0.26787153 -0.16364104 0.056183584
-0.2680414 -0.1635952 0.056211043
-0.26824012 -0.16353974 0.056259073
-0.26847401 -0.16348557 0.056218937
-0.26862741 -0.16344278 0.056255784
-0.26886064 -0.16339742 0.05614052
-0.26904798 -0.16334467 0.056189805
-0.26925263 -0.16329822 0.056146458
-0.26944208 -0.16324852 0.056164496
-0.26964906 -0.16319406 0.056185868
-0.26985365 -0.16315013 0.056120552
-0.27002889 -0.16309977 0.056175716
-0.27027094 -0.16305895 0.056001425
-0.27048719 -0.16300376 0.056008838
-0.27066225 -0.16295342 0.056063995
-0.27084595 -0.1629065 0.056070536
-0.27105445 -0.16286254 0.055997103
-0.27126411 -0.16281205 0.055977985
-0.27145675 -0.16276422 0.055972889
-0.27166811 -0.16271463 0.055942193
-0.27185896 -0.16266619 0.055946358
-0.27206135 -0.16262031 0.055903025
-0.27226904 -0.16257189 0.055870056
-0.27246287 -0.16252749 0.05583258
-0.27262953 -0.1624786 0.055893593
-0.27283213 -0.16242814 0.055889562
-0.27304977 -0.16238719 0.055769816
-0.27324098 -0.16233428 0.055812113
-0.27344036 -0.16228516 0.055803493
-0.27364415 -0.16224346 0.055720855
-0.27382588 -0.16219395 0.055753991
-0.27404293 -0.16214573 0.055698976
-0.27422625 -0.16211313 0.055581823
-0.27442905 -0.1620528 0.055663332
-0.27463719 -0.16199777 0.05568701
-0.27481791 -0.16194786 0.055725932
-0.27501243 -0.16190235 0.05569654
-0.27519074 -0.161854 0.055727392
-0.27541122 -0.16181687 0.055568323
-0.27559936 -0.16176832 0.055579439
-0.27580887 -0.16171719 0.05556611
-0.27599454 -0.16166446 0.05561886
-0.27619061 -0.16162042 0.055573281
-0.27638814 -0.16157442 0.055541549
-0.27660048 -0.16153416 0.055427618
-0.27678132 -0.16148768 0.055436492
-0.27697513 -0.16143386 0.055481087
-0.27718332 -0.16138865 0.055419222
-0.27737674 -0.1613377 0.055439539
-0.27755094 -0.16129036 0.055470429
-0.27774012 -0.16124301 0.055468827
-0.27795154 -0.1612035 0.055350285
-0.27814844 -0.16114862 0.055397168
-0.27832654 -0.1611039 0.05539681
-0.27853706 -0.16106448 0.055279437
-0.27873969 -0.1610135 0.05528003
-0.27894521 -0.16096456 0.055256329
-0.27914825 -0.16091068 0.055281192
-0.27936351 -0.16086197 0.055234283
-0.2795426 -0.16081847 0.055221215
-0.27970725 -0.16076808 0.05529958
-0.27990955 -0.16072766 0.055208854
-0.28010988 -0.16067897 0.055194445
-0.2803168 -0.16062823 0.05518344
-0.28048536 -0.16059148 0.055134617
-0.28067002 -0.16053821 0.055194318
-0.28087154 -0.16049081 0.055166025
-0.28108627 -0.16043918 0.055145718
-0.28127584 -0.1603936 0.055127926
-0.28148019 -0.16034508 0.055103071
-0.28167588 -0.16031256 0.054958068
-0.28186563 -0.16025589 0.055036236
-0.28206185 -0.16020465 0.055053063
-0.28225952 -0.16016273 0.054985493
-0.28242967 -0.16011257 0.055049941
-0.2825942 -0.16005716 0.055172238
-0.28281754 -0.16002263 0.054984238
-0.28299391 -0.15997396 0.055022042
-0.2831938 -0.15993495 0.054924406
-0.28338221 -0.15988512 0.054945931
-0.28358391 -0.15983967 0.054900296
-0.28377759 -0.15979078 0.054902121
-0.28397045 -0.15974557 0.054873899
-0.28415519 -0.15970118 0.054856159
-0.28435183 -0.15964638 0.054903045
-0.28455794 -0.15959702 0.054881647
-0.28473285 -0.1595563 0.054853573
-0.28492251 -0.15951294 0.054816127
-0.28511399 -0.15946686 0.05479832
-0.28531054 -0.15942191 0.054759674
-0.2855185 -0.15937038 0.054753281
-0.28570253 -0.15932085 0.054781783
-0.28588447 -0.15928432 0.054701634
-0.28606093 -0.15923591 0.054737136
-0.2862677 -0.15919398 0.054649841
-0.28646326 -0.15914874 0.054615811
-0.28666982 -0.15909609 0.054622151
-0.28684452 -0.15904531 0.054681942
-0.28703415 -0.15899783 0.054680336
-0.28721654 -0.15895775 0.054630242
-0.28741735 -0.15891479 0.05456496
-0.28760931 -0.15887736 0.054470852
-0.28780156 -0.1588283 0.054477327
-0.28798956 -0.15878536 0.054439895
-0.28817084 -0.15871885 0.054622155
-0.28834957 -0.15866721 0.05468075
-0.28855532 -0.1586473 0.054403894
-0.28874567 -0.15859528 0.054440428
-0.28894004 -0.15854315 0.054468829
-0.28912762 -0.15850031 0.054431412
-0.28932625 -0.15847091 0.054252863
-0.28950608 -0.15839893 0.054485999
-0.28969648 -0.15835431 0.054457799
-0.28989786 -0.15830815 0.054419108
-0.29009068 -0.15826081 0.054409377
-0.2902748 -0.15822002 0.054361586
-0.2904717 -0.15818202 0.054261655
-0.2906715 -0.15813361 0.05424609
-0.29085571 -0.15808509 0.054265339
-0.29103884 -0.1580338 0.054311179
-0.29123592 -0.15798832 0.054275993
-0.29142135 -0.1579427 0.054267477
-0.29159802 -0.15789421 0.054302976
-0.29179698 -0.15786514 0.054120962
-0.29199848 -0.15782306 0.054046422
-0.29218051 -0.15775689 0.054224059
-0.29236221 -0.15771207 0.054216735
-0.29256591 -0.1576778 0.054069363
-0.29275697 -0.15761444 0.054202992
-0.29294068 -0.15757695 0.054127458
-0.29314077 -0.15754598 0.053959299
-0.29332727 -0.1574779 0.054143831
-0.29353222 -0.15743816 0.054041527
-0.29371378 -0.15739417 0.054027274
-0.29390666 -0.15735172 0.053974777
-0.29410076 -0.15729807 0.054017063
-0.29428416 -0.157245 0.054077931
-0.29447374 -0.15720524 0.054009274
-0.29466659 -0.15716453 0.053941749
-0.29485792 -0.15711504 0.053954005
-0.29504949 -0.15706721 0.05395123
-0.29523402 -0.15702048 0.053954288
-0.29542625 -0.15697794 0.053904112
-0.2956109 -0.15693291 0.053892136
-0.29580635 -0.15688916 0.053845398
-0.29599786 -0.15684201 0.053836837
-0.29618552 -0.15679145 0.053866461
-0.29638076 -0.15674736 0.053823195
-0.29657194 -0.15669458 0.053864345
-0.29676366 -0.15665348 0.053802617
-0.29695866 -0.15660945 0.05375934
-0.29714993 -0.15655692 0.053798184
-0.2973274 -0.15651514 0.05377356
-0.29751521 -0.15648088 0.053660996
-0.29770657 -0.15642606 0.053719483
-0.29789433 -0.15638198 0.053692468
-0.29809573 -0.15633953 0.053621404
-0.29829749 -0.15628676 0.053639341
-0.29847497 -0.15624008 0.053657494
-0.29865539 -0.15620062 0.053606253
-0.29886052 -0.1561494 0.053603366
-0.29905161 -0.15610303 0.053589027
-0.29922917 -0.15605618 0.053608332
-0.29941311 -0.15601319 0.053580184
-0.29961151 -0.15596192 0.053592376
-0.29979458 -0.15592486 0.053514533
-0.29998931 -0.15587571 0.053516354
-0.30017644 -0.15583259 0.053482398
-0.30037478 -0.15578173 0.053491123
-0.30056211 -0.15573697 0.053471044
-0.30075315 -0.15568992 0.05346249
-0.30094108 -0.15564182 0.053470142
-0.30112556 -0.15559484 0.053475514
-0.30131567 -0.1555673 0.053299349
-0.30151314 -0.15550564 0.053404029
-0.30169725 -0.15546009 0.053397849
-0.30188194 -0.1554254 0.053295709
-0.30207703 -0.15537484 0.05330909
-0.30226487 -0.15532716 0.053313274
-0.30246186 -0.15527 0.053379811
-0.30264255 -0.15523659 0.053275399
-0.30283165 -0.15519576 0.05321715
-0.30303004 -0.15514515 0.053223569
-0.30321357 -0.15510121 0.053204667
-0.30341184 -0.15504134 0.053291999
-0.30360401 -0.1550004 0.05322795
-0.3037847 -0.15497404 0.053062271
-0.30398151 -0.15492782 0.053034015
-0.30417725 -0.15486713 0.053134087
-0.30435273 -0.15482771 0.053093292
-0.30455285 -0.15477297 0.053132061
-0.30474827 -0.15473056 0.053073756
-0.30495206 -0.15467475 0.053113647
-0.30513248 -0.15463065 0.05310287
-0.30531511 -0.1545812 0.053133696
-0.30550334 -0.15454803 0.053010717
-0.30570543 -0.15448959 0.053077213
-0.30588591 -0.15445238 0.053006329
-0.30608198 -0.15441446 0.052907567
-0.30626464 -0.15436529 0.05293607
-0.30646342 -0.15431458 0.052942485
-0.30665511 -0.15427244 0.052889995
-0.30684716 -0.15422317 0.052898776
-0.3070347 -0.15417688 0.052891403
-0.30723143 -0.15413055 0.052864302
-0.30742058 -0.15408705 0.052829176
-0.30760807 -0.1540409 0.052820653
-0.30779386 -0.15398669 0.052886132
-0.307989 -0.15394329 0.052837081
-0.30819666 -0.15389343 0.052816823
-0.30836913 -0.15385291 0.05279224
-0.30855849 -0.15380895 0.052760586
-0.30874172 -0.1537652 0.052740537
-0.30892441 -0.15372239 0.052713562
-0.30912644 -0.1536669 0.052754618
-0.30930924 -0.15362392 0.052728795
-0.3095029 -0.1535777 0.052707501
-0.30967921 -0.15354525 0.05260428
-0.30988428 -0.15349472 0.052595608
-0.31005782 -0.15345699 0.052544437
-0.31025577 -0.15339467 0.05265373
-0.31043035 -0.15336891 0.052496191
-0.31062514 -0.15331629 0.052528068
-0.3108283 -0.15325558 0.052611891
-0.31103331 -0.15319683 0.052674882
-0.31121713 -0.15316528 0.052547332
-0.31141332 -0.15311962 0.052515611
-0.31163138 -0.15304245 0.05271028
-0.31180823 -0.15301637 0.052550413
-0.31198949 -0.15297565 0.052508421
-0.31217578 -0.15293579 0.052447889
-0.31235754 -0.1528863 0.052481029
-0.31253898 -0.15284911 0.05240782
-0.31274211 -0.15279786 0.052409571
-0.31293741 -0.15274578 0.052435659
-0.31312439 -0.15270482 0.052383211
-0.31331182 -0.15265949 0.052367754
-0.31349629 -0.15261437 0.05235694
-0.31367758 -0.15257336 0.052317262
-0.31387842 -0.15252176 0.052327115
-0.31407529 -0.15247527 0.052301176
-0.31425464 -0.15243316 0.052275382
-0.31444299 -0.1523868 0.052266851
-0.31463203 -0.15234651 0.052203983
-0.31483006 -0.15229522 0.052217331
-0.31500891 -0.15225708 0.052158013
-0.3152076 -0.15220508 0.052175988
-0.31539702 -0.15215434 0.052203279
-0.31558371 -0.15211344 0.052150834
-0.31577644 -0.15206864 0.052119143
-0.31597108 -0.15201846 0.052130215
-0.3161667 -0.15196723 0.052148204
-0.3163535 -0.15192617 0.052096922
-0.31654456 -0.15187715 0.052105706
-0.31672794 -0.15183681 0.052055605
-0.31692111 -0.15178859 0.052052807
-0.31712914 -0.15173 0.052107684
-0.31731397 -0.15168811 0.052067973
-0.31748956 -0.15165624 0.051961295
-0.31770039 -0.15159205 0.05205892
-0.31788033 -0.15155828 0.051959142
-0.3180677 -0.15151364 0.0519379
-0.31825474 -0.15146933 0.051914349
-0.31846017 -0.1514114 0.05196926
-0.31863764 -0.1513772 0.051878743
-0.31882387 -0.15133655 0.051825151
-0.31902203 -0.15128362 0.051852368
-0.31923017 -0.15122062 0.051945388
-0.31940773 -0.15119158 0.051809795
-0.31959254 -0.15114971 0.051770084
-0.31979784 -0.15108994 0.05184117
-0.31999451 -0.15103897 0.051854528
-0.32017446 -0.15100721 0.051737413
-0.32034886 -0.15097298 0.051653862
-0.32055953 -0.15090841 0.051754963
-0.32076022 -0.15085632 0.051769439
-0.32095453 -0.15081298 0.051721562
-0.32115373 -0.15076245 0.051725648
-0.32134235 -0.15071709 0.051707864
-0.32153797 -0.15066758 0.051710837
-0.32172391 -0.15062727 0.051654931
-0.3219023 -0.15058912 0.051596776
-0.32208773 -0.1505492 0.051538564
-0.32228887 -0.15049474 0.051572695
-0.32247376 -0.15045297 0.051531821
-0.32267964 -0.150392 0.051612154
-0.32287812 -0.15034497 0.051587351
-0.3230674 -0.15029931 0.051570725
-0.32324386 -0.15026523 0.051481374
-0.32343376 -0.15021901 0.051468208
-0.32361627 -0.15017943 0.051413484
-0.32382575 -0.15012048 0.051468357
-0.3240298 -0.15006422 0.051511701
-0.32421371 -0.15002349 0.051463909
-0.32439712 -0.14998542 0.051394153
-0.32459596 -0.14993829 0.051369347
-0.32479557 -0.14988181 0.051424306
-0.32496482 -0.14985152 0.051317677
-0.32515466 -0.14980572 0.051301036
-0.32532367 -0.14977762 0.051175922
-0.32553202 -0.14971617 0.051255073
-0.32571951 -0.14967455 0.051207241
-0.32592651 -0.1496145 0.051277161
-0.32610598 -0.14957753 0.051206287
-0.32632774 -0.14950754 0.051330402
-0.32648525 -0.14949082 0.051131405
-0.32668945 -0.14943345 0.051183999
-0.32687309 -0.14939305 0.051133893
-0.32708481 -0.14933182 0.051203772
-0.32727712 -0.14928646 0.05117787
-0.3274695 -0.14923909 0.051169306
-0.3276552 -0.14919911 0.051111087
-0.32785568 -0.14914533 0.051140599
-0.32804412 -0.14910321 0.051095076
-0.32824561 -0.14904879 0.051128048
-0.32843268 -0.1490078 0.0510756
-0.3286238 -0.14896168 0.051058955
-0.3288317 -0.14890631 0.051086091
-0.32901216 -0.14886671 0.051036015
-0.32920307 -0.14882277 0.051000871
-0.32938892 -0.1487809 0.050958838
-0.32960013 -0.14872138 0.051014852
-0.32978687 -0.14867888 0.050976276
-0.32997465 -0.14863744 0.050926138
-0.33016148 -0.14859307 0.050903749
-0.33037418 -0.14853464 0.050947029
-0.33057141 -0.14848433 0.050953448
-0.33074349 -0.1484548 0.050834086
-0.33092564 -0.14841585 0.050774742
-0.33114898 -0.14834797 0.050876886
-0.33132643 -0.14831258 0.050796777
-0.33152589 -0.14826265 0.050795089
-0.33174783 -0.14819446 0.050903019
-0.331918 -0.14816621 0.050776735
-0.3321065 -0.14812447 0.050727744
-0.33230338 -0.14807837 0.050698332
-0.33250478 -0.14802901 0.050687376
-0.3327322 -0.14795919 0.050797585
-0.33289722 -0.14793621 0.050636657
-0.33310875 -0.14787462 0.050710008
-0.33330095 -0.14783208 0.050659832
-0.33349201 -0.14778532 0.050648961
-0.33369827 -0.14773116 0.050669175
-0.33388177 -0.14769319 0.050598267
-0.33409548 -0.14763889 0.050603393
-0.33428076 -0.14759636 0.050568298
-0.33446717 -0.14755142 0.050551698
-0.33465475 -0.14750896 0.050510798
-0.33484954 -0.14746153 0.050497595
-0.33504811 -0.14741315 0.050484344
-0.3352223 -0.14738163 0.050377686
-0.33543548 -0.14731844 0.050461415
-0.33563194 -0.14727324 0.050425071
-0.33582389 -0.14722638 0.050413042
-0.33604771 -0.14715946 0.050505932
-0.33622992 -0.14712566 0.050401516
-0.33643478 -0.1470765 0.05038128
-0.33662534 -0.14703079 0.05036233
-0.33682185 -0.14698265 0.050351415
-0.33702347 -0.14693271 0.050345089
-0.33721989 -0.14688939 0.050292559
-0.33742365 -0.14683811 0.05029314
-0.33761644 -0.14678957 0.050293826
-0.33780605 -0.1467417 0.050295688
-0.33801666 -0.14669217 0.05026615
-0.33820033 -0.14665283 0.050206807
-0.33841714 -0.14659178 0.050263926
-0.33859769 -0.14655456 0.050193027
-0.33876911 -0.14652027 0.05011645
-0.33898163 -0.14646521 0.050130825
-0.33920395 -0.14640091 0.050204083
-0.33938906 -0.14636227 0.050135463
-0.33960018 -0.14631128 0.050117493
-0.33978024 -0.14627153 0.050069731
-0.33999878 -0.1462115 0.050114118
-0.34020707 -0.14615524 0.050148185
-0.34038725 -0.14612128 0.050049558
-0.34058622 -0.14607108 0.050051343
-0.34076995 -0.14603198 0.049989682
-0.34096479 -0.14598733 0.049952194
-0.34117264 -0.14593449 0.049957365
-0.34138191 -0.14587945 0.049978718
-0.34158486 -0.14582983 0.049966585
-0.34176105 -0.14579277 0.049903836
-0.34197497 -0.14573643 0.049926292
-0.34218979 -0.14568238 0.049926788
-0.34238037 -0.14564064 0.049873155
-0.34258363 -0.14559108 0.04985987
-0.34277952 -0.14554338 0.049846657
-0.34297979 -0.14549576 0.04982299
-0.34316355 -0.14545693 0.049759015
-0.34337011 -0.14540283 0.049778074
-0.34358421 -0.14534964 0.049772792
-0.34377798 -0.1453075 0.049715668
-0.34400028 -0.14525078 0.049723025
-0.34420961 -0.14520063 0.049701598
-0.34439793 -0.14515787 0.049661856
-0.3446151 -0.14510044 0.049686611
-0.34480444 -0.14505452 0.049672287
-0.34498 -0.14502211 0.049570233
-0.34521276 -0.14495428 0.049651492
-0.34541005 -0.14490768 0.049625546
-0.34561071 -0.14485651 0.049631938
-0.34579372 -0.14482106 0.049540222
-0.24143025 -0.17041335 0.055077702
-0.24167025 -0.17036112 0.055007443
-0.24191684 -0.17030816 0.054929048
-0.24215773 -0.17025621 0.054854162
-0.24240187 -0.17020214 0.054790817
-0.24263704 -0.17015256 0.054707892
-0.24291208 -0.17010072 0.054557558
-0.2431532 -0.17005058 0.054466497
-0.24337238 -0.16999663 0.054456547
-0.24358988 -0.16994391 0.054439656
-0.24382091 -0.16989219 0.054384522
-0.24405573 -0.16984084 0.05431778
-0.24428169 -0.16978773 0.054285798
-0.24451089 -0.16973621 0.054232985
-0.24474773 -0.16968408 0.054168545
-0.24498805 -0.16963363 0.054082103
-0.24522981 -0.16958213 0.054001428
-0.24544986 -0.16953036 0.053970657
-0.24568009 -0.1694795 0.053909734
-0.24591163 -0.16942886 0.053844184
-0.24614784 -0.16937742 0.053775124
-0.24637981 -0.16932705 0.053706095
-0.24660814 -0.16927521 0.053657912
-0.24683899 -0.16922499 0.053590044
-0.24707177 -0.16917375 0.053526796
-0.24731012 -0.16912445 0.053434595
-0.2475429 -0.16907348 0.05336903
-0.24777034 -0.16902345 0.053306982
-0.24800977 -0.16897334 0.053219389
-0.24822375 -0.16892229 0.053195611
-0.24845397 -0.16887157 0.053133532
-0.24867432 -0.16882132 0.053088881
-0.2489111 -0.16877148 0.053004783
-0.24912967 -0.16872127 0.052963622
-0.24935889 -0.16867094 0.052900396
-0.24958287 -0.16862151 0.052840687
-0.24980395 -0.16857055 0.052800659
-0.25002432 -0.16852096 0.052750222
-0.25024742 -0.16847043 0.052702092
-0.25047123 -0.16842143 0.052638911
-0.25069666 -0.16837138 0.052581504
-0.2509132 -0.16832182 0.0525392
-0.25113219 -0.16827124 0.052500345
-0.25134963 -0.168222 0.052453399
-0.25157455 -0.16817233 0.052393686
-0.25178963 -0.16812301 0.052352555
-0.25200999 -0.16807301 0.052305587
-0.25222522 -0.16802391 0.052262142
-0.25244677 -0.16797429 0.052209392
-0.25266132 -0.16792391 0.052178662
-0.25287631 -0.16787368 0.052145623
-0.25309572 -0.16782552 0.0520848
-0.25333279 -0.16776843 0.05206313
-0.25369048 -0.16766892 0.052146807
-0.25391781 -0.16762078 0.052068569
-0.25445199 -0.16753754 0.051624693
-0.25458476 -0.16747507 0.051877916
-0.25479928 -0.16743146 0.051788233
-0.25501513 -0.16738234 0.051743619
-0.25522333 -0.16733368 0.051711787
-0.255438 -0.16728458 0.051669501
-0.25564542 -0.16723597 0.051638838
-0.25586787 -0.1671868 0.051580295
-0.25606889 -0.1671374 0.051570497
-0.25628096 -0.1670883 0.051534012
-0.25650063 -0.16703902 0.051482432
-0.25669417 -0.16699016 0.051484261
-0.25690281 -0.16694231 0.051444329
-0.25711617 -0.16689382 0.051399745
-0.25732177 -0.16684261 0.051395688
-0.25752166 -0.1667951 0.051372018
-0.25772595 -0.16674688 0.051344849
-0.25793585 -0.16669819 0.051309537
-0.25813693 -0.16664958 0.051292799
-0.25833616 -0.16659917 0.051295735
-0.2585277 -0.16655055 0.051299889
-0.25872242 -0.16649942 0.051319048
-0.25889906 -0.16644655 0.051392701
-0.25907457 -0.16639027 0.051498726
-0.25921881 -0.16632958 0.051711392
-0.25811321 -0.16574329 0.059231158
-0.25831905 -0.16568817 0.059260629
-0.25843039 -0.1656138 0.059664339
-0.25865573 -0.16556774 0.05957225
-0.25909945 -0.16537032 0.060319971
-0.2611756 -0.16525392 0.056792259
-0.26140237 -0.16520579 0.05671519
-0.2615844 -0.16514188 0.056873195
-0.26185012 -0.16508864 0.056755319
-0.26205516 -0.1650393 0.056736238
-0.26222879 -0.16499159 0.056771759
-0.2624535 -0.16493799 0.056746736
-0.2626735 -0.16488703 0.056709021
-0.262862 -0.16484688 0.056646146
-0.26306415 -0.16479349 0.056668699
-0.26330668 -0.16474301 0.056577627
-0.26349849 -0.16469273 0.056595646
-0.26370558 -0.16463889 0.056611232
-0.26389983 -0.16458547 0.056651205
-0.2640678 -0.16454038 0.056676373
-0.26430845 -0.16449195 0.056571431
-0.26452467 -0.16445643 0.056407735
-0.26469767 -0.16440514 0.056475628
-0.26493394 -0.16434027 0.056523338
-0.26511133 -0.16429614 0.056519523
-0.26535392 -0.1642431 0.056450408
-0.26555067 -0.1641928 0.056457985
-0.26573426 -0.16415069 0.056422897
-0.26591489 -0.16410375 0.05643639
-0.26616669 -0.16404589 0.056389164
-0.26633266 -0.16400273 0.056401633
-0.26657373 -0.16394797 0.056351021
-0.26678365 -0.16390218 0.05629028
-0.26696253 -0.1638529 0.056328066
-0.26716739 -0.16380359 0.056308985
-0.26737258 -0.16375449 0.056287594
-0.26755795 -0.16370529 0.056310296
-0.26774937 -0.16366455 0.056246236
-0.26795951 -0.16361952 0.056178547
-0.26814452 -0.16356389 0.056257911
-0.26838568 -0.16350804 0.056216553
-0.26855275 -0.16346143 0.056256764
-0.26876235 -0.16342105 0.056149773
-0.26896316 -0.16336666 0.056183904
-0.26917249 -0.16331758 0.056153227
-0.26936981 -0.1632687 0.056146923
-0.26954973 -0.16322021 0.056175459
-0.26976997 -0.16316867 0.056142364
-0.26994422 -0.16312265 0.056161698
-0.2701624 -0.16307972 0.056058109
-0.27040261 -0.16302703 0.055991318
-0.27058327 -0.16297676 0.056033719
-0.27076116 -0.1629277 0.056071524
-0.27097487 -0.16288364 0.055987619
-0.27117983 -0.16283379 0.055973165
-0.27137738 -0.16278578 0.055958763
-0.27158311 -0.16273642 0.05593852
-0.27177814 -0.16268507 0.05595883
-0.27198488 -0.16263875 0.055909671
-0.2721777 -0.16259395 0.055877972
-0.27239713 -0.16254352 0.055836804
-0.27255499 -0.16250095 0.055862058
-0.2727423 -0.16244635 0.055927522
-0.27297187 -0.16240588 0.055777587
-0.27316594 -0.16235703 0.05577825
-0.27336007 -0.16230312 0.055822849
-0.27356872 -0.16226125 0.055730902
-0.27375516 -0.16221683 0.05570966
-0.27396572 -0.1621604 0.055740237
-0.27415571 -0.16212851 0.055602204
-0.27435347 -0.16207395 0.05564446
-0.2745727 -0.16201934 0.055640288
-0.27473244 -0.16196446 0.055768415
-0.274946 -0.1619207 0.055682208
-0.27511477 -0.16186756 0.055775575
-0.27534106 -0.16183084 0.055600237
-0.27553704 -0.16178669 0.055555791
-0.27573565 -0.16173272 0.055591103
-0.27593201 -0.16168037 0.055617183
-0.27612653 -0.16163567 0.055580847
-0.27631614 -0.16158833 0.055578079
-0.27654308 -0.1615448 0.055460539
-0.27672246 -0.16150361 0.055426635
-0.27691847 -0.16145135 0.055452719
-0.27712169 -0.16140646 0.055398971
-0.27731559 -0.16135301 0.055440105
-0.27750111 -0.16130364 0.055463962
-0.27767786 -0.161255 0.055500615
-0.27789134 -0.16121697 0.055364694
-0.27809942 -0.16116315 0.055377956
-0.27827883 -0.16111638 0.055392615
-0.2784732 -0.16107622 0.05531697
-0.27869171 -0.1610263 0.055273496
-0.27889782 -0.16097802 0.055242836
-0.27909726 -0.1609253 0.055265427
-0.2792944 -0.16087435 0.055277631
-0.27950424 -0.16082901 0.05521341
-0.27966669 -0.16078076 0.055277936
-0.27986127 -0.16073497 0.05525085
-0.28006235 -0.16069061 0.055197109
-0.28027067 -0.16063766 0.055202283
-0.28045136 -0.1605996 0.055138312
-0.28063288 -0.16055149 0.055159897
-0.28083369 -0.16050017 0.055167437
-0.2810328 -0.16044752 0.055190027
-0.28124708 -0.16040346 0.055104963
-0.28144202 -0.16035132 0.05513221
-0.28165138 -0.16031513 0.05498939
-0.28182724 -0.16027416 0.054961301
-0.28202567 -0.16021346 0.055055577
-0.28222838 -0.16016829 0.055005301
-0.28241047 -0.16012509 0.054982945
-0.28256619 -0.16006617 0.055155039
-0.28279373 -0.16002344 0.0550294
-0.2829687 -0.15998214 0.055005953
-0.28316623 -0.15994121 0.054930281
-0.28335962 -0.15989226 0.054933265
-0.28355685 -0.15984714 0.054894589
-0.28375238 -0.15979606 0.054911427
-0.28394827 -0.15974981 0.054885484
-0.28413212 -0.15970936 0.054835372
-0.28432551 -0.15965617 0.054875344
-0.28454071 -0.15960309 0.054866578
-0.28471673 -0.15955916 0.054863926
-0.2849029 -0.15951706 0.054823041
-0.2850973 -0.15946987 0.054808669
-0.28528932 -0.15942498 0.054779299
-0.28550196 -0.15937945 0.054710425
-0.28568029 -0.15932351 0.054807186
-0.28588083 -0.1592842 0.054710679
-0.2860536 -0.15924215 0.05469881
-0.28624642 -0.15919362 0.054699488
-0.28644857 -0.15915191 0.054620307
-0.28666043 -0.15910126 0.054597698
-0.28683922 -0.15905093 0.054644734
-0.28702337 -0.15899631 0.054717161
-0.28720799 -0.15895981 0.0546312
-0.28739485 -0.15892099 0.054560244
-0.28759316 -0.1588752 0.05452504
-0.28778589 -0.1588397 0.054412402
-0.28797975 -0.15878758 0.054441974
-0.28816876 -0.15872751 0.054551363
-0.28834331 -0.15866973 0.054672435
-0.28854033 -0.15863569 0.054537803
-0.28874233 -0.15860398 0.054371916
-0.28893533 -0.15854318 0.054478958
-0.28912556 -0.15849848 0.054451898
-0.28931728 -0.15846416 0.054331187
-0.28950948 -0.15840875 0.054393142
-0.28969097 -0.15835521 0.054462127
-0.28988761 -0.1583081 0.054441959
-0.29008609 -0.15826505 0.054382466
-0.29027435 -0.15821713 0.054387808
-0.29046384 -0.15818059 0.05429139
-0.29066196 -0.1581379 0.054229587
-0.2908558 -0.15808553 0.054261476
-0.29103607 -0.15803747 0.054285377
-0.29122397 -0.1579891 0.054295342
-0.2914207 -0.15794383 0.054258987
-0.29159996 -0.15789284 0.05431065
-0.29178804 -0.15785547 0.054224655
-0.29198703 -0.15782849 0.054024104
-0.29218483 -0.15776555 0.054139204
-0.29236147 -0.15770607 0.054270659
-0.29255092 -0.1576751 0.054125682
-0.29275265 -0.15762354 0.054133222
-0.29293856 -0.15756875 0.054203324
-0.29312938 -0.15754557 0.053987816
-0.29332903 -0.15748656 0.054064739
-0.29351634 -0.15743674 0.054088585
-0.29371703 -0.15739699 0.05399555
-0.29389429 -0.15735182 0.054000974
-0.29408982 -0.15730646 0.053968098
-0.29427549 -0.15724815 0.054069418
-0.29445729 -0.1572073 0.054027408
-0.29465008 -0.15716793 0.053948313
-0.29484132 -0.15711978 0.053948998
-0.29503259 -0.1570719 0.053947378
-0.29521999 -0.15702206 0.053971216
-0.29540494 -0.15698095 0.053924561
-0.29559308 -0.15693755 0.053890593
-0.29578468 -0.15689372 0.053853124
-0.29597622 -0.15685055 0.053809877
-0.29615971 -0.15679558 0.053886931
-0.2963548 -0.15675391 0.053822849
-0.29654235 -0.1567051 0.053837437
-0.29674047 -0.1566567 0.053825356
-0.29692134 -0.15661727 0.053772952
-0.29711592 -0.15657108 0.053749323
-0.29729652 -0.15652095 0.053790569
-0.29747021 -0.15648663 0.053709321
