# .PCD v0.7 - Point Cloud Data file format
VERSION 0.7
FIELDS x y z
SIZE 4 4 4
TYPE F F F
COUNT 1 1 1
WIDTH 1312
HEIGHT 1
VIEWPOINT 0 0 0 1 0 0 0
POINTS 1312
DATA ascii
-0.33112839 -0.34721652 0.055094317
-0.33131257 -0.34724054 0.055041526
-0.33150411 -0.347258 0.055041745
-0.33169326 -0.34726217 0.05513769
-0.3318598 -0.34728551 0.055078059
-0.33203715 -0.34730449 0.055057585
-0.33222929 -0.34734783 0.054868668
-0.33243927 -0.34735626 0.054947224
-0.33263409 -0.34737465 0.054942809
-0.33281496 -0.34739161 0.054939624
-0.33299923 -0.34740934 0.054932959
-0.33319491 -0.34742197 0.054971211
-0.33336967 -0.34743363 0.055002648
-0.33355448 -0.34746826 0.05487258
-0.33375219 -0.34748912 0.054852009
-0.33394995 -0.34750935 0.054836057
-0.33413234 -0.34751856 0.054890525
-0.33432886 -0.34754452 0.054831896
-0.33451504 -0.34756857 0.054780245
-0.33469939 -0.34758487 0.054783959
-0.33488652 -0.3476043 0.054766897
-0.33507463 -0.34761986 0.054778669
-0.33525971 -0.34763357 0.054801978
-0.33547068 -0.34765691 0.054772116
-0.33565107 -0.34767476 0.054762017
-0.33585367 -0.34770173 0.054699901
-0.33604509 -0.34771824 0.054707035
-0.33622217 -0.34773484 0.054703869
-0.33640298 -0.34776184 0.054626875
-0.33660129 -0.34777898 0.054633979
-0.33678153 -0.34779665 0.054625027
-0.33697537 -0.34781638 0.054610241
-0.33718354 -0.34783614 0.054604612
-0.33735827 -0.34785867 0.054556478
-0.3375479 -0.34787059 0.054595917
-0.33773583 -0.34789574 0.05453733
-0.33792245 -0.34791511 0.054520272
-0.33811173 -0.34792826 0.054550491
-0.3382971 -0.34795052 0.054511525
-0.33848286 -0.34797168 0.054480638
-0.33867985 -0.34799185 0.054464679
-0.3388474 -0.34802851 0.054308176
-0.33901498 -0.34804156 0.054324653
-0.33921057 -0.34804931 0.054398671
-0.3394011 -0.34806037 0.05444501
-0.33959949 -0.34807059 0.05450286
-0.33980629 -0.34808597 0.054528378
-0.33999386 -0.34811032 0.054475568
-0.34019312 -0.34813982 0.05439271
-0.34039372 -0.34815982 0.054380201
-0.34057266 -0.3481859 0.054308984
-0.34074828 -0.3482047 0.054288521
-0.34093475 -0.34821746 0.0543199
-0.34112507 -0.3482362 0.054309741
-0.34131822 -0.34825635 0.054291502
-0.34149316 -0.3482762 0.054262973
-0.34166747 -0.34829113 0.054270189
-0.34187183 -0.3483167 0.054219604
-0.34206462 -0.3483316 0.054239418
-0.34224913 -0.34834793 0.05424314
-0.34242862 -0.34837183 0.05418805
-0.34263372 -0.34839052 0.054188207
-0.34282187 -0.34840703 0.054193057
-0.34299842 -0.34842959 0.054146063
-0.34318933 -0.34844226 0.054180879
-0.34338322 -0.34845614 0.054208763
-0.34356156 -0.34847617 0.054181371
-0.34374681 -0.34849682 0.054153942
-0.34392104 -0.34852213 0.054085046
-0.3441059 -0.34854794 0.05401957
-0.34431216 -0.34857479 0.053960893
-0.34451038 -0.34858814 0.053995676
-0.34470132 -0.34860602 0.053992439
-0.34486094 -0.34863028 0.053921316
-0.3450307 -0.34866023 0.05381554
-0.3452642 -0.348645 0.054083105
-0.34544027 -0.3486675 0.054036118
-0.34561399 -0.3486926 0.053968374
-0.3458001 -0.34872058 0.053887896
-0.34600034 -0.34874088 0.053873081
-0.34618643 -0.34875596 0.053887162
-0.34638315 -0.34877184 0.05390235
-0.34655461 -0.34879485 0.05384846
-0.34673396 -0.34882551 0.053743795
-0.34695125 -0.34883967 0.053785406
-0.34712595 -0.348851 0.05381915
-0.34731388 -0.34887633 0.053759411
-0.34750971 -0.34889337 0.053765379
-0.34769782 -0.34891069 0.053764455
-0.34788966 -0.34892043 0.053821187
-0.3480714 -0.34894046 0.053796075
-0.34826005 -0.3489649 0.053743266
-0.34845454 -0.34898356 0.053736553
-0.34863928 -0.34900796 0.053681441
-0.3488242 -0.34901756 0.053734746
-0.34901962 -0.3490319 0.053760316
-0.34920689 -0.34905747 0.053698275
-0.34938869 -0.34907389 0.053699702
-0.34956908 -0.3490881 0.053716116
-0.34976149 -0.34910548 0.053717479
-0.34994879 -0.34914112 0.053581633
-0.35014933 -0.34914792 0.053665999
-0.35034168 -0.34916544 0.053666215
-0.35053742 -0.34918344 0.053665258
-0.35070354 -0.34921682 0.053531818
-0.3508859 -0.34924603 0.053439826
-0.35106388 -0.349269 0.053390522
-0.35125285 -0.34928608 0.053391904
-0.35143778 -0.34929693 0.053435974
-0.35164544 -0.34930533 0.053513382
-0.35184389 -0.34931821 0.053551629
-0.35203749 -0.34933823 0.053534538
-0.35223037 -0.3493588 0.053512841
-0.3524116 -0.3493824 0.053461213
-0.35261047 -0.34939831 0.053477541
-0.35277635 -0.34943056 0.053352181
-0.35295996 -0.34944621 0.053360507
-0.35315511 -0.34946209 0.053374551
-0.35335407 -0.34947819 0.053389717
-0.35355669 -0.34950328 0.053341445
-0.35372502 -0.34952742 0.053277198
-0.35391879 -0.34953594 0.053344294
-0.35411727 -0.34955546 0.053334095
-0.35428414 -0.34958622 0.053220265
-0.35445365 -0.34960654 0.053184837
-0.35465455 -0.34961605 0.053249594
-0.35487616 -0.3496224 0.053351153
-0.35507435 -0.34964788 0.053297132
-0.35524747 -0.34967402 0.053221326
-0.35544005 -0.34969503 0.053196173
-0.35563284 -0.3497186 0.053152557
-0.35578328 -0.34974897 0.053030729
-0.35596991 -0.34976327 0.053050585
-0.35619178 -0.34976777 0.053165972
-0.35637814 -0.34979296 0.053106248
-0.35657787 -0.3498069 0.053137563
-0.35676917 -0.3498289 0.053104337
-0.35695925 -0.34984401 0.053120717
-0.35713145 -0.34986788 0.053061057
-0.35733381 -0.34988302 0.053085443
-0.35751656 -0.34990788 0.05302573
-0.35770592 -0.34992859 0.053000584
-0.35789707 -0.34994334 0.053020418
-0.35808805 -0.3499656 0.052984886
-0.35828522 -0.34997934 0.053016216
-0.35846704 -0.35000709 0.052934598
-0.35864574 -0.35002697 0.05290835
-0.35882914 -0.35004652 0.05288785
-0.35903022 -0.35005823 0.052936461
-0.35923886 -0.35006812 0.053003486
-0.35943314 -0.35009339 0.052948337
-0.3596091 -0.35011965 0.052873667
-0.35982129 -0.35013711 0.052887622
-0.36001202 -0.3501597 0.052849792
-0.36019874 -0.35017765 0.052843109
-0.36037675 -0.35020268 0.05277881
-0.3605665 -0.35021901 0.052785955
-0.36077505 -0.35023427 0.052813772
-0.36094305 -0.35025349 0.052785277
-0.36114153 -0.35027647 0.052749708
-0.36131668 -0.35029855 0.052705027
-0.36153007 -0.35030937 0.052768566
-0.36172423 -0.35032594 0.052776847
-0.36191219 -0.35035017 0.052725188
-0.36209908 -0.35037491 0.052668914
-0.36227423 -0.35039276 0.05265538
-0.36246938 -0.35040691 0.052682102
-0.36266845 -0.35042554 0.052678823
-0.36285833 -0.35044882 0.052635223
-0.3630631 -0.3504689 0.052625004
-0.36324665 -0.35049114 0.052584901
-0.3634403 -0.35051054 0.052572414
-0.36362982 -0.35052165 0.052617624
-0.36381435 -0.35054556 0.052565981
-0.36400104 -0.35057044 0.052508559
-0.36419201 -0.35058311 0.052543376
-0.36438221 -0.35060233 0.05252976
-0.3645891 -0.35062781 0.052481465
-0.36477146 -0.35064474 0.052479424
-0.36496627 -0.3506639 0.05246925
-0.36514843 -0.35068697 0.052422225
-0.36535096 -0.35070464 0.05242816
-0.36552542 -0.35072729 0.052378874
-0.36572194 -0.35074583 0.052374452
-0.36592513 -0.3507576 0.052424204
-0.3661356 -0.35077396 0.052445091
-0.36632675 -0.35079893 0.05238995
-0.36651841 -0.35081986 0.0523648
-0.36668825 -0.35084462 0.052297086
-0.36687574 -0.3508617 0.052297313
-0.36708587 -0.35088038 0.0523009
-0.36730245 -0.35090014 0.052301001
-0.36747053 -0.35092381 0.052240212
-0.36765751 -0.3509413 0.052236997
-0.36787075 -0.35095525 0.052277472
-0.36805871 -0.35097614 0.052250031
-0.36823669 -0.35099754 0.052212253
-0.36844233 -0.35101852 0.052196261
-0.36863908 -0.35103771 0.052187219
-0.36884877 -0.35105351 0.052211571
-0.3690151 -0.35107794 0.052143872
-0.36919603 -0.35110182 0.052089937
-0.36940831 -0.35111678 0.052122343
-0.36962566 -0.35113692 0.052120131
-0.36982247 -0.35114935 0.052160688
-0.36999545 -0.35117298 0.052103333
-0.37015909 -0.35119495 0.05205179
-0.37034881 -0.35121727 0.052015115
-0.37052369 -0.3512384 0.051977359
-0.37074471 -0.35125226 0.052023567
-0.37095821 -0.35127252 0.052017905
-0.37116274 -0.35128772 0.052043438
-0.37133831 -0.35130873 0.052006822
-0.37156665 -0.35132706 0.052025318
-0.37173429 -0.35134941 0.051973756
-0.37194836 -0.35137144 0.051955417
-0.37213567 -0.35138994 0.051945269
-0.37232152 -0.35140735 0.051942058
-0.37250894 -0.35143086 0.051895007
-0.37268645 -0.3514497 0.051875696
-0.37290347 -0.35147092 0.051865406
-0.37308422 -0.35149196 0.051832233
-0.37326276 -0.35150728 0.051839434
-0.37347823 -0.35153243 0.051799174
-0.37366834 -0.35155353 0.051771723
-0.37388083 -0.35156852 0.051804129
-0.37405816 -0.35158607 0.051794041
-0.37426448 -0.35160175 0.05181725
-0.37447619 -0.35163003 0.051751632
-0.37464276 -0.3516466 0.051741596
-0.37484562 -0.35167 0.051706009
-0.37503415 -0.35169345 0.051660113
-0.37521571 -0.35170984 0.051661529
-0.37542546 -0.35173103 0.051646668
-0.37558985 -0.35175008 0.051617034
-0.37582806 -0.35176978 0.051632009
-0.37597421 -0.35179329 0.051557492
-0.37620074 -0.35180765 0.051603675
-0.37639004 -0.35183263 0.051547389
-0.37658396 -0.35184997 0.051549904
-0.37678558 -0.35186192 0.051597357
-0.37699038 -0.35188359 0.051575601
-0.37717408 -0.3519074 0.051523961
-0.37740102 -0.3519237 0.051556297
-0.37758058 -0.35194889 0.051491983
-0.37776408 -0.35197282 0.051439196
-0.37795621 -0.35199112 0.051433645
-0.37814856 -0.35200647 0.051450003
-0.37838241 -0.35202104 0.051499605
-0.37856603 -0.35204658 0.051435284
-0.3787297 -0.35207516 0.051335301
-0.37895966 -0.3520897 0.051382616
-0.37915346 -0.35210782 0.051379368
-0.3793481 -0.3521243 0.051388796
-0.37955564 -0.35215157 0.05132781
-0.37975913 -0.35216558 0.051361412
-0.37993482 -0.35219213 0.051284444
-0.38013721 -0.35221088 0.051282302
-0.38032439 -0.35223126 0.051258326
-0.3805337 -0.35224673 0.051284976
-0.38071698 -0.35226971 0.051239107
-0.38097024 -0.35228702 0.051281691
-0.38115248 -0.35231322 0.051211607
-0.3813425 -0.35232314 0.051266041
-0.38155174 -0.35235167 0.051196977
-0.38174427 -0.35236385 0.051236402
-0.38191485 -0.35239199 0.051144455
-0.38211071 -0.35241172 0.05113082
-0.38230136 -0.35242879 0.051133342
-0.3825151 -0.35245207 0.051105779
-0.38272852 -0.35246995 0.051117428
-0.38290259 -0.35249305 0.051064674
-0.3830843 -0.35251683 0.051011898
-0.38330111 -0.35253537 0.051021211
-0.38353309 -0.35255402 0.051039688
-0.38369676 -0.35257727 0.050978918
-0.27818543 -0.3417992 0.059373632
-0.27841291 -0.34182155 0.059362136
-0.27865356 -0.34185201 0.059299827
-0.27887207 -0.3418718 0.059301056
-0.27908167 -0.3418873 0.059327707
-0.27930778 -0.34190935 0.059317365
-0.2795257 -0.34192908 0.059318598
-0.27976522 -0.3419596 0.059255145
-0.27999932 -0.34198758 0.059206717
-0.28022555 -0.34201011 0.059192911
-0.28046364 -0.34204036 0.059130616
-0.28067684 -0.34205824 0.059142258
-0.28089294 -0.34207764 0.059144646
-0.28112176 -0.34210357 0.059107773
-0.28133515 -0.34212178 0.059117105
-0.28154901 -0.34213859 0.059136812
-0.28179953 -0.34217596 0.059030637
-0.28200707 -0.34219143 0.059056137
-0.28223377 -0.34221685 0.05902157
-0.28244248 -0.34223303 0.059042461
-0.28267092 -0.34225956 0.059000973
-0.28287852 -0.34227535 0.059024163
-0.2831057 -0.34230143 0.058984987
-0.28333223 -0.3423273 0.058946967
-0.28354472 -0.34234589 0.058952846
-0.28375959 -0.34236583 0.058950633
-0.28398857 -0.34239334 0.058902226
-0.28420585 -0.34241474 0.058890775
-0.28441119 -0.34242982 0.058917448
-0.28462076 -0.34244549 0.058942936
-0.28486034 -0.34247917 0.05885642
-0.28508365 -0.34250599 0.058809184
-0.28530535 -0.34253031 0.058779266
-0.28551644 -0.34254894 0.058784001
-0.2857267 -0.34256718 0.058791034
-0.28593403 -0.34258389 0.058807313
-0.28618288 -0.34262362 0.058682691
-0.28639418 -0.34264272 0.058683954
-0.28659618 -0.34265673 0.058716401
-0.28679621 -0.34267151 0.058741949
-0.28703043 -0.34270188 0.058676213
-0.28725174 -0.34272695 0.058640525
-0.28746149 -0.3427456 0.058644108
-0.28768131 -0.34277007 0.058611885
-0.28789526 -0.34279132 0.058599304
-0.28811395 -0.34281537 0.058569394
-0.28832784 -0.34283677 0.058555655
-0.28854832 -0.34286207 0.058517665
-0.28875661 -0.34288046 0.058522411
-0.28895646 -0.34289396 0.058557175
-0.28918776 -0.34292594 0.058477618
-0.28938985 -0.3429409 0.058503143
-0.28960258 -0.34296218 0.058489412
-0.28981918 -0.34298587 0.058460671
-0.29002088 -0.3430008 0.058486201
-0.29025725 -0.34303656 0.058382403
-0.29044998 -0.34304625 0.058440261
-0.29066542 -0.34306967 0.058412679
-0.29088795 -0.34309754 0.058357384
-0.29109317 -0.343115 0.058366753
-0.29130402 -0.34313595 0.058354188
-0.291518 -0.34315896 0.058328912
-0.29172724 -0.34317914 0.058320958
-0.29193217 -0.34319672 0.05832918
-0.2921432 -0.34321818 0.058313154
-0.29236755 -0.3432481 0.058244009
-0.29257518 -0.34326765 0.05823952
-0.29278702 -0.34328997 0.058217723
-0.29298681 -0.34330472 0.058243264
-0.29319715 -0.34332627 0.058226079
-0.29341877 -0.34335515 0.058162712
-0.29362041 -0.34337133 0.058179017
-0.29383865 -0.34339833 0.058127202
-0.29405072 -0.34342146 0.058099635
-0.29426005 -0.34344292 0.058082458
-0.29447004 -0.34346491 0.05806182
-0.29467484 -0.34348357 0.058061965
-0.29487732 -0.34350079 0.058071345
-0.29507667 -0.34351596 0.058093429
-0.29529986 -0.3435472 0.058013916
-0.29549432 -0.34357247 0.057958752
-0.29571486 -0.34358898 0.057985343
-0.29590967 -0.34360138 0.058024749
-0.29612997 -0.34363124 0.05795332
-0.29633248 -0.34364909 0.057958089
-0.29653782 -0.34366891 0.057950161
-0.29673776 -0.34368509 0.057965316
-0.29693297 -0.34369799 0.058001261
-0.29715231 -0.34372795 0.057928681
-0.29735574 -0.34374681 0.057926524
-0.29756922 -0.34377289 0.057878189
-0.29774356 -0.34378988 0.057870418
-0.29799312 -0.34382337 0.057791926
-0.29818788 -0.3438364 0.057826713
-0.29839179 -0.3438561 0.057818796
-0.2986086 -0.3438853 0.057749685
-0.29880625 -0.34390065 0.057769466
-0.298998 -0.34391168 0.057816964
-0.29920524 -0.34393421 0.05779057
-0.29943195 -0.34397143 0.057669517
-0.29963484 -0.34399104 0.057661593
-0.29982978 -0.34400469 0.057691775
-0.30002683 -0.34401998 0.057711568
-0.30023524 -0.34404403 0.057674784
-0.30043393 -0.34406072 0.057685345
-0.30063277 -0.34407759 0.057694744
-0.30082664 -0.34410599 0.057616521
-0.301047 -0.3441245 0.057628125
-0.3012518 -0.34414634 0.057605203
-0.30146199 -0.3441726 0.057553425
-0.30166775 -0.34419546 0.057523578
-0.30186731 -0.34421349 0.057524912
-0.30206919 -0.34423348 0.057513535
-0.30227005 -0.34425274 0.057506785
-0.30247232 -0.34427321 0.057491951
-0.30268347 -0.34430113 0.057428632
-0.30288005 -0.34431717 0.05744265
-0.30308884 -0.34434345 0.057389736
-0.30329254 -0.34436566 0.057363357
-0.30348793 -0.34438929 0.057320878
-0.30366912 -0.34439257 0.057418011
-0.30388251 -0.34441769 0.057376597
-0.30407238 -0.34443405 0.057383738
-0.30428457 -0.34445846 0.057346936
-0.30449262 -0.34448513 0.057290565
-0.30468935 -0.34449914 0.057319574
-0.30489483 -0.34452385 0.057275899
-0.30509502 -0.34454399 0.057262223
-0.30529329 -0.34456256 0.057258941
-0.30549049 -0.3445802 0.057261433
-0.30568534 -0.34459576 0.057277769
-0.3058714 -0.3446154 0.057258405
-0.30608729 -0.34463841 0.057234276
-0.30629244 -0.34466073 0.057207894
-0.30649656 -0.34468532 0.057164222
-0.30669492 -0.34470466 0.057155173
-0.30689394 -0.34472471 0.057141505
-0.3070899 -0.3447451 0.057123244
-0.30723447 -0.34475413 0.057153672
-0.30748701 -0.34478161 0.057121292
-0.30765858 -0.34479454 0.057141211
-0.30785003 -0.34482396 0.057053771
-0.30805364 -0.34483939 0.057076983
-0.30825445 -0.34485534 0.057094447
-0.30845991 -0.34487942 0.05705538
-0.30865806 -0.34490976 0.056965608
-0.30885971 -0.34492689 0.056974996
-0.30906868 -0.34493792 0.057033934
-0.30927461 -0.34496316 0.056986786
-0.30948019 -0.3449882 0.056940801
-0.30967361 -0.34501103 0.056902945
-0.30986658 -0.3450264 0.056919292
-0.31007385 -0.34505019 0.056883674
-0.31026778 -0.34506676 0.056891948
-0.31046611 -0.3450883 0.056866758
-0.31066275 -0.34510434 0.056880776
-0.31085953 -0.34512812 0.056838289
-0.31105599 -0.34514412 0.056852318
-0.31124377 -0.34516549 0.05682141
-0.31143591 -0.3451882 0.056783564
-0.31164742 -0.34520656 0.056790594
-0.31182903 -0.34522891 0.056748182
-0.31202561 -0.3452495 0.056728765
-0.31221735 -0.3452684 0.056718588
-0.31241783 -0.34528589 0.056724526
-0.31259838 -0.34530345 0.056716722
-0.31279868 -0.34532502 0.056692667
-0.31299189 -0.34534201 0.056697477
-0.31317428 -0.34536225 0.056671213
-0.31337485 -0.34538886 0.056610256
-0.31359971 -0.3454127 0.056586087
-0.3137942 -0.34542742 0.056608193
-0.31396806 -0.34544137 0.05662233
-0.31417444 -0.34547216 0.056534819
-0.31438652 -0.34549293 0.056524545
-0.31455353 -0.34550229 0.056567553
-0.31476432 -0.34553537 0.056466177
-0.31495902 -0.34556037 0.056413326
-0.31515798 -0.34556779 0.056491926
-0.31536922 -0.34558314 0.056520864
-0.31555346 -0.34560794 0.056462295
-0.31573111 -0.34562823 0.056432597
-0.31592992 -0.34564525 0.056440838
-0.31615272 -0.34566826 0.056421295
-0.31630084 -0.34566927 0.056512825
-0.31651148 -0.34570485 0.056393005
-0.31673667 -0.34573218 0.056343459
-0.31692499 -0.34574369 0.056385204
-0.31711888 -0.34576419 0.056364641
-0.31730944 -0.34577933 0.056380998
-0.3174921 -0.34579819 0.056365106
-0.31769347 -0.34582615 0.056294922
-0.31788221 -0.34583846 0.056330897
-0.31805015 -0.34584966 0.056361206
-0.31822458 -0.34587231 0.05631192
-0.31842864 -0.3459062 0.056200203
-0.31861761 -0.34591916 0.056231558
-0.3188099 -0.34594455 0.056174103
-0.3190577 -0.34596688 0.05617635
-0.31924722 -0.345981 0.056199629
-0.31943876 -0.34599909 0.056195229
-0.31961706 -0.34601784 0.056177054
-0.31976873 -0.346017 0.056284714
-0.3200011 -0.34605664 0.056149792
-0.3202059 -0.34607467 0.056154553
-0.32039729 -0.34609306 0.056147847
-0.32056427 -0.34611756 0.056080136
-0.32077807 -0.34614098 0.056051403
-0.32097918 -0.34615901 0.056053873
-0.32115361 -0.3461782 0.056029949
-0.32132155 -0.3461982 0.055995677
-0.32154769 -0.34621981 0.055988804
-0.32174954 -0.34624025 0.055973969
-0.32191241 -0.34625679 0.055961631
-0.32207924 -0.34627497 0.055940051
-0.32228512 -0.34629768 0.055911366
-0.32249102 -0.34632072 0.05588036
-0.32267168 -0.3463307 0.05592791
-0.3228468 -0.34634414 0.055946648
-0.32304338 -0.3463704 0.055885725
-0.32325158 -0.34639111 0.055873159
-0.32344335 -0.34641412 0.055833004
-0.32364506 -0.34643644 0.055804342
-0.32382187 -0.34644482 0.055861123
-0.32400203 -0.34646407 0.055840638
-0.32421413 -0.34648767 0.055809602
-0.32437965 -0.34650415 0.055799562
-0.3245765 -0.34652257 0.055796288
-0.32476372 -0.34654373 0.055766542
-0.32493192 -0.34655795 0.055774942
-0.32513994 -0.34658054 0.055748545
-0.32533053 -0.34660247 0.055715311
-0.3255119 -0.34662986 0.055635996
-0.3257027 -0.34663811 0.0557031
-0.32592526 -0.34666628 0.055645496
-0.32612938 -0.34668913 0.055614509
-0.32630688 -0.34669903 0.055660918
-0.32648909 -0.3467156 0.055661179
-0.32666957 -0.34674245 0.055585328
-0.32688001 -0.3467637 0.055570453
-0.32705039 -0.34677163 0.05562612
-0.32723266 -0.34678951 0.055617157
-0.32741874 -0.3468104 0.055588558
-0.32760966 -0.34684321 0.055475749
-0.32782277 -0.34686062 0.055490851
-0.32803121 -0.34686592 0.055591311
-0.32821706 -0.34688711 0.055560414
-0.32837865 -0.34690985 0.055501953
-0.32858196 -0.34693515 0.055452518
-0.32878804 -0.34695205 0.055466492
-0.32899067 -0.34696865 0.055480495
-0.3291797 -0.34699264 0.055431128
-0.32935798 -0.34701139 0.055412948
-0.32953253 -0.34702367 0.05543977
-0.32971433 -0.34704825 0.055381212
-0.32990637 -0.3470656 0.055382568
-0.33011588 -0.34708709 0.055365391
-0.33029741 -0.34710488 0.055356432
-0.33047184 -0.34712502 0.05532559
-0.33065024 -0.34712788 0.055423886
-0.33082548 -0.34712762 0.055542961
-0.33100232 -0.34717253 0.055332206
-0.33120018 -0.34720835 0.055202063
-0.33139417 -0.34724414 0.055069633
-0.33159062 -0.34724411 0.055201299
-0.33179075 -0.34724629 0.055319093
-0.33198616 -0.34726396 0.055320442
-0.33218116 -0.34728518 0.055295259
-0.33235461 -0.34730902 0.055236742
-0.33253542 -0.34732959 0.055207029
-0.33272663 -0.34735063 0.05518071
-0.33291513 -0.34738985 0.055019479
-0.33310863 -0.34739441 0.055115405
-0.33329991 -0.34741375 0.055101782
-0.3334839 -0.34743413 0.0550755
-0.33367857 -0.34745374 0.055061862
-0.33388036 -0.34747326 0.055053946
-0.33405358 -0.34749344 0.055021957
-0.33424866 -0.34751058 0.055026755
-0.33444065 -0.34752589 0.055043116
-0.33463418 -0.34754983 0.054997191
-0.3348228 -0.34756449 0.055015862
-0.33501717 -0.34758458 0.054998755
-0.33519667 -0.34760675 0.054956354
-0.33537409 -0.34762338 0.054953184
-0.3355822 -0.34764487 0.054934852
-0.3357501 -0.34766927 0.054868296
-0.33592775 -0.34768468 0.054874338
-0.33611932 -0.34769017 0.054962199
-0.33630908 -0.34772384 0.05484248
-0.33649307 -0.34774169 0.054834649
-0.3366816 -0.34775698 0.054848719
-0.33686578 -0.34777442 0.054844357
-0.33705238 -0.34779504 0.05481806
-0.3372325 -0.34781364 0.054802183
-0.33741292 -0.34783134 0.05479322
-0.33761573 -0.34784713 0.054812986
-0.33780614 -0.34787583 0.054730169
-0.33799961 -0.34789661 0.0547073
-0.33820274 -0.34790334 0.054793946
-0.33837906 -0.3479304 0.054713503
-0.33857796 -0.34794712 0.054724064
-0.33875796 -0.34796557 0.054709334
-0.33893397 -0.34798476 0.054686561
-0.33912408 -0.34800476 0.054667167
-0.33932415 -0.3480266 0.054640815
-0.33950755 -0.34804538 0.05462607
-0.33968827 -0.34806213 0.054624036
-0.33987126 -0.34808165 0.054603525
-0.34006938 -0.34810004 0.054601394
-0.34024712 -0.34812236 0.054556698
-0.34044525 -0.34814072 0.05455457
-0.34063777 -0.34815606 0.054570917
-0.34081092 -0.34817341 0.054559689
-0.34098852 -0.34818941 0.054561127
-0.34118617 -0.34821483 0.054507099
-0.34138316 -0.34823516 0.054489981
-0.3415575 -0.34825638 0.054451071
-0.34173572 -0.34827137 0.05446057
-0.34192637 -0.34829 0.054451559
-0.34212002 -0.3483097 0.054436766
-0.34230736 -0.34832221 0.054470442
-0.3424927 -0.34834334 0.054439545
-0.34267387 -0.34837592 0.054322179
-0.34286526 -0.34838799 0.0543616
-0.34305179 -0.34840718 0.05434569
-0.34324002 -0.34842402 0.054348223
-0.3434256 -0.34843433 0.054396901
-0.34362713 -0.34845349 0.054391295
-0.34381542 -0.3484804 0.054320022
-0.34399375 -0.34850058 0.054291461
-0.34419155 -0.34851483 0.054319315
-0.34438211 -0.34854323 0.054238807
-0.34457034 -0.34856021 0.054240193
-0.34473744 -0.3485803 0.054204766
-0.34492907 -0.34859776 0.054204974
-0.34513131 -0.34861606 0.054206293
-0.34531534 -0.34863377 0.054199621
-0.3454991 -0.34865618 0.054158349
-0.34567839 -0.34867501 0.054140173
-0.34586498 -0.34869409 0.054125413
-0.34605369 -0.3487193 0.054066826
-0.34624329 -0.34873074 0.054109715
-0.34641922 -0.34874913 0.054092698
-0.34660906 -0.34876472 0.05410561
-0.34679452 -0.34878916 0.054050494
-0.34697738 -0.34880817 0.054033443
-0.34715527 -0.34882846 0.054003742
-0.3473613 -0.34884316 0.054033868
-0.34754968 -0.3488605 0.054032929
-0.34773108 -0.34888113 0.054003216
-0.34793013 -0.34889928 0.054003388
-0.34810582 -0.34891793 0.053984072
-0.34829327 -0.34894004 0.053947397
-0.34848052 -0.34896231 0.053909566
-0.34865469 -0.34898242 0.053878725
-0.34885594 -0.34899133 0.053948086
-0.34905112 -0.34901336 0.05391714
-0.34924385 -0.34903407 0.053894274
-0.34942377 -0.34905598 0.053854179
-0.34960198 -0.34907237 0.053853303
-0.34979156 -0.34907863 0.053934254
-0.34997082 -0.34910801 0.053838808
-0.35017177 -0.34912494 0.053849347
-0.35036018 -0.34914273 0.053844962
-0.35054773 -0.34916469 0.053809442
-0.35074002 -0.34918255 0.053807348
-0.35094202 -0.34920537 0.05377521
-0.35110825 -0.34922883 0.053714421
-0.35129446 -0.34924534 0.053718124
-0.35148388 -0.34925929 0.053742561
-0.35168359 -0.34927765 0.053741574
-0.35187614 -0.34929866 0.05371641
-0.35205725 -0.34932256 0.053662471
-0.35223809 -0.34934044 0.053652361
-0.35242301 -0.34935823 0.053645674
-0.35261428 -0.34938025 0.053612448
-0.35279319 -0.34939969 0.053589649
-0.35296097 -0.34942457 0.053519636
-0.35317445 -0.3494387 0.053558942
-0.35336009 -0.34946489 0.053491142
-0.35353783 -0.34947935 0.053504113
-0.35373214 -0.34949043 0.053552747
-0.35392964 -0.34950799 0.053556386
-0.35411772 -0.34953237 0.053503565
-0.35430068 -0.34955186 0.053483058
-0.35449371 -0.34956425 0.053521313
-0.35468027 -0.34957573 0.053561918
-0.35485271 -0.34960544 0.053459585
-0.35503876 -0.34962839 0.053415991
-0.3552345 -0.34965286 0.053367753
-0.35542372 -0.3496682 0.053381808
-0.35560828 -0.34968942 0.053349763
-0.35578912 -0.34970778 0.053336192
-0.35597292 -0.3497242 0.053338736
-0.35616279 -0.349742 0.053335495
-0.35636309 -0.34975567 0.053369109
-0.35654125 -0.34978372 0.053282894
-0.35671437 -0.34980971 0.053208236
-0.35690427 -0.34982246 0.053241897
-0.35709631 -0.34983397 0.053285934
-0.35730425 -0.34985343 0.053282596
-0.35750163 -0.34987441 0.05326087
-0.35767516 -0.34989509 0.05322542
-0.35785469 -0.34991458 0.053202629
-0.35805246 -0.34993294 0.053200498
-0.35824642 -0.34995359 0.053178787
-0.35844141 -0.34996885 0.053197432
-0.35861972 -0.34998918 0.053167719
-0.35880646 -0.350007 0.053162195
-0.35899803 -0.35002917 0.053127799
-0.3591719 -0.35004973 0.0530935
-0.35938838 -0.3500624 0.053145487
-0.35955653 -0.35009092 0.053048942
-0.35974503 -0.35010558 0.053067617
-0.35993245 -0.35012785 0.053029794
-0.36009881 -0.35015261 0.052959777
-0.36030519 -0.35016212 0.053027954
-0.36051404 -0.35018182 0.053023472
-0.3606908 -0.35020766 0.052952245
-0.36088106 -0.35021949 0.052992832
-0.36108503 -0.35023525 0.053013742
-0.36126861 -0.35025749 0.052973628
-0.3614499 -0.35027653 0.052955437
-0.36163118 -0.35029998 0.052904949
-0.36182883 -0.35031924 0.052895904
-0.36202326 -0.35033807 0.052888032
-0.36219978 -0.35035965 0.052847952
-0.36239508 -0.35037383 0.052874673
-0.36259741 -0.35038882 0.052900199
-0.36277321 -0.35041508 0.052825529
-0.36296508 -0.35043538 0.052804977
-0.36316535 -0.3504453 0.052866265
-0.3633526 -0.35047007 0.052809991
-0.36355513 -0.35049155 0.052788228
-0.36375439 -0.35051048 0.052782644
-0.36393172 -0.35053185 0.052744858
-0.36410242 -0.35055432 0.052694432
-0.3642925 -0.35057163 0.052694649
-0.36447909 -0.35058862 0.052694879
-0.36468413 -0.35061112 0.05266735
-0.3648763 -0.35062563 0.052689478
-0.36505699 -0.35064951 0.052635532
-0.36526 -0.35066313 0.05267144
-0.36545601 -0.35068792 0.05262088
-0.36564225 -0.35070929 0.052588832
-0.36581519 -0.35073274 0.052532617
-0.36601067 -0.35074615 0.052565102
-0.36620858 -0.35076436 0.052564133
-0.36639538 -0.35077792 0.052589729
-0.36660382 -0.35079929 0.05257256
-0.36679491 -0.35082066 0.052543942
-0.3669996 -0.35083807 0.052553315
-0.36718112 -0.35086545 0.052474
-0.36736056 -0.3508881 0.052428138
-0.36755532 -0.35090238 0.052453712
-0.36774966 -0.35092434 0.052422769
-0.36793056 -0.35093722 0.052449562
-0.36813933 -0.35095325 0.052471597
-0.36831918 -0.35097405 0.052439567
-0.36851573 -0.35099888 0.052389015
-0.36870161 -0.35101363 0.052405395
-0.36888787 -0.35103548 0.052369885
-0.36906868 -0.35105413 0.052354004
-0.36924279 -0.35107914 0.052287411
-0.3694734 -0.35109404 0.052332401
-0.36967051 -0.35111877 0.052282996
-0.36985657 -0.35113731 0.052271709
-0.37005666 -0.35115919 0.052245349
-0.37027031 -0.35117757 0.052253518
-0.3704603 -0.35119644 0.052242212
-0.37061262 -0.35121945 0.052175719
-0.37080604 -0.35124052 0.052150551
-0.37100801 -0.35124981 0.052217599
-0.37121245 -0.35126513 0.052241966
-0.37141073 -0.35129142 0.052182171
-0.3715902 -0.35131279 0.052145533
-0.37179974 -0.35132813 0.052173335
-0.3719925 -0.35135311 0.052119344
-0.37217218 -0.35136947 0.052119609
-0.37238631 -0.35138837 0.052124321
-0.37258649 -0.35141072 0.052094512
-0.37275887 -0.35143647 0.052021004
-0.37292898 -0.35145149 0.052024778
-0.37316063 -0.35146603 0.052073233
-0.37334007 -0.35149261 0.051998533
-0.37352854 -0.35150945 0.052001067
-0.3737537 -0.35152656 0.052026484
-0.37391889 -0.35154676 0.051988769
-0.37414318 -0.35156757 0.051986512
-0.37431785 -0.3515926 0.051919922
-0.37452009 -0.35160664 0.051952366
-0.37470323 -0.35162881 0.051912256
-0.37491211 -0.3516455 0.051929682
-0.3750976 -0.35166541 0.051908012
-0.37531093 -0.35168549 0.051903497
-0.37551248 -0.35170954 0.051862139
-0.37569973 -0.35173053 0.05183354
-0.37588683 -0.35174537 0.051849928
-0.376066 -0.35176754 0.051807523
-0.37629312 -0.35177723 0.051888287
-0.37646934 -0.35180965 0.051768634
-0.37667072 -0.35182628 0.051781479
-0.37685776 -0.35184759 0.051750574
-0.37704316 -0.35186636 0.051736981
-0.37726957 -0.35188136 0.051778533
-0.37748191 -0.35190845 0.051722132
-0.37764835 -0.35193178 0.051662497
-0.37785929 -0.35194883 0.051678754
-0.37805924 -0.35197082 0.051651247
-0.37824297 -0.3519904 0.051630743
-0.3784405 -0.35200432 0.051660903
-0.37863004 -0.35202962 0.051602308
-0.378838 -0.35204935 0.051596671
-0.37901184 -0.35207355 0.051535852
-0.37922874 -0.35209364 0.051533632
-0.37940893 -0.35211304 0.051511988
-0.37962645 -0.35213163 0.051521298
-0.3798286 -0.35215336 0.051497236
-0.38004023 -0.35217094 0.051510036
-0.38023975 -0.35219353 0.051477909
-0.38046244 -0.35220519 0.051541403
-0.38064316 -0.35223189 0.051466696
-0.38083714 -0.35225052 0.051459979
-0.38101873 -0.35227698 0.051387578
-0.38123098 -0.35229051 0.051430359
-0.38144931 -0.35231233 0.051416606
-0.38164383 -0.35233241 0.051399499
-0.38184148 -0.3523517 0.051390454
-0.38205159 -0.35236898 0.051404409
-0.38227817 -0.35239154 0.051390618
-0.38245761 -0.35241184 0.051362049
-0.38266215 -0.35243914 0.051298775
-0.3828671 -0.35245532 0.051317371
-0.38305369 -0.35247514 0.051296845
-0.38325006 -0.3524965 0.051271662
-0.38344157 -0.35252059 0.051223435
-0.38365662 -0.35253704 0.051246591
-0.27803203 -0.34174952 0.05963508
-0.27831703 -0.34180123 0.059446916
-0.2785129 -0.3418082 0.05952666
-0.2787281 -0.34182626 0.05953829
-0.27896726 -0.34185612 0.059479475
-0.27917379 -0.34187007 0.059515357
-0.27941194 -0.34189969 0.059457697
-0.27962163 -0.34192842 0.059387494
-0.2798821 -0.34195632 0.059357397
-0.28010139 -0.34197694 0.059352864
-0.28032255 -0.34199697 0.059354089
-0.28054142 -0.34201756 0.059349563
-0.28074253 -0.3420293 0.059398152
-0.28098616 -0.34206256 0.05931741
-0.28121495 -0.34208849 0.059280545
-0.2814303 -0.34210765 0.05928411
-0.28165805 -0.34213158 0.059261084
-0.28188193 -0.34215531 0.059236933
-0.28209701 -0.34217462 0.059239335
-0.2823267 -0.34220156 0.059195552
-0.28255019 -0.34222543 0.05917025
-0.28276572 -0.34224525 0.059169196
-0.28297159 -0.34226009 0.059198163
-0.28320748 -0.34229076 0.059131291
-0.28344083 -0.34231851 0.059084043
-0.28365549 -0.34233823 0.059082992
-0.28386673 -0.34235626 0.059092328
-0.28408852 -0.34237996 0.059067037
-0.28427744 -0.34238616 0.059147969
-0.28452289 -0.34242272 0.05904416
-0.28473088 -0.34244815 0.05899702
-0.28496525 -0.34246844 0.059005089
-0.28518027 -0.342489 0.058998279
-0.28540826 -0.34251675 0.058947589
-0.28562525 -0.34253857 0.058932692
-0.28585029 -0.34256494 0.058890082
-0.28605157 -0.34257653 0.058939829
-0.28627002 -0.34259945 0.058918014
-0.28648925 -0.34262291 0.058892719
-0.28670147 -0.34264258 0.058890529
-0.28691623 -0.34266374 0.058879104
-0.28714645 -0.34269372 0.058813419
-0.28734571 -0.3427045 0.058867775
-0.28756019 -0.34272578 0.058855202
-0.28778303 -0.34275195 0.058812611
-0.28798565 -0.34276664 0.058840431
-0.28821421 -0.34279633 0.058775906
-0.28843105 -0.34281942 0.058751784
-0.28864807 -0.34284079 0.058740348
-0.28886223 -0.34286252 0.058724314
-0.28909215 -0.34289357 0.058650553
-0.28930745 -0.34291622 0.058628749
-0.28951809 -0.34293622 0.058623109
-0.28971288 -0.34294689 0.058675189
-0.28994712 -0.34297913 0.058595639
-0.2901597 -0.34300056 0.058580764
-0.29036498 -0.3430177 0.058592442
-0.29057845 -0.34303987 0.058572955
-0.29079846 -0.34306607 0.058528069
-0.29101115 -0.343088 0.058509737
-0.29120758 -0.34309801 0.058567569
-0.29142961 -0.34312585 0.058512293
-0.29165405 -0.34315529 0.058446635
-0.29184988 -0.34316716 0.058490645
-0.29206136 -0.34318882 0.058473468
-0.29226735 -0.34320712 0.058477066
-0.29248703 -0.34323204 0.058441404
-0.29268655 -0.34324646 0.058469255
-0.29291096 -0.34327671 0.05839783
-0.29312491 -0.34330046 0.058366805
-0.29333848 -0.34332198 0.058351927
-0.29354346 -0.34334022 0.058355529
-0.29374692 -0.3433575 0.058364917
-0.29396659 -0.34338543 0.058307346
-0.29417306 -0.34340489 0.058302879
-0.29438415 -0.34342745 0.058278784
-0.29459605 -0.34344849 0.058266222
-0.29480231 -0.3434681 0.058260594
-0.29501966 -0.34349516 0.058207653
-0.29522663 -0.34351546 0.058197413
-0.29543617 -0.34353536 0.058191776
-0.29564071 -0.34355417 0.058190778
-0.2958515 -0.34357733 0.058162078
-0.29606315 -0.3436012 0.058128752
-0.29626888 -0.34361884 0.05813697
-0.29647464 -0.34363887 0.058127899
-0.29667372 -0.34365433 0.058147673
-0.29688853 -0.34368086 0.058097053
-0.29709062 -0.3436963 0.058119122
-0.29730627 -0.34372368 0.058062721
-0.29751375 -0.34374544 0.058042102
-0.29773244 -0.3437753 0.057969555
-0.29792646 -0.34378529 0.058026258
-0.29813543 -0.34380844 0.057996407
-0.2983157 -0.34381086 0.058099292
-0.29854614 -0.34384984 0.057967879
-0.29875487 -0.34387076 0.057954181
-0.29895386 -0.343887 0.057968199
-0.29915953 -0.34390828 0.057949897
-0.29937726 -0.34393868 0.057872735
-0.29958841 -0.34396189 0.057844035
-0.29977953 -0.34397253 0.057893824
-0.30000046 -0.34400338 0.0578155
-0.30019054 -0.34401834 0.057833016
-0.30040494 -0.344042 0.057803139
-0.30061102 -0.34406441 0.057776771
-0.30081445 -0.34408233 0.05778154
-0.30101675 -0.34410205 0.057772473
-0.30123371 -0.34413081 0.057706852
-0.30142584 -0.34414265 0.057748571
-0.30162665 -0.34416142 0.057745285
-0.30183619 -0.34418732 0.057695832
-0.30203819 -0.34420463 0.057704069
-0.30224252 -0.34422657 0.057680007
-0.30245513 -0.34425274 0.057630546
-0.30264983 -0.34426701 0.057656109
-0.3028526 -0.34428802 0.057637826
-0.30306706 -0.34431893 0.057554923
-0.30326349 -0.3443321 0.057589702
-0.30345994 -0.3443481 0.057603721
-0.3036685 -0.34437171 0.057570424
-0.30387422 -0.34439582 0.057531372
-0.30407709 -0.34441477 0.057528071
-0.30427617 -0.3444334 0.057524793
-0.30448496 -0.34446064 0.057464968
-0.30464956 -0.34446648 0.057532188
-0.30488649 -0.34449849 0.057456084
-0.30508584 -0.34451777 0.057448201
-0.30528972 -0.34453824 0.057434514
-0.30549479 -0.34456295 0.05739085
-0.30569395 -0.34457937 0.057403717
-0.305868 -0.34459394 0.057413235
-0.3060953 -0.3446213 0.057364859
-0.30629575 -0.34464225 0.057345431
-0.30649915 -0.34466299 0.057329442
-0.30668965 -0.34468099 0.057325058
-0.30688789 -0.34470016 0.057317171
-0.30709055 -0.34472054 0.057303492
-0.30729598 -0.34474367 0.057271361
-0.30749568 -0.34476787 0.05722772
-0.30770519 -0.34478885 0.057214022
-0.30789825 -0.34480345 0.057236131
-0.30809924 -0.34482273 0.057229377
-0.30830142 -0.34484667 0.057189196
-0.30850282 -0.3448666 0.057177834
-0.30869997 -0.34488568 0.057169951
-0.30890465 -0.34490922 0.057134364
-0.30909941 -0.34492603 0.057141475
-0.30929834 -0.34494734 0.057118598
-0.30949616 -0.34496757 0.057102643
-0.30969447 -0.34498486 0.057108589
-0.30988541 -0.34499785 0.057141088
-0.3100872 -0.34502271 0.057093989
-0.31028134 -0.34503928 0.057102263
-0.31048763 -0.3450658 0.057045907
-0.31068522 -0.34508651 0.057026498
-0.31088343 -0.34510803 0.057001315
-0.31107792 -0.34512544 0.057003818
-0.31127861 -0.34514627 0.056985542
-0.3114776 -0.34516913 0.056951132
-0.31167197 -0.34518668 0.056952488
-0.31186667 -0.34520474 0.056950383
-0.31206647 -0.34522501 0.056935571
-0.31226563 -0.34524867 0.056895401
-0.3124592 -0.34526569 0.056900218
-0.31265464 -0.34528509 0.056888886
-0.31283906 -0.34531164 0.056817651
-0.31305137 -0.34532738 0.05684429
-0.31322214 -0.34534544 0.056826156
-0.31339693 -0.34536451 0.056803398
-0.31365448 -0.34540471 0.056681074
-0.31380934 -0.34539786 0.056834809
-0.31398574 -0.34542385 0.056762468
-0.31417507 -0.34544504 0.056733869
-0.31437957 -0.34547344 0.056662541
-0.31458974 -0.34547767 0.056772187
-0.31480911 -0.34550855 0.056692723
-0.3150003 -0.34553304 0.056641057
-0.31519818 -0.34554335 0.056697741
-0.31537944 -0.34556839 0.056635749
-0.31555471 -0.34557992 0.056668319
-0.31574979 -0.34559599 0.056681197
-0.31596687 -0.34563515 0.05653948
-0.3161481 -0.34565085 0.056545515
-0.31635129 -0.34566435 0.056582563
-0.31655806 -0.34568337 0.056581561
-0.31673133 -0.34570262 0.056556497
-0.3169415 -0.34572193 0.056555469
-0.31713867 -0.34574211 0.056539517
-0.3173424 -0.34577328 0.056447431
-0.3175365 -0.34578311 0.056505281
-0.31770456 -0.34579998 0.056494091
-0.31792372 -0.34582391 0.056465339
-0.3181164 -0.34584287 0.05645518
-0.31830797 -0.34586003 0.056457698
-0.31848982 -0.34587801 0.056447588
-0.31866866 -0.34590295 0.056384444
-0.31886435 -0.34591559 0.056422699
-0.31904835 -0.34593803 0.056381445
-0.31922919 -0.34596109 0.056333289
-0.31945309 -0.34597617 0.056372546
-0.31964651 -0.34600466 0.056293201
-0.31982914 -0.34602541 0.056263477
-0.32003286 -0.3460339 0.056337424
-0.32022524 -0.34605396 0.056319188
-0.32038704 -0.34607404 0.056280348
-0.3205924 -0.3461082 0.056167513
-0.32079476 -0.34612113 0.056208029
-0.32100376 -0.34613359 0.056256585
-0.32117859 -0.34615326 0.056229208
-0.32136327 -0.34617245 0.056212164
-0.32157043 -0.34619686 0.05617195
-0.32176492 -0.34620702 0.05622749
-0.32193655 -0.34621936 0.056252014
-0.32210609 -0.3462351 0.056250032
-0.32228556 -0.34625915 0.056193814
-0.32247952 -0.34628597 0.056127153
-0.32268375 -0.34632301 0.055992413
-0.32289496 -0.34634212 0.055993676
-0.32305658 -0.34633589 0.056147389
-0.32325816 -0.34637707 0.055980377
-0.3234556 -0.34640691 0.055894088
-0.32364345 -0.3464067 0.056021146
-0.32383001 -0.34641266 0.056102093
-0.32403988 -0.34643906 0.05604919
-0.32423517 -0.34646299 0.056004424
-0.32441413 -0.34649047 0.05592284
-0.32463118 -0.34650713 0.055945985
-0.32478258 -0.34649554 0.056132026
-0.32495707 -0.34651962 0.056072373
-0.32516545 -0.34657106 0.055835001
-0.32536024 -0.34658125 0.055890538
-0.32554752 -0.34660366 0.055851579
-0.32575867 -0.3466256 0.055832099
-0.32594222 -0.34664783 0.055791996
-0.32615229 -0.34666508 0.055805963
-0.32635534 -0.34668189 0.0558188
-0.32653725 -0.34669593 0.055837508
-0.32672629 -0.3467111 0.05585273
-0.32689857 -0.34672979 0.055831134
-0.32708544 -0.34675375 0.055780638
-0.32725731 -0.34677064 0.055771727
-0.32746908 -0.34677485 0.055882528
-0.32763356 -0.34678745 0.055900171
-0.32781124 -0.34682459 0.055747114
-0.32800329 -0.34687057 0.055538647
-0.3282043 -0.34690747 0.055402763
-0.32841572 -0.34690613 0.055553921
-0.32860368 -0.34691161 0.055639468
-0.32878557 -0.3469277 0.055643193
-0.32898539 -0.34695426 0.055582259
-0.32920557 -0.34697184 0.055600785
-0.32935613 -0.34699151 0.055557389
-0.32953811 -0.34701753 0.055488475
-0.32975459 -0.34702879 0.055550829
-0.32995379 -0.3470479 0.055544093
-0.33012152 -0.34706393 0.055538662
-0.33030671 -0.34707955 0.055548124
-0.33050215 -0.34710711 0.055476841
-0.33067644 -0.34713337 0.055401046
-0.33087203 -0.34714806 0.055424307
-0.33105686 -0.34716788 0.055402648
-0.33124903 -0.34718162 0.055430532
-0.33141947 -0.34720579 0.05536744
-0.33163598 -0.34722304 0.055385984
-0.33182469 -0.34723708 0.055409268
-0.33201724 -0.34724864 0.055453289
-0.33220157 -0.34727159 0.055408575
-0.33239946 -0.34729812 0.055346504
-0.33259106 -0.34731746 0.055332888
-0.33276421 -0.34734219 0.055267476
-0.33295369 -0.34735113 0.055328809
-0.33315665 -0.34736523 0.055361249
-0.33334655 -0.34739435 0.055275004
-0.33353132 -0.34741119 0.055275247
-0.33370182 -0.34742844 0.055262882
-0.33387381 -0.3474381 0.055307005
-0.33406225 -0.34747165 0.055187333
-0.33426145 -0.34747076 0.055327013
-0.33444014 -0.3474834 0.055353813
-0.33462206 -0.34751272 0.055260692
-0.33481583 -0.34753639 0.05521708
-0.33501011 -0.34755769 0.055190768
-0.33519644 -0.34758177 0.055139128
-0.33538863 -0.34761 0.055060938
-0.33556899 -0.34761649 0.055133849
-0.33575383 -0.34764466 0.055051077
-0.33593783 -0.34766331 0.055037502
-0.33613139 -0.34767419 0.055087276
-0.33633438 -0.34768972 0.055109341
-0.33653018 -0.34770551 0.055124536
-0.33669454 -0.34771875 0.05513756
-0.33687913 -0.34773588 0.055135503
-0.33707449 -0.34777272 0.054996196
-0.33726531 -0.34780145 0.054913409
-0.33744022 -0.34782431 0.054862972
-0.33763269 -0.347839 0.054883935
-0.3378315 -0.3478384 0.05502132
-0.33802247 -0.34787452 0.054884333
-0.33820617 -0.34789315 0.054870758
-0.33839193 -0.3479071 0.054892905
-0.33859572 -0.34792143 0.05492419
-0.33879611 -0.34794331 0.054897849
-0.33896789 -0.34796414 0.054860111
-0.3391538 -0.34798566 0.054826923
-0.33932796 -0.34800136 0.054828376
-0.33949366 -0.34801942 0.05480681
-0.339701 -0.34804147 0.054783896
-0.33987692 -0.34806773 0.054709241
-0.34006432 -0.34808591 0.054701403
-0.34026793 -0.3480944 0.054775354
-0.34044531 -0.34810442 0.054820601
-0.34064052 -0.34813496 0.054727416
-0.34083158 -0.34815961 0.054674592
-0.34102169 -0.34817314 0.054702483
-0.34120727 -0.34818834 0.054715417
-0.34139186 -0.34821728 0.05462689
-0.34158063 -0.34823322 0.054636337
-0.34177065 -0.34824139 0.054703437
-0.34195742 -0.34826076 0.054686375
-0.34215567 -0.34828514 0.054640442
-0.34232724 -0.34830502 0.054609634
-0.34249914 -0.34832978 0.054543067
-0.34268048 -0.34834599 0.054545645
-0.34288236 -0.34835938 0.0545827
-0.34306994 -0.34837741 0.054576021
-0.34325352 -0.34839585 0.054563593
-0.34343624 -0.34841549 0.054541945
-0.34360862 -0.34844914 0.054410815
-0.34380871 -0.34845525 0.054499775
-0.34400362 -0.34847349 0.054496512
-0.34416777 -0.34850746 0.054357354
-0.3443749 -0.34851944 0.054408226
-0.34456804 -0.34853989 0.054387677
-0.34474635 -0.34855548 0.054392569
-0.34493142 -0.34857202 0.054395128
-0.34512556 -0.34858674 0.054417234
-0.34531197 -0.34860182 0.054431312
-0.34550238 -0.34863004 0.054351985
-0.34568894 -0.34864941 0.054334924
-0.34586868 -0.34867221 0.054287933
-0.34606758 -0.34869036 0.054288108
-0.34625071 -0.34871349 0.054241098
-0.34642786 -0.34872648 0.054264437
-0.34661865 -0.34874529 0.054254286
-0.34680966 -0.34876394 0.054245282
-0.34701604 -0.34877837 0.054277703
-0.34718826 -0.34879687 0.054257255
-0.34737083 -0.34882042 0.054206792
-0.34755337 -0.34884006 0.054185145
-0.34775341 -0.34885734 0.054192241
-0.34793845 -0.34887829 0.054162506
-0.34812358 -0.3488991 0.054133929
-0.34830174 -0.34891549 0.054133061
-0.34848857 -0.34893832 0.054090645
-0.34866738 -0.34895414 0.054094382
-0.34885716 -0.34896687 0.054128036
-0.34905225 -0.34898558 0.054121323
-0.3492429 -0.34901556 0.054029308
-0.34942237 -0.34903443 0.054011133
-0.34962866 -0.34904647 0.05406085
-0.34979725 -0.34906825 0.054013912
-0.34997857 -0.34908557 0.054008413
-0.35016972 -0.34910786 0.053972889
-0.35035676 -0.34912696 0.053958137
-0.35053748 -0.34914485 0.053948034
-0.35072288 -0.34916204 0.053945974
-0.35091051 -0.3491807 0.053934678
-0.35110593 -0.34919617 0.053952172
-0.35129279 -0.34921554 0.053935111
-0.35148859 -0.34923401 0.053930692
-0.35167712 -0.34925529 0.05390095
-0.35184821 -0.34928426 0.053803261
-0.35203621 -0.34929651 0.053839244
-0.35222331 -0.34930646 0.053891361
-0.35242069 -0.34932697 0.053873099
-0.35260442 -0.34934592 0.053857215
-0.35278803 -0.34937099 0.053796358
-0.35297692 -0.34938899 0.053790823
-0.35315812 -0.34940392 0.053802617
-0.35333866 -0.34942824 0.053745247
-0.35353526 -0.34944648 0.053743131
-0.35372961 -0.34946638 0.053727187
-0.3539038 -0.34948948 0.053674452
-0.35408553 -0.34951848 0.053583641
-0.35425913 -0.34953901 0.053549353
-0.35446697 -0.34953812 0.053694759
-0.35466695 -0.34955147 0.05373067
-0.35484725 -0.34957862 0.053652551
-0.35503715 -0.34959906 0.053629708
-0.35522732 -0.34961388 0.053648386
-0.35540679 -0.34963873 0.053586401
-0.35559008 -0.34965825 0.053565897
-0.35577482 -0.3496795 0.053533867
-0.35597441 -0.3496936 0.053564023
-0.3561489 -0.34972161 0.053475544
-0.35635248 -0.34973323 0.053526435
-0.35653719 -0.34975713 0.053474799
-0.35672581 -0.34977338 0.05348194
-0.35691801 -0.34978744 0.053507525
-0.35711101 -0.34980363 0.053518102
-0.35730571 -0.34982136 0.053518306
-0.35749048 -0.34984529 0.053466674
-0.3576833 -0.34986174 0.053474955
-0.35786828 -0.34988552 0.053424478
-0.35804892 -0.3499119 0.053352103
-0.35825282 -0.34992671 0.053379931
-0.35843 -0.34994537 0.053361777
-0.35860181 -0.34997204 0.053281378
-0.35879219 -0.34999016 0.053275835
-0.35899061 -0.35000604 0.053292155
-0.35917687 -0.35002664 0.053265881
-0.35936984 -0.35004109 0.053289153
-0.35955575 -0.35006195 0.053260572
-0.35975128 -0.35007742 0.053278055
-0.35993147 -0.35010153 0.053221837
-0.36011454 -0.35012403 0.053179435
-0.3603211 -0.35013816 0.053214166
-0.36050683 -0.35015696 0.05320058
-0.36069831 -0.35017946 0.053163897
-0.36088789 -0.35019624 0.053167585
-0.36107826 -0.35021046 0.053190861
-0.36126959 -0.35023087 0.053169169
-0.3614676 -0.35025004 0.053161293
-0.36166131 -0.35027367 0.053117681
-0.36184919 -0.35029599 0.053079866
-0.36202782 -0.35031006 0.053096291
-0.36222053 -0.35032776 0.053095344
-0.36239469 -0.35035497 0.053012636
-0.36259764 -0.35036969 0.053040467
-0.36274657 -0.35040101 0.052910611
-0.36296508 -0.35040176 0.053051345
-0.36317039 -0.35042188 0.053041123
-0.36335653 -0.35044938 0.052964114
-0.36354616 -0.35046685 0.052963194
-0.36373681 -0.35048798 0.052935742
-0.36392081 -0.35050002 0.052970581
-0.36411709 -0.35052264 0.052936181
-0.36430624 -0.3505446 0.052901819
-0.36448047 -0.35056549 0.05286523
-0.3646946 -0.3505778 0.052918375
-0.36487371 -0.35059851 0.052886371
-0.36504722 -0.35062581 0.052802503
-0.36525121 -0.35064298 0.052813038
-0.36543757 -0.35066044 0.052809816
-0.36564678 -0.35067543 0.052839927
-0.36582717 -0.35069957 0.052783705
-0.36600628 -0.3507165 0.052779369
-0.36621326 -0.35073271 0.052799106
-0.3664014 -0.35076308 0.052702494
-0.36657768 -0.35077757 0.052714311
-0.3667874 -0.35079086 0.052757092
-0.36697304 -0.3508147 0.052706614
-0.36717615 -0.35083479 0.052695245
-0.36737511 -0.35085481 0.052681584
-0.36754721 -0.35087883 0.052620795
-0.3677561 -0.35089472 0.052643981
-0.36792877 -0.35091296 0.05262585
-0.36811993 -0.35093275 0.052608766
-0.3683185 -0.35095131 0.052605495
-0.368516 -0.35096493 0.052637961
-0.36869311 -0.35098878 0.052581757
-0.36888188 -0.35101509 0.052515108
-0.36907533 -0.35103053 0.052531462
-0.36925736 -0.35105419 0.052479841
-0.36946827 -0.35106099 0.052571047
-0.36967325 -0.35108629 0.052522771
-0.36987829 -0.35110453 0.052526377
-0.37007037 -0.3511261 0.05249662
-0.3702659 -0.35115165 0.052440315
-0.37045339 -0.35116982 0.052432485
-0.37060621 -0.35119271 0.052367173
-0.3708227 -0.35120851 0.052396089
-0.37102506 -0.35122806 0.05238818
-0.37118861 -0.35124862 0.052347023
-0.37137377 -0.35126957 0.052317295
-0.3715601 -0.35128844 0.052303705
-0.37177899 -0.35130543 0.052325696
-0.3719641 -0.35132656 0.052294809
-0.37215963 -0.35134217 0.052311145
-0.37233716 -0.35136777 0.052242249
-0.37255457 -0.35138226 0.052281547
-0.37277851 -0.3513945 0.052341554
-0.37297475 -0.35140687 0.052382104
-0.37314132 -0.35143653 0.052276373
-0.3733339 -0.35146511 0.052195873
-0.3735193 -0.35148308 0.052188046
-0.37372017 -0.3515006 0.052193988
-0.37391391 -0.35151905 0.052188419
-0.37411317 -0.35153565 0.052200127
-0.37430266 -0.35155889 0.052156545
-0.37450826 -0.35157984 0.052140556
-0.37468895 -0.35160136 0.052103922
-0.37488514 -0.35162079 0.052092586
-0.37507001 -0.35164252 0.052057095
-0.37527636 -0.35166183 0.052053783
-0.37549219 -0.35167646 0.052090771
-0.37570551 -0.35170144 0.052050531
