# .PCD v0.7 - Point Cloud Data file format
VERSION 0.7
FIELDS x y z
SIZE 4 4 4
TYPE F F F
COUNT 1 1 1
WIDTH 1304
HEIGHT 1
VIEWPOINT 0 0 0 1 0 0 0
POINTS 1304
DATA ascii
-0.29672772 -0.25885418 0.058848746
-0.29692179 -0.25883263 0.058831789
-0.29711497 -0.258809 0.058830973
-0.29728237 -0.25880596 0.058702253
-0.29746446 -0.2587733 0.058777601
-0.29769716 -0.25874576 0.05876971
-0.29789829 -0.25872415 0.058746949
-0.29808283 -0.25870848 0.058695421
-0.29826176 -0.25868767 0.058686592
-0.29844087 -0.2586675 0.058673158
-0.29865888 -0.2586534 0.058579974
-0.29887107 -0.25862098 0.058626369
-0.29905507 -0.25859296 0.058665961
-0.29923427 -0.25857371 0.058645599
-0.29945278 -0.25853661 0.058720805
-0.2996484 -0.25852382 0.058638096
-0.29984325 -0.2585091 0.058570385
-0.30001539 -0.25849211 0.058539663
-0.30023447 -0.25847253 0.058485694
-0.30042553 -0.25844288 0.05853102
-0.30062273 -0.25842455 0.058487512
-0.30080974 -0.25841048 0.058422141
-0.30097637 -0.25838616 0.058450278
-0.30115795 -0.25836363 0.058451824
-0.3013891 -0.2583333 0.058465842
-0.30158913 -0.25831243 0.058438476
-0.3017706 -0.25828928 0.058444634
-0.30197033 -0.25826737 0.058425333
-0.30216667 -0.25824744 0.058394525
-0.30234873 -0.25822955 0.058361471
-0.30256179 -0.25819924 0.058391713
-0.30274665 -0.25817472 0.058404781
-0.30290702 -0.25815713 0.058389105
-0.30308816 -0.25813073 0.058419488
-0.30333126 -0.25811592 0.058308896
-0.30351284 -0.25809637 0.058288526
-0.3037225 -0.25806773 0.058309555
-0.30389667 -0.25804329 0.058331892
-0.30407456 -0.25802213 0.058326527
-0.30427766 -0.25801224 0.058216102
-0.30449453 -0.25798991 0.05818405
-0.30466154 -0.25796556 0.058212187
-0.30484989 -0.25794944 0.058160648
-0.30505252 -0.25791928 0.058199015
-0.30523717 -0.25790375 0.058146335
-0.30543256 -0.25788096 0.058137439
-0.30562809 -0.2578539 0.058159679
-0.30581987 -0.25783294 0.058140423
-0.30602148 -0.2578229 0.058032311
-0.30619618 -0.25779161 0.058104243
-0.30639812 -0.25777349 0.058054954
-0.30657551 -0.25775415 0.058036909
-0.30677772 -0.25773162 0.058019906
-0.30696645 -0.25770381 0.058053717
-0.30715406 -0.2576862 0.058013711
-0.30735955 -0.2576648 0.057985164
-0.30754784 -0.25764114 0.057988983
-0.30774009 -0.25761417 0.058013555
-0.30793348 -0.2576029 0.057921629
-0.3081215 -0.2575807 0.057915062
-0.30831614 -0.25756034 0.057888873
-0.30849481 -0.25753218 0.057934258
-0.30871323 -0.25751427 0.057868756
-0.30890539 -0.2574884 0.057885244
-0.30912018 -0.25747043 0.057823215
-0.30931932 -0.25744435 0.057835065
-0.30950779 -0.25742003 0.057843499
-0.30968687 -0.25740612 0.057783928
-0.30986989 -0.25738987 0.05773817
-0.31006584 -0.2573629 0.057759259
-0.31025645 -0.2573435 0.057729624
-0.31045383 -0.25731164 0.05778531
-0.31064883 -0.25728887 0.057776418
-0.31084609 -0.25726992 0.057737529
-0.31103078 -0.25724718 0.057737902
-0.31122428 -0.25722915 0.057695575
-0.31144175 -0.25719988 0.057714265
-0.31160194 -0.25718954 0.057645544
-0.31176195 -0.25717941 0.057575665
-0.31199253 -0.25714159 0.057645056
-0.31219965 -0.2571227 0.057596892
-0.31240174 -0.25709876 0.05759028
-0.31257492 -0.2570796 0.057574559
-0.31274748 -0.25705332 0.057611898
-0.31293413 -0.25702575 0.057645708
-0.31312245 -0.25700271 0.057644919
-0.31333998 -0.25699103 0.057534434
-0.31353375 -0.25697091 0.057507094
-0.31370756 -0.25695813 0.057444084
-0.31391844 -0.25692165 0.057521623
-0.31410128 -0.25690353 0.057489712
-0.31427541 -0.25688961 0.057434767
-0.31447133 -0.25685731 0.057495076
-0.31465438 -0.25684574 0.057414729
-0.31484804 -0.25683966 0.057284731
-0.31504199 -0.25681859 0.057264309
-0.31523705 -0.25678843 0.057309628
-0.31544551 -0.25675854 0.05734105
-0.31562132 -0.25674707 0.057266489
-0.31579834 -0.25673941 0.057163097
-0.31603217 -0.25668675 0.05733858
-0.3162069 -0.256677 0.0572525
-0.31639287 -0.25665849 0.057220574
-0.31658599 -0.25663295 0.057233598
-0.31678 -0.25661188 0.057213176
-0.31696919 -0.25658765 0.057220459
-0.31717083 -0.25656486 0.05720577
-0.3173874 -0.25653914 0.057199087
-0.31757417 -0.25651363 0.057217915
-0.31777966 -0.25650638 0.05708557
-0.31794661 -0.25649178 0.057042189
-0.31814596 -0.25646722 0.057042502
-0.31835446 -0.256423 0.057178885
-0.31857181 -0.25639641 0.057177961
-0.31876743 -0.25637814 0.057135623
-0.31893805 -0.25636292 0.057093378
-0.31910479 -0.25634849 0.05704885
-0.31931734 -0.25631446 0.057106778
-0.31949127 -0.25630873 0.056991868
-0.31967494 -0.25628847 0.056974944
-0.31986672 -0.25627065 0.056932621
-0.32005388 -0.2562454 0.056949139
-0.32025269 -0.25620851 0.057040572
-0.3204529 -0.25618809 0.057009734
-0.3206459 -0.25616416 0.057011236
-0.32083881 -0.25612718 0.057108458
-0.32104284 -0.2560887 0.057206795
-0.32123563 -0.25610015 0.056948785
-0.32142422 -0.25608653 0.056878787
-0.32163882 -0.25605571 0.056911334
-0.32184219 -0.2560437 0.0568159
-0.32204649 -0.25600976 0.05688078
-0.32224628 -0.25598577 0.056876484
-0.32242921 -0.25596684 0.05685034
-0.32262123 -0.25595656 0.056752652
-0.32280403 -0.25593764 0.056726508
-0.32299477 -0.25590912 0.056763772
-0.32318634 -0.25589132 0.056721438
-0.32337031 -0.25586724 0.0567322
-0.32355741 -0.25585473 0.056655295
-0.3237538 -0.25583115 0.056651004
-0.32394624 -0.25580117 0.056697484
-0.32415584 -0.25578102 0.056656238
-0.32434404 -0.25575611 0.056669291
-0.3245351 -0.25573525 0.056650028
-0.32472733 -0.25571314 0.056638837
-0.32491574 -0.25569528 0.05659999
-0.32511562 -0.25566831 0.056617603
-0.32529899 -0.25565246 0.056568384
-0.3254841 -0.25563815 0.056506481
-0.32570627 -0.25561127 0.05650324
-0.32587895 -0.25558984 0.056504827
-0.32608989 -0.25556827 0.056472801
-0.32626557 -0.25555366 0.056421306
-0.32647738 -0.25552791 0.056419268
-0.32666779 -0.25549817 0.056465749
-0.32687375 -0.25548178 0.056400299
-0.32707581 -0.25545329 0.056427129
-0.32724124 -0.25542673 0.05647257
-0.32747206 -0.25541076 0.056381639
-0.32764125 -0.25539634 0.056334794
-0.32782391 -0.25536865 0.056373239
-0.3280243 -0.25534838 0.056341253
-0.32822636 -0.25532648 0.056319647
-0.32840908 -0.25530505 0.056311954
-0.32858804 -0.25527829 0.056346953
-0.32880241 -0.25525975 0.056289546
-0.3289901 -0.2552368 0.056288749
-0.32916948 -0.25522161 0.056238402
-0.32937285 -0.25519577 0.056244466
-0.32956097 -0.25517544 0.056224067
-0.32975334 -0.2551541 0.05620712
-0.32994595 -0.25513539 0.056170549
-0.33010453 -0.25513893 0.056001496
-0.33033517 -0.2550832 0.056202363
-0.33055481 -0.25505444 0.056215275
-0.33076245 -0.25504193 0.056119833
-0.33095285 -0.25501707 0.056130558
-0.33113211 -0.25499654 0.056119435
-0.33127484 -0.25501585 0.055848945
-0.33152908 -0.25496006 0.056028955
-0.3317112 -0.25493982 0.056013197
-0.33190238 -0.2549172 0.056006618
-0.33210126 -0.25488818 0.056040388
-0.33231276 -0.25486165 0.056044109
-0.33249533 -0.25484386 0.056009892
-0.3326976 -0.25481489 0.05604019
-0.33288759 -0.25479871 0.055987488
-0.33308306 -0.25478816 0.055888627
-0.33327109 -0.25477096 0.05584516
-0.33346987 -0.25474003 0.055892773
-0.33367851 -0.25471622 0.055879205
-0.33386201 -0.25469536 0.055866905
-0.33405715 -0.25467256 0.055858009
-0.33425641 -0.25464663 0.0558687
-0.33445975 -0.25462723 0.055827476
-0.33466339 -0.25460279 0.055823166
-0.33485943 -0.25458193 0.055799276
-0.33504084 -0.25455818 0.055810038
-0.33522898 -0.25454113 0.055765424
-0.33542836 -0.25451311 0.055791114
-0.33562666 -0.25448838 0.05579374
-0.33582985 -0.25446698 0.055767514
-0.33602014 -0.25444841 0.055732112
-0.33621085 -0.25443181 0.055681717
-0.3363995 -0.2544122 0.055655546
-0.33660278 -0.25438401 0.055678915
-0.3368279 -0.25435114 0.055717185
-0.33700687 -0.25434101 0.055629928
-0.3371875 -0.25432742 0.055566888
-0.3373926 -0.25430042 0.055579863
-0.33759889 -0.25427487 0.055581309
-0.33779979 -0.25425327 0.055558547
-0.33800963 -0.25421879 0.05562225
-0.33817708 -0.25421244 0.055517748
-0.33838043 -0.25418711 0.055520352
-0.33858162 -0.254159 0.055544876
-0.3387813 -0.2541385 0.055515207
-0.33897012 -0.25412136 0.055470586
-0.33919266 -0.25408927 0.055505406
-0.33938003 -0.25407532 0.055438872
-0.33956268 -0.2540583 0.055398889
-0.33977246 -0.25403309 0.055394549
-0.3399663 -0.25401676 0.055339526
-0.34017712 -0.25399098 0.055338643
-0.3403767 -0.25396058 0.055381626
-0.34059367 -0.25391862 0.05549375
-0.34077463 -0.25391313 0.055370733
-0.34096009 -0.2539005 0.05529613
-0.34118101 -0.25386435 0.055362105
-0.34134221 -0.25385579 0.055279538
-0.34157041 -0.25381309 0.055386987
-0.34176332 -0.25379768 0.055326208
-0.34194338 -0.25378272 0.055273548
-0.34213337 -0.2537711 0.055187397
-0.34233505 -0.25374797 0.055175018
-0.34254754 -0.25371993 0.055189118
-0.34274241 -0.25369939 0.055164076
-0.34293553 -0.25368002 0.055132121
-0.34314513 -0.25365594 0.055119708
-0.34338182 -0.25362429 0.05513832
-0.34353915 -0.25361809 0.055041939
-0.34376246 -0.25357804 0.055134416
-0.34396446 -0.25355896 0.055092052
-0.34414363 -0.25354475 0.055034775
-0.34437242 -0.25350544 0.055116858
-0.34455559 -0.25348884 0.05507341
-0.34475717 -0.25346464 0.055069108
-0.34494579 -0.25344661 0.055031408
-0.34514734 -0.25342616 0.054999419
-0.345355 -0.2534039 0.05497548
-0.3455258 -0.25339308 0.054900937
-0.34574971 -0.2533575 0.054959983
-0.34594923 -0.25333309 0.054959137
-0.34613264 -0.25331834 0.054901857
-0.3463338 -0.25329483 0.054892935
-0.34651566 -0.25328279 0.0548172
-0.34670487 -0.25326639 0.054766811
-0.34694418 -0.25322062 0.054886911
-0.34710342 -0.25322187 0.054733999
-0.34734848 -0.25317475 0.054858685
-0.34752196 -0.25316766 0.054754145
-0.34774086 -0.25313601 0.054788981
-0.34790525 -0.25313413 0.054654498
-0.34814429 -0.25308931 0.054767683
-0.34834117 -0.25306883 0.054740317
-0.34850779 -0.25306731 0.054601219
-0.34875515 -0.2530182 0.054738585
-0.3489449 -0.2530019 0.054687038
-0.34914073 -0.25298217 0.054655071
-0.34936622 -0.25294751 0.054706033
-0.34954864 -0.25293541 0.054630294
-0.34977749 -0.25289905 0.054690458
-0.3499611 -0.25288635 0.05461818
-0.350164 -0.25286293 0.054606948
-0.35036412 -0.25284111 0.0545865
-0.35057408 -0.25281557 0.054584458
-0.35075483 -0.25280446 0.05450296
-0.3509602 -0.25278154 0.054485951
-0.35118386 -0.25274709 0.054536916
-0.35138649 -0.2527242 0.054522227
-0.35158548 -0.25270328 0.054496016
-0.3517842 -0.2526826 0.054468647
-0.35200131 -0.25265366 0.054485038
-0.3522087 -0.25263003 0.054471478
-0.35238904 -0.25261927 0.054387681
-0.35260278 -0.25259075 0.05440408
-0.3527928 -0.25257489 0.05434908
-0.35302049 -0.25254074 0.054394253
-0.35322085 -0.25251952 0.054369189
-0.35341972 -0.25250068 0.054327983
-0.3536368 -0.25247082 0.054351293
-0.35383478 -0.252451 0.054318167
-0.35404077 -0.25242707 0.054308072
-0.35421973 -0.25241867 0.05420813
-0.35442582 -0.25239629 0.054186508
-0.3546398 -0.25236839 0.054198295
-0.3548747 -0.25233287 0.054246899
-0.35506207 -0.25231874 0.054181524
-0.35527471 -0.25229478 0.054165632
-0.24712674 -0.26441988 0.062753335
-0.24732377 -0.26438415 0.062837824
-0.24759272 -0.26436567 0.062730573
-0.24781039 -0.26433656 0.062748082
-0.24804753 -0.26431066 0.062724002
-0.24831133 -0.26429144 0.062627152
-0.24850771 -0.26425579 0.062711641
-0.24872068 -0.26422423 0.062751092
-0.24897119 -0.26420206 0.06268774
-0.24922475 -0.26418236 0.062603623
-0.24944296 -0.26415235 0.062626898
-0.2496811 -0.26412746 0.062594734
-0.2499364 -0.26410708 0.062514067
-0.25014403 -0.26407459 0.062565073
-0.25038502 -0.26405075 0.062522516
-0.25059569 -0.26402074 0.06255275
-0.25086641 -0.26400492 0.062424734
-0.251075 -0.26397294 0.062471114
-0.25128394 -0.26394108 0.062516347
-0.25154012 -0.26392186 0.062426452
-0.25177288 -0.26389652 0.06240239
-0.25198764 -0.26386803 0.062417611
-0.25222391 -0.26384383 0.06238199
-0.2524575 -0.26381904 0.06235332
-0.2526904 -0.26379415 0.062325791
-0.25292578 -0.26377007 0.06229018
-0.25312203 -0.2637352 0.062368907
-0.25335646 -0.26371267 0.062322922
-0.25357166 -0.2636832 0.062345073
-0.25384095 -0.2636691 0.062205523
-0.25408265 -0.26364738 0.06214682
-0.25429174 -0.26361975 0.062160917
-0.25448856 -0.26358202 0.062260397
-0.25471216 -0.26355702 0.062242135
-0.25495929 -0.26353729 0.062163815
-0.2551713 -0.26350743 0.062191732
-0.25540271 -0.26348338 0.062159598
-0.25564283 -0.26346201 0.062099755
-0.25587851 -0.26343945 0.062052611
-0.25610939 -0.2634156 0.062019322
-0.25631312 -0.2633836 0.062070344
-0.25652674 -0.26335636 0.062077496
-0.2567727 -0.26333743 0.061994568
-0.25701681 -0.26331809 0.061916247
-0.25723481 -0.26329079 0.061919924
-0.2574321 -0.26325706 0.061989423
-0.25764468 -0.26323515 0.061958529
-0.25787225 -0.26321107 0.061929867
-0.25809592 -0.26317883 0.061964653
-0.25832635 -0.26316118 0.0618864
-0.25854692 -0.26313341 0.061891224
-0.25876421 -0.26310995 0.06186723
-0.25899944 -0.26308179 0.061861597
-0.25921926 -0.2630612 0.061814528
-0.25943071 -0.26303971 0.061781332
-0.25961784 -0.2630066 0.06185548
-0.25989175 -0.26298457 0.061770115
-0.2601302 -0.26296529 0.061696447
-0.26033917 -0.26293612 0.061722066
-0.26053363 -0.26290384 0.0617835
-0.26078096 -0.26288614 0.061690181
-0.26097038 -0.26286328 0.06168706
-0.26119629 -0.2628347 0.061693013
-0.26143458 -0.26281056 0.061655086
-0.26164439 -0.26278207 0.061674938
-0.26184243 -0.26276821 0.061597973
-0.26209074 -0.26273674 0.061604984
-0.26229969 -0.2627176 0.061556801
-0.26251137 -0.26269391 0.061539743
-0.26269644 -0.26266435 0.061589696
-0.26293629 -0.26264161 0.061540224
-0.26314867 -0.26262033 0.061504722
-0.26341593 -0.26259267 0.061466664
-0.26361483 -0.26257241 0.061435826
-0.2638351 -0.26254278 0.061454482
-0.26404673 -0.26251975 0.061432824
-0.2642476 -0.26249266 0.061450399
-0.2644808 -0.26246426 0.061448254
-0.26468351 -0.26244199 0.061428927
-0.26488388 -0.26242486 0.061373863
-0.26512802 -0.26240912 0.061269023
-0.26531553 -0.26237911 0.061320111
-0.26551613 -0.26234829 0.061365381
-0.26576111 -0.26232725 0.061298601
-0.26598319 -0.26229507 0.061334539
-0.26621521 -0.26227313 0.061286263
-0.26643878 -0.26225817 0.061194196
-0.26663044 -0.26223221 0.061211824
-0.26682767 -0.26221278 0.061176382
-0.26703298 -0.26218641 0.061184727
-0.26725608 -0.26216558 0.06113648
-0.26748952 -0.26213872 0.061122797
-0.26769423 -0.26211447 0.061116144
-0.26792306 -0.26208586 0.061119776
-0.26810187 -0.26206115 0.061139762
-0.26828176 -0.26203692 0.06115514
-0.26856342 -0.26200593 0.061128557
-0.26874873 -0.26197556 0.061184265
-0.26893994 -0.26195875 0.061135009
-0.2691713 -0.26193172 0.061124794
-0.26944253 -0.26192525 0.060927581
-0.26964283 -0.26189759 0.06094978
-0.26982459 -0.26187253 0.060969755
-0.27003035 -0.26185647 0.060901988
-0.27022368 -0.26182795 0.060936898
-0.2704694 -0.26181296 0.060825139
-0.27068156 -0.26178905 0.06080924
-0.27091667 -0.26175791 0.060825527
-0.27110556 -0.26172286 0.060912348
-0.27131391 -0.26169959 0.060895316
-0.27152649 -0.26168317 0.060824051
-0.27172905 -0.2616502 0.060883157
-0.27194926 -0.2616308 0.060826853
-0.27216369 -0.26161101 0.060778648
-0.27236947 -0.26158458 0.060786989
-0.27257359 -0.26155975 0.060784958
-0.27280203 -0.26154515 0.060685948
-0.27298653 -0.26151034 0.060775109
-0.27318341 -0.2614795 0.06082385
-0.2734057 -0.26146454 0.060732946
-0.27361798 -0.26144204 0.06070666
-0.27385011 -0.2614328 0.060564969
-0.27405292 -0.26140547 0.060582552
-0.27425781 -0.26138183 0.060571291
-0.2744509 -0.26134923 0.060636196
-0.27465954 -0.2613278 0.060605317
-0.27487841 -0.26130965 0.060540944
-0.2750898 -0.26129007 0.060493909
-0.27529317 -0.26126346 0.060505725
-0.27549455 -0.26123837 0.060508318
-0.27570826 -0.26121786 0.060465887
-0.27590561 -0.26119059 0.060488097
-0.27611217 -0.2611661 0.060481444
-0.27631775 -0.26114377 0.060459804
-0.2765137 -0.26112121 0.060448579
-0.27666992 -0.26109093 0.060529791
-0.27687743 -0.26106727 0.060516208
-0.27709067 -0.26104999 0.06045071
-0.27733991 -0.26102483 0.060410425
-0.27752399 -0.26099524 0.06046154
-0.27774584 -0.26097265 0.060427137
-0.27795818 -0.26095548 0.060361639
-0.27814221 -0.26094019 0.060307808
-0.27837381 -0.26091295 0.060298741
-0.27856421 -0.26089925 0.060227577
-0.27875096 -0.26087168 0.060261369
-0.27899015 -0.26084399 0.060248807
-0.2791872 -0.26081753 0.060265258
-0.27939969 -0.2607986 0.060212456
-0.27961907 -0.26078764 0.060095035
-0.27980939 -0.26075679 0.060149573
-0.2800099 -0.26073304 0.060142942
-0.28020188 -0.26070029 0.060210153
-0.28036937 -0.26067775 0.060224425
-0.28057307 -0.26065645 0.060197026
-0.2807779 -0.26062667 0.060230739
-0.28100196 -0.26061419 0.060120229
-0.28120813 -0.26059195 0.060097426
-0.28142029 -0.26056787 0.060082674
-0.28161117 -0.2605505 0.060038038
-0.28180969 -0.26053908 0.059942622
-0.28200567 -0.26050299 0.06003058
-0.28217307 -0.26048094 0.060041387
-0.28240553 -0.26046336 0.059960816
-0.28261554 -0.26045179 0.059856128
-0.28279081 -0.2604126 0.059985679
-0.28303325 -0.26039001 0.059932739
-0.28321946 -0.26036644 0.059937708
-0.28341487 -0.2603471 0.059903424
-0.28362837 -0.26032192 0.059895582
-0.28381827 -0.26029459 0.059924755
-0.28401816 -0.26027942 0.05985586
-0.28422195 -0.26026061 0.059810013
-0.28444898 -0.26023313 0.059806719
-0.28464457 -0.26020372 0.059846241
-0.28482914 -0.26017925 0.059859291
-0.28499678 -0.26015827 0.059862025
-0.28524831 -0.26013833 0.059781373
-0.28545433 -0.26012254 0.059711292
-0.28564271 -0.260102 0.059692036
-0.28580514 -0.2600804 0.059704028
-0.28601709 -0.26006296 0.05964084
-0.2862196 -0.26003662 0.059651509
-0.28640214 -0.26000673 0.059706073
-0.28663981 -0.25998694 0.059637018
-0.28682518 -0.25996819 0.059607379
-0.28700688 -0.25994578 0.059607759
-0.28722611 -0.25992021 0.059597585
-0.28741822 -0.25989184 0.059632517
-0.28762716 -0.25987273 0.059584331
-0.28782272 -0.25985682 0.05952467
-0.28798643 -0.25983286 0.0595528
-0.28820121 -0.25980738 0.059546113
-0.28843313 -0.25977868 0.059547424
-0.28862473 -0.25976357 0.05948548
-0.28878543 -0.25975004 0.059439816
-0.28901112 -0.25972381 0.059428468
-0.28921175 -0.25969645 0.059448361
-0.28942817 -0.25967845 0.059385154
-0.2896229 -0.25965858 0.059355482
-0.28980502 -0.25963312 0.059377767
-0.28998777 -0.25962335 0.059284728
-0.29019228 -0.25959125 0.059335746
-0.29038858 -0.25956377 0.059360269
-0.2905848 -0.25954652 0.05930984
-0.2907708 -0.25953683 0.059213318
-0.29096261 -0.2595036 0.05928399
-0.29117119 -0.25948232 0.059251964
-0.29138607 -0.25945368 0.059268337
-0.29161406 -0.25943804 0.059177406
-0.29181007 -0.25941059 0.059201933
-0.29197866 -0.25938872 0.059210442
-0.29217598 -0.25936899 0.059177298
-0.2923713 -0.25934052 0.059209906
-0.29258493 -0.25932226 0.059151322
-0.29276597 -0.25930795 0.059092879
-0.29293358 -0.25929105 0.05906564
-0.29313788 -0.25927109 0.059027851
-0.29332855 -0.25922891 0.059165426
-0.29355732 -0.25921127 0.059088323
-0.29374811 -0.25918841 0.05908405
-0.29391664 -0.25915363 0.059187118
-0.29411983 -0.25915959 0.058960207
-0.29431704 -0.25914189 0.058912076
-0.29451555 -0.25909153 0.059102662
-0.29470843 -0.2590802 0.059011877
-0.29490522 -0.25905484 0.059020258
-0.29509589 -0.25903246 0.059012521
-0.29530945 -0.25901797 0.058926262
-0.29549748 -0.25899056 0.058957748
-0.29568401 -0.25897592 0.058896974
-0.29589194 -0.25895062 0.058894932
-0.29606801 -0.25891352 0.059008338
-0.29628363 -0.25890538 0.058873642
-0.29650193 -0.25888699 0.058811583
-0.29667163 -0.25886089 0.058850057
-0.29686448 -0.25883603 0.058858454
-0.29709253 -0.25881475 0.058809042
-0.29727948 -0.25879422 0.058790937
-0.29747182 -0.25876832 0.058807418
-0.29764974 -0.25874388 0.058826249
-0.29784712 -0.25872147 0.058812719
-0.29807842 -0.2587004 0.058758676
-0.29823506 -0.25869018 0.058692273
-0.29842204 -0.25867108 0.058663793
-0.29861352 -0.25864294 0.058697563
-0.29882523 -0.25862017 0.05867359
-0.29902056 -0.25859237 0.058701575
-0.29922077 -0.25858152 0.058600385
-0.29938939 -0.25855067 0.058674622
-0.29963735 -0.25852647 0.058628578
-0.29981905 -0.25850284 0.058638182
-0.3000153 -0.25849375 0.058527783
-0.30019814 -0.25845975 0.058612332
-0.30037683 -0.25843915 0.058602341
-0.3005982 -0.25843012 0.058468767
-0.30078277 -0.25840363 0.058496803
-0.30099967 -0.25837395 0.058518931
-0.30119768 -0.25836071 0.058437362
-0.30139053 -0.25833964 0.058418084
-0.30158561 -0.25831041 0.058456447
-0.30175743 -0.25829458 0.058417656
-0.30193365 -0.25828496 0.058329251
-0.30211076 -0.2582567 0.058376931
-0.30230606 -0.25822809 0.058410686
-0.30251923 -0.25819728 0.058444366
-0.30270985 -0.25819188 0.058312073
-0.302926 -0.25815475 0.058389571
-0.30310848 -0.25814328 0.058309212
-0.30328363 -0.25813237 0.05823119
-0.30349275 -0.258095 0.05831679
-0.30366346 -0.25807142 0.058335654
-0.30385607 -0.25805682 0.058269098
-0.30404803 -0.25802848 0.058304016
-0.30427596 -0.25800875 0.058243074
-0.30447143 -0.25797179 0.058337949
-0.3046459 -0.25795722 0.058287609
-0.30482024 -0.25793698 0.058278792
-0.30501211 -0.25793424 0.058125742
-0.30521443 -0.25792268 0.058027994
-0.30543497 -0.25788644 0.058095086
-0.30560923 -0.25786275 0.058111638
-0.30579102 -0.25783029 0.058185816
-0.30598238 -0.25781852 0.058099657
-0.30619189 -0.25779539 0.058080301
-0.30640066 -0.257781 0.057997528
-0.30659348 -0.25774673 0.058075123
-0.30679974 -0.25772023 0.058083463
-0.30697444 -0.25769415 0.058117304
-0.3071427 -0.25769383 0.057967819
-0.30735666 -0.25766137 0.058013022
-0.30757728 -0.25763217 0.058028221
-0.3077397 -0.25761938 0.057975624
-0.3079091 -0.25760603 0.057920702
-0.30810672 -0.25758955 0.05786334
-0.30832112 -0.25755578 0.057917774
-0.30851513 -0.25753927 0.057863887
-0.30868861 -0.25752088 0.057842392
-0.3088755 -0.25748718 0.057921156
-0.30907676 -0.25746852 0.057876468
-0.30927569 -0.25742847 0.057990938
-0.30944905 -0.25741103 0.057962514
-0.30963624 -0.25740775 0.05781756
-0.30984482 -0.25738618 0.057787832
-0.31005976 -0.25736633 0.057739627
-0.31022435 -0.25735468 0.057676643
-0.31042656 -0.25731781 0.057764575
-0.31064802 -0.25729874 0.057704806
-0.3108252 -0.25727832 0.057694815
-0.31100157 -0.25726068 0.057665233
-0.31120774 -0.25723481 0.057668954
-0.31138465 -0.25721523 0.057653204
-0.31159785 -0.25716808 0.057806823
-0.31179845 -0.25713944 0.05783594
-0.31196022 -0.25712484 0.05779719
-0.31213534 -0.2571108 0.057742231
-0.31232014 -0.2571072 0.057601903
-0.31251496 -0.25708494 0.057589535
-0.31270882 -0.25706515 0.057559866
-0.31290203 -0.25702956 0.057646684
-0.31309658 -0.25699964 0.057690825
-0.31328076 -0.25699565 0.057553951
-0.31346205 -0.25698981 0.05743324
-0.31366095 -0.25697348 0.057373568
-0.31385708 -0.25694776 0.057385407
-0.31405503 -0.25691804 0.057424918
-0.31425011 -0.25689495 0.057418313
-0.31444094 -0.25686657 0.057454396
-0.31463668 -0.25684232 0.057455868
-0.31481978 -0.2568306 0.057376657
-0.315016 -0.25681224 0.057334296
-0.31520361 -0.25679761 0.057272367
-0.31540886 -0.2567609 0.057356827
-0.31559956 -0.25674006 0.057337556
-0.31579861 -0.25671601 0.057334393
-0.31599504 -0.25670332 0.057250522
-0.31620419 -0.25666657 0.057331495
-0.31637949 -0.25665578 0.057252329
-0.31656489 -0.25663248 0.05725614
-0.31674841 -0.2566185 0.057193082
-0.31698635 -0.25659019 0.057186291
-0.31718278 -0.2565594 0.057235032
-0.31734443 -0.25653177 0.057292007
-0.31751439 -0.25651819 0.057238217
-0.31771219 -0.25649115 0.057258129
-0.31788772 -0.25648996 0.057108607
-0.31808877 -0.25645766 0.057164259
-0.31828412 -0.25643471 0.057156492
-0.31849211 -0.25642294 0.057055272
-0.31868067 -0.25639513 0.057089053
-0.31887561 -0.25636783 0.057113595
-0.31904906 -0.25635338 0.057063252
-0.3192488 -0.25634354 0.056955144
-0.31943452 -0.25631547 0.056993559
-0.31962734 -0.256282 0.057065386
-0.31982374 -0.25624838 0.057134889
-0.3200027 -0.25624928 0.056966901
-0.32022086 -0.25622195 0.056970574
-0.32043085 -0.25619704 0.056963909
-0.32060641 -0.25618374 0.056903183
-0.32079157 -0.25616172 0.056897778
-0.32097304 -0.25614029 0.056891229
-0.32116577 -0.25612551 0.056825824
-0.32135159 -0.25609836 0.05685731
-0.3215518 -0.25608221 0.056795329
-0.32172465 -0.25606781 0.056745
-0.32191086 -0.25603622 0.056808777
-0.32212332 -0.25600851 0.056820553
-0.32232153 -0.2559987 0.056713603
-0.3224968 -0.25597319 0.056742832
-0.32270092 -0.25594005 0.056801919
-0.32288635 -0.25591815 0.056795355
-0.32308981 -0.25589779 0.056761041
-0.32329959 -0.25586993 0.056776285
-0.32346836 -0.25586405 0.056667157
-0.32367221 -0.25583565 0.056691654
-0.32385409 -0.25581059 0.056711629
-0.32404026 -0.25579172 0.056681991
-0.32424775 -0.25576681 0.056677647
-0.32444081 -0.2557402 0.056698725
-0.32462296 -0.25572592 0.056639131
-0.32480973 -0.25569224 0.056717899
-0.32502168 -0.25566977 0.056691617
-0.32520726 -0.25565869 0.056605481
-0.32538795 -0.25564584 0.056536667
-0.32558092 -0.25561973 0.056554288
-0.32577801 -0.25559607 0.056549974
-0.32594669 -0.25558913 0.056448925
-0.32616824 -0.25554314 0.056586359
-0.32635844 -0.25553355 0.056485213
-0.32656392 -0.25551122 0.056463573
-0.32676974 -0.25549188 0.056420013
-0.32693273 -0.25547099 0.056426235
-0.32714865 -0.25544143 0.05644837
-0.32732999 -0.25542128 0.056432597
-0.32752076 -0.25540125 0.056407556
-0.32771382 -0.2553696 0.05646554
-0.32789585 -0.25535205 0.056430165
-0.32809192 -0.25532696 0.056437399
-0.32828623 -0.25530365 0.056433097
-0.32848173 -0.25529435 0.056325011
-0.32867968 -0.25527358 0.056298792
-0.32886592 -0.25524908 0.056310676
-0.3290635 -0.25523165 0.056260236
-0.3292563 -0.25520116 0.056310151
-0.32943863 -0.25517759 0.056318592
-0.32964334 -0.25515082 0.056330398
-0.32983398 -0.25514838 0.056176197
-0.33002347 -0.25512975 0.056141939
-0.33020934 -0.25511158 0.056107696
-0.33040807 -0.25508192 0.056146055
-0.33060238 -0.25505075 0.056199424
-0.33081114 -0.25502631 0.056190453
-0.33099696 -0.25500563 0.056174662
-0.33118099 -0.25498924 0.056128889
-0.33136481 -0.25497302 0.056081973
-0.33156139 -0.25495654 0.056025777
-0.33175707 -0.25493541 0.056004178
-0.33194578 -0.254915 0.055983756
-0.33214781 -0.25488335 0.056033634
-0.33233428 -0.25486496 0.056000538
-0.33253908 -0.25483644 0.056025032
-0.33272815 -0.2548185 0.055986166
-0.33293873 -0.25479305 0.055982955
-0.33314195 -0.25477117 0.055960163
-0.33333018 -0.25475141 0.055935141
-0.3335292 -0.25472552 0.055945821
-0.33372843 -0.25469452 0.055993401
-0.33392757 -0.25467613 0.055948719
-0.33411631 -0.2546488 0.055979043
-0.33430517 -0.25463858 0.055883668
-0.33451027 -0.25461066 0.055903539
-0.33468947 -0.25460067 0.05581513
-0.33488888 -0.25457251 0.055841953
-0.33507133 -0.25455993 0.05576966
-0.33526754 -0.25453433 0.055780355
-0.33549589 -0.25450075 0.05582089
-0.33567446 -0.2544888 0.055747464
-0.33584815 -0.25447354 0.055702899
-0.336068 -0.25443736 0.055769995
-0.33629128 -0.254408 0.055784024
-0.33645886 -0.25439739 0.055710658
-0.33663961 -0.25438377 0.055647597
-0.33685163 -0.25435609 0.055659376
-0.33704343 -0.25433436 0.055645868
-0.33722261 -0.25431967 0.055592053
-0.33742341 -0.25429368 0.055601567
-0.33761913 -0.25427145 0.055588033
-0.33781466 -0.25424942 0.055573359
-0.33803722 -0.25421464 0.055627752
-0.33822918 -0.25419965 0.055564657
-0.33840758 -0.25418773 0.055491235
-0.33863661 -0.25415513 0.055523694
-0.33881032 -0.25413796 0.055492967
-0.33900648 -0.25411791 0.055463292
-0.33920151 -0.25409231 0.055475138
-0.33941549 -0.25406 0.055519201
-0.33961275 -0.25404561 0.055446848
-0.3397963 -0.25402394 0.055440292
-0.33998862 -0.25400668 0.055393338
-0.34018487 -0.25398678 0.055362511
-0.34040225 -0.25394854 0.055446908
-0.34057844 -0.25394222 0.055334296
-0.34080508 -0.25390616 0.055394437
-0.34100139 -0.25387633 0.055436265
-0.3411949 -0.25386053 0.055377774
-0.34138542 -0.25384066 0.055351585
-0.34157494 -0.25382549 0.055291951
-0.3417758 -0.25380483 0.055262264
-0.34199327 -0.25377542 0.055282082
-0.34216887 -0.25376147 0.055225976
-0.34237015 -0.25373873 0.055211268
-0.34257424 -0.25371423 0.055206936
-0.34277573 -0.25369146 0.055192228
-0.34297362 -0.25366914 0.055177536
-0.34317431 -0.25364316 0.055187061
-0.34336007 -0.25362861 0.055126291
-0.3435691 -0.25360507 0.055110402
-0.34376639 -0.25358328 0.055092257
-0.34394693 -0.25356638 0.05505342
-0.34415725 -0.25354034 0.055054825
-0.34439278 -0.25349879 0.055147223
-0.3445299 -0.25351062 0.054936752
-0.3447679 -0.25347143 0.055009529
-0.34497729 -0.25344992 0.05497865
-0.34518057 -0.25342301 0.054992758
-0.34539899 -0.2533834 0.055086389
-0.34552887 -0.25339374 0.054893248
-0.34578574 -0.25333843 0.055067427
-0.34594864 -0.25334144 0.054898355
-0.34611151 -0.25333896 0.054769646
-0.34636253 -0.25328404 0.054946169
-0.34656748 -0.25326023 0.054936055
-0.34672904 -0.25326025 0.054790057
-0.34696686 -0.25321716 0.054891676
-0.34715414 -0.25320211 0.054833207
-0.34735128 -0.25318131 0.054808144
-0.34755674 -0.25315568 0.054810721
-0.34774926 -0.25313935 0.054756843
-0.3479661 -0.25310734 0.054796275
-0.34818283 -0.25307721 0.054821864
-0.3483687 -0.25306311 0.054757647
-0.34858471 -0.25303352 0.054779783
-0.34876925 -0.25302023 0.05471094
-0.34899342 -0.25298619 0.054758418
-0.34919912 -0.25296104 0.054757528
-0.34939086 -0.25294542 0.054699041
-0.3495734 -0.25293329 0.054623306
-0.34979784 -0.25289783 0.054681156
-0.34999356 -0.25287843 0.054646865
-0.35019574 -0.25285715 0.054620631
-0.35039601 -0.25283533 0.054600161
-0.3505851 -0.2528213 0.054532461
-0.3508096 -0.25278631 0.054586854
-0.35101748 -0.25276214 0.054576728
-0.35119289 -0.25275403 0.054477952
-0.35141581 -0.25272015 0.054525435
-0.35161456 -0.25269943 0.054498054
-0.35183242 -0.25267011 0.054516725
-0.35203144 -0.25264937 0.054489344
-0.35224244 -0.25262389 0.054486133
-0.35244632 -0.25260067 0.054472566
-0.35264343 -0.25258267 0.054426741
-0.352851 -0.25255758 0.054423545
-0.35305023 -0.25253698 0.054395013
-0.35324606 -0.25251821 0.054356109
-0.35344934 -0.25249711 0.054327562
-0.3536835 -0.25245839 0.05440037
-0.24723098 -0.26439697 0.062827297
-0.24747398 -0.26437384 0.062777825
-0.24772294 -0.26435077 0.062722564
-0.24795215 -0.26432306 0.062719263
-0.24816668 -0.26429334 0.062743708
-0.24840787 -0.2642687 0.062706925
-0.24865255 -0.26424503 0.06265974
-0.24889816 -0.26422176 0.062609114
-0.24913505 -0.26419795 0.062570043
-0.24933752 -0.26416406 0.062636033
-0.24956095 -0.26413706 0.062632769
-0.2498308 -0.26412037 0.062511697
-0.25004154 -0.26408878 0.06255345
-0.25026959 -0.26406166 0.0625467
-0.25049412 -0.26403528 0.062537655
-0.25073278 -0.26401111 0.062499732
-0.25095806 -0.26398355 0.062498759
-0.25118071 -0.26395538 0.062504716
-0.25138125 -0.26392299 0.062561497
-0.25165841 -0.26390949 0.062410422
-0.25183451 -0.26387066 0.062536478
-0.25209284 -0.26385242 0.062437363
-0.25233871 -0.26383096 0.062372893
-0.25255725 -0.2638022 0.062386934
-0.25279209 -0.26377958 0.062340964
-0.25303304 -0.26375717 0.062288042
-0.25326073 -0.26373121 0.062273219
-0.25352207 -0.26371479 0.062157951
-0.25370008 -0.26367667 0.062277086
-0.25390315 -0.26364398 0.062333848
-0.25417796 -0.26363343 0.062163193
-0.25439063 -0.26360366 0.06218994
-0.25459552 -0.26357168 0.062239788
-0.25484142 -0.26355165 0.062164932
-0.25505263 -0.26352328 0.062182471
-0.25527567 -0.26349679 0.062175743
-0.25551206 -0.26347601 0.062114775
-0.25573498 -0.2634497 0.062106892
-0.25595731 -0.26342329 0.062100168
-0.2561909 -0.26340035 0.062057652
-0.25641724 -0.26337707 0.062024392
-0.25664842 -0.26335365 0.061987653
-0.25686476 -0.26332748 0.06198442
-0.25709143 -0.26330289 0.061960381
-0.25730845 -0.26327541 0.06196636
-0.25751814 -0.26324567 0.061995428
-0.25774238 -0.26322231 0.061964482
-0.25797459 -0.26319987 0.061919674
-0.25819832 -0.26317659 0.061888732
-0.25843173 -0.26315477 0.061838143
-0.25860041 -0.26311389 0.061986141
-0.25886428 -0.26310217 0.06183397
-0.25908193 -0.26307556 0.061833031
-0.25931916 -0.26305547 0.061766293
-0.25953415 -0.26302996 0.061759599
-0.25972718 -0.26299536 0.061839469
-0.25996038 -0.26297608 0.061770439
-0.26014245 -0.26293778 0.061887246
-0.26038399 -0.2629216 0.061788205
-0.26060954 -0.26289824 0.061756104
-0.26081917 -0.26287133 0.061764423
-0.2610499 -0.26285002 0.061712697
-0.26128602 -0.2628307 0.06164135
-0.26149961 -0.26280364 0.061647344
-0.26170161 -0.26277435 0.061679915
-0.26192415 -0.2627506 0.061653584
-0.2621741 -0.2627387 0.061515309
-0.26237917 -0.2627089 0.061549012
-0.26256955 -0.26268137 0.061579317
-0.26277989 -0.26265737 0.061565727
-0.26303321 -0.26263595 0.061494298
-0.26325038 -0.26261473 0.061454162
-0.26343355 -0.26258665 0.061494883
-0.26366186 -0.26256594 0.061440863
-0.26389775 -0.26253849 0.061429463
-0.26410717 -0.26251084 0.061443549
-0.26430044 -0.26247698 0.061517648
-0.26452371 -0.26245674 0.061464801
-0.26475394 -0.26243737 0.061399251
-0.26496351 -0.26241204 0.061396036
-0.26518923 -0.26239118 0.061345488
-0.26537424 -0.26236227 0.06139081
-0.26561981 -0.26234353 0.061306737
-0.26583466 -0.26231864 0.061295431
-0.2660594 -0.2622979 0.061244883
-0.26626325 -0.26227078 0.061260141
-0.26648313 -0.26224828 0.061226919
-0.26665458 -0.26222023 0.061278053
-0.26691091 -0.2621986 0.061205469
-0.26712605 -0.26217651 0.061173417
-0.26734969 -0.26215607 0.061121725
-0.26755381 -0.26212952 0.061132364
-0.26776594 -0.26210436 0.061125688
-0.2679745 -0.26208198 0.061101727
-0.26818132 -0.26205039 0.061146948
-0.26840007 -0.26203054 0.061095275
-0.26859188 -0.26200536 0.061107129
-0.26881662 -0.26197752 0.061108466
-0.26903966 -0.26195779 0.061052158
-0.26926431 -0.26194113 0.06097164
-0.26948485 -0.2619206 0.06092342
-0.26968575 -0.26189336 0.060942151
-0.26988235 -0.26186192 0.060995489
-0.27009201 -0.26183659 0.060992274
-0.27032289 -0.26182136 0.060895592
-0.27050394 -0.26178491 0.060999714
-0.2707341 -0.26176965 0.06090419
-0.27094322 -0.26174673 0.060883682
-0.27114695 -0.26171899 0.060903557
-0.27136752 -0.26169953 0.060847268
-0.27157915 -0.26167583 0.060830206
-0.27178508 -0.26165175 0.060821246
-0.27201301 -0.26163644 0.060728028
-0.27220702 -0.26160893 0.060754865
-0.27240336 -0.26158977 0.060718279
-0.27262542 -0.26155758 0.06075421
-0.27284372 -0.26153794 0.060701393
-0.27303386 -0.2615062 0.060762823
-0.27324334 -0.26148212 0.060750388
-0.27345002 -0.26145667 0.060750648
-0.27364963 -0.26144484 0.060657557
-0.27387545 -0.261415 0.060672715
-0.27409303 -0.26139575 0.060617592
-0.27429441 -0.26137033 0.060622483
-0.27450436 -0.26134717 0.060603134
-0.27470922 -0.26132384 0.060589574
-0.27492642 -0.26130494 0.060532145
-0.27511495 -0.26128033 0.060542848
-0.27532259 -0.26125884 0.060513131
-0.27552205 -0.2612302 0.060543403
-0.27574986 -0.26120752 0.060504369
-0.27595723 -0.26118621 0.060473505
-0.27615803 -0.26116118 0.060476094
-0.27636531 -0.2611374 0.060463659
-0.27657983 -0.26111805 0.060412019
-0.27676076 -0.26109749 0.060399704
-0.27697223 -0.26106566 0.060442597
-0.27719355 -0.26104817 0.060371317
-0.27740163 -0.26102537 0.060350817
-0.27760768 -0.26100424 0.06031996
-0.27780756 -0.26097649 0.060343299
-0.27801087 -0.26095381 0.060326274
-0.27821228 -0.26092714 0.060340393
-0.2784172 -0.26090568 0.060313001
-0.27862519 -0.26088634 0.060267128
-0.2788164 -0.26086187 0.060274377
-0.2790333 -0.26083705 0.060260765
-0.27923664 -0.26081499 0.060239132
-0.2794373 -0.26078826 0.060254402
-0.27964643 -0.26077035 0.060197011
-0.27984312 -0.26075006 0.06016849
-0.28005582 -0.26072595 0.06015373
-0.28025424 -0.26069787 0.060180549
-0.28045925 -0.26067767 0.060143918
-0.28065112 -0.26065436 0.060141936
-0.28085437 -0.26063624 0.060091488
-0.28106484 -0.26060781 0.060110174
-0.28125304 -0.26059157 0.060059793
-0.28145239 -0.26056778 0.060054325
-0.28168282 -0.26054823 0.059989918
-0.28188244 -0.26052162 0.060005195
-0.28207973 -0.26049653 0.060011256
-0.28228721 -0.26047617 0.059973463
-0.28248295 -0.26045004 0.059988767
-0.28268132 -0.26042262 0.060010962
-0.28288934 -0.26040643 0.059942044
-0.28308743 -0.26038927 0.059889313
-0.28329232 -0.26036748 0.059864216
-0.28349239 -0.26033831 0.059897933
-0.28369927 -0.26032194 0.059831329
-0.28389281 -0.26029089 0.059884679
-0.28409746 -0.26027292 0.05983191
-0.28427845 -0.26024544 0.059870332
-0.28448933 -0.26022592 0.059823301
-0.28470129 -0.26020753 0.059767053
-0.28489098 -0.26018053 0.05979389
-0.28508922 -0.2601651 0.059728481
-0.28529361 -0.2601327 0.059781782
-0.28547612 -0.26010677 0.059807513
-0.2856476 -0.26008594 0.059805617
-0.28588331 -0.26007155 0.05969853
-0.28606141 -0.26004943 0.059700064
-0.28630218 -0.26002863 0.059635617
-0.28647766 -0.26000008 0.059686735
-0.28669417 -0.25997579 0.059669666
-0.28689238 -0.25995374 0.059652664
-0.28709722 -0.25993857 0.059579153
-0.28727782 -0.25991538 0.059586443
-0.2874831 -0.25989687 0.059537135
-0.28766116 -0.25987116 0.059565187
-0.28788322 -0.25986236 0.059429344
-0.2880877 -0.25983045 0.059479184
-0.28826293 -0.25980619 0.059499174
-0.28846332 -0.25978306 0.059487931
-0.28865227 -0.25975618 0.059514787
-0.28886417 -0.25974187 0.059428561
-0.289067 -0.25970796 0.059494551
-0.28928405 -0.25969553 0.059389852
-0.28946602 -0.25966525 0.059447862
-0.28966898 -0.25964594 0.059406642
-0.28986734 -0.25961617 0.05944613
-0.29006705 -0.25959802 0.059399158
-0.2902588 -0.25958005 0.059357975
-0.29042318 -0.25955757 0.059374556
-0.29063135 -0.25953555 0.059348296
-0.29084751 -0.25951383 0.059312768
-0.2910344 -0.25949001 0.059318881
-0.29124027 -0.25946531 0.059314527
-0.29144484 -0.25944987 0.059243329
-0.29164022 -0.25942171 0.059273608
-0.29184687 -0.25939849 0.059257727
-0.29203585 -0.25938383 0.059194654
-0.29223031 -0.25935438 0.059235319
-0.29243377 -0.25933263 0.059211381
-0.29260895 -0.25930932 0.059224457
-0.29277197 -0.25929126 0.05920992
-0.29301536 -0.25927186 0.059132781
-0.29321483 -0.25925058 0.059108857
-0.29341915 -0.2592248 0.059113741
-0.29358649 -0.25920811 0.059085347
-0.29380202 -0.25918189 0.059083268
-0.29399565 -0.25915772 0.059085883
-0.29420659 -0.25915092 0.05894547
-0.2943714 -0.25912353 0.058997795
-0.29459891 -0.25909886 0.058973752
-0.29478893 -0.25907561 0.058972936
-0.29498622 -0.25905177 0.058969773
-0.29518116 -0.25902337 0.05900237
-0.29536447 -0.25901744 0.058880523
-0.29557294 -0.25897795 0.058982227
-0.29575655 -0.25898156 0.058790058
-0.29594073 -0.25894663 0.058880344
-0.29616082 -0.25891545 0.058910519
-0.29631731 -0.25888529 0.058990538
-0.29649296 -0.25887308 0.058921766
-0.2967411 -0.25886378 0.058766205
-0.29695314 -0.2588501 0.058675364
-0.29713938 -0.25880972 0.058803678
-0.29733431 -0.25879103 0.058764793
-0.29752979 -0.25877419 0.058712065
-0.29771957 -0.25874218 0.058775809
-0.29791677 -0.2587201 0.058759972
-0.29810333 -0.25869977 0.05874072
-0.29830849 -0.25867972 0.058702938
-0.29850399 -0.2586531 0.058721699
-0.29869488 -0.25862348 0.058766987
-0.29889452 -0.25861037 0.058683112
-0.29908916 -0.25859347 0.058631554
-0.29928061 -0.25856581 0.058661841
-0.29947472 -0.25854772 0.058619503
-0.29967034 -0.25852188 0.058632493
-0.29986534 -0.25850809 0.058557864
-0.30006087 -0.25848213 0.058572009
-0.30022827 -0.25846118 0.058574744
-0.3004353 -0.25842077 0.058684532
-0.30059329 -0.25840661 0.058645796
-0.30078867 -0.25839731 0.05853774
-0.3010174 -0.25837341 0.058506779
-0.30122924 -0.25835741 0.058433227
-0.30142167 -0.25833526 0.058422014
-0.3016175 -0.25831193 0.05841656
-0.30180931 -0.25828597 0.058434173
-0.30200478 -0.25826001 0.058448322
-0.30219856 -0.25824901 0.058354106
-0.30238372 -0.25822824 0.058339465
-0.30255669 -0.25819531 0.058425188
-0.30278119 -0.25817114 0.058400009
-0.3029736 -0.25815073 0.058376115
-0.30316943 -0.25812945 0.058355674
-0.30334753 -0.25811189 0.058323771
-0.30351785 -0.25808555 0.058363385
-0.30370697 -0.25807437 0.058274947
-0.30390257 -0.2580528 0.058256816
-0.30410543 -0.25803801 0.058182154
-0.30429375 -0.25801718 0.0581652
-0.30447826 -0.25797984 0.058272775
-0.30467021 -0.25797018 0.05817049
-0.30486554 -0.2579557 0.058100477
-0.30507159 -0.25792074 0.05817106
-0.30529523 -0.25789857 0.058132052
-0.30548695 -0.25787655 0.058120843
-0.30568308 -0.25783479 0.058250278
-0.30584687 -0.25780925 0.058289923
-0.30601701 -0.25779644 0.058230385
-0.30622295 -0.25777361 0.058212202
-0.30640948 -0.25777262 0.05805115
-0.30660832 -0.25774798 0.058052596
-0.3067919 -0.2577354 0.05797917
-0.30699232 -0.25772738 0.057857253
-0.30720311 -0.25768855 0.057952031
-0.30737826 -0.25765723 0.0580239
-0.3075704 -0.25763074 0.058044977
-0.30776507 -0.25761101 0.058014166
-0.307953 -0.25758958 0.058001824
-0.3081581 -0.2575483 0.058119684
-0.30833843 -0.25753129 0.058082007
-0.30852303 -0.25750947 0.058075447
-0.30871367 -0.25751019 0.057898235
-0.30890524 -0.25750419 0.057769433
-0.30909708 -0.25749549 0.057660233
-0.3093015 -0.25747535 0.057623617
-0.30953255 -0.25742918 0.057754043
-0.30972365 -0.25739321 0.057845451
-0.30989578 -0.25735143 0.057996884
-0.31008607 -0.25733411 0.057952255
-0.31027365 -0.25731367 0.057932999
-0.31045839 -0.25730348 0.057841118
-0.31064728 -0.25729012 0.057768822
-0.31083694 -0.25728512 0.057634275
-0.31102937 -0.25726992 0.057572339
-0.3112233 -0.25726047 0.057466585
-0.31142157 -0.25723669 0.057462268
-0.31164208 -0.25720736 0.057478607
-0.31183603 -0.25718647 0.057457022
-0.31203157 -0.25714147 0.057610661
-0.31222734 -0.25711596 0.057621345
-0.31242087 -0.25708741 0.057656255
-0.31262082 -0.25706923 0.057609271
-0.31280753 -0.25705001 0.05758195
-0.31298783 -0.25702983 0.057567332
-0.31319609 -0.25700718 0.057545681
-0.31339365 -0.25699416 0.057462972
-0.3135733 -0.25695914 0.057557892
-0.3137424 -0.25694945 0.057476453
-0.3139317 -0.25693932 0.057379946
-0.31414714 -0.2569001 0.057473548
-0.31434748 -0.25687999 0.057440404
-0.31454691 -0.25686172 0.057394583
-0.31474364 -0.25683481 0.057414487
-0.31495565 -0.25681105 0.057397429
-0.31514919 -0.256791 0.057370082
-0.3153196 -0.25677705 0.057318609
-0.31550169 -0.25675306 0.057330512
-0.31571022 -0.2567296 0.057314616
-0.31589222 -0.25670591 0.057324208
-0.31609866 -0.2566739 0.057372887
-0.3162747 -0.25666162 0.057304114
-0.31647006 -0.25663805 0.057300955
-0.31666133 -0.25662187 0.057247102
-0.31684473 -0.25660774 0.057185203
-0.31703788 -0.25657642 0.057240866
-0.31722426 -0.25656274 0.057173185
-0.31745598 -0.25652793 0.057219453
-0.31763381 -0.25651184 0.05717719
-0.31781676 -0.25649258 0.057153333
-0.31802398 -0.25646597 0.057161659
-0.31820092 -0.25645643 0.057072122
-0.31840342 -0.25643212 0.057067797
-0.31858128 -0.25640532 0.057103921
-0.3188065 -0.25637653 0.057112165
-0.31900415 -0.25635988 0.057055973
-0.31916985 -0.25634196 0.057037968
-0.31935045 -0.25631642 0.057062548
-0.31955102 -0.25629532 0.057036322
-0.31975132 -0.25627461 0.057007786
-0.3199321 -0.25625846 0.056963198
-0.32010826 -0.25623956 0.056942828
-0.32032421 -0.25621048 0.056961495
-0.32051998 -0.25618699 0.0569572
-0.32069838 -0.25616956 0.056924146
-0.32089469 -0.25614101 0.056956727
-0.32108361 -0.25611821 0.056953605
-0.32128716 -0.25609753 0.056921598
-0.32148063 -0.25608155 0.056864277
-0.3216829 -0.25604567 0.056945257
-0.32186943 -0.25603446 0.056859139
-0.3220917 -0.25599816 0.056925047
-0.32227176 -0.25599089 0.056815892
-0.32245177 -0.25597137 0.05679667
-0.32264638 -0.25594977 0.05677969
-0.32282856 -0.25593156 0.056748923
-0.32301918 -0.2559109 0.056728505
-0.32320252 -0.25589132 0.056706954
-0.32340893 -0.25585192 0.056809828
-0.32360005 -0.25583842 0.056736372
-0.3237839 -0.25582206 0.056690615
-0.32399046 -0.2557905 0.05673584
-0.32418466 -0.25577337 0.05668658
-0.32437888 -0.2557452 0.056718018
-0.324588 -0.25572556 0.056673303
-0.3247588 -0.25570592 0.056663342
-0.32495052 -0.25568438 0.056648675
-0.32514992 -0.25566137 0.056637444
-0.32532477 -0.25564092 0.056629766
-0.3255254 -0.25562015 0.05660123
-0.32570729 -0.25560921 0.056517437
-0.32590434 -0.2555854 0.056514282
-0.32608664 -0.25556719 0.056483522
-0.32628468 -0.25554579 0.056461915
-0.32648396 -0.25551653 0.056496792
-0.3266868 -0.2554903 0.056506287
-0.32686985 -0.25547469 0.056455925
-0.3270703 -0.2554478 0.056472357
-0.3272824 -0.255422 0.056470279
-0.32746702 -0.2554079 0.056407228
-0.32765046 -0.25538248 0.056428347
-0.32784626 -0.25536352 0.056390606
-0.32803485 -0.25533935 0.056397859
-0.32822442 -0.2553204 0.056365911
-0.32841659 -0.25529596 0.056372002
-0.32862556 -0.25526756 0.056391846
-0.32881847 -0.25524852 0.056357577
-0.32900614 -0.25523734 0.056270301
-0.32922223 -0.25520539 0.056309719
-0.32938528 -0.2551966 0.056227162
-0.32957348 -0.2551761 0.056207903
-0.32979515 -0.25514504 0.056235772
-0.32997727 -0.25512168 0.056243055
-0.33015618 -0.2551125 0.05614889
-0.33035588 -0.2550846 0.056173392
-0.33056098 -0.2550548 0.056207094
-0.33076951 -0.25503039 0.056198128
-0.3309665 -0.25501069 0.056164987
-0.33116025 -0.25499925 0.056074228
-0.3313418 -0.25497937 0.056056157
-0.33153194 -0.25495219 0.056084156
-0.33175102 -0.25491893 0.056130476
-0.33192819 -0.25491095 0.056029413
-0.33211061 -0.2548905 0.056014784
-0.33231983 -0.25486585 0.056006961
-0.33252957 -0.25483564 0.05603949
-0.33271566 -0.25482261 0.055967212
-0.33288115 -0.25480863 0.055920381
-0.33307353 -0.25478527 0.055918396
-0.3332715 -0.25475994 0.055925611
-0.33347932 -0.25473419 0.055927008
-0.3336702 -0.25471225 0.055915818
-0.33387086 -0.25468251 0.055952996
-0.33408064 -0.25465795 0.055944011
-0.33428228 -0.25463989 0.055894721
-0.33446318 -0.25462845 0.05581554
-0.33465022 -0.25460729 0.055802055
-0.33483207 -0.25458065 0.055833556
-0.33502951 -0.25455633 0.055833846
-0.33523288 -0.25452986 0.055844501
-0.3354457 -0.25449866 0.055881631
-0.33563709 -0.25448152 0.055834681
-0.33580932 -0.25447428 0.055732489
-0.33599025 -0.25446266 0.055654459
-0.33618605 -0.25443524 0.055678979
-0.33638999 -0.25441328 0.055656195
-0.33659738 -0.25437975 0.055715244
-0.33680266 -0.25435242 0.055730499
-0.33699128 -0.2543419 0.055637453
-0.3371776 -0.25431737 0.055649336
-0.3373667 -0.25429314 0.05565659
-0.33756125 -0.25428051 0.055573896
-0.33776891 -0.2542474 0.055629488
-0.33797228 -0.25421968 0.055649355
-0.33812988 -0.25422037 0.055502266
-0.33833197 -0.25419578 0.055500232
-0.33853859 -0.25416595 0.055532776
-0.33872563 -0.25414997 0.05548124
-0.33892 -0.25412464 0.055491928
-0.33913437 -0.25409606 0.055508293
-0.33933645 -0.25407603 0.055472836
-0.33951008 -0.25406313 0.055410985
-0.33971468 -0.25403103 0.055461984
-0.33991683 -0.25400487 0.05547148
-0.34012222 -0.25397661 0.055493653
-0.34030855 -0.25396952 0.055377558
-0.34051815 -0.25394058 0.055400867
-0.34072053 -0.25391251 0.055424199
-0.34090281 -0.25390199 0.055336945
-0.341097 -0.25387147 0.055385679
-0.34127736 -0.25385821 0.055320345
-0.34149012 -0.25383753 0.055280223
-0.34169912 -0.25380942 0.05529777
-0.3418535 -0.25380719 0.055174891
-0.34206986 -0.25377053 0.055248898
-0.34226412 -0.25374439 0.055265345
-0.34245333 -0.25373131 0.055190749
-0.34265572 -0.2537078 0.055180646
-0.342861 -0.25367483 0.055237409
-0.34302771 -0.2536684 0.05513408
-0.34323105 -0.25364447 0.05512628
