# .PCD v0.7 - Point Cloud Data file format
VERSION 0.7
FIELDS x y z
SIZE 4 4 4
TYPE F F F
COUNT 1 1 1
WIDTH 488
HEIGHT 1
VIEWPOINT 0 0 0 1 0 0 0
POINTS 488
DATA ascii
-0.1941936 -0.30412409 0.062681548
-0.19443041 -0.30414024 0.06266205
-0.19467384 -0.30415946 0.062622912
-0.19490319 -0.30417252 0.062623054
-0.19512695 -0.30418479 0.062626667
-0.19535148 -0.30419585 0.062639505
-0.19558819 -0.30421245 0.062616542
-0.19584686 -0.30423912 0.062528931
-0.19607894 -0.30425391 0.062517516
-0.19630292 -0.30426508 0.062529206
-0.19653474 -0.30428159 0.062505111
-0.19677626 -0.30430099 0.062463682
-0.19700152 -0.30431303 0.062469594
-0.19723007 -0.30432668 0.062465124
-0.19746149 -0.30434173 0.062451411
-0.19769612 -0.30435839 0.062427312
-0.19795832 -0.30438808 0.062318921
-0.19817403 -0.30439612 0.062350243
-0.19839528 -0.30440685 0.062364243
-0.19864503 -0.30443111 0.062290501
-0.1988737 -0.30444553 0.06228026
-0.19907199 -0.30445588 0.06228745
-0.19931741 -0.30446985 0.062287509
-0.19954842 -0.30448568 0.062268034
-0.19977477 -0.30449936 0.062262408
-0.19998655 -0.30450779 0.062289141
-0.20023483 -0.30453056 0.062225781
-0.20046777 -0.30454776 0.062197071
-0.20070548 -0.30456743 0.062152207
-0.20093209 -0.30458173 0.062141974
-0.20115368 -0.30459544 0.062134072
-0.20139483 -0.30461717 0.062075347
-0.20162745 -0.30463481 0.06204319
-0.20184356 -0.30464429 0.062064137
-0.2020641 -0.30465606 0.062070064
-0.20229602 -0.30467367 0.062037908
-0.20253392 -0.30469441 0.061984964
-0.20276456 -0.30471164 0.061955113
-0.20294578 -0.30470547 0.062076524
-0.2031977 -0.30473378 0.061973937
-0.20342629 -0.30475023 0.061948709
-0.20367882 -0.30478296 0.061813846
-0.2038898 -0.30478683 0.061874017
-0.20410216 -0.30479515 0.061901897
-0.20434114 -0.30481753 0.061837416
-0.2045708 -0.30483517 0.061804123
-0.20477235 -0.30483988 0.061853945
-0.20499139 -0.30485204 0.061856434
-0.20520698 -0.30486244 0.061870467
-0.20545796 -0.30489194 0.061758664
-0.20568047 -0.30490822 0.061732307
-0.20588641 -0.30491364 0.061778665
-0.20610386 -0.30492541 0.061783463
-0.20634766 -0.30495167 0.061692446
-0.20655085 -0.30495775 0.061733048
-0.20680079 -0.30498579 0.061631627
-0.20700276 -0.3049913 0.061675698
-0.20722958 -0.30500877 0.061642401
-0.20744994 -0.30502272 0.061632197
-0.20767814 -0.30504122 0.06159199
-0.20789875 -0.30505753 0.06156449
-0.2081151 -0.30506954 0.061566986
-0.20834014 -0.30508658 0.06153601
-0.20855644 -0.30509871 0.061537348
-0.20877802 -0.305114 0.06151792
-0.20899341 -0.3051258 0.061521567
-0.20920202 -0.30513579 0.061535634
-0.20942749 -0.30515364 0.061498884
-0.20965388 -0.30517218 0.06145753
-0.20988324 -0.30519259 0.061403472
-0.21011257 -0.30521318 0.061348267
-0.21030945 -0.30521449 0.061421175
-0.21054105 -0.30523881 0.061339442
-0.21074672 -0.30524549 0.061376575
-0.21096799 -0.3052617 0.061350226
-0.21118225 -0.30527371 0.061351579
-0.2113989 -0.3052873 0.061342537
-0.21161175 -0.30529863 0.061348505
-0.21184281 -0.30532354 0.061262168
-0.2120572 -0.30533606 0.061260052
-0.21227503 -0.30535081 0.061242953
-0.21250032 -0.30537039 0.061193526
-0.21271327 -0.30538452 0.06117874
-0.21293104 -0.3053996 0.061159328
-0.21313277 -0.30540448 0.061208006
-0.21335104 -0.30542004 0.061185125
-0.21358342 -0.30544487 0.061099932
-0.21379539 -0.30545661 0.061102446
-0.2140047 -0.30546898 0.061099216
-0.21423021 -0.30548984 0.061040558
-0.21443188 -0.30549502 0.061086938
-0.21464641 -0.30550879 0.061075605
-0.21485457 -0.30552784 0.061022788
-0.21505488 -0.3055394 0.061021902
-0.21528694 -0.30555105 0.061033547
-0.21550784 -0.30556956 0.060989901
-0.2156999 -0.30557814 0.0610075
-0.21592931 -0.30559307 0.060993806
-0.21614255 -0.30560914 0.060965177
-0.2163582 -0.30562454 0.060942315
-0.21657342 -0.30563977 0.060920607
-0.21677768 -0.30565482 0.060895488
-0.21698633 -0.30567312 0.060848437
-0.21716565 -0.30567813 0.060886845
-0.21743336 -0.30570373 0.060810708
-0.21764341 -0.30571586 0.060809769
-0.21784556 -0.30572483 0.060828477
-0.21806234 -0.30574203 0.060792927
-0.21825244 -0.30574483 0.060852028
-0.21839158 -0.3057411 0.060937881
-0.21868895 -0.30580041 0.060626417
-0.21889995 -0.30580065 0.060713097
-0.21911351 -0.3058081 0.060747892
-0.21928144 -0.30581558 0.060763288
-0.21951488 -0.30584642 0.060634278
-0.21976079 -0.30586013 0.06063664
-0.21995774 -0.30587134 0.060636915
-0.22017352 -0.30588362 0.060637105
-0.22037797 -0.30590087 0.060595848
-0.22055033 -0.30590674 0.060625054
-0.22079971 -0.30594337 0.060460232
-0.2210096 -0.30594575 0.060530774
-0.22120695 -0.30594927 0.060587544
-0.22142139 -0.30596963 0.060527787
-0.22162431 -0.30598071 0.060531497
-0.22184731 -0.30599684 0.060506299
-0.22205262 -0.3060101 0.060495004
-0.22222893 -0.30602556 0.060455024
-0.22242741 -0.30603027 0.060503714
-0.22266844 -0.30604434 0.060501494
-0.22288349 -0.30606329 0.060452111
-0.22308418 -0.30607003 0.060486957
-0.22330089 -0.30609378 0.060402978
-0.2235117 -0.30610955 0.060375534
-0.22371536 -0.30612221 0.060367703
-0.2239354 -0.3061465 0.060281407
-0.22412716 -0.30615506 0.060299002
-0.22434349 -0.30617002 0.060279593
-0.22453915 -0.3061758 0.06031907
-0.22473566 -0.30617914 0.060376994
-0.2249527 -0.30620483 0.060279183
-0.22515872 -0.30622375 0.060226388
-0.22536886 -0.3062368 0.060218535
-0.22556879 -0.30624691 0.060228027
-0.22576007 -0.30625886 0.060220249
-0.22599649 -0.30628753 0.060108524
-0.22619316 -0.3062948 0.060137622
-0.22639996 -0.3063086 0.060122862
-0.2265949 -0.3063142 0.060163505
-0.22679672 -0.30632317 0.060182214
-0.22699302 -0.30633369 0.060187105
-0.22721323 -0.30635798 0.060100801
-0.22741555 -0.30637857 0.060034189
-0.22761801 -0.30639228 0.060018301
-0.22780675 -0.30639532 0.060075101
-0.22803821 -0.30642134 0.059980683
-0.22823215 -0.30643001 0.059998266
-0.22838984 -0.30642611 0.060093261
-0.22863993 -0.30645776 0.059965335
-0.22884586 -0.30647212 0.059945963
-0.22904412 -0.30648199 0.05995661
-0.22922222 -0.30648896 0.059980027
-0.22946081 -0.30652481 0.059816405
-0.2296176 -0.30651161 0.059979424
-0.22981575 -0.30655813 0.059720285
-0.23001808 -0.30655286 0.059843905
-0.23024702 -0.30656636 0.059840575
-0.23045105 -0.30657953 0.059829295
-0.23064554 -0.30659404 0.059804223
-0.23082845 -0.3066074 0.05978265
-0.23103112 -0.30662364 0.059748311
-0.23127081 -0.30663806 0.059742641
-0.2314491 -0.30664599 0.059759133
-0.23163205 -0.30665544 0.059766397
-0.23183641 -0.30668351 0.059645578
-0.23205571 -0.30669945 0.059620395
-0.23225947 -0.30670428 0.05967021
-0.23244886 -0.30671331 0.059683211
-0.23265779 -0.30673462 0.059614256
-0.23283565 -0.30673766 0.059666492
-0.23304342 -0.30676264 0.05956988
-0.23323368 -0.30676341 0.059643976
-0.23343945 -0.30678108 0.059600398
-0.23365471 -0.30680257 0.059532568
-0.2338677 -0.30682111 0.05948551
-0.23403367 -0.30681705 0.059585076
-0.23425987 -0.30683979 0.059512585
-0.23447056 -0.30685538 0.059486285
-0.23465626 -0.30686516 0.059492372
-0.23487976 -0.30688462 0.05944296
-0.23507831 -0.30689827 0.059425935
-0.23526765 -0.30690855 0.059429698
-0.23545626 -0.3069177 0.059441552
-0.23563811 -0.30693319 0.05940384
-0.23585014 -0.3069523 0.059352167
-0.23604172 -0.30697289 0.059280992
-0.23623572 -0.30697358 0.059357367
-0.23641914 -0.30698022 0.059385382
-0.23661831 -0.30699611 0.059352204
-0.23683923 -0.3070198 0.059270523
-0.23703617 -0.30703866 0.059214305
-0.23725034 -0.30705056 0.059216812
-0.23745379 -0.30705538 0.059266638
-0.23761791 -0.30705214 0.059359297
-0.23786782 -0.30708599 0.059215214
-0.23804101 -0.30709377 0.059230588
-0.23820731 -0.30710194 0.059240222
-0.23841561 -0.30711678 0.059218541
-0.23862579 -0.30713594 0.059165731
-0.23881468 -0.30714744 0.059160277
-0.23901218 -0.3071546 0.05919053
-0.23924094 -0.30717671 0.059123792
-0.23942459 -0.30718464 0.059142571
-0.23964642 -0.30721638 0.059002087
-0.23981759 -0.30722013 0.059046283
-0.24000755 -0.30722654 0.05907888
-0.24019869 -0.30723584 0.059090707
-0.24039315 -0.30724454 0.059108291
-0.24060844 -0.30727121 0.059002411
-0.24080788 -0.30728427 0.058989994
-0.24100205 -0.30729264 0.059009887
-0.24118048 -0.30730668 0.058981426
-0.24138521 -0.30731487 0.059007034
-0.24158973 -0.3073442 0.058876988
-0.24178989 -0.30734965 0.058921061
-0.24198174 -0.307374 0.058822207
-0.24217308 -0.30737361 0.058905527
-0.24235702 -0.30738389 0.05890701
-0.24254979 -0.30740049 0.0588658
-0.24274577 -0.30741632 0.058831491
-0.24298227 -0.30741069 0.058972258
-0.24318846 -0.30739594 0.05916734
-0.24337551 -0.30738854 0.059300244
-0.24357268 -0.30737719 0.059466548
-0.24376261 -0.30736354 0.059646718
-0.24395637 -0.30734885 0.059836082
-0.24414827 -0.30734047 0.059978202
-0.24434264 -0.30732441 0.060177945
-0.24453434 -0.3073107 0.060359262
-0.24473077 -0.30730087 0.060514037
-0.24492736 -0.30728966 0.060679182
-0.24512419 -0.30727732 0.060852408
-0.24531776 -0.30726436 0.061029099
-0.19414531 -0.30411863 0.062701449
-0.19437477 -0.30413154 0.062702775
-0.19460723 -0.30414587 0.062694862
-0.19485727 -0.30416811 0.062636152
-0.19506207 -0.30417192 0.062694073
-0.19531429 -0.30419537 0.062627286
-0.19555491 -0.30421379 0.062592827
-0.19577974 -0.30422518 0.062603384
-0.19598301 -0.30422685 0.062676296
-0.19624695 -0.30425617 0.062571421
-0.19648033 -0.30427337 0.062542751
-0.19671133 -0.30428794 0.062532544
-0.1969409 -0.30430195 0.062525794
-0.19717994 -0.30432042 0.062490188
-0.19742724 -0.30434453 0.062416509
-0.19764566 -0.30435365 0.062440932
-0.19787464 -0.30436781 0.062433042
-0.19808665 -0.30437407 0.062475935
-0.19834703 -0.30440316 0.062371068
-0.19857112 -0.30441529 0.062375881
-0.1987924 -0.30442789 0.062376086
-0.19902545 -0.30444443 0.062352031
-0.19925338 -0.30445868 0.06234299
-0.19949812 -0.30448109 0.062280841
-0.1997167 -0.30449101 0.062299505
-0.19994722 -0.30450678 0.062280077
-0.20020153 -0.30453601 0.062171768
-0.20044668 -0.30455923 0.062103864
-0.20064554 -0.30455986 0.062182557
-0.2008689 -0.30457258 0.062182754
-0.20110498 -0.30459166 0.062141396
-0.20133504 -0.3046079 0.062118512
-0.20156327 -0.30462512 0.062087558
-0.2017695 -0.30462962 0.062140856
-0.20200276 -0.30464777 0.062105276
-0.20223713 -0.30466661 0.062065084
-0.20246702 -0.3046833 0.062038735
-0.20268281 -0.30469292 0.062058561
-0.20292029 -0.30471551 0.061991837
-0.20315146 -0.30473322 0.061958566
-0.20335986 -0.30473927 0.062001489
-0.2035872 -0.30475521 0.061979767
-0.2038103 -0.30477086 0.061958063
-0.20406273 -0.30480015 0.061848614
-0.20428422 -0.30481339 0.061844211
-0.20448723 -0.30481693 0.061903287
-0.2047081 -0.30482996 0.061900035
-0.20494065 -0.3048493 0.061855242
-0.20517482 -0.30487159 0.06178968
-0.2053813 -0.30487719 0.061834909
-0.20561826 -0.30489931 0.061771646
-0.20582676 -0.30490616 0.061808802
-0.20604903 -0.30492052 0.061796315
-0.20629282 -0.30494681 0.061705355
-0.20650327 -0.30495688 0.06171944
-0.20672296 -0.30497018 0.061713893
-0.20694751 -0.30498624 0.061689876
-0.2071593 -0.3049953 0.061712019
-0.20740461 -0.30502322 0.061609529
-0.20762128 -0.30503523 0.061612062
-0.20783472 -0.30504549 0.061626136
-0.20807655 -0.30507195 0.061532877
-0.20828383 -0.30508092 0.061553888
-0.20850921 -0.3050983 0.061520651
-0.20872769 -0.30511183 0.061512802
-0.20894331 -0.30512378 0.061515339
-0.20915312 -0.30513242 0.061539803
-0.20937943 -0.30515078 0.061499633
-0.20960078 -0.30516636 0.061477937
-0.20982102 -0.30518138 0.061459705
-0.21004006 -0.30519792 0.061429944
-0.21025842 -0.30521208 0.061417487
-0.21046481 -0.30521911 0.06145234
-0.21069033 -0.30523774 0.061409876
-0.21091132 -0.30525377 0.061384723
-0.21112698 -0.30526668 0.061380345
-0.21134394 -0.30528262 0.061354049
-0.21156824 -0.30530101 0.061312743
-0.21179253 -0.30531958 0.061270282
-0.21200605 -0.30533156 0.061271679
-0.21221392 -0.30534011 0.06129615
-0.21244061 -0.30536053 0.061240997
-0.21264707 -0.30537054 0.06125395
-0.21285856 -0.30538383 0.061244972
-0.21308787 -0.30540407 0.061192114
-0.21329778 -0.30541429 0.061205052
-0.21352364 -0.30543718 0.061131462
-0.21372427 -0.30544841 0.061132904
-0.21394745 -0.30546066 0.06113657
-0.21416175 -0.3054741 0.061127581
-0.21439017 -0.30549696 0.061055124
-0.21459842 -0.30550662 0.06107153
-0.21480885 -0.3055225 0.061042964
-0.21501637 -0.3055318 0.06106168
-0.21524255 -0.30555141 0.061012283
-0.21546087 -0.30556822 0.060980227
-0.21566747 -0.30557713 0.061001256
-0.21585965 -0.305581 0.061053462
-0.21607845 -0.30560333 0.06098105
-0.21630394 -0.3056207 0.060947798
-0.21651188 -0.30563331 0.060942303
-0.21673197 -0.30565208 0.060896404
-0.21695633 -0.3056691 0.060865469
-0.21712199 -0.3056719 0.06091433
-0.21734631 -0.30568907 0.060882248
-0.21757445 -0.30571678 0.060774062
-0.21778935 -0.30571976 0.060842313
-0.21797545 -0.30572733 0.060864568
-0.21822889 -0.30575353 0.060778175
-0.21841399 -0.30576578 0.060765859
-0.21857561 -0.30576316 0.060852781
-0.21879122 -0.30579048 0.060742341
-0.2190531 -0.30581325 0.060684737
-0.21927813 -0.30581883 0.06073796
-0.21947309 -0.30583102 0.060730204
-0.21966827 -0.30584884 0.060680952
-0.21992354 -0.30587262 0.060612999
-0.2201241 -0.30587855 0.060653638
-0.22032136 -0.3058874 0.060671248
-0.22053419 -0.30590028 0.060665719
-0.22071573 -0.3059051 0.060706444
-0.22090904 -0.30592784 0.060620308
-0.221183 -0.30595648 0.060524613
-0.22136088 -0.30597281 0.060478896
-0.22159667 -0.30598217 0.060509004
-0.2218111 -0.30600002 0.06046775
-0.22200413 -0.30600893 0.060483053
-0.22220305 -0.30601695 0.060507566
-0.2224168 -0.30603161 0.06048936
-0.22261372 -0.30605301 0.060414743
-0.22285272 -0.30607459 0.060356081
-0.22304396 -0.30607936 0.060401373
-0.22326186 -0.30609205 0.06039929
-0.22347793 -0.3061125 0.060339563
-0.22367923 -0.30612317 0.06034562
-0.22386676 -0.30612472 0.060412839
-0.22406229 -0.30614287 0.060361281
-0.22429401 -0.30615905 0.06033954
-0.22450134 -0.30617553 0.060305219
-0.2247079 -0.30618823 0.06029857
-0.22491424 -0.3062073 0.060244665
-0.22513314 -0.30622524 0.060204528
-0.22530536 -0.30620918 0.060395166
-0.2255251 -0.30623469 0.060299691
-0.22575358 -0.30627227 0.060118876
-0.22595258 -0.30627841 0.060157217
-0.22615154 -0.30630162 0.060069904
-0.22633757 -0.3063089 0.060094472
-0.22654614 -0.30631074 0.06016852
-0.22676684 -0.30632815 0.060132992
-0.22696215 -0.3063449 0.060091805
-0.22718 -0.3063598 0.060073584
-0.22738498 -0.30637598 0.060040422
-0.22759445 -0.30639338 0.060000338
-0.22776935 -0.30639672 0.060049154
-0.22797757 -0.30640933 0.060043652
-0.22814418 -0.30641502 0.060071766
-0.22840129 -0.30643892 0.060003802
-0.22860408 -0.30645359 0.059981033
-0.22879362 -0.30647311 0.059916817
-0.22896838 -0.30647644 0.059965633
-0.22920866 -0.3064903 0.059964612
-0.22940221 -0.30650693 0.059923433
-0.2295756 -0.30652475 0.059865057
-0.22978738 -0.30653852 0.059852615
-0.22999284 -0.30656964 0.059709944
-0.23019847 -0.30656832 0.0598059
-0.23039718 -0.30657944 0.059807353
-0.23058136 -0.30658159 0.05986882
-0.23079683 -0.30660465 0.059789505
-0.23100546 -0.30661967 0.059766714
-0.23119399 -0.30663162 0.059757844
-0.23141406 -0.30664805 0.059729226
-0.23158425 -0.30664581 0.059817269
-0.23179303 -0.3066569 0.059823297
-0.23200867 -0.30669078 0.059664436
-0.23220982 -0.30669218 0.059738513
-0.23240522 -0.30670923 0.05969502
-0.23264259 -0.30673105 0.059634052
-0.23284005 -0.3067418 0.059637826
-0.23299894 -0.30674297 0.059695944
-0.23322546 -0.30677482 0.059556626
-0.23341852 -0.30677468 0.059638806
-0.2335977 -0.30678466 0.059640348
-0.23383678 -0.30681553 0.059513666
-0.23403259 -0.30681929 0.059568167
-0.23422433 -0.30683267 0.059550054
-0.23442262 -0.30685616 0.059460439
-0.23461425 -0.30686438 0.059480369
-0.23480953 -0.30687281 0.059500288
-0.23499957 -0.30688408 0.05949717
-0.23519126 -0.30689809 0.05947445
-0.23537768 -0.30690947 0.059469037
-0.23560829 -0.30692998 0.059415024
-0.23580818 -0.30694649 0.059377275
-0.23600611 -0.30695993 0.059361439
-0.23622131 -0.30697906 0.059310954
-0.23640521 -0.30698058 0.05937703
-0.23658617 -0.30699554 0.059342824
-0.23678665 -0.30702057 0.05924283
-0.23699582 -0.30703622 0.059215419
-0.23721525 -0.30703822 0.059292868
-0.23738816 -0.30705208 0.059263311
-0.23757903 -0.30705994 0.059285559
-0.23777026 -0.30706847 0.059303179
-0.2379777 -0.3070884 0.059243504
-0.23818997 -0.30711144 0.059163041
-0.23837943 -0.30711672 0.059203736
-0.23858304 -0.30713707 0.059139464
-0.23876412 -0.30714718 0.059140988
-0.23894539 -0.30715778 0.059139065
-0.23914085 -0.30716059 0.059200484
-0.23935176 -0.30718261 0.059126958
-0.23954184 -0.30719763 0.059096169
-0.23973158 -0.30720356 0.059132241
-0.23993386 -0.30721411 0.059139445
-0.24015534 -0.3072286 0.059125826
-0.24034436 -0.30725092 0.059040856
-0.24052678 -0.30726567 0.059008949
-0.24072126 -0.30727497 0.059021957
-0.24094126 -0.30728641 0.059030235
-0.24114774 -0.30731004 0.058942888
-0.24131908 -0.30732462 0.058907576
-0.24151246 -0.3073312 0.058940183
-0.24170764 -0.30735436 0.058851726
-0.24191418 -0.30735782 0.058913097
-0.24210192 -0.30736908 0.058908843
-0.24228001 -0.30737168 0.058964565
-0.24248973 -0.30739802 0.058858767
-0.24267554 -0.30740276 0.058901772
-0.24286887 -0.30742237 0.058838695
-0.24306375 -0.30742076 0.058932394
-0.2432778 -0.30743855 0.058891136
-0.24350592 -0.30742571 0.059081525
-0.24369575 -0.30741453 0.059243266
-0.24388503 -0.30739897 0.05943729
-0.24407594 -0.30738914 0.059589796
-0.24427128 -0.3073816 0.0597273
-0.24446224 -0.30736798 0.059907474
-0.24465449 -0.30735916 0.060053069
-0.24484649 -0.30734673 0.060225174
-0.24503927 -0.30733654 0.060381129
-0.24523076 -0.30731499 0.060620107
-0.24542797 -0.30730426 0.060781814
-0.24562219 -0.30729523 0.060929697
