# .PCD v0.7 - Point Cloud Data file format
VERSION 0.7
FIELDS x y z
SIZE 4 4 4
TYPE F F F
COUNT 1 1 1
WIDTH 1310
HEIGHT 1
VIEWPOINT 0 0 0 1 0 0 0
POINTS 1310
DATA ascii
-0.39246327 -0.31986105 0.053690981
-0.3926338 -0.31987575 0.053595573
-0.39284351 -0.31987268 0.053633779
-0.39304543 -0.31987613 0.053623565
-0.39322248 -0.31988713 0.053555809
-0.39340177 -0.31989488 0.053512264
-0.39359879 -0.319897 0.053511307
-0.39380166 -0.31989402 0.053548384
-0.39400727 -0.31989971 0.053522013
-0.39419678 -0.31990206 0.053518787
-0.39439869 -0.31990582 0.053506274
-0.39459041 -0.31991699 0.05343844
-0.39477283 -0.31992319 0.053406421
-0.39497471 -0.31991926 0.05345042
-0.39517069 -0.31992045 0.053456388
-0.3953706 -0.31992936 0.053405825
-0.39554909 -0.31993771 0.053357664
-0.3957521 -0.31993929 0.053361297
-0.39594001 -0.31994289 0.053348843
-0.39615035 -0.31994656 0.053337451
-0.3963308 -0.31995776 0.053268522
-0.39653426 -0.31995371 0.053313673
-0.39672559 -0.31995764 0.053298902
-0.39693612 -0.31995773 0.053314023
-0.39713344 -0.31996441 0.053279616
-0.39732119 -0.3199721 0.053237185
-0.39753705 -0.31997159 0.053256892
-0.39772105 -0.31997752 0.053227164
-0.39789811 -0.31998679 0.053172104
-0.39810118 -0.31998178 0.053224172
-0.39831817 -0.31998286 0.053232335
-0.3985154 -0.31998625 0.053222157
-0.39867663 -0.32000667 0.053084124
-0.39884776 -0.32001698 0.053021017
-0.39908582 -0.32000309 0.053140961
-0.39930484 -0.32001063 0.05310183
-0.39950669 -0.32000858 0.05313199
-0.39968541 -0.32001728 0.053081527
-0.39984566 -0.3200292 0.053005788
-0.40008327 -0.32001969 0.053093441
-0.4002713 -0.32003114 0.053023327
-0.40045828 -0.32003957 0.052975126
-0.40067193 -0.32003435 0.053029452
-0.40088809 -0.32003498 0.053041089
-0.40106326 -0.32004878 0.052952588
-0.40126377 -0.32004797 0.052973524
-0.401465 -0.3200503 0.052971389
-0.40166789 -0.32006034 0.052912734
-0.40183601 -0.3200722 0.052838109
-0.40203586 -0.32007357 0.052842908
-0.40225112 -0.32006839 0.052897215
-0.40245187 -0.32006788 0.052915856
-0.40262994 -0.32008377 0.052812334
-0.40283766 -0.32008696 0.05280441
-0.40300837 -0.32009774 0.05273784
-0.4032349 -0.32008985 0.052812859
-0.40344128 -0.32009381 0.052799169
-0.40361792 -0.32010701 0.052715275
-0.40382722 -0.3201066 0.052733861
-0.40400061 -0.32011476 0.052686885
-0.40425679 -0.32009995 0.052814819
-0.40445164 -0.32011053 0.052751586
-0.40462121 -0.32012194 0.05268041
-0.40483892 -0.32012007 0.052710488
-0.40503159 -0.32012999 0.052651886
-0.40522507 -0.32013491 0.05263019
-0.40544218 -0.32013661 0.052633747
-0.40563181 -0.32013851 0.052633978
-0.40583405 -0.32014164 0.052626081
-0.40601635 -0.3201527 0.052558303
-0.40624204 -0.32015437 0.052562967
-0.40644497 -0.32015893 0.052544683
-0.40664029 -0.32016495 0.052514903
-0.40684423 -0.32016465 0.052532367
-0.40705451 -0.32016802 0.05252327
-0.40726393 -0.32017028 0.05252225
-0.40748 -0.32017606 0.052495822
-0.40765089 -0.3201842 0.052448861
-0.40784928 -0.32018933 0.052425988
-0.40805927 -0.32019159 0.052424964
-0.40825912 -0.32019627 0.052405544
-0.40847531 -0.32019782 0.052410256
-0.40869272 -0.32020488 0.052374601
-0.40890706 -0.3202014 0.052416231
-0.40908232 -0.32020956 0.052369244
-0.40929216 -0.32020789 0.052397065
-0.40950474 -0.32021695 0.052346442
-0.40967855 -0.32022572 0.052294843
-0.40987068 -0.3202264 0.052304298
-0.41006729 -0.32023558 0.052251443
-0.41029292 -0.32023144 0.052298784
-0.41047606 -0.32024124 0.052240226
-0.41066685 -0.32024834 0.052202392
-0.41090649 -0.32024372 0.052254286
-0.41109374 -0.32026064 0.052143805
-0.41126421 -0.32026938 0.052092224
-0.41147909 -0.32026953 0.052107334
-0.30417126 -0.31803787 0.060504533
-0.30438846 -0.31803629 0.060532287
-0.30460468 -0.31803438 0.060562357
-0.30484718 -0.31804281 0.060518485
-0.3050729 -0.31804636 0.060509302
-0.30531073 -0.31805316 0.060476985
-0.30554494 -0.3180587 0.060453914
-0.30578458 -0.31806645 0.060414672
-0.30600441 -0.31806806 0.060419351
-0.30624545 -0.31807661 0.060374334
-0.30647004 -0.31808031 0.060363993
-0.3066833 -0.31807792 0.060397536
-0.30692708 -0.31808794 0.060342122
-0.30713525 -0.31808358 0.060389526
-0.30739486 -0.31810194 0.060274072
-0.30763289 -0.31810999 0.060232535
-0.30783096 -0.31810334 0.060296133
-0.30805215 -0.31810465 0.060303114
-0.30827704 -0.31810755 0.06029854
-0.30852753 -0.31812125 0.060216576
-0.30874515 -0.31812298 0.060220107
-0.30897734 -0.31812927 0.060191281
-0.30920821 -0.31813678 0.060153231
-0.30943984 -0.31814304 0.060124412
-0.30967531 -0.31815109 0.060082886
-0.3098827 -0.31814721 0.06012683
-0.31010091 -0.31814975 0.060124595
-0.31033006 -0.31815535 0.060100399
-0.31055379 -0.31816044 0.060079686
-0.31077763 -0.31816396 0.060070507
-0.31101263 -0.31817245 0.060025521
-0.31124255 -0.31817889 0.059995554
-0.31146419 -0.31818348 0.059978314
-0.31167912 -0.31818345 0.059994541
-0.31189099 -0.31818387 0.06000733
-0.31211388 -0.31818753 0.059997007
-0.3123394 -0.31819248 0.059977435
-0.31257609 -0.31820258 0.059920911
-0.31278577 -0.31820232 0.059938326
-0.31302011 -0.31821162 0.059887581
-0.31324151 -0.3182151 0.059878413
-0.31346652 -0.31822038 0.059856534
-0.31368804 -0.31822589 0.059832375
-0.31391326 -0.31823146 0.059808195
-0.31413344 -0.3182348 0.059800185
-0.31435448 -0.31823862 0.059788711
-0.31458649 -0.31824771 0.059739135
-0.31479689 -0.31824669 0.059762299
-0.31502107 -0.31825414 0.059724286
-0.31525061 -0.31826243 0.059680492
-0.31544849 -0.31825563 0.059745237
-0.31567031 -0.31826037 0.059726842
-0.31591138 -0.31827649 0.059626479
-0.31612968 -0.31827977 0.059618477
-0.31633341 -0.31827602 0.059661284
-0.31655562 -0.31828141 0.059638273
-0.31679863 -0.31829724 0.059540205
-0.31700131 -0.31829315 0.059585333
-0.31721443 -0.31829622 0.059578504
-0.31743002 -0.31829873 0.059576292
-0.31766573 -0.31831148 0.059500162
-0.31786135 -0.31830403 0.059569538
-0.3180697 -0.31830502 0.059577733
-0.31830493 -0.31831792 0.059500456
-0.31852114 -0.3183212 0.059492461
-0.3187446 -0.31832832 0.059456758
-0.31891143 -0.31832591 0.059487075
-0.31919205 -0.31834525 0.059365749
-0.31939894 -0.31834406 0.059390098
-0.31961298 -0.31834668 0.05938673
-0.3198314 -0.31835374 0.059351053
-0.32005435 -0.31836134 0.059311893
-0.32026574 -0.31836283 0.05931662
-0.32047966 -0.31836578 0.059310943
-0.32069248 -0.31837028 0.059293743
-0.32091716 -0.31837931 0.059244193
-0.32114011 -0.31838751 0.059200421
-0.32135183 -0.3184022 0.059108276
-0.32156155 -0.31839287 0.059192568
-0.32177123 -0.31839404 0.059199609
-0.32195196 -0.3183811 0.059308264
-0.32219121 -0.31839904 0.059194066
-0.32241201 -0.31840679 0.059153758
-0.32260022 -0.31839594 0.059247397
-0.32281688 -0.31840363 0.059207108
-0.32304817 -0.31841776 0.059120625
-0.323264 -0.31842527 0.059081499
-0.32347608 -0.31842849 0.059073538
-0.32369313 -0.31843477 0.059043631
-0.32389945 -0.3184348 0.059058756
-0.32411927 -0.31844518 0.058998853
-0.32433704 -0.31845224 0.058963176
-0.32455736 -0.31846327 0.058898665
-0.32473031 -0.31847519 0.058824003
-0.32494855 -0.31845102 0.059017807
-0.325169 -0.31846017 0.058967132
-0.32537839 -0.31846493 0.058947638
-0.32559654 -0.31847295 0.058905043
-0.32580557 -0.31847772 0.058885563
-0.32602277 -0.31848541 0.058845274
-0.32623771 -0.31849417 0.058796927
-0.32643166 -0.31848732 0.058861703
-0.32664153 -0.31849304 0.05883529
-0.32685104 -0.31849626 0.058827341
-0.32706213 -0.31850058 0.058811296
-0.32728595 -0.31851336 0.058734082
-0.32749307 -0.31851777 0.058716908
-0.32770094 -0.31852037 0.05871357
-0.32789654 -0.3185173 0.058750656
-0.32812414 -0.31853324 0.058650356
-0.32833248 -0.31853896 0.058623962
-0.32852563 -0.31854197 0.058616079
-0.32870421 -0.31853765 0.058661327
-0.32889637 -0.31853503 0.05869497
-0.3291077 -0.31853542 0.058707759
-0.32934293 -0.31853971 0.058693908
-0.32956913 -0.31855595 0.058591306
-0.32977539 -0.31855834 0.058589138
-0.32998919 -0.31856883 0.058528103
-0.33019364 -0.31857008 0.058534011
-0.33039269 -0.3185702 0.058548018
-0.33059913 -0.31857306 0.058542382
-0.33080018 -0.31857476 0.058544848
-0.33101219 -0.31858194 0.058508046
-0.33121237 -0.31858316 0.058513977
-0.33141094 -0.31858876 0.058487628
-0.33162698 -0.31859657 0.058446195
-0.33184135 -0.31860331 0.058412842
-0.33203977 -0.31860355 0.058425706
-0.3322466 -0.31860751 0.058411989
-0.33245039 -0.31861207 0.05839368
-0.33266827 -0.31862494 0.058315337
-0.33286446 -0.31862378 0.058338583
-0.33306751 -0.31862518 0.058343347
-0.33327231 -0.31863102 0.05831581
-0.33347848 -0.31863514 0.05830095
-0.3336775 -0.31863651 0.058305733
-0.33388978 -0.31864586 0.058252782
-0.33409229 -0.31864727 0.05825755
-0.33429784 -0.31865436 0.058220781
-0.33447939 -0.31865364 0.058239482
-0.33466548 -0.31866303 0.058184367
-0.33490628 -0.3186633 0.058200464
-0.33511433 -0.31866995 0.058167152
-0.33531508 -0.31867352 0.058155775
-0.33552116 -0.31867874 0.05813285
-0.3357147 -0.31867611 0.058166485
-0.33592659 -0.31868672 0.05810431
-0.33612648 -0.31869 0.058095258
-0.33632925 -0.31869265 0.058090787
-0.33652306 -0.31869054 0.058120962
-0.33673441 -0.3187013 0.058057643
-0.33693454 -0.31870517 0.058043968
-0.33714023 -0.31871101 0.058016427
-0.33734345 -0.31871808 0.057979673
-0.33754453 -0.31871977 0.057982136
-0.33774516 -0.31872463 0.057961535
-0.33794606 -0.31872633 0.057963997
-0.3381474 -0.31873211 0.057936478
-0.33834338 -0.31872904 0.057973567
-0.33854768 -0.31873801 0.057922967
-0.33874699 -0.31874582 0.057880461
-0.33892715 -0.31874526 0.05789803
-0.33912939 -0.31875262 0.05785897
-0.33928972 -0.31874651 0.057915829
-0.33952886 -0.3187626 0.057815477
-0.339753 -0.31876299 0.057829354
-0.33995712 -0.31877303 0.057770684
-0.34015998 -0.31878197 0.057720099
-0.34035629 -0.31877986 0.057750262
-0.34055364 -0.31878296 0.057742357
-0.34075567 -0.31878734 0.057725221
-0.34093943 -0.31877506 0.057829246
-0.34114152 -0.31877959 0.057810944
-0.34135443 -0.31879696 0.057699192
-0.34154651 -0.31879857 0.057701699
-0.34175205 -0.31880346 0.057681073
-0.34195173 -0.31880575 0.057678927
-0.34214202 -0.31881866 0.057598416
-0.34232241 -0.31882405 0.057572156
-0.34254634 -0.3188166 0.057643697
-0.34274137 -0.31881338 0.05768194
-0.34294462 -0.3188253 0.057609431
-0.34315461 -0.3188417 0.057504609
-0.34334895 -0.31884253 0.057512872
-0.34354365 -0.31883916 0.057552271
-0.34374622 -0.31885123 0.057478614
-0.34394571 -0.31885448 0.057469554
-0.34411156 -0.31885096 0.05750794
-0.34430218 -0.31885192 0.05751507
-0.34453416 -0.31886086 0.057466641
-0.34467643 -0.3188439 0.057602011
-0.34487981 -0.31887934 0.057356533
-0.34511223 -0.31887385 0.057414189
-0.34533012 -0.31887874 0.057394661
-0.34551713 -0.31888029 0.057397194
-0.34572595 -0.31888804 0.057355795
-0.34592143 -0.31888622 0.057383664
-0.34609148 -0.3188895 0.057372443
-0.34631735 -0.31889647 0.057337876
-0.34648371 -0.31888792 0.057413161
-0.3466886 -0.318914 0.057236861
-0.34690985 -0.31891388 0.057254218
-0.34710938 -0.31891948 0.057227857
-0.34730691 -0.31892177 0.05722573
-0.34750625 -0.31892741 0.057199366
-0.34767437 -0.31892827 0.057205461
-0.34786722 -0.31892878 0.057216041
-0.34807327 -0.31894091 0.057142369
-0.34828123 -0.31894332 0.057140183
-0.34846807 -0.31895334 0.057080448
-0.34866631 -0.3189365 0.057218995
-0.34881014 -0.3189244 0.057318613
-0.34903342 -0.31895131 0.057137609
-0.34925103 -0.31896731 0.057036206
-0.34946164 -0.31896865 0.057042081
-0.34964216 -0.31896636 0.057072319
-0.34980819 -0.3189716 0.05704613
-0.35004058 -0.31897414 0.057044975
-0.3502571 -0.31898132 0.057008155
-0.35044086 -0.31898707 0.056979567
-0.35061085 -0.31898531 0.057005249
-0.35079104 -0.31899133 0.056974381
-0.35100222 -0.31899503 0.056962956
-0.35121843 -0.3189933 0.056991864
-0.35140735 -0.31900445 0.056924045
-0.35160673 -0.31900552 0.056931134
-0.35180953 -0.31900629 0.056940507
-0.35201228 -0.31901759 0.056872617
-0.35220185 -0.31902167 0.056856688
-0.35239524 -0.31902692 0.056832664
-0.35260913 -0.31902969 0.056828141
-0.35280299 -0.31903714 0.056787971
-0.35299829 -0.31903735 0.05680085
-0.35317844 -0.31903413 0.056838013
-0.35338452 -0.31904829 0.056749351
-0.35356754 -0.31904241 0.056806102
-0.35377046 -0.31904495 0.056802783
-0.35394457 -0.31904572 0.056809995
-0.3541261 -0.31904799 0.056806795
-0.35436395 -0.31906486 0.05670068
-0.3545309 -0.31906602 0.056704458
-0.35469541 -0.31907299 0.056665588
-0.35490167 -0.31907633 0.056656495
-0.35511589 -0.31908458 0.056611609
-0.35531366 -0.31908029 0.056657918
-0.35551572 -0.31907982 0.056676518
-0.35571963 -0.31909192 0.056602858
-0.35590026 -0.31909105 0.056622721
-0.35608912 -0.31909859 0.056581426
-0.35629809 -0.31909725 0.056606911
-0.35649046 -0.31910622 0.056555219
-0.3566826 -0.31911427 0.056510448
-0.35686681 -0.31911406 0.056525677
-0.35704425 -0.3191174 0.056514423
-0.35724667 -0.31912383 0.056482289
-0.35744882 -0.31912774 0.056468599
-0.35764018 -0.31912887 0.056474566
-0.35782829 -0.31913829 0.056419432
-0.35803717 -0.31913456 0.056462228
-0.35823214 -0.31914124 0.056427822
-0.35841286 -0.31914726 0.056396939
-0.35860413 -0.31915185 0.056377545
-0.35880598 -0.3191531 0.056383461
-0.35901481 -0.31916147 0.056337453
-0.35921666 -0.3191613 0.056353748
-0.35938999 -0.31916648 0.056328669
-0.35956356 -0.319166 0.056345109
-0.35976133 -0.31917632 0.056284159
-0.35995165 -0.31918934 0.056202501
-0.36012882 -0.31918672 0.056235064
-0.36032081 -0.31917781 0.056314841
-0.36051822 -0.31918794 0.056255046
-0.36071119 -0.31920511 0.056143388
-0.36090237 -0.31920466 0.056160893
-0.36110067 -0.31920412 0.056179512
-0.36128822 -0.31920508 0.056186661
-0.36149195 -0.3192167 0.056116458
-0.36169037 -0.31921569 0.056138538
-0.36187807 -0.31921569 0.056152597
-0.36206192 -0.31921768 0.056151688
-0.36227372 -0.31922185 0.056136802
-0.36245942 -0.31923234 0.056073613
-0.36265007 -0.31923535 0.056065742
-0.36283451 -0.31923419 0.056087896
-0.36303967 -0.31923562 0.05609265
-0.36322582 -0.31924284 0.056053668
-0.36342335 -0.31924653 0.056041155
-0.36361074 -0.31924808 0.056043684
-0.36379877 -0.31926095 0.055963188
-0.36398521 -0.31926578 0.055941503
-0.36418194 -0.31927168 0.055912852
-0.36438107 -0.31926915 0.055946462
-0.36457959 -0.31928068 0.055876296
-0.36476934 -0.31927443 0.055936474
-0.3649565 -0.31927678 0.055933237
-0.36514202 -0.31928396 0.055894259
-0.36533499 -0.31928998 0.055864479
-0.36552095 -0.31929544 0.05583819
-0.36571744 -0.3193109 0.05573919
-0.36591414 -0.31930614 0.05578896
-0.36610022 -0.31931096 0.055767279
-0.36629578 -0.31930962 0.05579168
-0.3664943 -0.31930989 0.055804543
-0.3666746 -0.31931153 0.055805944
-0.36687613 -0.31931341 0.055807259
-0.36706036 -0.31932247 0.055754453
-0.36725876 -0.31933135 0.055703886
-0.36745209 -0.31933549 0.055687938
-0.36764556 -0.31933931 0.055674288
-0.36785555 -0.31933811 0.055698618
-0.3680414 -0.31935048 0.055621587
-0.36823699 -0.3193498 0.055641379
-0.36841372 -0.31935859 0.055589769
-0.36861622 -0.31935844 0.05560606
-0.36880159 -0.31936404 0.055578612
-0.36898598 -0.31935805 0.055636518
-0.36917549 -0.31936261 0.055617131
-0.36938041 -0.31937784 0.055520397
-0.36956394 -0.31938016 0.055517178
-0.36973482 -0.3193922 0.05544138
-0.36995545 -0.31938565 0.055506017
-0.37014276 -0.31938767 0.055505089
-0.37032568 -0.31939703 0.055449981
-0.37051985 -0.31939363 0.05548938
-0.37070492 -0.31939942 0.055460788
-0.37089878 -0.31940246 0.055452913
-0.37109745 -0.31940913 0.055418488
-0.37128362 -0.31940755 0.055444092
-0.37147477 -0.31941479 0.055405084
-0.37166107 -0.31941855 0.055391476
-0.37185472 -0.3194167 0.055419344
-0.37204546 -0.31941926 0.055414941
-0.37223813 -0.31942934 0.05535518
-0.37241936 -0.31944025 0.055288546
-0.37261471 -0.31944126 0.055295654
-0.37280089 -0.31944516 0.055280887
-0.37299287 -0.31945571 0.055217672
-0.37318674 -0.31945875 0.055209786
-0.37338233 -0.31945962 0.055218041
-0.37356797 -0.31945488 0.055266716
-0.37377229 -0.31945848 0.055255324
-0.37395439 -0.31947222 0.055167936
-0.3741577 -0.31947255 0.055180766
-0.37434131 -0.3194797 0.055141803
-0.37451988 -0.31948856 0.055090174
-0.37472072 -0.31948334 0.055143382
-0.37491354 -0.3194837 0.055155113
-0.37509283 -0.31949586 0.055079263
-0.37528336 -0.3195031 0.05504027
-0.37548685 -0.31950358 0.055051945
-0.37568089 -0.31950268 0.055072896
-0.37586433 -0.31950983 0.055033926
-0.37606364 -0.31950322 0.055097517
-0.37625563 -0.31950891 0.05507005
-0.37643886 -0.31952408 0.054972272
-0.37663317 -0.31952712 0.054964386
-0.37681231 -0.31953487 0.054920837
-0.3770076 -0.31952929 0.054976374
-0.37720707 -0.31953081 0.054979995
-0.3773936 -0.31954208 0.054911036
-0.37758556 -0.31954402 0.054911233
-0.37776372 -0.31955269 0.054860767
-0.377967 -0.31954688 0.054918572
-0.37816423 -0.3195509 0.054903764
-0.37835696 -0.31955582 0.05488205
-0.37853923 -0.3195639 0.054836169
-0.37873393 -0.31957385 0.054777548
-0.3789221 -0.31957275 0.054799683
-0.37910971 -0.31957573 0.054791827
-0.3793022 -0.31957749 0.054793183
-0.37948683 -0.31959 0.054715008
-0.37966093 -0.3196021 0.054639183
-0.37985653 -0.31959778 0.054685503
-0.38006634 -0.31958735 0.054777868
-0.38027894 -0.31957787 0.054863304
-0.38047019 -0.31958762 0.054805856
-0.38063246 -0.31961325 0.054629758
-0.38082173 -0.31961498 0.054631129
-0.38102561 -0.31961042 0.054679707
-0.38122454 -0.31961337 0.054672956
-0.38140169 -0.31962565 0.05459597
-0.38159409 -0.31962192 0.054637682
-0.38179821 -0.31962067 0.054662041
-0.38198274 -0.31963271 0.054587327
-0.38216001 -0.31964466 0.054512642
-0.38235566 -0.31964162 0.054549735
-0.38254666 -0.31964242 0.054558016
-0.38275033 -0.31964478 0.054555852
-0.38294575 -0.319648 0.054546807
-0.38312641 -0.31966001 0.054472111
-0.38331392 -0.3196694 0.054416981
-0.38350719 -0.31966585 0.054457542
-0.38371006 -0.31966066 0.054510731
-0.38387847 -0.31967911 0.054387655
-0.38408637 -0.31967854 0.054407388
-0.38426912 -0.31968603 0.054366127
-0.38445657 -0.31968725 0.054370962
-0.384662 -0.31968337 0.054414917
-0.38486382 -0.3196876 0.054398924
-0.38505474 -0.31969187 0.05438184
-0.38523793 -0.31970435 0.054303661
-0.3854118 -0.3197208 0.054195553
-0.38561544 -0.31971598 0.054246441
-0.38583514 -0.31970251 0.054361828
-0.3860302 -0.31970915 0.054327421
-0.38621449 -0.31971571 0.054293063
-0.38639385 -0.31972817 0.054214913
-0.38660753 -0.31971949 0.054294579
-0.38679114 -0.31973404 0.054201417
-0.38697085 -0.31974366 0.054144014
-0.38716206 -0.31974307 0.054162677
-0.38735208 -0.31974825 0.054138668
-0.38756898 -0.31974778 0.054158349
-0.38776618 -0.31975555 0.054115865
-0.38795924 -0.31975403 0.054141425
-0.38815483 -0.31976292 0.054090872
-0.38832322 -0.31977507 0.054013923
-0.38851532 -0.31976962 0.054068327
-0.38873151 -0.31976539 0.054115694
-0.3889133 -0.31978303 0.053999472
-0.38908577 -0.31979024 0.053959407
-0.38930118 -0.31977752 0.054069046
-0.38950425 -0.31977955 0.054069191
-0.38970053 -0.3197881 0.054020949
-0.38987049 -0.31979921 0.053952068
-0.3900668 -0.31980321 0.053937256
-0.39027867 -0.31979561 0.05400886
-0.39048129 -0.31980708 0.053939816
-0.39065588 -0.31982198 0.053843237
-0.39085135 -0.31982222 0.053856105
-0.39106026 -0.31981897 0.053895433
-0.3912569 -0.31982738 0.053848334
-0.39145502 -0.31983063 0.053839277
-0.39162916 -0.31983706 0.053804971
-0.39181876 -0.31983677 0.053821333
-0.39204165 -0.31983447 0.053854827
-0.39223635 -0.31984413 0.0537985
-0.39240485 -0.31985173 0.053755008
-0.39261365 -0.31985134 0.053773575
-0.39280045 -0.31985915 0.053729981
-0.39301798 -0.31986025 0.053738125
-0.39320731 -0.31986263 0.053734887
-0.39340207 -0.31986818 0.05370855
-0.39358956 -0.31987774 0.053652268
-0.39376748 -0.31988436 0.053616792
-0.39397496 -0.31988114 0.053656127
-0.3941609 -0.31988755 0.053622913
-0.39437202 -0.31988654 0.053646088
-0.39455724 -0.31989339 0.05360942
-0.39474908 -0.31990269 0.053555425
-0.39494723 -0.31990281 0.053569429
-0.39514017 -0.3199096 0.053533882
-0.39532134 -0.31991279 0.053523757
-0.39555037 -0.31991073 0.053556062
-0.39572558 -0.31992096 0.053494077
-0.39593932 -0.31991917 0.053523004
-0.39612195 -0.31992948 0.053460982
-0.39633077 -0.31992844 0.053484168
-0.39652446 -0.31993696 0.053435925
-0.39671701 -0.31993669 0.053452272
-0.39692008 -0.31994063 0.053438574
-0.39711243 -0.31994805 0.053398415
-0.39729747 -0.3199535 0.05337213
-0.39749646 -0.31995767 0.053356156
-0.39768627 -0.31996271 0.053333305
-0.39788687 -0.31995893 0.053376131
-0.39809605 -0.31996387 0.053355489
-0.3983027 -0.31996641 0.053352162
-0.39849517 -0.31997398 0.053310849
-0.39868736 -0.31997812 0.053294905
-0.3988837 -0.31998211 0.053280093
-0.39907336 -0.31999108 0.053228408
-0.39928967 -0.3199876 0.053270008
-0.39949113 -0.31999293 0.053245947
-0.3996872 -0.31999725 0.053228833
-0.39987439 -0.32000744 0.053167939
-0.40007329 -0.32001051 0.053160038
-0.40024123 -0.32002425 0.053071558
-0.40043348 -0.32002696 0.053065993
-0.40066499 -0.32001898 0.053142108
-0.40087706 -0.32001641 0.053176817
-0.40106636 -0.32002237 0.053147044
-0.40127385 -0.32002541 0.053140253
-0.40144578 -0.32004249 0.053027537
-0.40163004 -0.32004902 0.052993178
-0.40189016 -0.32002753 0.05317064
-0.40206966 -0.32004797 0.053033672
-0.40227759 -0.32005274 0.053014193
-0.40242612 -0.32007316 0.052875072
-0.40267557 -0.32006347 0.052964941
-0.40285933 -0.3200672 0.052951347
-0.40307981 -0.3200652 0.052982543
-0.40327996 -0.3200686 0.052972328
-0.40348741 -0.32007226 0.052960917
-0.40365443 -0.32008803 0.052857462
-0.40386561 -0.3200886 0.052869104
-0.40405777 -0.32009712 0.052820869
-0.40428939 -0.32009256 0.052871618
-0.40446076 -0.32010493 0.052793499
-0.40470663 -0.32009158 0.052909911
-0.40490559 -0.3200928 0.052915841
-0.40511566 -0.32009429 0.052920572
-0.40530014 -0.32010931 0.052823938
-0.40549666 -0.32012099 0.052752621
-0.40570059 -0.32012352 0.052749306
-0.40592167 -0.32011777 0.052808173
-0.40609828 -0.32012972 0.052733496
-0.40629444 -0.32013702 0.052694477
-0.406497 -0.3201403 0.052685399
-0.40669012 -0.32014427 0.052670598
-0.40691555 -0.32014641 0.05267179
-0.40713102 -0.32015547 0.052621141
-0.40732837 -0.32015949 0.052606322
-0.40750912 -0.32016239 0.05259851
-0.40770689 -0.32016486 0.052595224
-0.40791142 -0.32016629 0.05259997
-0.40810829 -0.32017517 0.052549414
-0.40831611 -0.32017991 0.052529935
-0.40852803 -0.32017875 0.052554257
-0.40871766 -0.32018897 0.052493349
-0.40894395 -0.32019141 0.052492224
-0.40913823 -0.32019556 0.052476272
-0.40935472 -0.32020324 0.052435994
-0.4095726 -0.32020608 0.052431449
-0.40977252 -0.32020542 0.052451223
-0.40996125 -0.32020745 0.052450288
-0.41016912 -0.32021269 0.052427344
-0.41037759 -0.32021776 0.052405555
-0.41058254 -0.32021701 0.05242645
-0.41078925 -0.32022569 0.052378144
-0.41099507 -0.32022759 0.052379437
-0.41120368 -0.32023141 0.052366871
-0.41139653 -0.32023945 0.05232209
-0.4116106 -0.32023865 0.052344091
-0.30417731 -0.31799856 0.060793959
-0.3044154 -0.31800506 0.060763948
-0.30465025 -0.31801197 0.060730502
-0.30490381 -0.31802475 0.06065546
-0.30512649 -0.31802717 0.060654357
-0.3053388 -0.31802398 0.060693648
-0.30557501 -0.3180303 0.060664803
-0.30578905 -0.31802791 0.060698323
-0.30607033 -0.31805402 0.060527455
-0.30626613 -0.31804454 0.060611792
-0.30650875 -0.31805548 0.060549483
-0.30672994 -0.31805629 0.060559914
-0.30695814 -0.31806001 0.060549557
-0.30719987 -0.3180694 0.060498782
-0.30740181 -0.31806421 0.060551956
-0.30762932 -0.31806791 0.0605416
-0.30788076 -0.31808162 0.060459659
-0.30811042 -0.31808645 0.060441215
-0.30833727 -0.3180919 0.060418181
-0.30854639 -0.31808835 0.060459796
-0.30877668 -0.31809539 0.060425222
-0.3089844 -0.31809136 0.060470302
-0.30923685 -0.31810635 0.060379125
-0.30945221 -0.3181057 0.060399953
-0.30969498 -0.31811851 0.06032382
-0.30992302 -0.31812349 0.060304232
-0.31012627 -0.31811959 0.060348187
-0.3103565 -0.31812567 0.060320526
-0.31057873 -0.31812841 0.060317114
-0.3108055 -0.31813321 0.060298696
-0.31103939 -0.31814295 0.060244501
-0.31128061 -0.31815434 0.060178738
-0.31150147 -0.3181569 0.060176481
-0.31171349 -0.31815559 0.060201943
-0.31193182 -0.31815889 0.060193941
-0.31214571 -0.31815854 0.060212474
-0.31238219 -0.31817019 0.060144432
-0.31259891 -0.31817129 0.060152583
-0.31282955 -0.3181788 0.060114544
-0.31303924 -0.31817684 0.060144626
-0.31328115 -0.31819153 0.060054652
-0.31349012 -0.31818941 0.060085893
-0.31371525 -0.31819484 0.06006287
-0.31393397 -0.31819734 0.060060628
-0.31416497 -0.31820753 0.06000299
-0.31438357 -0.31821021 0.0599996
-0.31459871 -0.31821316 0.059993915
-0.31481123 -0.31821314 0.060010146
-0.31503275 -0.31821927 0.059981376
-0.31527036 -0.31823143 0.059909876
-0.3154783 -0.31822944 0.059939962
-0.31570244 -0.31823719 0.059899658
-0.31593087 -0.31824532 0.059857018
-0.31613609 -0.3182441 0.059881359
-0.31635657 -0.31824851 0.059865274
-0.31659204 -0.31826237 0.059781097
-0.31680101 -0.31826133 0.059804268
-0.31702369 -0.3182672 0.059777796
-0.31723657 -0.31826824 0.059785962
-0.31745178 -0.31827244 0.059771053
-0.31767476 -0.31827879 0.059741125
-0.31789112 -0.3182838 0.059720457
-0.31812179 -0.31829429 0.059660509
-0.31833968 -0.31829837 0.059646741
-0.31857067 -0.31830934 0.059583336
-0.3187753 -0.31830874 0.059603076
-0.31898186 -0.31830722 0.059629709
-0.31919485 -0.3183111 0.059617128
-0.31941092 -0.31831467 0.059606828
-0.31961292 -0.31831092 0.059649635
-0.31985027 -0.31832603 0.059556227
-0.32005623 -0.31832653 0.059567884
-0.32027602 -0.31833252 0.059540272
-0.32049912 -0.31834042 0.059498813
-0.32071084 -0.31834224 0.059501216
-0.32091588 -0.3183426 0.059514023
-0.32113314 -0.3183476 0.059493355
-0.32135639 -0.31835818 0.059432298
-0.32156342 -0.31835777 0.059450865
-0.32178235 -0.31836405 0.059420951
-0.32201207 -0.31837657 0.059346028
-0.32220551 -0.31837082 0.059402701
-0.32240573 -0.31837752 0.059368275
-0.32264328 -0.3183842 0.059337117
-0.3228581 -0.3183887 0.059319913
-0.32306448 -0.31839064 0.059321195
-0.3232781 -0.31839466 0.059307449
-0.32348695 -0.318396 0.05931332
-0.32370055 -0.31840017 0.059298426
-0.32389346 -0.31840557 0.059273262
-0.32412741 -0.31841093 0.059251342
-0.32434285 -0.31841654 0.059226062
-0.32454622 -0.31841499 0.059252724
-0.32476458 -0.31842488 0.059196293
-0.32498235 -0.31843224 0.059158318
-0.32517859 -0.31843343 0.059164263
-0.32540756 -0.31844109 0.059125081
-0.3256211 -0.31844622 0.059103265
-0.32584766 -0.31845966 0.059021439
-0.32604402 -0.31845662 0.059058499
-0.3262437 -0.31845328 0.059097864
-0.32645357 -0.3184565 0.059089899
-0.32666725 -0.31846225 0.059063479
-0.32687131 -0.31846431 0.05906361
-0.3270866 -0.31847134 0.059027955
-0.32730263 -0.31847903 0.058987681
-0.32751822 -0.31848654 0.058948569
-0.32772878 -0.31849086 0.058932535
-0.32793108 -0.31848976 0.058955733
-0.32812291 -0.31848413 0.059011277
-0.32834959 -0.31849962 0.05891446
-0.32855979 -0.3185041 0.058897272
-0.32875845 -0.31850076 0.058936633
-0.32896948 -0.31850851 0.058895238
-0.32919362 -0.31852302 0.058805346
-0.32939929 -0.31852478 0.05880779
-0.3296057 -0.31852716 0.0588056
-0.32981113 -0.31852892 0.058808044
-0.33002535 -0.31853706 0.05876432
-0.33023846 -0.31854719 0.058705617
-0.33044517 -0.31855023 0.058698818
-0.33064982 -0.31855181 0.058702417
-0.3308574 -0.31855562 0.058689859
-0.33105016 -0.31855127 0.058736168
-0.33126348 -0.31855956 0.0586913
-0.33147913 -0.31856972 0.058632575
-0.33167878 -0.31856796 0.058660414
-0.33188426 -0.31857347 0.058635172
-0.33208978 -0.31857634 0.058629539
-0.33230358 -0.31858572 0.058576602
-0.33251002 -0.31858951 0.058564048
-0.33271161 -0.31859249 0.058557272
-0.33291578 -0.31859469 0.058556266
-0.33311969 -0.31859675 0.058556397
-0.33332682 -0.31860149 0.058536924
-0.33353928 -0.3186107 0.058485143
-0.33374238 -0.31861243 0.058487587
-0.3339473 -0.31861871 0.0584566
-0.33415285 -0.31862268 0.058442891
-0.33436367 -0.31863421 0.058373827
-0.3345629 -0.31863308 0.058397047
-0.33476508 -0.31863448 0.058401808
-0.33496755 -0.31863621 0.058404256
-0.33516699 -0.3186385 0.05840211
-0.33537364 -0.31864405 0.058376871
-0.33557037 -0.31864414 0.058390882
-0.33578885 -0.31866047 0.058287188
-0.33598059 -0.31866285 0.058283929
-0.33618906 -0.31866071 0.058315173
-0.33639166 -0.31866652 0.058287647
-0.3365978 -0.31867236 0.058260113
-0.33679429 -0.31867275 0.05827181
-0.33700487 -0.31868303 0.058211964
-0.33720332 -0.31868204 0.05823404
-0.33740345 -0.31868264 0.058244579
-0.33761212 -0.3186951 0.058168594
-0.33781284 -0.3186965 0.058173358
-0.33801559 -0.31870356 0.058136616
-0.33821881 -0.31870764 0.058121771
-0.33841357 -0.31870332 0.058168072
-0.33862615 -0.31871706 0.058082856
-0.33882567 -0.31872141 0.05806572
-0.33902887 -0.31872597 0.058047414
-0.3392292 -0.31873143 0.058022216
-0.3394275 -0.31873107 0.058039676
-0.33961901 -0.31872734 0.058081377
-0.33982816 -0.3187387 0.058013469
-0.34003544 -0.31874833 0.057958253
-0.34023017 -0.3187443 0.058002245
-0.34043166 -0.31875181 0.057962053
-0.34062725 -0.31876099 0.057909191
-0.34083053 -0.31875867 0.057941619
-0.34103042 -0.31876066 0.057941779
-0.34123257 -0.3187696 0.057891198
-0.34143788 -0.31877825 0.057842907
-0.34162849 -0.31877387 0.057889231
-0.34183642 -0.31878603 0.057815559
-0.34200189 -0.31879485 0.057762865
-0.34223437 -0.31878906 0.057822809
-0.34241906 -0.31879529 0.05779076
-0.34263197 -0.31880105 0.05776434
-0.34282634 -0.31879705 0.057808336
-0.34302089 -0.31880715 0.057748564
-0.34323007 -0.31880847 0.05775445
-0.34343055 -0.31881738 0.057703871
-0.34362543 -0.31881416 0.057742096
-0.34382638 -0.31881917 0.057720356
-0.34402335 -0.31882381 0.057700921
-0.34422475 -0.31882975 0.057672262
-0.3444238 -0.31883255 0.057666659
-0.34462449 -0.31883785 0.057642598
-0.34482139 -0.31884295 0.057619717
-0.34501877 -0.31884369 0.057629105
-0.34521016 -0.31885156 0.0575855
-0.3454133 -0.31885031 0.057609852
-0.34561142 -0.31885794 0.057568513
-0.34581223 -0.31886435 0.057536386
-0.34601325 -0.31887138 0.057499655
-0.3461985 -0.31886461 0.05756329
-0.34640279 -0.31887138 0.057528839
-0.34660918 -0.31888789 0.057422906
-0.34679672 -0.31887892 0.057502672
-0.3469975 -0.31888643 0.057462484
-0.34717929 -0.31889218 0.057433903
-0.3473945 -0.31889403 0.057436291
-0.34758905 -0.3188974 0.057426102
-0.34778637 -0.31889936 0.057426278
-0.34798279 -0.31890652 0.057388406
-0.34818235 -0.31891307 0.057355136
-0.34837952 -0.31891522 0.057354152
-0.34855399 -0.31891474 0.057370573
-0.34876704 -0.31892034 0.057345305
-0.34897017 -0.31892771 0.057306252
-0.34916463 -0.31893218 0.057287991
-0.3493613 -0.31893384 0.057290476
-0.34955767 -0.31893486 0.057297572
-0.3497459 -0.31894177 0.057260886
-0.34993002 -0.31894767 0.057231158
-0.35011724 -0.31895268 0.057208322
-0.35032448 -0.31895477 0.057208437
-0.35052562 -0.31895944 0.057188995
-0.35072058 -0.31896675 0.057149976
-0.3509112 -0.31897226 0.057123668
-0.35112613 -0.31896704 0.057177939
-0.35132366 -0.31897232 0.057153895
-0.3515102 -0.31897703 0.057133369
-0.35168484 -0.31898862 0.05706102
-0.35188195 -0.31898308 0.057116538
-0.35207358 -0.318993 0.057057939
-0.35225055 -0.31900212 0.057004027
-0.35246935 -0.31899759 0.057053663
-0.35268188 -0.31900758 0.056996115
-0.35287833 -0.3190116 0.05698131
-0.35305923 -0.31901103 0.056998853
-0.3532598 -0.31901744 0.056966729
-0.35347247 -0.31901631 0.056991033
-0.35366508 -0.31901994 0.056978546
-0.35385367 -0.31902167 0.056979913
-0.35401276 -0.31901887 0.057012554
-0.35422936 -0.31903517 0.056908868
-0.35440978 -0.31903258 0.056941405
-0.35461634 -0.31905395 0.056799728
-0.35481206 -0.31905779 0.056786075
-0.35502067 -0.31905472 0.056824237
-0.35522273 -0.31905422 0.056842826
-0.35540575 -0.31906751 0.056758914
-0.3555865 -0.31906742 0.056772999
-0.35580683 -0.31907123 0.056761529
-0.35600287 -0.31907946 0.056715593
-0.35620174 -0.31908286 0.056705385
-0.35638231 -0.31908152 0.056728698
-0.35657793 -0.31908834 0.056693137
-0.3567836 -0.3190898 0.056697875
-0.35697913 -0.31909755 0.056655403
-0.3571775 -0.31909671 0.056676321
-0.35736915 -0.31910178 0.056653462
-0.35757124 -0.31910428 0.056650147
-0.35775223 -0.31911096 0.056614667
-0.35792971 -0.31912041 0.056558445
-0.35813141 -0.31911331 0.056625463
-0.35832995 -0.31912127 0.05658181
-0.35848579 -0.31911576 0.056634068
-0.35868427 -0.31910756 0.056709178
-0.35888612 -0.31912792 0.056574438
-0.35907382 -0.31913137 0.056563124
-0.35926819 -0.31914586 0.05647108
-0.35948437 -0.3191424 0.056512661
-0.35966489 -0.31914499 0.056507159
-0.35984904 -0.31914636 0.056510855
-0.36005712 -0.31915927 0.056431416
-0.36024091 -0.31916377 0.056412056
-0.36043555 -0.31916511 0.056416862
-0.36062634 -0.31916967 0.056397464
-0.36081743 -0.3191711 0.056401126
-0.36101881 -0.31917548 0.056383979
-0.36121011 -0.31917536 0.056399167
-0.3614035 -0.31918576 0.056337111
-0.36159787 -0.3191888 0.056329221
-0.36179352 -0.31918356 0.056382436
-0.36198682 -0.31919304 0.056327287
-0.36218765 -0.31919912 0.05629747
-0.36238074 -0.31920844 0.056243472
-0.36257327 -0.31920221 0.056303617
-0.36276647 -0.31921026 0.056258854
-0.36296386 -0.31921506 0.056238268
-0.36316079 -0.31922159 0.056205012
-0.36334008 -0.31922746 0.056175295
-0.3635416 -0.31922916 0.05617775
-0.36373541 -0.3192333 0.056161799
-0.36393231 -0.31923902 0.056134306
-0.36412108 -0.31923559 0.056173712
-0.3643181 -0.31924087 0.05614968
-0.36450851 -0.31924433 0.056138363
-0.36470738 -0.31925479 0.05607627
-0.36490574 -0.3192552 0.056087963
-0.3651042 -0.31926632 0.056021266
-0.36529639 -0.31926399 0.056052588
-0.36548981 -0.31926858 0.056033179
-0.36568299 -0.31927383 0.056009155
-0.36587045 -0.31927523 0.056012835
-0.36606482 -0.31927717 0.056013025
-0.36625683 -0.31928521 0.055968255
-0.36645558 -0.31928501 0.055984564
-0.36663964 -0.31929484 0.055926003
-0.36683968 -0.31930014 0.055901956
-0.36704025 -0.31930405 0.055888269
-0.36724892 -0.31930569 0.055891849
-0.36743814 -0.31931117 0.055865545
-0.36762637 -0.31931102 0.055880744
-0.36781183 -0.31932449 0.05579567
-0.36801094 -0.31932381 0.055815421
-0.36819407 -0.31931967 0.055859484
-0.3683877 -0.31933039 0.055795107
-0.36859086 -0.31933606 0.055768736
-0.36877102 -0.31934491 0.055717111
-0.36897475 -0.31933582 0.055799112
-0.36916849 -0.31934577 0.055740502
-0.36938316 -0.31934321 0.055775173
-0.36957791 -0.31935114 0.055731542
-0.36975577 -0.31936356 0.055653419
-0.36994576 -0.31936702 0.055642094
-0.37013841 -0.31936598 0.055664197
-0.37033355 -0.3193728 0.055628642
-0.37052783 -0.31936926 0.055669177
-0.37071049 -0.31937328 0.055653282
-0.3709144 -0.31937736 0.055638433
-0.37110555 -0.31937364 0.055680133
-0.37128711 -0.31939033 0.055570867
-0.37148827 -0.31939316 0.055565257
-0.37167472 -0.3193914 0.055592
-0.37188289 -0.31939977 0.055545993
-0.37207788 -0.31941161 0.055473544
-0.37226224 -0.31941298 0.055477239
-0.37246796 -0.31941441 0.055481981
-0.37265638 -0.31942022 0.055453382
-0.37285647 -0.31941971 0.055471983
-0.3730492 -0.31942448 0.05545143
-0.37323594 -0.31943247 0.055406686
-0.37342829 -0.31942827 0.05545184
-0.37362373 -0.3194249 0.055491224
-0.37383136 -0.31942904 0.055476356
-0.3740086 -0.31945354 0.055309463
-0.37418815 -0.31946567 0.055233631
-0.37437236 -0.31946751 0.055233866
-0.37456927 -0.31946698 0.055252492
-0.37478068 -0.31946629 0.055273339
-0.37498489 -0.31946582 0.055291921
-0.37517661 -0.31946757 0.055293281
-0.3753646 -0.31947371 0.055262364
-0.37555939 -0.31948021 0.055229116
-0.37574965 -0.31948367 0.055217803
-0.37593132 -0.31948876 0.055193834
-0.3761209 -0.31949303 0.05517675
-0.37632096 -0.31948578 0.055244926
-0.37652954 -0.31947345 0.055351112
-0.37673312 -0.31947458 0.055358164
-0.37693602 -0.31948414 0.055302966
-0.3771123 -0.3194989 0.055207562
-0.37729669 -0.31951627 0.055093665
-0.37749326 -0.31951714 0.055101909
-0.37769654 -0.31951857 0.055106662
-0.37788203 -0.31952715 0.055057317
-0.37808126 -0.31952554 0.055083998
-0.37827426 -0.31953374 0.055038076
-0.3784636 -0.31953847 0.055017531
-0.37864828 -0.31954423 0.05498895
-0.37885168 -0.31953201 0.055093996
-0.37903914 -0.31954893 0.054983549
-0.37923414 -0.31954837 0.055002172
-0.37944937 -0.3195526 0.054987267
-0.3796396 -0.31956327 0.05492292
-0.37984264 -0.3195622 0.054946113
-0.38002717 -0.31957141 0.054892167
-0.38021222 -0.31957686 0.054865882
-0.38040066 -0.31958249 0.054838434
-0.38059616 -0.31958196 0.054857057
-0.38079709 -0.3195799 0.054887187
-0.38099137 -0.31958371 0.054873534
-0.38117322 -0.31959823 0.054780398
-0.38136712 -0.31960237 0.054764446
-0.38156655 -0.31960186 0.05478305
-0.38175267 -0.31960654 0.054762527
-0.38195565 -0.31960326 0.054801874
-0.3821688 -0.31960666 0.054792736
-0.38235784 -0.31961498 0.054745685
-0.38253209 -0.31962642 0.054674495
-0.3827292 -0.31963107 0.054655071
-0.38294283 -0.31962556 0.054711647
-0.38313156 -0.31963119 0.054684196
-0.3833082 -0.31964064 0.054627977
-0.38350791 -0.31964061 0.054643124
-0.38370365 -0.31964648 0.054614488
-0.38390267 -0.3196499 0.05460427
-0.38409659 -0.31965169 0.054605611
-0.3842864 -0.31965938 0.054563161
-0.38448864 -0.31966048 0.054570228
-0.38468137 -0.31966603 0.054543905
-0.38487598 -0.31966484 0.054567151
-0.3850722 -0.31967056 0.054539654
-0.38527524 -0.31967136 0.054549027
-0.38546047 -0.31968763 0.054443192
-0.38565165 -0.31969175 0.054427255
-0.38583925 -0.3196958 0.054411333
-0.38603404 -0.31969744 0.054413825
-0.38623783 -0.31969541 0.054443933
-0.3864378 -0.31969616 0.054453321
-0.38663089 -0.31970423 0.054408547
-0.3868196 -0.31972021 0.054305006
-0.38701341 -0.31972027 0.054319032
-0.38720345 -0.31972298 0.05431347
-0.38738605 -0.31973311 0.054252617
-0.38761213 -0.31971923 0.05437139
-0.38782412 -0.31972218 0.054365717
-0.38801566 -0.31972894 0.054330189
-0.38818187 -0.31974736 0.054207154
-0.38838261 -0.31975049 0.054199234
-0.3885777 -0.31975025 0.054215562
-0.38878664 -0.31974825 0.054245643
-0.38897514 -0.31975469 0.054212429
-0.38918659 -0.31975135 0.054252882
-0.38938776 -0.31976372 0.054176945
-0.38955936 -0.31977609 0.054098852
-0.38974074 -0.31978464 0.054049529
-0.38993058 -0.31978574 0.054055497
-0.3901304 -0.31978759 0.054056808
-0.39033791 -0.31978261 0.054108813
-0.39055735 -0.31977731 0.054164216
-0.39075968 -0.31977576 0.05419087
-0.39092785 -0.31979889 0.054033246
-0.39112845 -0.31980059 0.054035712
-0.39133584 -0.31980488 0.054019686
-0.39152387 -0.31980756 0.054014135
-0.39171255 -0.31981632 0.053963628
-0.39191926 -0.31981263 0.054006416
-0.392122 -0.31982186 0.053953521
-0.39231634 -0.31982115 0.05397331
-0.39251414 -0.31982484 0.053960796
-0.39269653 -0.31983516 0.053898782
-0.39289421 -0.31984106 0.05387013
-0.39310294 -0.31983674 0.053917512
-0.39329436 -0.31984615 0.053862385
-0.39347422 -0.31985173 0.053834967
-0.3936978 -0.31984976 0.053866137
-0.39387831 -0.31985909 0.053811051
-0.39405695 -0.31986335 0.053792875
-0.39428094 -0.31985542 0.05386785
-0.3944627 -0.31987011 0.05377356
-0.39466262 -0.31987119 0.053780638
-0.39486802 -0.31987733 0.053750798
-0.39505199 -0.31988683 0.053694542
-0.39525074 -0.31988868 0.053695858
-0.3954511 -0.31988975 0.053702936
-0.39565507 -0.31989291 0.053695001
-0.39585492 -0.31989819 0.053670954
-0.39606169 -0.31989619 0.053701047
-0.39623711 -0.31991205 0.053597569
-0.39644939 -0.31991121 0.053619571
-0.39664432 -0.31991348 0.053617448
-0.39684397 -0.31991911 0.053591095
-0.39703846 -0.31992355 0.05357283
-0.39725077 -0.31992117 0.053606361
-0.39742714 -0.31993091 0.053547848
-0.39763182 -0.31993422 0.053538755
-0.39780915 -0.319949 0.053443342
-0.39802679 -0.31994429 0.053494133
-0.39823207 -0.31994385 0.053512715
-0.39843139 -0.31995353 0.053456381
-0.39861673 -0.31996089 0.05341626
-0.39881024 -0.31996438 0.053404931
-0.39900875 -0.3199656 0.053410854
-0.39923525 -0.31996444 0.053436246
-0.39941818 -0.31997129 0.053399596
-0.39961964 -0.3199766 0.053375535
-0.39981711 -0.31998202 0.053350352
-0.40001035 -0.31999117 0.053297509
-0.40022379 -0.31998941 0.05332642
-0.40041646 -0.31999543 0.053296644
-0.40059459 -0.32000801 0.053217359
-0.40081802 -0.32000369 0.053265821
-0.40105468 -0.31999874 0.053319979
-0.40123561 -0.32000336 0.053299483
-0.40143278 -0.32001099 0.053258151
-0.40162402 -0.32001618 0.053234145
-0.4018124 -0.32002434 0.053188246
-0.40203303 -0.32002518 0.053198673
-0.40222862 -0.32003027 0.053175796
-0.40241671 -0.32004029 0.053116065
-0.40261635 -0.32004371 0.053105853
-0.40282309 -0.3200458 0.053105973
-0.40303072 -0.32004756 0.053108405
-0.40322921 -0.32005003 0.053105105
-0.40344226 -0.32004967 0.053123645
-0.40361354 -0.32006204 0.053045548
-0.40384918 -0.32005721 0.053098563
-0.40403813 -0.32006711 0.053039975
-0.40426043 -0.32006481 0.053073466
-0.40444973 -0.3200714 0.053039085
-0.40464413 -0.32008231 0.052973554
-0.40485919 -0.32008636 0.052959811
-0.40504715 -0.32009199 0.052932356
-0.40524656 -0.32009462 0.052927911
-0.4054499 -0.32009885 0.052911904
-0.40566093 -0.3201032 0.05289587
-0.40587485 -0.32010487 0.05289942
-0.40608642 -0.32010293 0.052929491
-0.40626323 -0.32011786 0.052832924
-0.40646932 -0.32011822 0.052845739
-0.40667754 -0.3201178 0.052864302
-0.40688822 -0.32012871 0.052799843
-0.40707561 -0.32013497 0.052767783
-0.40729621 -0.32012999 0.052820876
-0.40753439 -0.32012442 0.052879635
-0.40781671 -0.32011414 0.052976221
-0.40804809 -0.3201085 0.053035021
-0.40828344 -0.32010147 0.053104177
-0.40853131 -0.32008988 0.053207852
-0.40877545 -0.3200784 0.053310402
-0.40901577 -0.32007003 0.053389907
-0.40926182 -0.32005969 0.053484369
-0.40951452 -0.32004705 0.053596087
-0.40975934 -0.32003605 0.053695176
-0.41001058 -0.32002437 0.053799987
-0.41025817 -0.32001418 0.05389329
-0.41050291 -0.32000524 0.053977381
-0.41075131 -0.31999364 0.05408106
-0.41101339 -0.31997877 0.054210037
-0.41126889 -0.31996647 0.054319434
-0.41151297 -0.31995845 0.054396614
-0.41177237 -0.3199437 0.054524444
-0.4123081 -0.31991169 0.054799624
-0.30425382 -0.31799054 0.06085854
-0.30446979 -0.31798849 0.060889788
-0.30470589 -0.31799433 0.060864441
-0.30492193 -0.31799242 0.060894527
-0.30516404 -0.3180024 0.060839184
-0.3054046 -0.31801033 0.060798842
-0.30562001 -0.31801 0.060817398
-0.30586123 -0.31801841 0.060773596
-0.30608588 -0.31802192 0.060764439
-0.30630803 -0.31802294 0.060773753
-0.30653864 -0.31802902 0.06074613
-0.30676514 -0.31803194 0.060741588
-0.30700949 -0.31804383 0.060672399
-0.3072331 -0.31804577 0.060674787
-0.30745947 -0.31805056 0.060656406
-0.30770335 -0.31806105 0.060597599
-0.30788422 -0.31804562 0.060724687
-0.30812106 -0.31805333 0.060685508
-0.30837202 -0.31806874 0.060590934
-0.30860236 -0.31807405 0.060569081
-0.30883682 -0.31808287 0.060521841
-0.30905864 -0.31808481 0.060524236
-0.30928719 -0.31809133 0.060493164
-0.3095195 -0.31809792 0.06046208
-0.30973285 -0.31809819 0.060476035
-0.30995533 -0.31810075 0.060473822
-0.31018922 -0.31811002 0.060423136
-0.31040382 -0.31810936 0.060444005
-0.31064227 -0.31811914 0.060389828
-0.31087524 -0.31812668 0.060351819
-0.31109512 -0.31813031 0.060341552
-0.31132242 -0.31813559 0.060319703
-0.31154659 -0.31814131 0.06029442
-0.31175756 -0.31813952 0.06032338
-0.31198952 -0.31814891 0.060271546
-0.31219733 -0.31814584 0.060309738
-0.31236205 -0.31813741 0.060383879
-0.3126508 -0.31815872 0.060248777
-0.31287614 -0.31816384 0.060228094
-0.31308407 -0.31816107 0.060263991
-0.31331375 -0.31817013 0.06021446
-0.31354156 -0.31817666 0.060183406
-0.31376198 -0.31818172 0.060162753
-0.31399375 -0.31819034 0.060116671
-0.31418049 -0.31819251 0.06011463
-0.31442684 -0.31819549 0.060111135
-0.31464165 -0.31819826 0.06010665
-0.31487203 -0.31820673 0.060061738
-0.31508443 -0.31820855 0.060064174
-0.31531027 -0.31821507 0.06003312
-0.31552857 -0.31821805 0.060027465
-0.31576186 -0.31822842 0.059968706
-0.31596956 -0.3182283 0.059985004
-0.31617546 -0.3182255 0.060020894
-0.31639761 -0.31823263 0.05998525
-0.31661528 -0.31823575 0.059978448
-0.3168492 -0.31824705 0.059912771
-0.3170546 -0.31824425 0.059948664
-0.31727833 -0.31825262 0.059903786
-0.31750378 -0.3182601 0.059865817
-0.31772915 -0.31826958 0.059812859
-0.31794244 -0.3182711 0.059817605
-0.3181462 -0.31826782 0.059856974
-0.31837854 -0.31827927 0.059790149
-0.31859177 -0.31828299 0.05977875
-0.31882009 -0.31829265 0.059724629
-0.3190161 -0.31828755 0.059776716
-0.3192409 -0.31829563 0.059734136
-0.31945732 -0.31830144 0.059707735
-0.31969339 -0.31831574 0.059620149
-0.31990057 -0.31831485 0.059642211
-0.32010326 -0.31831154 0.059681579
-0.32032186 -0.31831893 0.059643641
-0.32054141 -0.31832489 0.059616081
-0.32074517 -0.31832445 0.059634693
-0.32097134 -0.31833425 0.059579428
-0.32117975 -0.31833652 0.059578426
-0.3213861 -0.31833559 0.059600495
-0.32160267 -0.31834045 0.059581008
-0.32182646 -0.31834945 0.059531521
-0.32205006 -0.31836066 0.059465893
-0.32225332 -0.3183583 0.059498351
-0.32247221 -0.31836709 0.059450034
-0.32268527 -0.31837049 0.059440937
-0.32288215 -0.31836683 0.059482642
-0.32308614 -0.3183651 0.059510488
-0.32332042 -0.31838113 0.059410226
-0.32354718 -0.31839296 0.059339974
-0.32375336 -0.31839505 0.059340134
-0.32395676 -0.31839332 0.059367977
-0.32416484 -0.31839666 0.05935891
-0.32437313 -0.31839797 0.059364833
-0.32458699 -0.318405 0.059329212
-0.32480314 -0.31841126 0.059299357
-0.32502556 -0.31842148 0.059240654
-0.32522649 -0.31841865 0.059276581
-0.32544336 -0.31842804 0.059223659
-0.32565305 -0.31843078 0.059219196
-0.32585984 -0.31843412 0.059210137
-0.32601622 -0.31841746 0.059344254
-0.32625455 -0.31843618 0.059224375
-0.32645875 -0.31844765 0.059155382
-0.32669091 -0.31844372 0.059201539
-0.32690373 -0.31844899 0.059178606
-0.32711428 -0.31845534 0.059147634
-0.32733524 -0.31846622 0.059084326
-0.32753667 -0.31846681 0.059094884
-0.32774946 -0.31847256 0.059068494
-0.32795805 -0.31847811 0.059043288
-0.32816598 -0.31848082 0.059038833
-0.3283613 -0.31848764 0.059003316
-0.32859123 -0.31849295 0.058981463
-0.32879174 -0.3184934 0.058993176
-0.32900417 -0.31849959 0.058963344
-0.32921425 -0.3185069 0.058925442
-0.32940862 -0.3185007 0.058985598
-0.32962179 -0.31851035 0.058930404
-0.32982951 -0.31851369 0.058921333
-0.33004218 -0.31852069 0.058885731
-0.33024433 -0.31852022 0.058904365
-0.33045164 -0.31852624 0.058875695
-0.33066356 -0.31853306 0.058841255
-0.33086383 -0.31853414 0.058848359
-0.33105895 -0.31852871 0.058902755
-0.33127037 -0.31853822 0.058848709
-0.33147976 -0.31854361 0.058824647
-0.33169094 -0.31855327 0.058769453
-0.33190516 -0.31856263 0.05871655
-0.33210799 -0.3185634 0.058725953
-0.33230218 -0.3185575 0.058783814
-0.33250976 -0.31856492 0.058744781
-0.33271489 -0.31857058 0.058718435
-0.33293059 -0.31858185 0.058651686
-0.33313039 -0.31858355 0.058654189
-0.33333287 -0.31858447 0.058662444
-0.33355024 -0.31859764 0.058581859
-0.33375147 -0.31859779 0.058595877
-0.33395007 -0.31859884 0.058602989
-0.33416963 -0.31861439 0.05850511
-0.33436644 -0.31861416 0.058521457
-0.33454296 -0.31862766 0.058435306
-0.33475822 -0.31863093 0.058427356
-0.33493596 -0.31861451 0.058561377
-0.33516979 -0.31862128 0.058529131
-0.33538121 -0.31863093 0.05847393
-0.33555475 -0.31862983 0.058495
-0.33578527 -0.31863731 0.058457002
-0.33599719 -0.31865123 0.05837068
