# .PCD v0.7 - Point Cloud Data file format
VERSION 0.7
FIELDS x y z
SIZE 4 4 4
TYPE F F F
COUNT 1 1 1
WIDTH 1289
HEIGHT 1
VIEWPOINT 0 0 0 1 0 0 0
POINTS 1289
DATA ascii
-0.19723861 -0.40651637 0.053383954
-0.19740111 -0.40660876 0.053257175
-0.19758534 -0.40669605 0.053255241
-0.19776119 -0.40677494 0.053289201
-0.19793996 -0.4068619 0.053268779
-0.19811665 -0.40694988 0.053232171
-0.1982888 -0.40703073 0.053236075
-0.19847417 -0.4071207 0.053216789
-0.19864474 -0.40720534 0.053183679
-0.19881342 -0.40728784 0.053160984
-0.19898228 -0.40736428 0.053188041
-0.19916013 -0.40744868 0.053184971
-0.1993486 -0.40753442 0.053211946
-0.19951652 -0.40762308 0.053136043
-0.1996773 -0.40770596 0.053079829
-0.19985257 -0.40778574 0.053104542
-0.20002398 -0.40787277 0.053055227
-0.20020162 -0.40795451 0.053072993
-0.20037901 -0.40803644 0.053088441
-0.20055206 -0.40811729 0.05309581
-0.20071495 -0.40820742 0.052988693
-0.20089106 -0.40829256 0.052972905
-0.20104441 -0.40838045 0.052847318
-0.20123746 -0.40845427 0.052988801
-0.20139332 -0.4085438 0.052859724
-0.20156318 -0.40862837 0.052824311
-0.20175229 -0.40870658 0.052914903
-0.20195249 -0.40878919 0.053012393
-0.20212975 -0.40887928 0.052960742
-0.20228867 -0.40896741 0.052854795
-0.20249069 -0.40904474 0.05300203
-0.20268352 -0.40913266 0.053027824
-0.20282985 -0.40922436 0.05284442
-0.20300004 -0.40930641 0.052830972
-0.20317462 -0.4093897 0.052824456
-0.2033346 -0.4094722 0.052768245
-0.20352584 -0.40955582 0.052822977
-0.20369321 -0.4096435 0.05275286
-0.20387469 -0.40972507 0.052786805
-0.20403948 -0.40981099 0.052721318
-0.20421344 -0.40989456 0.052710172
-0.20438044 -0.40997282 0.052715249
-0.20456085 -0.41006184 0.052684411
-0.2047371 -0.41014493 0.052685983
-0.2049108 -0.41023093 0.05265402
-0.20507756 -0.41031164 0.052638274
-0.20525271 -0.41039506 0.052632906
-0.20542532 -0.41048354 0.052576646
-0.20560065 -0.41056916 0.052553933
-0.20577115 -0.41065136 0.052540485
-0.2059567 -0.41073713 0.052555904
-0.20612974 -0.4108167 0.052573677
-0.20629576 -0.41090205 0.052517451
-0.20646946 -0.41098806 0.052485481
-0.20665877 -0.41107333 0.052519396
-0.20683558 -0.4111588 0.052503604
-0.20700544 -0.41124341 0.052468188
-0.2071806 -0.41132498 0.052477866
-0.2073516 -0.41140941 0.052448221
-0.20753209 -0.41149434 0.052450925
-0.20772246 -0.41157982 0.052487146
-0.20788564 -0.41166556 0.05241704
-0.20804499 -0.41174975 0.05234465
-0.20824611 -0.41183376 0.052434027
-0.20839715 -0.41191915 0.052320022
-0.20857656 -0.41200441 0.052315794
-0.20875159 -0.41208833 0.052305803
-0.20894073 -0.4121744 0.052332766
-0.20910057 -0.41225839 0.052263845
-0.20926926 -0.41234514 0.052206438
-0.20945157 -0.41242823 0.052231126
-0.20965701 -0.4125106 0.052350577
-0.20980735 -0.4126015 0.052189134
-0.20997524 -0.41268447 0.052159503
-0.21016844 -0.41276658 0.05223389
-0.21035042 -0.41285196 0.052238904
-0.21050833 -0.41294172 0.052115612
-0.21066734 -0.41302562 0.052044369
-0.21086909 -0.41310722 0.052155733
-0.21105488 -0.41319424 0.052161895
-0.21122886 -0.41328052 0.052128769
-0.21140996 -0.41336802 0.052112963
-0.21158147 -0.41345087 0.052098356
-0.21176556 -0.41353634 0.052110314
-0.21193369 -0.41362312 0.052050598
-0.2120983 -0.41370654 0.052004788
-0.212262 -0.41379181 0.051940471
-0.21244878 -0.41387543 0.051977865
-0.21262078 -0.41396192 0.051935483
-0.2128166 -0.41404513 0.05201102
-0.2129987 -0.41413283 0.051997524
-0.21317542 -0.41421911 0.051974796
-0.21333149 -0.41430303 0.051892001
-0.21350788 -0.41438761 0.051881999
-0.21366683 -0.41447133 0.051811915
-0.21386856 -0.4145582 0.051880479
-0.21406201 -0.41464385 0.051927097
-0.21423125 -0.41472888 0.051885899
-0.21439546 -0.41481581 0.05181
-0.21456937 -0.41490233 0.051774569
-0.21477097 -0.41498628 0.051866263
-0.2149138 -0.4150705 0.051730312
-0.21509498 -0.4151552 0.051737644
-0.21523693 -0.41523927 0.051599368
-0.21542621 -0.41532382 0.051639069
-0.21561006 -0.41541019 0.051642921
-0.21579316 -0.41549337 0.051669918
-0.21596822 -0.41558003 0.051637944
-0.21617584 -0.41566625 0.051734246
-0.21633017 -0.41575322 0.051620215
-0.21649249 -0.41583681 0.051564008
-0.21667956 -0.41592345 0.051578254
-0.2168709 -0.41600853 0.051621415
-0.21705349 -0.41609532 0.051617168
-0.21723343 -0.41618055 0.051615253
-0.21740378 -0.4162674 0.051563635
-0.21758112 -0.41635269 0.05155132
-0.21775791 -0.41643959 0.051523961
-0.21794368 -0.41652504 0.051542845
-0.21812654 -0.41661051 0.051550172
-0.21828374 -0.41669568 0.051461585
-0.21848871 -0.41678467 0.051525515
-0.21865067 -0.41686839 0.051466979
-0.21882875 -0.41695544 0.051443093
-0.21899405 -0.41704074 0.051384557
-0.21919411 -0.41712841 0.051440403
-0.21937944 -0.41721576 0.051441934
-0.21954773 -0.41730121 0.051393792
-0.21971601 -0.41738662 0.05134565
-0.21991141 -0.41747591 0.051370282
-0.22009929 -0.41756207 0.051391464
-0.22026643 -0.41764754 0.051338706
-0.22043355 -0.41773298 0.051285937
-0.22061162 -0.41782033 0.051259734
-0.22078304 -0.41790596 0.051221997
-0.22096509 -0.41799065 0.051232792
-0.22117472 -0.41807956 0.051315203
-0.22137195 -0.41816798 0.051353704
-0.22150339 -0.41825464 0.051154166
-0.22169468 -0.41834 0.051195011
-0.22187458 -0.41843048 0.051150288
-0.22207713 -0.41851661 0.051228106
-0.22223255 -0.41860577 0.051100191
-0.22242728 -0.41869017 0.051161844
-0.22261401 -0.41878122 0.051139075
-0.22278917 -0.41886875 0.051100161
-0.22296925 -0.41895106 0.051122539
-0.22314385 -0.41903862 0.051081307
-0.22333992 -0.41913179 0.051077019
-0.22350873 -0.41921762 0.051027711
-0.22368741 -0.41930142 0.051032752
-0.22386076 -0.41938624 0.051008884
-0.22402933 -0.4194721 0.050958425
-0.22421479 -0.41955924 0.050962269
-0.22437856 -0.41964611 0.050885219
-0.22452755 -0.4197264 0.050804771
-0.22477491 -0.41982132 0.050983042
-0.22491205 -0.41990468 0.05083207
-0.22512235 -0.41999149 0.050934151
-0.22530515 -0.42008138 0.050905608
-0.2254945 -0.42017448 0.050875891
-0.22567281 -0.42026138 0.050854318
-0.22585495 -0.42034864 0.050844293
-0.22603047 -0.42043537 0.050813477
-0.22622116 -0.42052615 0.050808046
-0.22639951 -0.42061448 0.050774895
-0.22658628 -0.42070496 0.050756756
-0.22675556 -0.42078599 0.050747946
-0.2269364 -0.42087084 0.050752968
-0.22713 -0.42096594 0.050723229
-0.22729918 -0.42104968 0.050692439
-0.22750422 -0.42114225 0.050727438
-0.22764148 -0.42122266 0.050600752
-0.22784062 -0.42131343 0.050627686
-0.22803652 -0.42140269 0.05065462
-0.22821188 -0.42148975 0.05062034
-0.22840877 -0.42158172 0.050628759
-0.22858776 -0.42167053 0.05059446
-0.22875832 -0.42175588 0.050555564
-0.22897564 -0.42184913 0.050632156
-0.22915271 -0.42193657 0.050601333
-0.2293309 -0.42202541 0.050563559
-0.22949 -0.42211077 0.050480753
-0.22966857 -0.42219722 0.050463799
-0.22985098 -0.42228663 0.050437581
-0.23004162 -0.42237708 0.050434466
-0.23024671 -0.42246938 0.050471772
-0.23042069 -0.42255422 0.050450221
-0.23059268 -0.42264128 0.050403215
-0.23079199 -0.42273182 0.050432462
-0.23098542 -0.42282531 0.050415449
-0.23115101 -0.42291161 0.050349962
-0.23133263 -0.4230012 0.05031912
-0.23153207 -0.42309085 0.050356451
-0.23171254 -0.42318273 0.050302476
-0.23187581 -0.42326522 0.050258987
-0.23208845 -0.42336041 0.050302044
-0.23226288 -0.42344803 0.050259665
-0.23248152 -0.42354888 0.050279565
-0.23266733 -0.42364401 0.050219782
-0.23283316 -0.42372701 0.050182067
-0.23301949 -0.42381525 0.050180126
-0.23321383 -0.42390591 0.050189719
-0.23339657 -0.42399377 0.050177373
-0.23356694 -0.42408329 0.050103776
-0.23376645 -0.42417139 0.05015384
-0.23395452 -0.42426363 0.050126441
-0.23413689 -0.42434931 0.050130293
-0.13741803 -0.37804407 0.055090919
-0.1376337 -0.37815148 0.055046041
-0.13785529 -0.3782661 0.054965273
-0.13808492 -0.37838668 0.054867122
-0.13830346 -0.37849885 0.054794461
-0.13852467 -0.37861201 0.054724097
-0.13876736 -0.37874362 0.05458656
-0.13898632 -0.37885842 0.054494232
-0.13918552 -0.37895334 0.054487593
-0.13939188 -0.37905335 0.054467048
-0.13960451 -0.37916106 0.054408297
-0.13981222 -0.37926427 0.054366931
-0.14002207 -0.37936965 0.05431629
-0.14023617 -0.37947747 0.054262154
-0.14044842 -0.37958539 0.054199934
-0.14066124 -0.37969401 0.054134253
-0.14087817 -0.37980673 0.054051187
-0.14108433 -0.37990937 0.054008663
-0.14129463 -0.38001609 0.053948756
-0.14150675 -0.38012296 0.053894639
-0.1417167 -0.38022965 0.053833589
-0.14193039 -0.38034013 0.053756326
-0.14213851 -0.38044539 0.053699907
-0.14234659 -0.38055077 0.053642333
-0.14255723 -0.38065881 0.053573184
-0.14277139 -0.38076863 0.05350285
-0.14298558 -0.38088048 0.05341633
-0.14319262 -0.38098553 0.053357609
-0.14340693 -0.38109782 0.053267617
-0.14360374 -0.38119134 0.053263303
-0.14381263 -0.38129869 0.053193007
-0.1440154 -0.38140014 0.053147018
-0.14422639 -0.3815099 0.05306514
-0.14442746 -0.38160998 0.053023793
-0.1446299 -0.38171157 0.052975498
-0.14483421 -0.3818152 0.052917942
-0.14503741 -0.38191783 0.052863862
-0.14524305 -0.38202122 0.052813239
-0.14544436 -0.38212228 0.052764952
-0.14564377 -0.38222158 0.052723609
-0.14585003 -0.38232794 0.052651007
-0.14604813 -0.3824262 0.052613139
-0.14624625 -0.38252461 0.052574117
-0.14644617 -0.38262498 0.052525833
-0.1466448 -0.3827242 0.05248218
-0.14684597 -0.38282618 0.052425791
-0.14704379 -0.38292488 0.052383304
-0.14724411 -0.38302431 0.052344274
-0.1474407 -0.383122 0.052305259
-0.14763628 -0.38321877 0.05226972
-0.14783312 -0.38331699 0.052227236
-0.14803143 -0.38341692 0.052176643
-0.14825714 -0.38353378 0.052093543
-0.14841428 -0.38359043 0.052236326
-0.14858755 -0.38367027 0.052252937
-0.14879385 -0.38378122 0.052143313
-0.14906773 -0.38396057 0.051737241
-0.14941181 -0.38409996 0.051925506
-0.14958829 -0.384188 0.051887728
-0.14978434 -0.38428685 0.051837146
-0.14997619 -0.38438129 0.051806256
-0.15016878 -0.38447663 0.051770724
-0.15036364 -0.38457251 0.051739819
-0.15056807 -0.38467687 0.051676482
-0.15074721 -0.38476217 0.051671088
-0.15093845 -0.38485661 0.051637881
-0.15113877 -0.3849569 0.051591903
-0.15131611 -0.38504049 0.051593468
-0.1515087 -0.38513687 0.051549837
-0.15170065 -0.38523263 0.051508538
-0.15189396 -0.38532561 0.051494986
-0.15207645 -0.38541323 0.051483795
-0.15226649 -0.38550723 0.05144944
-0.15245631 -0.38560113 0.051415078
-0.15263873 -0.38568899 0.051401578
-0.15282445 -0.3857761 0.05140657
-0.1530056 -0.38586038 0.051417373
-0.15318729 -0.38594532 0.051424693
-0.15335883 -0.38601848 0.05148875
-0.15353055 -0.38608944 0.051571313
-0.15367857 -0.38613483 0.051770817
-0.1531259 -0.38492155 0.059510443
-0.15333897 -0.38503757 0.059385739
-0.15347296 -0.38505298 0.059775043
-0.15367103 -0.38515094 0.059739493
-0.15415817 -0.38531104 0.060308926
-0.15470369 -0.38553888 0.060551859
-0.15488397 -0.3856062 0.060696855
-0.15601985 -0.38661456 0.056862719
-0.15619805 -0.38668576 0.056968398
-0.1564312 -0.38680497 0.056894522
-0.15662953 -0.38690221 0.056865908
-0.15679951 -0.38697988 0.056887165
-0.15699719 -0.38707653 0.056860872
-0.15719528 -0.38717094 0.056854248
-0.15738258 -0.38727176 0.05675396
-0.15753765 -0.38733885 0.056804195
-0.15777493 -0.38746217 0.056712955
-0.15795285 -0.38754502 0.056722611
-0.15814543 -0.38763571 0.056725252
-0.158324 -0.38771346 0.056778871
-0.15848821 -0.38778701 0.05681172
-0.15867923 -0.3878819 0.056773886
-0.15888794 -0.38800782 0.05655203
-0.15905008 -0.38807881 0.056597617
-0.15927051 -0.38817409 0.056669563
-0.15944904 -0.38825855 0.056668803
-0.15963142 -0.38835177 0.05661134
-0.15983832 -0.38845077 0.056601197
-0.16001469 -0.38853574 0.05658773
-0.16017781 -0.38861504 0.056569677
-0.16039929 -0.38872221 0.056549072
-0.16057187 -0.38880539 0.056535605
-0.16077095 -0.38890043 0.056527816
-0.16096675 -0.38900456 0.056433275
-0.16113976 -0.38908184 0.05646956
-0.16131167 -0.38916099 0.056486178
-0.16151871 -0.38926503 0.056435548
-0.16167982 -0.38933867 0.05645569
-0.16184039 -0.38941151 0.056480456
-0.16205473 -0.38953111 0.056331463
-0.16222124 -0.3896023 0.056392074
-0.16244197 -0.38970643 0.056393445
-0.1626223 -0.389792 0.056390367
-0.16277893 -0.3898665 0.056386229
-0.16299047 -0.38997552 0.056312442
-0.16316435 -0.39005491 0.056334835
-0.16335036 -0.39014632 0.056306284
-0.16352075 -0.39022407 0.056328692
-0.16372737 -0.39032179 0.056327809
-0.16390242 -0.39041156 0.056270383
-0.16406772 -0.39048505 0.056307852
-0.16429159 -0.39061269 0.056129895
-0.16447975 -0.39069629 0.056173056
-0.16464286 -0.39076617 0.056231361
-0.16482554 -0.39085743 0.056191251
-0.16500784 -0.39094821 0.05615345
-0.16519488 -0.39103881 0.056135301
-0.1653817 -0.39112914 0.056118317
-0.16558322 -0.39122376 0.056123242
-0.16575465 -0.39130911 0.056087799
-0.16594458 -0.39140108 0.056069642
-0.16614291 -0.39149958 0.056030616
-0.16629957 -0.39157665 0.056005657
-0.1664705 -0.39164725 0.056088224
-0.16666122 -0.39174628 0.056015685
-0.16685227 -0.39184633 0.055936202
-0.16703449 -0.39192411 0.056003682
-0.16721626 -0.39201635 0.055952005
-0.16739957 -0.39211202 0.055878337
-0.1675784 -0.39218819 0.055945843
-0.16776623 -0.39228842 0.055852488
-0.16793576 -0.39237785 0.055776566
-0.16813163 -0.39246282 0.055838205
-0.16831391 -0.39254078 0.055904523
-0.16850334 -0.39263436 0.055871323
-0.1686736 -0.39270893 0.055919193
-0.16884983 -0.39279681 0.055881426
-0.16903941 -0.39290342 0.055742942
-0.16921975 -0.39298317 0.055787288
-0.16941178 -0.39307782 0.055755243
-0.1695853 -0.39315405 0.055801935
-0.16976781 -0.39324552 0.055759508
-0.16995442 -0.39334077 0.055702027
-0.17013599 -0.3934373 0.055614483
-0.17031147 -0.39351887 0.055625312
-0.17049573 -0.39360219 0.055655755
-0.1706837 -0.39369521 0.055621408
-0.17086594 -0.39378056 0.055627573
-0.17102978 -0.39385322 0.055666212
-0.17120695 -0.39393985 0.055642322
-0.17139433 -0.39404002 0.055547815
-0.17158145 -0.39412409 0.055582877
-0.17175044 -0.3942039 0.055583313
-0.17194162 -0.39430854 0.055466816
-0.17212616 -0.39439368 0.055483378
-0.17231575 -0.39448592 0.055461749
-0.17250305 -0.3945711 0.055488713
-0.17270793 -0.39467683 0.055416115
-0.17286956 -0.39475241 0.055422366
-0.17303163 -0.39481968 0.055498034
-0.17321423 -0.39491871 0.055394292
-0.17339563 -0.39500394 0.055398144
-0.17359103 -0.39509851 0.055379964
-0.17374429 -0.39517596 0.055338822
-0.17392322 -0.39525205 0.055407468
-0.17410272 -0.39534193 0.055366218
-0.17430083 -0.39543676 0.055356115
-0.17447606 -0.39552179 0.055338018
-0.17467119 -0.39561722 0.055311732
-0.17483658 -0.39571238 0.05517336
-0.17502174 -0.39578986 0.055254705
-0.17520244 -0.39587417 0.055263195
-0.17538165 -0.39596647 0.055201121
-0.17554781 -0.39603752 0.055261731
-0.17570922 -0.39609823 0.055388294
-0.17590745 -0.39621487 0.055201195
-0.17607424 -0.39628935 0.055236343
-0.17625697 -0.39638844 0.055132605
-0.17643355 -0.39646772 0.055166557
-0.17661498 -0.39655992 0.055113729
-0.17679517 -0.39664343 0.055126842
-0.1769695 -0.39672989 0.055093706
-0.17714359 -0.39681506 0.055069827
-0.17732975 -0.39689684 0.055119932
-0.17752001 -0.39698839 0.055106405
-0.17768081 -0.39706731 0.055082578
-0.17785472 -0.39715353 0.055049442
-0.17803159 -0.39723819 0.05504059
-0.17821199 -0.39732978 0.054988921
-0.1784084 -0.39742523 0.054967262
-0.17857823 -0.39749816 0.055026703
-0.17874864 -0.39759058 0.054929957
-0.178912 -0.39766285 0.05496975
-0.1790984 -0.39776027 0.054893758
-0.17927806 -0.39785123 0.054844406
-0.17947398 -0.3979432 0.054849349
-0.17964391 -0.39801672 0.054904159
-0.17981388 -0.39809257 0.054940455
-0.17998345 -0.39817888 0.054889984
-0.18015917 -0.39827296 0.05480016
-0.18033804 -0.39836624 0.054728821
-0.18051367 -0.39845499 0.0546818
-0.18068962 -0.39853808 0.05468221
-0.18086708 -0.39860493 0.054820277
-0.181041 -0.39867595 0.054910935
-0.18121436 -0.39878356 0.054701954
-0.18139295 -0.39887273 0.054663021
-0.1815763 -0.39895147 0.054727018
-0.18174845 -0.39903632 0.054698527
-0.18192136 -0.39913774 0.054538131
-0.18210654 -0.39920583 0.054695845
-0.18227948 -0.39928505 0.054715935
-0.18246111 -0.39937466 0.054685071
-0.18264244 -0.39946526 0.054644972
-0.18281449 -0.3995485 0.054629199
-0.18298775 -0.39964196 0.054534752
-0.18316826 -0.39973417 0.054478452
-0.18334804 -0.39981425 0.054518174
-0.18351829 -0.3998892 0.054562576
-0.1836935 -0.39997321 0.054552577
-0.18387097 -0.40006199 0.054512478
-0.18404548 -0.40013558 0.054584622
-0.18421376 -0.40022966 0.054465901
-0.1843898 -0.40033329 0.05429972
-0.18457882 -0.40040845 0.0544146
-0.18474869 -0.40047428 0.054531876
-0.18491825 -0.40057313 0.054379612
-0.18510471 -0.40065649 0.054418147
-0.18527532 -0.40073147 0.054463696
-0.18544504 -0.40083751 0.054253574
-0.1856335 -0.40091598 0.054339536
-0.18581204 -0.40099984 0.054343414
-0.18599014 -0.40109348 0.054266293
-0.1861586 -0.40117329 0.054264426
-0.18633896 -0.40126145 0.054240517
-0.18651913 -0.40133357 0.054346181
-0.18668556 -0.40141755 0.05430267
-0.18685913 -0.40151089 0.054210536
-0.18704075 -0.40159622 0.054214388
-0.1872192 -0.40167993 0.05421941
-0.18739596 -0.40175939 0.054252207
-0.1875643 -0.40184641 0.054191332
-0.18773811 -0.4019309 0.054172084
-0.1879143 -0.40201822 0.054138944
-0.18808958 -0.40210682 0.054091923
-0.18826661 -0.40217945 0.054181404
-0.18844299 -0.4022727 0.054100834
-0.18862276 -0.4023543 0.054127824
-0.18880549 -0.40244415 0.054099284
-0.1889679 -0.40252593 0.054058097
-0.18914762 -0.40261364 0.054035358
-0.18931626 -0.40268686 0.054087855
-0.18947676 -0.40277088 0.054021224
-0.18965791 -0.40286225 0.053974181
-0.18982865 -0.4029386 0.054009311
-0.19000903 -0.40303075 0.053953022
-0.19019078 -0.40312639 0.053873576
-0.19037099 -0.40320238 0.053948004
-0.1905368 -0.40328464 0.053916067
-0.19070873 -0.40337023 0.053880624
-0.19089358 -0.40345681 0.053886779
-0.19106005 -0.40353313 0.053905737
-0.19123301 -0.4036175 0.053884175
-0.19140297 -0.40370002 0.0538661
-0.1915773 -0.4037829 0.05386189
-0.19175087 -0.40387124 0.053810246
-0.19192877 -0.40395525 0.053810645
-0.19210005 -0.40404096 0.053771734
-0.19228493 -0.40412754 0.053777888
-0.19245972 -0.40420994 0.053779453
-0.19263221 -0.40429437 0.053755589
-0.19280453 -0.4043746 0.053765267
-0.192977 -0.404459 0.053741395
-0.19313616 -0.40455449 0.053576436
-0.19332859 -0.40462643 0.053730637
-0.19349195 -0.40470982 0.0536802
-0.19365898 -0.40479836 0.053601973
-0.19383809 -0.40488136 0.053615101
-0.1940124 -0.40496409 0.053612046
-0.19419225 -0.40504277 0.053663332
-0.1943579 -0.40513194 0.053574704
-0.19453043 -0.40521979 0.053523064
-0.19470496 -0.40530235 0.053522322
-0.19488385 -0.40538567 0.053531975
-0.19506887 -0.40546492 0.053598288
-0.19524014 -0.40555346 0.053536236
-0.19539502 -0.40564892 0.053355105
-0.19557682 -0.40573391 0.053362437
-0.19575793 -0.40580878 0.053449582
-0.1959219 -0.40589088 0.053411867
-0.19611043 -0.40597549 0.053448088
-0.19628958 -0.40606576 0.053402197
-0.19647813 -0.40615055 0.053437263
-0.19663841 -0.40622792 0.053423852
-0.19681203 -0.40630448 0.053468235
-0.19697283 -0.40639818 0.053324096
-0.19716579 -0.40648076 0.053393837
-0.19732644 -0.40656444 0.05333069
-0.19749971 -0.40665749 0.053239711
-0.19767405 -0.40673709 0.053262103
-0.19785303 -0.40682074 0.053269446
-0.19802926 -0.40690896 0.053229362
-0.19820477 -0.40699124 0.053234395
-0.19837528 -0.4070729 0.053225569
-0.19856003 -0.40716311 0.053201642
-0.19872734 -0.40724623 0.053168546
-0.19890031 -0.40732977 0.053153925
-0.19907001 -0.4074029 0.053211041
-0.19924222 -0.40748978 0.053166348
-0.1994348 -0.40757957 0.053175945
-0.19959675 -0.407662 0.053127818
-0.19976252 -0.40774569 0.05308431
-0.19993247 -0.40782478 0.053093996
-0.20010208 -0.40790969 0.053055093
-0.2002838 -0.40799266 0.053078618
-0.20045805 -0.40807578 0.053072091
-0.2006311 -0.40815663 0.053079449
-0.20078538 -0.4082444 0.052958481
-0.20096831 -0.40832978 0.052966952
-0.20111972 -0.40841565 0.052850615
-0.20131651 -0.40848821 0.053016368
-0.20146947 -0.40858135 0.052846815
-0.2016401 -0.40866303 0.05283799
-0.20182894 -0.40874141 0.052926268
-0.20203479 -0.4088248 0.053038761
-0.20219836 -0.40891412 0.052940886
-0.20235884 -0.40900171 0.05284534
-0.20256391 -0.40907565 0.053031884
-0.20275277 -0.40916982 0.052991752
-0.20289694 -0.40925708 0.052836109
-0.20306849 -0.40934122 0.052811086
-0.2032371 -0.40941882 0.052827716
-0.20339459 -0.40950441 0.052736815
-0.20358622 -0.40958551 0.052813511
-0.20375857 -0.40967429 0.052753773
-0.20393714 -0.4097566 0.052770361
-0.20410387 -0.40984201 0.052716441
-0.20427437 -0.40992406 0.052704144
-0.20444056 -0.41000253 0.052704591
-0.2046189 -0.41008973 0.052680694
-0.20479982 -0.41017401 0.052690335
-0.20496763 -0.4102591 0.052643348
-0.20513277 -0.4103379 0.052636862
-0.20530586 -0.41042176 0.052619923
-0.20548399 -0.41051129 0.052576363
-0.20565051 -0.41059431 0.052540943
-0.20582002 -0.41067448 0.052540224
-0.20600539 -0.41076031 0.052554477
-0.20618065 -0.41084164 0.052566458
-0.20634684 -0.41092694 0.052511375
-0.20651749 -0.41101134 0.052480564
-0.20670441 -0.4110949 0.052519105
-0.20688385 -0.41118208 0.052499823
-0.20704977 -0.41126522 0.052460946
-0.2072221 -0.41134518 0.052472942
-0.20739309 -0.41142961 0.052443288
-0.20757078 -0.41151294 0.052448317
-0.2077598 -0.41159865 0.052477591
-0.20792364 -0.41168424 0.052410945
-0.20808037 -0.41176677 0.052342027
-0.20827711 -0.41184944 0.052425642
-0.20842949 -0.41193461 0.052318558
-0.20860468 -0.41201845 0.052309711
-0.20877759 -0.41210067 0.052305508
-0.20896627 -0.41218677 0.052330159
-0.20912212 -0.41226932 0.052257761
-0.2092887 -0.41235438 0.052206147
-0.20947102 -0.41243747 0.052230824
-0.20967269 -0.41251832 0.052347969
-0.20982118 -0.41260749 0.052193474
-0.20998433 -0.41268909 0.05215691
-0.2101768 -0.41277128 0.052227821
-0.21035695 -0.41285494 0.052239783
-0.21051608 -0.41294456 0.052122261
-0.21066982 -0.41302711 0.052041773
-0.21086702 -0.41310728 0.052147374
-0.21105555 -0.41319403 0.052166238
-0.21122825 -0.4132804 0.052127324
-0.21140781 -0.41336805 0.05210457
-0.21157679 -0.41344923 0.052093446
-0.21175754 -0.41353318 0.052105404
-0.21192057 -0.41361853 0.052037612
-0.21208906 -0.41370165 0.052009121
-0.21224971 -0.41378531 0.051945973
-0.21243306 -0.41386917 0.051968325
-0.21260385 -0.41395396 0.051935203
-0.21279351 -0.41403753 0.051984146
-0.21297975 -0.41412321 0.052003019
-0.21315046 -0.41420805 0.051968746
-0.21330835 -0.41429016 0.051907912
-0.21347763 -0.41437334 0.051881734
-0.21363714 -0.41445875 0.05180008
-0.21384017 -0.41454381 0.051888287
-0.21402338 -0.41462478 0.051933788
-0.21419814 -0.414713 0.051887922
-0.2143618 -0.41479823 0.051823601
-0.21453179 -0.4148849 0.051771969
-0.21473509 -0.41496709 0.051884487
-0.21486896 -0.41504991 0.051725417
-0.21505532 -0.41513279 0.051767431
-0.21519417 -0.41521695 0.051616445
-0.21537223 -0.41530174 0.051611058
-0.21557027 -0.41538617 0.051685415
-0.21574266 -0.41546956 0.051669642
-0.21591902 -0.41555452 0.051656161
-0.21611138 -0.41564095 0.051692363
-0.21629027 -0.41572601 0.051688127
-0.21642508 -0.41580826 0.051537156
-0.21662721 -0.41589475 0.051610343
-0.21680088 -0.41597831 0.051598035
-0.21698725 -0.41606349 0.05162153
-0.21716656 -0.41614872 0.051617298
-0.21733566 -0.41623396 0.051573776
-0.21750203 -0.41631764 0.05153257
-0.21768671 -0.416403 0.051547982
-0.21786232 -0.41648832 0.051528729
-0.21805373 -0.41657388 0.051568396
-0.21820228 -0.41665894 0.051447451
-0.21840353 -0.41674474 0.051522955
-0.21856703 -0.41682848 0.05147019
-0.21874361 -0.41691399 0.051453248
-0.21890983 -0.41699928 0.051398166
-0.21909347 -0.41708499 0.051406633
-0.21928854 -0.41717258 0.051443979
-0.21945441 -0.41725644 0.051399317
-0.21962123 -0.41734031 0.051358111
-0.21980143 -0.41742611 0.051352724
-0.21999612 -0.41751394 0.051386595
-0.22017363 -0.41759974 0.0513708
-0.22032571 -0.41768461 0.051264878
-0.22049202 -0.41776854 0.051221356
-0.2206924 -0.41785535 0.051285293
-0.22085992 -0.41794086 0.051233675
-0.22105503 -0.41802758 0.051277962
-0.22126545 -0.41811514 0.051374257
-0.22139731 -0.41820043 0.05118743
-0.22158143 -0.4182868 0.051192425
-0.22175586 -0.41837555 0.051140778
-0.22193816 -0.41846192 0.051138856
-0.22214788 -0.4185513 0.051217783
-0.22229996 -0.41863605 0.051113017
-0.22249565 -0.41872475 0.051143423
-0.22266188 -0.41880894 0.051097594
-0.22284342 -0.41889408 0.051102601
-0.2230306 -0.41898105 0.051114529
-0.22320099 -0.41906834 0.051059432
-0.22339353 -0.41916126 0.051043566
-0.22356026 -0.4192428 0.051020879
-0.22373095 -0.41932467 0.051010899
-0.22389856 -0.41940907 0.050968535
-0.22408304 -0.41949746 0.050958499
-0.224259 -0.41958255 0.050942704
-0.22441083 -0.41966844 0.050827529
-0.22460634 -0.41975111 0.050906517
-0.22479695 -0.41984281 0.050892986
-0.22495914 -0.41992423 0.050854113
-0.22518 -0.42001459 0.050967708
-0.22534052 -0.42010391 0.050858274
-0.22553417 -0.42019606 0.050852824
-0.2257109 -0.4202815 0.050837032
-0.22589377 -0.42036885 0.05082931
-0.22607189 -0.42045581 0.050806575
-0.22625208 -0.42054558 0.050768781
-0.22644018 -0.42063355 0.050776079
-0.22661968 -0.42071944 0.050767217
-0.22679317 -0.42080221 0.050760694
-0.22697216 -0.42089072 0.050728701
-0.22715044 -0.42098045 0.050683975
-0.22734076 -0.42106503 0.050727129
-0.22751692 -0.42115337 0.050685883
-0.22765458 -0.42123127 0.050581176
-0.22786021 -0.42132527 0.050606906
-0.22807334 -0.42141509 0.050695088
-0.22823536 -0.42150196 0.050611094
-0.22843799 -0.42159709 0.050616026
-0.22860777 -0.42168111 0.050585225
-0.22879744 -0.42177239 0.050571688
-0.22899815 -0.42185879 0.050640244
-0.22916472 -0.42194623 0.050568968
-0.22935264 -0.42203498 0.050569326
-0.22950344 -0.42211813 0.050472654
-0.22968993 -0.42220676 0.050468393
-0.22988027 -0.42229834 0.050454855
-0.23006421 -0.42238677 0.050442506
-0.23025849 -0.4224765 0.050459027
-0.23042999 -0.42256105 0.050430536
-0.23060709 -0.42264992 0.050388135
-0.23081174 -0.42274117 0.05043238
-0.2309953 -0.42283097 0.050407309
-0.23116894 -0.42291951 0.050354503
-0.23133981 -0.42300531 0.050313286
-0.2315475 -0.42309842 0.050354052
-0.23172152 -0.42318827 0.050291989
-0.23188561 -0.42327088 0.050250802
-0.23210025 -0.42336512 0.050308894
-0.23226692 -0.4234505 0.050254963
-0.23249471 -0.42355499 0.050280605
-0.2326722 -0.4236466 0.050217375
-0.23283887 -0.42372972 0.050181955
-0.23302822 -0.42381841 0.050188091
-0.23321304 -0.42390767 0.050172269
-0.23339218 -0.42399269 0.050169192
-0.23357835 -0.424088 0.050109394
-0.23377258 -0.42417419 0.050154846
-0.23395844 -0.42426494 0.050130919
-0.23413727 -0.42435008 0.050125528
-0.13732675 -0.37799874 0.055108741
-0.13753939 -0.37810501 0.055061579
-0.13775656 -0.37821555 0.054997049
-0.13797943 -0.37833148 0.054910522
-0.13820271 -0.37844634 0.054834396
-0.13841951 -0.3785587 0.05475368
-0.13864672 -0.37867755 0.054660194
-0.13887033 -0.37879825 0.054537814
-0.13907957 -0.37890249 0.054494135
-0.13928016 -0.37899879 0.054481715
-0.13948855 -0.37910247 0.054439202
-0.1396991 -0.3792083 0.054387428
-0.13990447 -0.37930942 0.054354176
-0.14011715 -0.37941757 0.054291971
-0.14032981 -0.37952581 0.054228619
-0.14054182 -0.37963364 0.054166429
-0.14075708 -0.37974471 0.054090336
-0.14096543 -0.37984937 0.054039724
-0.14117526 -0.37995556 0.053982165
-0.14138888 -0.38006556 0.053908397
-0.14159599 -0.38016951 0.053858951
-0.14180541 -0.38027582 0.053799078
-0.14201684 -0.38038421 0.053729951
-0.14222589 -0.38049048 0.053668916
-0.14242961 -0.38059354 0.0536137
-0.14264317 -0.38070449 0.053531844
-0.14285153 -0.38081059 0.053469658
-0.14306211 -0.38091901 0.053397067
-0.14327767 -0.3810325 0.053302474
-0.14348054 -0.38113371 0.053258821
-0.14367755 -0.38122928 0.053238325
-0.14388485 -0.38133517 0.05317384
-0.14409241 -0.38144144 0.053107038
-0.14429605 -0.38154402 0.053055286
-0.14449996 -0.38164702 0.053001225
-0.1447041 -0.3817504 0.052944843
-0.144905 -0.38185069 0.052901197
-0.14510776 -0.38195297 0.052848302
-0.1453113 -0.38205621 0.052790768
-0.14551136 -0.3821561 0.05274713
-0.14571142 -0.38225615 0.052702334
-0.14591828 -0.38236323 0.052626282
-0.14611334 -0.38245848 0.05260117
-0.14631233 -0.38255784 0.052557532
-0.14650807 -0.38265598 0.052511603
-0.14670807 -0.38275671 0.052461024
-0.14690576 -0.38285518 0.052419707
-0.14710447 -0.38295487 0.052372605
-0.1473024 -0.38305387 0.052327819
-0.14749758 -0.38315019 0.052294608
-0.14769353 -0.38324741 0.05225677
-0.14789146 -0.38334686 0.052208517
-0.14810932 -0.38346341 0.052097719
-0.14830153 -0.38354707 0.052155897
-0.14864388 -0.38370442 0.052191451
-0.14886209 -0.38381588 0.05212345
-0.14930476 -0.38407522 0.051715624
-0.14943805 -0.3841064 0.051974129
-0.14964253 -0.38421634 0.051865704
-0.14983705 -0.38431358 0.051822089
-0.15002808 -0.38440722 0.051794689
-0.15021981 -0.38450176 0.05176264
-0.15041226 -0.38459504 0.051743329
-0.15060697 -0.38469523 0.051676579
-0.15079536 -0.38478649 0.051658433
-0.15098602 -0.38488036 0.051627554
-0.15118465 -0.38497886 0.051589705
-0.15136297 -0.38506362 0.051585481
-0.15155524 -0.38515967 0.051543035
-0.15175372 -0.38526067 0.051484369
-0.15193343 -0.3853451 0.051488232
-0.15211773 -0.38543257 0.051485144
-0.15230723 -0.38552603 0.051453121
-0.15249844 -0.38562158 0.051410668
-0.15268117 -0.38570985 0.051394865
-0.1528613 -0.38579291 0.051411446
-0.15304321 -0.38587812 0.051417623
-0.15322295 -0.38596085 0.051435363
-0.15339094 -0.3860299 0.051519085
-0.15355715 -0.38609442 0.051632885
-0.15370435 -0.38613644 0.051856637
-0.15338397 -0.38506094 0.059368767
-0.15350862 -0.38506767 0.059792697
-0.15371168 -0.38517436 0.059705097
-0.15417349 -0.38530073 0.060451448
-0.15584801 -0.38652456 0.056934178
-0.15605874 -0.3866345 0.056850016
-0.156238 -0.38670149 0.056993827
-0.15647644 -0.38682765 0.056884095
-0.15665907 -0.38691601 0.056867138
-0.15683731 -0.38699591 0.056902241
-0.15703508 -0.38709271 0.056874804
-0.15722972 -0.38718846 0.056843907
-0.15740615 -0.38728088 0.056770295
-0.15758683 -0.38736135 0.056810006
-0.1578041 -0.38747594 0.056713101
-0.15798834 -0.38756135 0.056726199
-0.15818283 -0.38765165 0.056739256
-0.15836214 -0.38773048 0.056787074
-0.15851957 -0.38780096 0.056818791
-0.15873148 -0.38791227 0.056727685
-0.15892783 -0.38802749 0.056545265
-0.15908898 -0.38809404 0.056623243
-0.15931317 -0.38819465 0.056666233
-0.15948416 -0.38827497 0.05667014
-0.15968925 -0.38838106 0.056595255
-0.15987994 -0.38847011 0.056603704
-0.16004357 -0.38855007 0.05658219
-0.16021368 -0.38862953 0.056589574
-0.16044152 -0.38874272 0.056544654
-0.16060603 -0.38882095 0.056540493
-0.16081767 -0.3889243 0.056512997
-0.16101152 -0.38902566 0.056433529
-0.16118047 -0.38910046 0.056474451
-0.16135751 -0.38918391 0.056476019
-0.16155651 -0.389283 0.056434698
-0.16172725 -0.38936064 0.056459419
-0.16188766 -0.38943693 0.056455269
-0.16209516 -0.38954973 0.056335263
-0.16226618 -0.38962066 0.056415506
-0.16248626 -0.38972759 0.05639144
-0.16265769 -0.38980669 0.056406908
-0.16282582 -0.38989204 0.056358777
-0.16303197 -0.38999254 0.056333624
-0.16321203 -0.39007813 0.056329388
-0.16339721 -0.39016825 0.056307789
-0.16356294 -0.39024237 0.05634179
-0.1637715 -0.39034346 0.056321245
-0.16393965 -0.39042583 0.056297399
-0.16411771 -0.39051273 0.056274675
-0.16434425 -0.39063683 0.056136079
-0.16451907 -0.39071438 0.056176979
-0.16468525 -0.39078546 0.056237578
-0.16487017 -0.39088073 0.056173183
-0.16505441 -0.39097071 0.05614927
-0.16524768 -0.39106369 0.05613574
-0.16542777 -0.39115101 0.056117628
-0.16562195 -0.39124143 0.056128368
-0.16580075 -0.39133126 0.056084827
-0.16598712 -0.39142138 0.056067839
-0.16618879 -0.3915216 0.056027666
-0.16633727 -0.39159283 0.056018941
-0.16651526 -0.39166734 0.056096837
-0.16670552 -0.39177057 0.055988472
-0.16689378 -0.39186528 0.05594141
-0.16707622 -0.3919436 0.056005411
-0.16726243 -0.39203981 0.055938698
-0.16743803 -0.3921304 0.055876657
-0.16762312 -0.39220896 0.055948734
-0.16780162 -0.39230606 0.055845056
-0.16798425 -0.3924014 0.055771418
-0.16817644 -0.39248419 0.055836529
-0.16835329 -0.39255616 0.055930614
-0.16853838 -0.39265183 0.055863909
-0.16871332 -0.39272517 0.055939503
-0.16889623 -0.39282236 0.055851988
-0.16907354 -0.3929193 0.055744842
-0.16925645 -0.39299899 0.055799574
-0.1694515 -0.39309466 0.055770993
-0.16962254 -0.39317143 0.055803817
-0.16980757 -0.39326265 0.05577296
-0.16999523 -0.39336064 0.055696987
-0.17017324 -0.39345524 0.055611804
-0.17034829 -0.39353588 0.055628419
-0.17052984 -0.39361933 0.055647314
-0.17071646 -0.39370903 0.055634949
-0.17090248 -0.39379731 0.055631857
-0.17106244 -0.39386699 0.055679753
-0.17124447 -0.39395961 0.055625781
-0.17143413 -0.3940587 0.055548653
-0.17161107 -0.39413756 0.055587217
-0.17178063 -0.39421919 0.055574939
-0.17197798 -0.39432591 0.055465393
-0.17216635 -0.39441442 0.055469215
-0.17234844 -0.39450097 0.055464983
-0.17253551 -0.39458561 0.055495419
-0.1727441 -0.39469451 0.055411264
-0.17290154 -0.3947657 0.0554372
-0.17306389 -0.3948341 0.055504747
-0.17324638 -0.39493307 0.05540105
-0.1734277 -0.39501813 0.055406064
-0.1736169 -0.39511132 0.055375192
-0.17377318 -0.39518949 0.055339836
-0.17395522 -0.39526662 0.055411927
-0.17413442 -0.39535549 0.055377629
-0.17433314 -0.39545318 0.055346716
-0.17451094 -0.39553702 0.055348281
-0.17470333 -0.3956337 0.055301204
-0.17486504 -0.39572582 0.055173293
-0.17505002 -0.39580265 0.055259261
-0.17523398 -0.39588866 0.055266574
-0.17541322 -0.39598155 0.055199899
-0.17557877 -0.39604959 0.055282466
-0.17574386 -0.39611417 0.055391651
-0.17593893 -0.39623061 0.055194195
-0.17610231 -0.39630321 0.055231676
-0.17628159 -0.39640021 0.055131458
-0.17645809 -0.39647931 0.055166565
-0.17664593 -0.39657396 0.055118352
-0.17682616 -0.39665836 0.055124529
-0.17699707 -0.39674261 0.055096045
-0.17716771 -0.39682531 0.05507914
-0.17736045 -0.39691094 0.055123426
-0.17755067 -0.39700302 0.055105276
-0.1777114 -0.39708176 0.055082619
-0.1778852 -0.3971675 0.055052966
-0.17806202 -0.39725229 0.055042967
-0.17824237 -0.39734456 0.054985534
-0.17843537 -0.39743668 0.054977775
-0.17860523 -0.3975119 0.055018701
-0.17877878 -0.39760438 0.054933533
-0.17893882 -0.3976748 0.054975651
-0.17912515 -0.39777291 0.054893903
-0.17930473 -0.39786339 0.054848041
-0.17950059 -0.39795545 0.054851837
-0.17966722 -0.39802644 0.054914746
-0.17984034 -0.39810547 0.054937147
-0.18000658 -0.39819008 0.054887868
-0.18018551 -0.39828467 0.05480615
-0.18036097 -0.3983776 0.054724451
-0.18053997 -0.39846554 0.054697093
-0.18071571 -0.39855051 0.054681316
-0.18089326 -0.39861599 0.054830916
-0.18106711 -0.39868724 0.054919235
-0.18123698 -0.3987945 0.054699928
-0.18141891 -0.39888397 0.054671407
-0.18160202 -0.39896402 0.054723829
-0.18177095 -0.39904648 0.054702297
-0.18194371 -0.3991484 0.054537334
-0.18212891 -0.39921606 0.054698475
-0.18230179 -0.39929527 0.054718558
-0.18248333 -0.39938498 0.054686561
-0.18266787 -0.39947695 0.054647617
-0.18283652 -0.39955899 0.054628402
-0.18300968 -0.39965242 0.054533988
-0.18319032 -0.39974383 0.05448465
-0.18336992 -0.39982438 0.054519743
-0.18354011 -0.39989933 0.054564126
-0.18371521 -0.39998341 0.05455298
-0.18388937 -0.40007064 0.054512918
-0.18406375 -0.40014443 0.054582737
-0.18423526 -0.40023977 0.054466348
-0.18440786 -0.4003422 0.054296762
-0.18459699 -0.40041682 0.054416247
-0.18476681 -0.40048265 0.0545335
-0.18493944 -0.40058321 0.054378945
-0.18512584 -0.40066653 0.054417484
-0.18529972 -0.4007428 0.054465324
-0.18545945 -0.40084466 0.05425068
-0.18564829 -0.40092203 0.054347031
-0.18583301 -0.40100956 0.054345097
-0.18600455 -0.40110007 0.054268043
-0.18617305 -0.40117964 0.054268479
-0.1863534 -0.40126765 0.054245748
-0.18653683 -0.40134117 0.054352529
-0.18669981 -0.40142393 0.054305583
-0.18687677 -0.40151832 0.054218091
-0.18705486 -0.40160254 0.054217331
-0.18723306 -0.40168652 0.054218892
-0.18740657 -0.40176433 0.054252863
-0.18757841 -0.40185228 0.054197773
-0.1877486 -0.40193579 0.054172769
-0.18792796 -0.4020246 0.054139629
-0.18810326 -0.40211305 0.054093778
-0.18827979 -0.4021863 0.054176301
-0.18845308 -0.40227765 0.054099239
-0.1886363 -0.40236032 0.054130852
-0.18881559 -0.40244883 0.054100018
-0.18898425 -0.40253386 0.054056518
-0.18916053 -0.40262023 0.054031484
-0.18932933 -0.40269309 0.054087438
-0.1894896 -0.40277728 0.054018527
-0.18967101 -0.40286821 0.053976126
-0.18984154 -0.40294474 0.054008938
-0.19002235 -0.40303624 0.053959604
-0.19020438 -0.40313143 0.053884815
-0.19038376 -0.40320832 0.053948816
-0.19054626 -0.40328902 0.053916901
-0.19071527 -0.40337265 0.053886123
-0.19090633 -0.40346244 0.053889938
-0.19107239 -0.40353912 0.053904273
-0.19124556 -0.40362316 0.05388619
-0.1914127 -0.40370366 0.053873919
-0.19158699 -0.40378651 0.053869713
-0.19176352 -0.40387654 0.053815771
-0.19194108 -0.40396082 0.053812701
-0.1921127 -0.40404612 0.053778432
-0.19229689 -0.40413323 0.053777661
-0.19247183 -0.4042154 0.053781543
-0.19264439 -0.40429971 0.053758841
-0.19281341 -0.40437838 0.05376853
-0.19298851 -0.40446475 0.053738881
-0.19314824 -0.40455964 0.05358091
-0.19334073 -0.4046315 0.053736232
-0.19350383 -0.40471503 0.053683501
-0.19367078 -0.40480351 0.053605303
-0.19384961 -0.40488669 0.053616118
-0.19402434 -0.40496904 0.05361769
-0.19420342 -0.40504819 0.053662043
-0.19436948 -0.40513697 0.053578064
-0.19454135 -0.40522525 0.053520661
-0.19471629 -0.40530741 0.053524554
-0.19489251 -0.40538877 0.053539999
-0.19507983 -0.4054701 0.053598195
-0.19525093 -0.40555871 0.053535007
-0.19540547 -0.40565428 0.053351622
-0.19558759 -0.40573901 0.053362422
-0.19576877 -0.40581375 0.053450711
-0.19593319 -0.4058955 0.053417627
-0.19612089 -0.40598056 0.053446911
-0.19630051 -0.4060705 0.053405672
-0.19648266 -0.4061521 0.053441908
-0.19664584 -0.40623114 0.053426184
-0.19682224 -0.40630946 0.053467076
-0.19698647 -0.4064045 0.053325281
-0.19717333 -0.40648374 0.053398509
-0.19733278 -0.40656799 0.05332613
-0.1975095 -0.40666237 0.053237483
-0.19768067 -0.40674037 0.053261042
-0.19786298 -0.40682545 0.053269524
-0.19803812 -0.40691411 0.053221364
-0.19821489 -0.40699574 0.053236816
-0.19838549 -0.40707728 0.053229153
-0.19856972 -0.40716767 0.053201772
-0.19873682 -0.40725085 0.053167522
-0.19891004 -0.40733421 0.053155225
-0.19908045 -0.40740699 0.053218123
-0.19925508 -0.40749568 0.053167649
-0.19944228 -0.40758479 0.053162232
-0.19960299 -0.40766478 0.053129163
-0.19977324 -0.40774944 0.053094909
-0.19994459 -0.40783077 0.053091869
-0.20011544 -0.40791512 0.053062234
-0.20029403 -0.40799648 0.053086925
-0.20046365 -0.40807855 0.053071175
-0.20064195 -0.40816286 0.053070419
-0.20080093 -0.40825158 0.052959867
-0.20098259 -0.40833735 0.052960262
-0.2011372 -0.40842202 0.052865922
-0.20133054 -0.4084931 0.053030498
-0.2014824 -0.40858656 0.052854057
-0.2016551 -0.40866753 0.052859113
-0.20184319 -0.40874609 0.052942738
-0.20204668 -0.40883026 0.053040195
-0.20220837 -0.40892011 0.052930795
-0.20237672 -0.40901026 0.052844491
-0.20258033 -0.40908208 0.053042565
-0.20275997 -0.40917644 0.05296547
-0.20290639 -0.40926048 0.052844569
-0.20307982 -0.40934652 0.052811448
-0.20324607 -0.40942228 0.052833885
-0.20340428 -0.40951008 0.052727968
-0.20360176 -0.40959436 0.052801151
-0.20377195 -0.40967885 0.05276804
-0.20394543 -0.40976247 0.052754592
-0.20411502 -0.40984708 0.052718014
-0.20428526 -0.40992916 0.052704576
-0.20445386 -0.41000932 0.052700393
-0.20463008 -0.41009468 0.052683461
-0.2048154 -0.41018021 0.052700024
-0.20497645 -0.41026449 0.05263342
-0.20514701 -0.4103443 0.052639633
-0.20532267 -0.41043207 0.052600726
-0.2055047 -0.41051844 0.052597642
-0.20566513 -0.41060272 0.052528724
-0.20583814 -0.41068214 0.052547663
-0.20602281 -0.41076806 0.052558441
-0.20619591 -0.41084978 0.052558869
-0.20636678 -0.4109363 0.052511882
-0.20653781 -0.41102061 0.052483402
-0.20672531 -0.41110402 0.052525401
-0.20689815 -0.41119018 0.052488822
-0.2070673 -0.41127273 0.052467287
-0.20724083 -0.41135666 0.052451521
-0.20741484 -0.41144052 0.052438058
-0.20759626 -0.41152319 0.052462738
-0.20778051 -0.41160965 0.052467741
-0.20793784 -0.41169414 0.052384965
-0.2081217 -0.41178069 0.052387655
-0.20830184 -0.41186377 0.052404236
-0.20846198 -0.41194776 0.052336484
-0.20863414 -0.41203201 0.05231262
-0.20881659 -0.41211489 0.052339613
-0.20899116 -0.41220286 0.052294925
-0.20915608 -0.41228613 0.052251428
-0.20932356 -0.41237104 0.052204464
-0.20950843 -0.4124538 0.052241843
-0.20970745 -0.41253498 0.052346252
-0.20984836 -0.41262496 0.052155983
-0.21002917 -0.41270834 0.052172564
-0.21022014 -0.41279069 0.052236527
-0.21039362 -0.41287503 0.052217282
-0.21054941 -0.41296494 0.052084774
-0.21071729 -0.41304788 0.052055158
-0.21092482 -0.41313082 0.052178033
-0.21109846 -0.41321707 0.052143753
-0.21127059 -0.41330346 0.052102555
-0.21146049 -0.41339201 0.052112158
-0.21163222 -0.4134748 0.052098706
-0.21181509 -0.41356397 0.05207596
-0.21198308 -0.4136453 0.052060217
-0.21213731 -0.41372761 0.051983226
-0.21230614 -0.41381246 0.051942039
-0.21249618 -0.41389763 0.0519794
-0.21266614 -0.41398245 0.051942829
-0.21286511 -0.41406545 0.052032202
-0.21304104 -0.41415349 0.05199213
-0.21321653 -0.41423807 0.05197867
-0.21336052 -0.4143191 0.051872812
-0.21354261 -0.41440681 0.051859319
-0.21371266 -0.41448992 0.051836625
-0.2139108 -0.41457695 0.051890146
-0.2140951 -0.41466129 0.051912498
-0.21426511 -0.41474625 0.051874775
-0.21442589 -0.41483155 0.05179891
-0.21461394 -0.41492093 0.051794656
-0.21479648 -0.41500214 0.051835515
-0.21494664 -0.41508439 0.051743507
-0.21512114 -0.41517091 0.05171039
-0.21526954 -0.41525474 0.051598728
-0.2154756 -0.41534054 0.051692702
-0.21563995 -0.41542569 0.051631864
-0.21583648 -0.41551024 0.051699273
-0.2159961 -0.41559383 0.051632669
-0.21621403 -0.41568154 0.051756654
-0.21634643 -0.41576707 0.051569887
-0.2165314 -0.41585043 0.051602654
-0.21670114 -0.41593555 0.051562607
-0.21690112 -0.41602218 0.051626537
-0.217077 -0.41610736 0.051609598
-0.21726021 -0.41619414 0.051607668
-0.21742533 -0.41627935 0.05154914
-0.21761051 -0.41636467 0.051566865
-0.21777931 -0.4164499 0.051522203
-0.21797268 -0.41653696 0.051557239
-0.2181462 -0.41662231 0.051529899
-0.21831262 -0.41670758 0.051475994
-0.21850921 -0.41679484 0.051521424
-0.21867539 -0.41688013 0.051466364
-0.21884942 -0.41696557 0.051440187
-0.21901399 -0.41705081 0.051379345
-0.2192151 -0.41713697 0.051451363
-0.21939269 -0.41722411 0.051425166
-0.21955961 -0.41730943 0.051372409
-0.21973296 -0.417395 0.051342767
-0.21992654 -0.4174827 0.05137318
-0.22011444 -0.41757029 0.051382795
-0.22027367 -0.41765544 0.051302314
-0.22044232 -0.41774088 0.051255342
-0.2206333 -0.41782582 0.05129848
-0.2207945 -0.41791242 0.051213369
-0.22097546 -0.41799703 0.051220704
-0.22118939 -0.41808754 0.051306542
-0.22136942 -0.41817367 0.051297687
-0.22151417 -0.4182595 0.051155973
-0.22170234 -0.41834608 0.051174838
-0.2218869 -0.4184368 0.051146302
-0.22209756 -0.41852334 0.051251817
-0.22224298 -0.41861188 0.051090434
-0.22244585 -0.41869816 0.051168229
-0.22262566 -0.41878733 0.051133927
-0.22279796 -0.41887468 0.051085778
-0.22298136 -0.41895857 0.051108133
-0.2231493 -0.41904426 0.051056534
-0.22335054 -0.41913775 0.051069561
-0.2235214 -0.41922367 0.051027201
-0.22369802 -0.41930592 0.051036861
-0.22387184 -0.41939211 0.051003747
-0.22403838 -0.41947642 0.050957941
-0.2242232 -0.41956484 0.050949067
-0.2243858 -0.41965157 0.050868571
-0.22453889 -0.41973081 0.050812408
-0.22477964 -0.4198252 0.050969839
-0.22491804 -0.41990727 0.050833933
-0.22513983 -0.41999769 0.050950967
-0.22531533 -0.42008823 0.050888926
-0.22549886 -0.42017815 0.050862711
-0.22568041 -0.42026532 0.050851535
-0.22586209 -0.42035252 0.050840355
-0.22603714 -0.42043915 0.050808389
-0.22622702 -0.42052981 0.050800648
-0.22640792 -0.42061836 0.050775595
-0.22658962 -0.42070574 0.050763264
-0.22676113 -0.42078826 0.050750963
-0.22694342 -0.42087448 0.050750203
-0.22713274 -0.42096916 0.050707757
-0.22730455 -0.42105055 0.050705876
-0.22750258 -0.42114237 0.050720081
-0.22763707 -0.4212212 0.050595753
-0.22784111 -0.42131373 0.050627276
-0.22803269 -0.4214012 0.050651915
-0.22821337 -0.42149007 0.050623395
-0.2284164 -0.42158398 0.050639883
-0.22858831 -0.42167068 0.050595205
-0.22875333 -0.42175415 0.050550554
-0.22896817 -0.42184708 0.050620198
-0.22914445 -0.42193314 0.050597481
-0.22932377 -0.4220221 0.050563179
-0.22948052 -0.42210591 0.050483871
-0.22966248 -0.42219397 0.05046691
-0.22984214 -0.42228177 0.050443023
-0.23003553 -0.42237255 0.050447993
-0.23023339 -0.4224627 0.050474908
-0.23040646 -0.4225474 0.050451044
-0.23057342 -0.42263377 0.050390203
-0.23077878 -0.42272508 0.05043675
-0.23096822 -0.42281681 0.0504186
-0.2311364 -0.42290461 0.050350808
-0.23131861 -0.42299306 0.050331537
-0.23150957 -0.42308152 0.05034576
-0.2316888 -0.42317086 0.050307989
-0.23185295 -0.42325461 0.050257567
-0.23205985 -0.42334777 0.050294857
-0.23223799 -0.42343587 0.050262876
-0.23244438 -0.42353263 0.050268944
-0.23263733 -0.42362872 0.050228804
-0.23280573 -0.42371321 0.050188772
-0.23298678 -0.42380068 0.050172973
-0.2331766 -0.42388949 0.05018026
-0.23336133 -0.42397642 0.050182957
-0.23352769 -0.42406535 0.050098978
-0.23373324 -0.42415544 0.050155934
-0.23391852 -0.42424607 0.050130866
-0.23410079 -0.42433286 0.050125472
-0.13739049 -0.3780323 0.055080801
-0.13760865 -0.37814203 0.05502674
-0.13782948 -0.37825599 0.054948367
-0.13805424 -0.3783721 0.054867677
-0.13827904 -0.37849009 0.054771952
-0.13849646 -0.37860146 0.054701701
-0.13874093 -0.37873471 0.054557323
-0.13894822 -0.37883872 0.054507926
-0.13915294 -0.37893882 0.054480512
-0.13936324 -0.37904254 0.05444498
-0.13957392 -0.37914845 0.054393243
-0.13978091 -0.37925103 0.054354258
-0.1399858 -0.37935176 0.054322217
-0.14020529 -0.37946469 0.05424732
-0.14041743 -0.37957257 0.054185182
-0.14063376 -0.37968284 0.054119565
-0.14085002 -0.37979496 0.054038905
-0.14105523 -0.37989497 0.054013796
-0.14127226 -0.38000816 0.053927347
-0.14148125 -0.38011381 0.053871006
-0.14168991 -0.38021934 0.053814664
-0.14190274 -0.38032725 0.053754836
-0.1421096 -0.38043132 0.053703118
-0.1423261 -0.38054311 0.053625926
-0.14253777 -0.38065219 0.053552229
-0.14275067 -0.38076085 0.053486615
-0.14295909 -0.38086709 0.053423338
-0.14317366 -0.38097954 0.053333431
-0.14338392 -0.38108793 0.053259738
-0.14358035 -0.38118112 0.053256642
