# .PCD v0.7 - Point Cloud Data file format
VERSION 0.7
FIELDS x y z
SIZE 4 4 4
TYPE F F F
COUNT 1 1 1
WIDTH 514
HEIGHT 1
VIEWPOINT 0 0 0 1 0 0 0
POINTS 514
DATA ascii
-0.28958389 -0.26303577 0.058800064
-0.28978282 -0.26301736 0.058775023
-0.28997004 -0.26299831 0.058763862
-0.29017407 -0.26299113 0.058652334
-0.2903696 -0.26296616 0.058678027
-0.29056525 -0.26294133 0.058702562
-0.29075378 -0.26292592 0.058663733
-0.29094285 -0.26291203 0.058613375
-0.29113528 -0.26288864 0.058629856
-0.29132608 -0.26286119 0.058677457
-0.29155937 -0.26281795 0.05880674
-0.29175499 -0.26277283 0.058979981
-0.29194111 -0.26273111 0.059135966
-0.2921311 -0.26268864 0.059294246
-0.29231709 -0.26264426 0.059469827
-0.29250756 -0.26260066 0.059636179
-0.29269376 -0.2625542 0.059826743
-0.29288143 -0.26251075 0.059994258
-0.2930702 -0.26246935 0.060145624
-0.29326406 -0.26243135 0.060268141
-0.2934494 -0.26237556 0.060527883
-0.29364216 -0.26233059 0.06070229
-0.29383141 -0.26228476 0.060885929
-0.24193424 -0.26775053 0.062593624
-0.24215406 -0.26772481 0.062605381
-0.24238171 -0.26769963 0.062606722
-0.24263415 -0.26768243 0.062529564
-0.24286468 -0.26765817 0.062521674
-0.24310148 -0.26763719 0.062484927
-0.24333066 -0.26761279 0.062479347
-0.2435504 -0.26758754 0.062487639
-0.2437951 -0.2675674 0.06243819
-0.24401441 -0.26754218 0.062446482
-0.24424976 -0.2675198 0.062421277
-0.24449024 -0.26750043 0.062369533
-0.24472868 -0.26747912 0.062333941
-0.24496149 -0.26745793 0.062301829
-0.24516736 -0.26742947 0.062344771
-0.24541397 -0.26741228 0.062272243
-0.24563217 -0.26738578 0.062290914
-0.24587283 -0.26736718 0.062233403
-0.24609384 -0.26734164 0.062242851
-0.24631222 -0.267317 0.06224769
-0.24656445 -0.26730046 0.062165923
-0.24677478 -0.26727369 0.062192705
-0.24701363 -0.26725361 0.062147886
-0.24722835 -0.26722825 0.062160805
-0.24747922 -0.26721185 0.062079046
-0.24770837 -0.26719093 0.0620481
-0.2479413 -0.26716956 0.062017146
-0.24815595 -0.26714456 0.06202776
-0.24836907 -0.2671175 0.06205453
-0.24857979 -0.26708975 0.062088225
-0.24881873 -0.26707059 0.062036488
-0.24905406 -0.26705211 0.061982468
-0.24928132 -0.26702964 0.061964214
-0.24951038 -0.2670095 0.061927497
-0.24972624 -0.26698372 0.061942734
-0.24996004 -0.26696527 0.061889857
-0.25018522 -0.26694256 0.061875068
-0.25039613 -0.26691714 0.061891474
-0.25062647 -0.26689625 0.061859377
-0.25084481 -0.26687333 0.061851531
-0.25107387 -0.26685223 0.061821744
-0.2512925 -0.26682788 0.061824277
-0.25151494 -0.26680484 0.061814114
-0.25173825 -0.26678392 0.061787799
-0.25196961 -0.26676399 0.061747629
-0.25219494 -0.2667422 0.061725926
-0.25240543 -0.26671559 0.061751544
-0.25263065 -0.26669571 0.061716009
-0.25283912 -0.26666853 0.061747417
-0.25306928 -0.26664874 0.06170724
-0.25331172 -0.26663327 0.061625514
-0.25352305 -0.2666091 0.061632682
-0.25373435 -0.26658317 0.061652541
-0.25395659 -0.26656112 0.061635464
-0.25416008 -0.2665326 0.061680727
-0.25439784 -0.26651794 0.061596714
-0.25462282 -0.26649714 0.061568081
-0.2548489 -0.26647684 0.061534852
-0.2550993 -0.2664654 0.061417341
-0.25529471 -0.26643619 0.061474167
-0.25550508 -0.26641053 0.061492875
-0.2557435 -0.26639518 0.061413474
-0.2559512 -0.26636872 0.061440267
-0.25616735 -0.26634732 0.061423209
-0.25640193 -0.26633096 0.06135419
-0.25660041 -0.26630315 0.061398324
-0.25682315 -0.26628071 0.061383545
-0.25703824 -0.26625925 0.06136765
-0.25725925 -0.26623827 0.061343655
-0.25747144 -0.26621398 0.061350826
-0.25769556 -0.26619437 0.061314143
-0.25792435 -0.26617867 0.061245151
-0.25815073 -0.26616022 0.061198086
-0.25835562 -0.26613346 0.061229497
-0.25856325 -0.26610777 0.061250523
-0.25876981 -0.26608568 0.061246194
-0.25899708 -0.26606604 0.061207183
-0.25922418 -0.26604849 0.061153188
-0.25944826 -0.26602983 0.061109588
-0.25964433 -0.26600179 0.061157178
-0.25985119 -0.26597622 0.061178207
-0.26007947 -0.26595962 0.06111614
-0.26030445 -0.2659418 0.061065614
-0.26051795 -0.26592132 0.061043955
-0.26072359 -0.26589555 0.061067298
-0.26093593 -0.26587269 0.061064098
-0.26115507 -0.26585284 0.061033193
-0.26138347 -0.26583919 0.060949221
-0.26157153 -0.26581442 0.060979553
-0.26178908 -0.26578578 0.061014377
-0.26200974 -0.26576701 0.06097424
-0.26223084 -0.26575074 0.060915664
-0.26244423 -0.26572901 0.060903236
-0.2626332 -0.2657049 0.060927797
-0.26283607 -0.26569578 0.060831249
-0.26306161 -0.2656669 0.060861424
-0.26324892 -0.2656422 0.060891759
-0.26346463 -0.26562634 0.060834356
-0.26369423 -0.26559955 0.060846068
-0.26382455 -0.26556578 0.060988478
-0.26411647 -0.2655575 0.060814302
-0.26436168 -0.26553842 0.060756773
-0.26457742 -0.26551878 0.060727045
-0.26479188 -0.26549867 0.060701925
-0.26498583 -0.26547545 0.060716093
-0.26516539 -0.2654497 0.060760297
-0.2653845 -0.26542291 0.060780123
-0.26556593 -0.26540044 0.060798958
-0.26582846 -0.26538637 0.060690627
-0.2660253 -0.26536959 0.060655206
-0.26625022 -0.26535085 0.060611602
-0.26647541 -0.26532766 0.060600273
-0.26662058 -0.2652843 0.060801417
-0.26689637 -0.26528531 0.06057198
-0.26709569 -0.26526558 0.060556151
-0.26731637 -0.26524526 0.060527541
-0.26749811 -0.26522604 0.060522165
-0.26770744 -0.26520711 0.060492452
-0.26791704 -0.26518106 0.060514629
-0.26814413 -0.26516223 0.060469858
-0.26835421 -0.2651341 0.060507014
-0.26857558 -0.26511982 0.060433447
-0.26878026 -0.26510391 0.060385309
-0.26896521 -0.26507694 0.060434107
-0.2691963 -0.26505595 0.060402006
-0.26937693 -0.26503167 0.060434666
-0.26961434 -0.26501971 0.060331054
-0.26983291 -0.26499963 0.060302459
-0.2700218 -0.26497254 0.060348935
-0.27024221 -0.26495901 0.060270756
-0.27043191 -0.26493782 0.060273416
-0.27062482 -0.26491594 0.060278364
-0.27082771 -0.26489756 0.060249835
-0.2710717 -0.26487216 0.060239576
-0.27128363 -0.26485422 0.060200639
-0.27146804 -0.26483282 0.060209088
-0.27164561 -0.26480713 0.060254447
-0.27184492 -0.26478976 0.060221329
-0.27208921 -0.26477629 0.060123444
-0.27230519 -0.2647475 0.060160585
-0.27252474 -0.26473531 0.060073189
-0.27273098 -0.26471451 0.060059629
-0.27293158 -0.2646901 0.060077228
-0.27313858 -0.26466998 0.060057908
-0.27334028 -0.26464638 0.060068585
-0.27354157 -0.26462552 0.060059659
-0.27374583 -0.26460382 0.060054187
-0.27395061 -0.26458254 0.06004525
-0.27415836 -0.26456347 0.060017861
-0.27436796 -0.26454893 0.059955865
-0.27457041 -0.26452634 0.059958473
-0.27474517 -0.26450834 0.059949659
-0.27497843 -0.26448366 0.059942905
-0.27517879 -0.26446286 0.059933998
-0.27538493 -0.26444334 0.059911214
-0.27557045 -0.26441473 0.059971541
-0.27579063 -0.26439965 0.059904892
-0.27599055 -0.26438537 0.059848703
-0.27617806 -0.2643649 0.059847914
-0.2764028 -0.26434413 0.059819296
-0.2766076 -0.26432094 0.059824191
-0.27681747 -0.26430857 0.059746061
-0.27700225 -0.26428965 0.059736058
-0.27720484 -0.26427177 0.059704065
-0.27739888 -0.26424694 0.05972977
-0.27762088 -0.26422128 0.05973921
-0.27782613 -0.26420248 0.059711821
-0.27803531 -0.26418719 0.059655599
-0.27822238 -0.26416722 0.059651345
-0.27844474 -0.264153 0.059576623
-0.27863792 -0.26412418 0.059632301
-0.27884462 -0.26411104 0.059562251
-0.27905345 -0.26409265 0.059529088
-0.27923277 -0.26405495 0.059660912
-0.27940181 -0.26404893 0.059569113
-0.27963355 -0.26402944 0.059525482
-0.27982509 -0.26400679 0.059537351
-0.28001511 -0.26399043 0.059504271
-0.28020343 -0.26396483 0.059540361
-0.28042442 -0.26394731 0.059491009
-0.28062281 -0.26392767 0.059475183
-0.28084677 -0.26390949 0.059428118
-0.28101411 -0.26387909 0.059516184
-0.28122473 -0.26386395 0.059457652
-0.28143293 -0.26384658 0.059417568
-0.28162882 -0.26382911 0.059387922
-0.28185511 -0.26381004 0.059345461
-0.28202748 -0.26378053 0.059423126
-0.28223017 -0.26376641 0.059363477
-0.28242472 -0.2637524 0.059309617
-0.28262949 -0.26373222 0.059292614
-0.28284279 -0.26371285 0.059262887
-0.2830157 -0.26367918 0.059370529
-0.2832194 -0.26368099 0.059193268
-0.28344148 -0.2636539 0.059213083
-0.28362334 -0.26362115 0.05930686
-0.28381014 -0.26360375 0.059284166
-0.28401938 -0.26358986 0.059217565
-0.28420746 -0.26356459 0.059251353
-0.28443933 -0.26354995 0.059171975
-0.2846067 -0.26352334 0.059232377
-0.28481826 -0.26350826 0.059172679
-0.28502312 -0.26348978 0.059142992
-0.28521034 -0.26346871 0.059146814
-0.28540462 -0.26345205 0.059112556
-0.28560603 -0.26342928 0.059117466
-0.28581536 -0.26341224 0.059073921
-0.28600392 -0.26339903 0.05901894
-0.28620958 -0.26337719 0.059013456
-0.28640848 -0.26335686 0.059002247
-0.28660509 -0.26334485 0.058932237
-0.2868225 -0.26330599 0.059041996
-0.28702727 -0.26330107 0.058913164
-0.28721124 -0.26327595 0.058949281
-0.28739253 -0.26325881 0.058928911
-0.28760231 -0.26323199 0.058956843
-0.28782687 -0.26321059 0.058932841
-0.28799462 -0.26320329 0.058851428
-0.28817856 -0.26317155 0.058935963
-0.28838703 -0.26315585 0.058883205
-0.28859538 -0.26314032 0.058829285
-0.28877455 -0.26312736 0.058780111
-0.28900406 -0.26309523 0.058831021
-0.28919411 -0.2630817 0.058777176
-0.28936327 -0.26305723 0.058820274
-0.28955996 -0.26304236 0.058771025
-0.28976581 -0.26302335 0.058744792
-0.28995827 -0.26300815 0.058701314
-0.29015583 -0.26297995 0.058748901
-0.29034692 -0.26296207 0.058726192
-0.29054922 -0.26295272 0.058631949
-0.29073286 -0.262927 0.058672674
-0.29092643 -0.26290679 0.058664948
-0.2911303 -0.26287556 0.058729798
-0.29135576 -0.26282322 0.05893176
-0.29154122 -0.26278174 0.059086621
-0.29173091 -0.26274058 0.059235699
-0.29191068 -0.26270175 0.059375599
-0.29211503 -0.2626577 0.059533834
-0.29230577 -0.26261613 0.059685215
-0.29247418 -0.26257366 0.0598609
-0.29266602 -0.26253304 0.060004208
-0.29287812 -0.26248455 0.060188927
-0.29306501 -0.26243722 0.060385287
-0.29325619 -0.26239023 0.060575873
-0.29344484 -0.26234555 0.060751464
-0.24210119 -0.2677353 0.062570848
-0.24234532 -0.2677159 0.062516764
-0.24258463 -0.26769385 0.062485762
-0.24280028 -0.26766729 0.06250675
-0.24302216 -0.26764244 0.062510408
-0.2432676 -0.26762381 0.062449396
-0.24349955 -0.26760179 0.062424183
-0.24372736 -0.2675772 0.062420905
-0.24395627 -0.26755455 0.062402621
-0.24418905 -0.26753148 0.062384337
-0.24440914 -0.26750666 0.062389158
-0.2446315 -0.26748097 0.062398586
-0.24484506 -0.2674545 0.062420737
-0.24506585 -0.26743007 0.062422097
-0.24531996 -0.2674149 0.062328748
-0.24556182 -0.26739493 0.062280439
-0.24577293 -0.26736811 0.062307209
-0.24601623 -0.26734877 0.062253125
-0.24624425 -0.26732683 0.062230237
-0.2464865 -0.26730746 0.062177308
-0.24668448 -0.26727718 0.062239885
-0.24693403 -0.26726174 0.062152334
-0.2471697 -0.26724243 0.062104046
-0.24738471 -0.26721564 0.062127344
-0.24759749 -0.26718989 0.062144876
-0.24783331 -0.26716933 0.06210582
-0.24806283 -0.26714867 0.062072553
-0.24828607 -0.26712459 0.062069282
-0.24850583 -0.26710123 0.062063735
-0.24874093 -0.2670809 0.062023517
-0.24897552 -0.26706219 0.061971784
-0.2492024 -0.2670396 0.061954655
-0.2494254 -0.2670176 0.061936408
-0.24964692 -0.26699358 0.061934307
-0.24985898 -0.26696837 0.061948389
-0.25009879 -0.26695019 0.061888553
-0.25031197 -0.26692548 0.061898023
-0.25053269 -0.26690155 0.061895929
-0.25075403 -0.26687956 0.061878834
-0.25097513 -0.26685762 0.061861746
-0.25121757 -0.26684263 0.061776523
-0.25142542 -0.26681489 0.061812539
-0.25164366 -0.26679233 0.061802376
-0.25185993 -0.26676744 0.061810672
-0.25210041 -0.26675233 0.06172777
-0.25232196 -0.26672938 0.0617176
-0.25249118 -0.26670668 0.061748013
-0.2526592 -0.26668534 0.061769195
-0.25292221 -0.26665708 0.061764613
-0.25319582 -0.26663789 0.061685026
-0.25340724 -0.26661369 0.061692193
-0.25364673 -0.26659745 0.061618529
-0.25387812 -0.26658034 0.061557569
-0.25408387 -0.26655269 0.061594743
-0.2542966 -0.26652929 0.061594989
-0.25451392 -0.2665076 0.061579064
-0.25473273 -0.26648653 0.061557379
-0.25494921 -0.26646289 0.061556447
-0.25516883 -0.26644599 0.061503612
-0.25539809 -0.26642346 0.06148418
-0.25562599 -0.26640612 0.06142785
-0.25584099 -0.26638234 0.06142924
-0.2560598 -0.26636189 0.061402932
-0.25627115 -0.26633692 0.061415866
-0.25647685 -0.26631176 0.061434589
-0.25671038 -0.26629522 0.061367866
-0.25693062 -0.26627573 0.061333477
-0.25713685 -0.26624912 0.061362576
-0.25736532 -0.26623297 0.061297022
-0.25757381 -0.26620737 0.061316885
-0.25776222 -0.26617593 0.061395653
-0.25798887 -0.26615748 0.061348554
-0.25823855 -0.26615018 0.061201036
-0.25844055 -0.26612231 0.061242841
-0.25865349 -0.26610076 0.061229244
-0.25886118 -0.26607525 0.061249111
-0.25908518 -0.26605836 0.061192803
-0.25930572 -0.26603818 0.061163031
-0.25952303 -0.26601887 0.061129801
-0.25973046 -0.26599354 0.061148521
-0.25993872 -0.26597062 0.061148785
-0.26015905 -0.2659508 0.06111671
-0.26036283 -0.26592413 0.061148122
-0.26052356 -0.265908 0.061137054
-0.26079249 -0.26588446 0.061093237
-0.26101905 -0.26586774 0.061033458
-0.26123127 -0.26584706 0.061014105
-0.26145756 -0.26583052 0.06095317
-0.26164562 -0.26580369 0.060998492
-0.26187027 -0.26578245 0.060973313
-0.26207668 -0.26575959 0.060974732
-0.26228991 -0.26573771 0.060963444
-0.26250759 -0.2657201 0.060917545
-0.26271409 -0.26569754 0.060916655
-0.26293117 -0.26568422 0.060839616
-0.26315001 -0.26566532 0.060801789
-0.26328593 -0.26563004 0.060951114
-0.26350522 -0.26562464 0.060814098
-0.26375863 -0.26560026 0.060788795
-0.26399195 -0.26557541 0.060783189
-0.26420146 -0.2655549 0.060764998
-0.26440543 -0.26553184 0.060769886
-0.26461303 -0.26551056 0.060758621
-0.26481247 -0.26549903 0.060682811
-0.26501879 -0.26547506 0.06069231
-0.26524755 -0.26545542 0.060652122
-0.26544696 -0.26543051 0.060674332
-0.26565114 -0.26540568 0.060691904
-0.26587713 -0.2653873 0.06064482
-0.26608086 -0.26536474 0.060646243
-0.26627794 -0.26535296 0.060573913
-0.26647505 -0.26533189 0.060569607
-0.26670486 -0.26530176 0.060605522
-0.26691905 -0.2652826 0.06057347
-0.26712948 -0.26526403 0.060540281
-0.26731834 -0.26524371 0.060537171
-0.26750234 -0.26522332 0.060538687
-0.26772904 -0.26520404 0.060497355
-0.26794386 -0.26518831 0.060439933
-0.26813379 -0.26515654 0.060519844
-0.26837197 -0.26513901 0.060456555
-0.26857793 -0.26512375 0.060402628
-0.2687884 -0.26510361 0.060380965
-0.26898825 -0.265075 0.0604297
-0.26920739 -0.26506257 0.060344584
-0.26941118 -0.26503888 0.060354084
-0.26961297 -0.2650167 0.060354374
-0.2698206 -0.26500061 0.060305059
-0.26998746 -0.26497626 0.060349315
-0.27024037 -0.26496106 0.060257129
-0.27042714 -0.26493815 0.060274787
-0.27061778 -0.26491764 0.060271665
-0.27084455 -0.26489508 0.060254544
-0.27105033 -0.26487324 0.06024906
-0.27125892 -0.26485595 0.060207795
-0.27147147 -0.26483855 0.060164224
-0.27167353 -0.26481742 0.060156442
-0.271864 -0.26479176 0.060191371
-0.27208921 -0.26478288 0.060075097
-0.2722902 -0.26475856 0.060091533
-0.27248415 -0.26473251 0.06012645
-0.27267078 -0.26470158 0.060202915
-0.27288502 -0.26468903 0.06012243
-0.27308744 -0.26466581 0.060129635
-0.27329284 -0.26464763 0.06009762
-0.27349645 -0.2646372 0.060010258
-0.27371135 -0.26461405 0.060007039
-0.27390665 -0.26458925 0.06003157
-0.27411219 -0.26457167 0.05999494
-0.27430591 -0.26454282 0.060050614
-0.27451766 -0.26452991 0.059974756
-0.27472463 -0.26451376 0.059926592
-0.27492276 -0.26449132 0.059931505
-0.2751362 -0.26447713 0.059863716
-0.27534956 -0.26446626 0.059771702
-0.27553383 -0.26443055 0.059885073
-0.27573848 -0.26441339 0.059846144
-0.27594018 -0.26439735 0.059801459
-0.27614033 -0.26437375 0.059813291
-0.27633485 -0.26434904 0.059837822
-0.27652651 -0.26433206 0.059808172
-0.27674985 -0.26431379 0.059762247
-0.27694666 -0.26429451 0.05974526
-0.27712965 -0.26427418 0.059746791
-0.27734244 -0.26425457 0.05971935
-0.27752754 -0.26422584 0.059780829
-0.27774626 -0.26421487 0.059685335
-0.27795306 -0.26419055 0.059697136
-0.2781446 -0.26416379 0.059738979
-0.27832374 -0.2641477 0.05971285
-0.2785511 -0.26413435 0.059627689
-0.27872157 -0.26410723 0.059689231
-0.27893049 -0.26410344 0.05954881
-0.27913702 -0.2640757 0.059585981
-0.2793178 -0.26405799 0.059570219
-0.2795302 -0.26403952 0.059534706
-0.2797173 -0.26402035 0.059524685
-0.27992266 -0.26399934 0.059513427
-0.28013992 -0.26398206 0.059465222
-0.28034025 -0.26395246 0.05952087
-0.28054047 -0.26394254 0.059432365
-0.28073505 -0.26392335 0.059416547
-0.28093553 -0.26390207 0.059411079
-0.28111079 -0.26387978 0.059433386
-0.28130496 -0.26385212 0.059479836
-0.28154096 -0.26384711 0.059326604
-0.28173542 -0.2638284 0.059307329
-0.28191844 -0.26379755 0.059386112
-0.28211665 -0.26377434 0.059396788
-0.28230873 -0.26375318 0.059397124
-0.28250074 -0.26374528 0.059300587
-0.28271678 -0.26372451 0.059278909
-0.28290141 -0.26369521 0.059345007
-0.28310779 -0.26368636 0.059243798
-0.28330931 -0.26366293 0.059253313
-0.28351 -0.26364794 0.059201717
-0.28370878 -0.2636404 0.059097078
-0.28390187 -0.26360232 0.059220791
-0.28411359 -0.26357713 0.059234887
-0.28431287 -0.26357093 0.059119858
-0.28449026 -0.26354229 0.059187144
-0.28470087 -0.26353109 0.059099749
-0.28489727 -0.2635068 0.059119672
-0.28510132 -0.2634927 0.05905883
-0.28529739 -0.26347333 0.059043001
-0.28547522 -0.26345044 0.059067614
-0.28567871 -0.26342538 0.059087496
-0.28587165 -0.2634128 0.059024397
-0.28609169 -0.26338941 0.059018847
-0.28627598 -0.26337603 0.05896847
-0.28647232 -0.26335791 0.058943417
-0.28667092 -0.26333165 0.058976006
-0.2868768 -0.26331654 0.058920927
-0.28707853 -0.26329529 0.058914296
-0.28727266 -0.26327425 0.058912311
-0.28745243 -0.26324865 0.05895536
-0.28767985 -0.26323199 0.058894429
-0.28786325 -0.26321888 0.058842905
-0.28804931 -0.26319098 0.058897454
-0.28824118 -0.26316643 0.058923163
-0.28843746 -0.26314956 0.058888875
-0.28863138 -0.26312867 0.058885746
-0.28885531 -0.2631143 0.058810987
-0.28905338 -0.26310164 0.058744408
-0.28922462 -0.2630741 0.058808252
-0.28940502 -0.26304951 0.058843225
-0.28962484 -0.26305085 0.058656622
-0.28983009 -0.26302341 0.058692649
-0.29001191 -0.26300195 0.0587034
-0.29021031 -0.26298377 0.058677182
-0.29038832 -0.26295409 0.058751382
-0.2905921 -0.26293969 0.05869285
-0.29080072 -0.26291108 0.058734618
-0.29102013 -0.26286337 0.058907814
-0.29121223 -0.26282084 0.059064969
-0.29140028 -0.26277652 0.0592383
-0.29157934 -0.26273683 0.059385136
-0.2917721 -0.26269281 0.05955267
-0.29196617 -0.26265115 0.059701748
-0.29214913 -0.26260868 0.059865873
-0.29233614 -0.26256591 0.060028821
-0.29253453 -0.26252237 0.060188264
-0.29272509 -0.26247638 0.06037195
-0.29291615 -0.26243049 0.060554489
-0.29310381 -0.26238418 0.060742799
