# .PCD v0.7 - Point Cloud Data file format
VERSION 0.7
FIELDS x y z
SIZE 4 4 4
TYPE F F F
COUNT 1 1 1
WIDTH 1255
HEIGHT 1
VIEWPOINT 0 0 0 1 0 0 0
POINTS 1255
DATA ascii
-0.077581577 -0.39569676 0.05740666
-0.077741861 -0.39580184 0.057382822
-0.077899247 -0.39590487 0.05736015
-0.078070112 -0.39600757 0.057392798
-0.078230999 -0.39611226 0.057373576
-0.07839793 -0.3962208 0.05735432
-0.078562289 -0.39632714 0.057338543
-0.078723595 -0.39643505 0.057300851
-0.078898393 -0.39653951 0.057338089
-0.079062872 -0.3966561 0.057258852
-0.079223886 -0.39676401 0.057220012
-0.079392731 -0.39686137 0.057278056
-0.079549171 -0.39696142 0.057270385
-0.079718761 -0.39705536 0.057352662
-0.079884082 -0.39716136 0.057342641
-0.080045737 -0.39728543 0.057205722
-0.080212332 -0.39739725 0.05716455
-0.080379546 -0.39749265 0.057228368
-0.080537811 -0.3976016 0.057172235
-0.080679178 -0.39771116 0.057045799
-0.080834851 -0.39781144 0.057033524
-0.081005514 -0.39791825 0.057039633
-0.081190139 -0.39803207 0.057057217
-0.08136408 -0.39814392 0.057044856
-0.081537925 -0.39825273 0.057050955
-0.081703879 -0.39834327 0.057140157
-0.081852138 -0.39845255 0.057042535
-0.082003519 -0.39855754 0.056984123
-0.082151026 -0.39865783 0.05693958
-0.08233162 -0.39876446 0.05698603
-0.08250732 -0.39885229 0.057130571
-0.082660995 -0.39897406 0.056976382
-0.082813546 -0.39907849 0.056926042
-0.082957663 -0.39918551 0.05682613
-0.083135769 -0.39928466 0.056909516
-0.083315015 -0.39939505 0.05692713
-0.083479412 -0.39950714 0.056875575
-0.083645217 -0.39961034 0.056885168
-0.083816312 -0.39971206 0.056924745
-0.083977431 -0.39981949 0.056889366
-0.084136859 -0.39993012 0.056827456
-0.084302321 -0.40004179 0.056782819
-0.084462181 -0.40014398 0.056775145
-0.084620684 -0.40024385 0.056776691
-0.08478944 -0.40035465 0.056750506
-0.084946223 -0.40045768 0.056725536
-0.085119329 -0.40056473 0.056739714
-0.085306615 -0.40067911 0.056764208
-0.085448466 -0.40078565 0.056658536
-0.085605226 -0.40088609 0.056649715
-0.085777864 -0.40099081 0.056676582
-0.085936897 -0.40109083 0.05667929
-0.086098596 -0.4011929 0.056679673
-0.086245194 -0.40130576 0.056553211
-0.086403415 -0.40141359 0.056504011
-0.08655256 -0.40151808 0.056439839
-0.086729854 -0.40161964 0.056504764
-0.086909264 -0.4017235 0.056563906
-0.087079555 -0.40182915 0.05657579
-0.087244809 -0.4019407 0.056531161
-0.087415673 -0.40204635 0.056545351
-0.087594345 -0.40215564 0.056567572
-0.087755889 -0.40226537 0.056519501
-0.087891109 -0.40236956 0.056402326
-0.088068739 -0.40246952 0.056478783
-0.088241808 -0.40257746 0.056487195
-0.08840356 -0.40268475 0.056455273
-0.088568062 -0.40279636 0.05640718
-0.088727698 -0.40290156 0.056379884
-0.088881209 -0.40300289 0.056352623
-0.089047648 -0.40310723 0.056357604
-0.089216992 -0.40321821 0.056332566
-0.089376666 -0.40332344 0.056305271
-0.089538082 -0.40342847 0.056286037
-0.089696869 -0.40353611 0.05624029
-0.08987461 -0.40364167 0.056282133
-0.090052024 -0.40374738 0.056321669
-0.090215579 -0.40386358 0.056241285
-0.090343297 -0.40396303 0.056124143
-0.090527266 -0.4040705 0.056178655
-0.090696327 -0.40417278 0.056206692
-0.09088888 -0.40428418 0.056270394
-0.09102799 -0.40439788 0.056109354
-0.091204792 -0.40450191 0.056156971
-0.091357514 -0.40461218 0.056070864
-0.091528028 -0.40472111 0.05606313
-0.091693267 -0.40482616 0.056058887
-0.091852136 -0.40492737 0.056053516
-0.092019632 -0.40503237 0.056058493
-0.09218061 -0.40513989 0.056021951
-0.092349485 -0.40524283 0.056045383
-0.09251406 -0.4053565 0.055984601
-0.092674479 -0.40545574 0.055997688
-0.092861384 -0.40556431 0.056056798
-0.09302476 -0.40567189 0.056029487
-0.093210265 -0.40577662 0.056107059
-0.093351901 -0.40589115 0.055950627
-0.093492627 -0.40599531 0.055855338
-0.093673117 -0.40609634 0.055936404
-0.093848981 -0.40620977 0.055921726
-0.093993545 -0.4063158 0.05582989
-0.094168372 -0.40642524 0.055835981
-0.094353907 -0.40653461 0.055884708
-0.094512887 -0.4066444 0.055826262
-0.094665498 -0.40674627 0.055792082
-0.094843686 -0.40685397 0.055822387
-0.094994709 -0.40695983 0.055757057
-0.095167525 -0.40706763 0.055765469
-0.095342532 -0.40717942 0.055757709
-0.09550903 -0.40729117 0.055716537
-0.095667481 -0.40738937 0.055728476
-0.095824972 -0.40749913 0.055664264
-0.095992297 -0.40760902 0.055638086
-0.096181467 -0.4077155 0.055719115
-0.096338615 -0.40782338 0.055665284
-0.096489117 -0.407933 0.055574581
-0.0966582 -0.40803549 0.055601466
-0.096843883 -0.40814605 0.055643275
-0.097005799 -0.40825975 0.055572126
-0.097173728 -0.40836427 0.055581711
-0.097334944 -0.40846863 0.055565946
-0.09752211 -0.40858328 0.05558813
-0.09768004 -0.40868759 0.055559687
-0.097830728 -0.40879345 0.055493206
-0.097993098 -0.40889797 0.055480901
-0.098158285 -0.40900633 0.055455878
-0.098334052 -0.40911525 0.055468898
-0.098516606 -0.40922645 0.055494562
-0.0986728 -0.4093326 0.055447668
-0.098808631 -0.40943757 0.055328175
-0.098984174 -0.40954489 0.055350423
-0.099175282 -0.40965685 0.055404902
-0.099328935 -0.40976289 0.05534878
-0.099490635 -0.40987125 0.05530994
-0.099680737 -0.40998518 0.055348266
-0.099854827 -0.41009104 0.055373978
-0.10002355 -0.41020179 0.055347793
-0.10019204 -0.41030908 0.055342376
-0.10035338 -0.41041759 0.055301227
-0.1005365 -0.41052619 0.055345353
-0.10067825 -0.41063136 0.055247761
-0.10084562 -0.41074386 0.055205427
-0.10100406 -0.41084701 0.055186216
-0.10120831 -0.41095954 0.05528909
-0.10135038 -0.41106641 0.05518226
-0.1014929 -0.41116983 0.055098511
-0.10164544 -0.41127759 0.055027407
-0.10183722 -0.41138759 0.055096872
-0.10198808 -0.41149518 0.055020005
-0.10217674 -0.41160673 0.055067569
-0.10235544 -0.41171733 0.055081721
-0.10251874 -0.41182467 0.055055559
-0.1026725 -0.41193265 0.054987907
-0.1028451 -0.41204271 0.054981325
-0.10303319 -0.41215461 0.055024277
-0.10321867 -0.4122647 0.055068385
-0.10336612 -0.41237202 0.054979999
-0.10352089 -0.4124769 0.054935418
-0.1037263 -0.41259128 0.055031367
-0.10391231 -0.41270503 0.055054713
-0.10404299 -0.41281024 0.05491332
-0.10421702 -0.4129177 0.054928653
-0.10437587 -0.41302648 0.054875977
-0.10453743 -0.41313401 0.054841749
-0.10470779 -0.41324434 0.054824784
-0.10488774 -0.41335443 0.054847009
-0.10507217 -0.41346681 0.054872662
-0.10522451 -0.41357478 0.054799251
-0.10540318 -0.41368651 0.054806482
-0.10558599 -0.41379729 0.054835614
-0.10573879 -0.41390538 0.054763347
-0.10589939 -0.41401306 0.054724514
-0.10608552 -0.414123 0.054772086
-0.10624452 -0.41423205 0.05471826
-0.1064174 -0.41434324 0.054705892
-0.10658874 -0.41445267 0.054698162
-0.10675057 -0.41456226 0.054652393
-0.10692637 -0.41467249 0.054657329
-0.10709615 -0.41478336 0.054634597
-0.10725926 -0.41489169 0.05460152
-0.10744101 -0.41500461 0.054613348
-0.10760073 -0.41511247 0.054569896
-0.1078022 -0.41522878 0.054638166
-0.10796133 -0.41533661 0.054592408
-0.10813729 -0.41544732 0.054595035
-0.10828412 -0.41555461 0.054504339
-0.10847675 -0.41566831 0.054554194
-0.10865311 -0.41578221 0.054538358
-0.10879269 -0.41588825 0.054426931
-0.10898097 -0.41600138 0.054462954
-0.10914741 -0.41611221 0.054427549
-0.109334 -0.41622669 0.054448586
-0.10950237 -0.41633502 0.054436252
-0.10967483 -0.4164485 0.054407738
-0.10984246 -0.4165597 0.054374639
-0.1100141 -0.41666731 0.054379582
-0.11019477 -0.4167825 0.054372959
-0.11036605 -0.4168945 0.054349072
-0.11054792 -0.41700858 0.054353971
-0.1107054 -0.41711372 0.054318611
-0.11089431 -0.41722932 0.054341942
-0.11105356 -0.41733631 0.054301962
-0.11121419 -0.41744787 0.054238889
-0.11138566 -0.41756445 0.054187305
-0.11158574 -0.4176797 0.054256741
-0.11173041 -0.41778246 0.054185674
-0.11192827 -0.41790593 0.054195117
-0.11209377 -0.41801301 0.054179326
-0.11225791 -0.41812122 0.054150861
-0.11245005 -0.41823813 0.054178789
-0.11260943 -0.41834685 0.05412842
-0.11278637 -0.41845933 0.054124124
-0.11296502 -0.41857359 0.054115187
-0.11310078 -0.41867736 0.054002628
-0.11330681 -0.41879898 0.054055877
-0.11351892 -0.41892201 0.054124098
-0.11366953 -0.41902632 0.054066852
-0.028324973 -0.36777601 0.037490074
-0.028488319 -0.36788356 0.037462741
-0.02865307 -0.36798906 0.037453864
-0.028816298 -0.36809468 0.037438072
-0.028985705 -0.36820865 0.037394565
-0.029146664 -0.36831155 0.037386853
-0.02930915 -0.36841246 0.037397604
-0.029474314 -0.36851913 0.037382964
-0.029639021 -0.36862534 0.037369464
-0.029805671 -0.3687385 0.0373202
-0.029972028 -0.36884722 0.037297476
-0.03013448 -0.3689529 0.037278228
-0.030300174 -0.36906102 0.037256658
-0.030464254 -0.36916924 0.037228163
-0.030625708 -0.36927614 0.037197381
-0.030788887 -0.36937693 0.03721159
-0.030950576 -0.3694801 0.037205033
-0.031112902 -0.36958647 0.037181176
-0.031277686 -0.36969417 0.037158448
-0.03143863 -0.36979893 0.037139207
-0.031595767 -0.3699007 0.037123445
-0.031759989 -0.37000585 0.037114579
-0.031916298 -0.37010673 0.037101131
-0.032083713 -0.3702189 0.037061084
-0.03224745 -0.37032151 0.037066057
-0.032405198 -0.37042257 0.037057221
-0.032569416 -0.37053069 0.037029885
-0.032728039 -0.37063783 0.036986429
-0.032886066 -0.3707374 0.036987972
-0.033046946 -0.37084118 0.03697449
-0.033203863 -0.3709417 0.036965657
-0.033363208 -0.37104821 0.036929116
-0.033527948 -0.37115332 0.036922548
-0.033687476 -0.3712557 0.036912542
-0.03384709 -0.37136069 0.036886379
-0.034008715 -0.37146643 0.036863677
-0.034163788 -0.37156504 0.036859464
-0.034324385 -0.37167197 0.036825225
-0.034486327 -0.37177864 0.036797903
-0.034642223 -0.37187889 0.036786765
-0.034802362 -0.37198073 0.036782525
-0.034961697 -0.37208888 0.036735598
-0.035122566 -0.37219211 0.036725588
-0.035279606 -0.37229216 0.036720213
-0.035431799 -0.37238747 0.036725242
-0.035590641 -0.37249053 0.036708321
-0.03575179 -0.37259725 0.036677539
-0.03591191 -0.37270257 0.036651377
-0.036067616 -0.37280381 0.03663332
-0.036224164 -0.37290391 0.036625627
-0.036381178 -0.37300488 0.036614485
-0.036539193 -0.37311018 0.036580261
-0.036694895 -0.37320939 0.036574893
-0.036852036 -0.37331098 0.036560282
-0.037009217 -0.37341279 0.036544517
-0.037167393 -0.37351632 0.03652183
-0.03731934 -0.37361279 0.036518782
-0.037475154 -0.37371558 0.036491498
-0.037631147 -0.37381607 0.036479197
-0.037788104 -0.37391552 0.036477286
-0.037938781 -0.37401322 0.036461554
-0.0380973 -0.3741183 0.036430784
-0.038251609 -0.37421662 0.036425415
-0.038407233 -0.37431726 0.03641082
-0.038559213 -0.37441483 0.036400847
-0.038717415 -0.37452006 0.036367774
-0.038871706 -0.37461895 0.036358953
-0.039026573 -0.3747189 0.036345512
-0.039177466 -0.37481526 0.036339007
-0.039329633 -0.3749139 0.036323268
-0.039487347 -0.37501919 0.036287893
-0.039639931 -0.37511587 0.036286
-0.03979183 -0.37521452 0.036269102
-0.039945602 -0.37531656 0.036238369
-0.040100064 -0.37541389 0.036239915
-0.040252328 -0.37551054 0.036236875
-0.040407907 -0.37561318 0.03620958
-0.040559914 -0.37571284 0.036186922
-0.040710941 -0.37581408 0.036150418
-0.040865906 -0.37591299 0.036143906
-0.041015081 -0.37600809 0.036138561
-0.041169092 -0.3761088 0.036117043
-0.041318499 -0.37620458 0.036108244
-0.041471303 -0.37630343 0.036093663
-0.041625649 -0.3764053 0.036066376
-0.041776359 -0.37650061 0.036065638
-0.041925497 -0.37660325 0.036013
-0.042078391 -0.37669957 0.036014564
-0.042226747 -0.37679431 0.036008071
-0.04238309 -0.37689745 0.035980783
-0.042532496 -0.37699452 0.035963897
-0.042683508 -0.37709132 0.035955094
-0.042833656 -0.37719014 0.035930134
-0.042986244 -0.37729034 0.035906322
-0.043134686 -0.37739345 0.035847913
-0.043286256 -0.3774921 0.035829868
-0.043435514 -0.37759 0.035807222
-0.04358504 -0.37768862 0.035781119
-0.043733962 -0.37777874 0.035805777
-0.04388041 -0.37786767 0.035828132
-0.044029824 -0.37796271 0.035823945
-0.044176556 -0.37805626 0.035818618
-0.044326294 -0.37815222 0.035809819
-0.044475161 -0.37824655 0.035807945
-0.044622481 -0.37834176 0.035794538
-0.044774465 -0.37843898 0.035786867
-0.044922058 -0.37853509 0.035768848
-0.045071244 -0.37863076 0.035760041
-0.045216024 -0.37872526 0.03574089
-0.045365669 -0.37881806 0.035751697
-0.045512103 -0.37891233 0.035740595
-0.045656927 -0.37900317 0.035744507
-0.045802247 -0.37909526 0.035742648
-0.045950629 -0.37919003 0.035736155
-0.046094097 -0.37927815 0.035751611
-0.046239547 -0.37936646 0.035773978
-0.046380542 -0.37944895 0.035814825
-0.046522107 -0.37953737 0.035821062
-0.046664417 -0.3796137 0.035905737
-0.046801787 -0.37968746 0.035986986
-0.046940923 -0.37976047 0.036079753
-0.047080196 -0.37983358 0.036172524
-0.047216214 -0.37990332 0.036273386
-0.04735567 -0.37997136 0.036398459
-0.047488887 -0.38003343 0.03653625
-0.047625974 -0.38009462 0.036694791
-0.047757886 -0.38015234 0.036854513
-0.047892503 -0.38021123 0.037017677
-0.048029654 -0.38027078 0.037186593
-0.048162378 -0.38032883 0.037347466
-0.048294559 -0.38037381 0.037587941
-0.04842668 -0.38042316 0.037800726
-0.048560098 -0.38047519 0.038001969
-0.048825558 -0.3805669 0.03847599
-0.049449373 -0.37830567 0.055046622
-0.049601205 -0.37835899 0.05531238
-0.049742736 -0.37842631 0.055450134
-0.049889091 -0.37850094 0.055561326
-0.05004435 -0.37858859 0.055626333
-0.050210901 -0.37868929 0.055654362
-0.050374392 -0.37878808 0.055682413
-0.050538618 -0.37888953 0.055696614
-0.051835999 -0.38227776 0.039665788
-0.051977828 -0.38236061 0.039707791
-0.052125175 -0.38243788 0.039806291
-0.052268416 -0.38251665 0.039879423
-0.052406136 -0.38259116 0.03995721
-0.053768188 -0.38210952 0.048332013
-0.053906567 -0.38218299 0.048419017
-0.05406433 -0.38227889 0.048442475
-0.054760348 -0.38092867 0.059612408
-0.054914862 -0.38104227 0.059512444
-0.055104338 -0.38118631 0.059360389
-0.055291627 -0.38128996 0.05945177
-0.055448871 -0.38138166 0.059499472
-0.055615768 -0.38148203 0.059530959
-0.055768207 -0.38158303 0.059501369
-0.055928309 -0.38167322 0.059569813
-0.056089476 -0.38177475 0.059571337
-0.056262426 -0.38191372 0.059385911
-0.056451615 -0.38203892 0.059350379
-0.056630604 -0.38214636 0.05938527
-0.056804322 -0.38226491 0.059330203
-0.056964681 -0.38235986 0.059369799
-0.057150025 -0.38247505 0.059381589
-0.057317287 -0.38259098 0.059317328
-0.05748729 -0.38270405 0.059281897
-0.05765399 -0.38281113 0.059270695
-0.057801958 -0.38289824 0.059310354
-0.057984017 -0.3830156 0.059295624
-0.058135185 -0.38312027 0.059238363
-0.058292389 -0.38322005 0.05923529
-0.058449581 -0.38331389 0.059269141
-0.058606636 -0.38342044 0.059223384
-0.058794476 -0.38354033 0.059215546
-0.058985189 -0.38366687 0.059177697
-0.059138991 -0.38376579 0.059166566
-0.059320152 -0.38388795 0.059118386
-0.059501849 -0.38399711 0.059153274
-0.059646286 -0.38408977 0.059144489
-0.059815377 -0.38419613 0.059147127
-0.059968669 -0.38429826 0.059114076
-0.060145527 -0.38442674 0.059009392
-0.060320921 -0.3845323 0.059041999
-0.060459271 -0.38461721 0.059057467
-0.060648903 -0.38474342 0.05901733
-0.060805652 -0.38483959 0.059035022
-0.060964368 -0.38494682 0.058991566
-0.061159872 -0.3850762 0.05895485
-0.061328143 -0.38518465 0.058941342
-0.061481055 -0.38528317 0.05892906
-0.061654754 -0.38539913 0.058890142
-0.061827317 -0.3855007 0.058936611
-0.061989233 -0.38560531 0.05892197
-0.062153216 -0.38571694 0.058871575
-0.062327404 -0.38582823 0.0588638
-0.062495522 -0.3859351 0.058859527
-0.062643766 -0.38603753 0.058804579
-0.062807254 -0.38614908 0.058753017
-0.062970318 -0.38626179 0.058692235
-0.063155398 -0.38636962 0.05874902
-0.063316345 -0.38647565 0.058721703
-0.06348823 -0.38658011 0.058747403
-0.063649662 -0.38668385 0.058736235
-0.063804679 -0.38678464 0.058718182
-0.063969277 -0.38688949 0.058712762
-0.064141855 -0.38700399 0.058678471
-0.06431786 -0.38710681 0.058730677
-0.064469509 -0.38720602 0.058709174
-0.064632446 -0.38732702 0.058596477
-0.064798705 -0.38743696 0.058565669
-0.064965881 -0.38754398 0.05855678
-0.065133318 -0.38765004 0.058554821
-0.065308042 -0.38775668 0.058578201
-0.065460332 -0.38786295 0.058515158
-0.065624446 -0.38795769 0.058570892
-0.065795936 -0.38807261 0.058529675
-0.065961406 -0.38818318 0.058491956
-0.066123672 -0.3882919 0.05845309
-0.066302501 -0.38839778 0.05849722
-0.066466525 -0.38851979 0.058382206
-0.066623412 -0.38861367 0.058414899
-0.066788137 -0.38872468 0.058371413
-0.066950738 -0.38883159 0.058345236
-0.067117676 -0.3889375 0.058342129
-0.067276828 -0.38903502 0.058360964
-0.067443401 -0.38914165 0.058352076
-0.067603 -0.38924611 0.058329381
-0.06778039 -0.38935515 0.05834813
-0.067941613 -0.38947135 0.058258515
-0.068114683 -0.389566 0.058349967
-0.068256699 -0.3896791 0.05820391
-0.068417601 -0.38979474 0.058116607
-0.068588793 -0.38988581 0.058223065
-0.068749577 -0.3899875 0.058222283
-0.068916842 -0.39009234 0.058227241
-0.069077365 -0.39021438 0.058098394
-0.06925571 -0.39030203 0.058254436
-0.069427378 -0.39038748 0.058397803
-0.069577463 -0.39051789 0.058175568
-0.069741972 -0.39063913 0.058067482
-0.069911703 -0.39072168 0.058221251
-0.070078872 -0.39083886 0.058148909
-0.070261665 -0.39094672 0.058196466
-0.07042069 -0.39105061 0.058174927
-0.070575528 -0.3911598 0.0581038
-0.070738226 -0.39127028 0.058055714
-0.070900351 -0.39137557 0.05803762
-0.071066603 -0.391487 0.057997588
-0.071232468 -0.39158764 0.058023319
-0.071417868 -0.39170378 0.058029331
-0.071591556 -0.39180106 0.05810694
-0.071727477 -0.39190385 0.058001298
-0.071914576 -0.39202863 0.057960007
-0.072078206 -0.39213711 0.057928056
-0.072235726 -0.39224172 0.057896145
-0.072390705 -0.39234379 0.057870016
-0.072560981 -0.39245018 0.057877257
-0.072713636 -0.39255449 0.057828069
-0.072875962 -0.39266381 0.057785746
-0.073041409 -0.3927651 0.05780571
-0.07320483 -0.39286366 0.057834901
-0.07338962 -0.39297551 0.057865154
-0.073560476 -0.39308155 0.057877012
-0.073711641 -0.39318213 0.057845131
-0.073886976 -0.393298 0.057813123
-0.074044131 -0.39339775 0.057810061
-0.074199557 -0.39349902 0.057790846
-0.07437665 -0.39361322 0.057776142
-0.074527249 -0.39372712 0.057658892
-0.074688539 -0.39383209 0.05763964
-0.074850403 -0.39393225 0.057652701
-0.07500995 -0.39403 0.057671532
-0.07518743 -0.39414373 0.057661444
-0.075332411 -0.39423579 0.057658426
-0.075485393 -0.39434269 0.05759424
-0.075647175 -0.39445537 0.057528839
-0.075827539 -0.39455464 0.057620257
-0.075986974 -0.39465675 0.057611413
-0.076140612 -0.39476687 0.057529904
-0.076288886 -0.39487246 0.05745535
-0.076464802 -0.39497522 0.05750756
-0.07663136 -0.39508423 0.057483673
-0.0767923 -0.39518529 0.05748751
-0.076962434 -0.39529583 0.057468228
-0.077132419 -0.39539889 0.057495091
-0.077287927 -0.39550334 0.057456259
-0.077452444 -0.3956098 0.05744046
-0.077617377 -0.39571965 0.057405047
-0.077776223 -0.39582565 0.057369664
-0.077937789 -0.39593005 0.057355043
-0.078104958 -0.39603132 0.057381909
-0.078271389 -0.39614379 0.057336114
-0.078431986 -0.39624515 0.057336483
-0.078595631 -0.39635199 0.057314925
-0.078754134 -0.39645794 0.057278387
-0.078936592 -0.39656207 0.057347875
-0.079101577 -0.39668193 0.057250164
-0.079257883 -0.39678207 0.057241324
-0.07942602 -0.39687991 0.057293583
-0.079587109 -0.39698124 0.057296261
-0.079750776 -0.39707476 0.057357758
-0.079917192 -0.39718369 0.057333872
-0.080080919 -0.39731017 0.057190023
-0.080245167 -0.39741662 0.057173077
-0.080408685 -0.39750728 0.057251886
-0.080563098 -0.39762118 0.057149615
-0.08070381 -0.39773107 0.057018563
-0.080866493 -0.39783487 0.057012003
-0.081036359 -0.39793897 0.057031944
-0.081228778 -0.39805603 0.057059843
-0.08139421 -0.39816511 0.057031352
-0.081574023 -0.3982718 0.057074316
-0.081725009 -0.39835581 0.057145111
-0.081875704 -0.39847034 0.057024404
-0.082030162 -0.39857432 0.056984425
-0.082177199 -0.39867783 0.056917947
-0.082359776 -0.39878091 0.056994352
-0.08252836 -0.39887127 0.057095066
-0.082681969 -0.39898726 0.056976639
-0.082835391 -0.39910018 0.056876674
-0.082984485 -0.39920279 0.056824032
-0.083157316 -0.39930081 0.056893565
-0.083340608 -0.39941007 0.056934215
-0.083506353 -0.39952469 0.056872256
-0.083669215 -0.39962602 0.056881856
-0.08383821 -0.39972848 0.056908723
-0.083996154 -0.3998313 0.056889497
-0.084162563 -0.39994839 0.056814849
-0.084325098 -0.40005541 0.056787521
-0.084485061 -0.40015769 0.056779824
-0.084639095 -0.40025881 0.056755997
-0.084802769 -0.40036288 0.056751743
-0.084963329 -0.40046772 0.056730196
-0.085145809 -0.40057796 0.056761615
-0.08531642 -0.40068844 0.056744631
-0.085460916 -0.40079445 0.056652788
-0.085613638 -0.40089324 0.056638204
-0.085797235 -0.40100083 0.05669038
-0.085947022 -0.40109521 0.05669196
-0.086114489 -0.40120128 0.056689989
-0.086259916 -0.40131193 0.056572761
-0.086417288 -0.40142253 0.056502774
-0.086562902 -0.40152276 0.056451309
-0.086738855 -0.40162721 0.056493141
-0.08691372 -0.40172946 0.0565442
-0.087084986 -0.40183502 0.056560677
-0.087247506 -0.40194464 0.056517199
-0.087429166 -0.40205342 0.056554388
-0.087597124 -0.40215483 0.056583568
-0.087759078 -0.40226945 0.056506634
-0.087900914 -0.40237024 0.056436725
-0.088068545 -0.40247181 0.056463599
-0.088244103 -0.40257472 0.056513503
-0.088401869 -0.40268743 0.056431986
-0.088564873 -0.40279457 0.056405805
-0.088724598 -0.40289983 0.056378491
-0.08887893 -0.40300113 0.056354675
-0.089048043 -0.40310752 0.056357313
-0.089211851 -0.40321463 0.0563346
-0.089378729 -0.40332368 0.056311861
-0.089531392 -0.40342522 0.056279972
-0.089699298 -0.40353417 0.056261849
-0.089864783 -0.4036366 0.056274895
-0.09004052 -0.40374258 0.05630634
-0.090204887 -0.40385652 0.056243237
-0.090332717 -0.40395823 0.056112256
-0.090515479 -0.40406364 0.056174815
-0.090684876 -0.40416598 0.056203991
-0.090869054 -0.40427378 0.056257322
-0.091018595 -0.40438884 0.056128539
-0.091193624 -0.4044953 0.056154218
-0.091344424 -0.4046036 0.056072731
-0.09152092 -0.40471652 0.056063786
-0.091681778 -0.40481547 0.056080312
-0.091834493 -0.404915 0.056061111
-0.092006229 -0.40502197 0.056070656
-0.092157945 -0.40512586 0.056020316
-0.092335328 -0.40523469 0.056040224
-0.092492111 -0.40534255 0.055985235
-0.092660785 -0.40544146 0.056032874
-0.092837118 -0.40555057 0.056047007
-0.093004212 -0.40566012 0.056021966
-0.093186684 -0.40576294 0.056099538
-0.093335383 -0.40587732 0.055971906
-0.093467295 -0.40597978 0.055852436
-0.093652055 -0.40608683 0.055912681
-0.093822375 -0.40619436 0.055913005
-0.093975201 -0.4063043 0.055829201
-0.094143398 -0.40640792 0.055845685
-0.094332397 -0.40651929 0.055895533
-0.09449286 -0.40663114 0.055830143
-0.09464442 -0.4067331 0.055791337
-0.094815895 -0.4068369 0.055819344
-0.094962932 -0.40694284 0.055737875
-0.095139906 -0.4070507 0.055762395
-0.095314994 -0.40716252 0.055754617
-0.095482334 -0.40727243 0.055728428
-0.0956413 -0.40737259 0.055729955
-0.095797703 -0.40748239 0.055661131
-0.095966309 -0.40759236 0.055639546
-0.096147522 -0.40769494 0.05571365
-0.096310981 -0.40780681 0.055659793
-0.096457183 -0.40791258 0.055576019
-0.096627615 -0.40801704 0.055595949
-0.096810549 -0.4081257 0.055638902
-0.096980959 -0.40824348 0.055575773
-0.097141497 -0.40834406 0.055580761
-0.097308397 -0.40845054 0.055574179
-0.097489722 -0.40856132 0.055597529
-0.097647414 -0.40866753 0.055556387
-0.097796619 -0.40877336 0.055484127
-0.097968817 -0.4088802 0.055495981
-0.098134115 -0.40898862 0.055470951
-0.098302394 -0.40909541 0.055467829
-0.098484121 -0.40920481 0.05550155
-0.098644108 -0.40931487 0.055445403
-0.098778844 -0.40941799 0.055332836
-0.098950371 -0.40952334 0.055351622
-0.099142514 -0.40963542 0.055409513
-0.09930405 -0.40974736 0.055347588
-0.099460542 -0.40985188 0.05531222
-0.099655002 -0.40996617 0.055365495
-0.099818096 -0.4100695 0.055363551
-0.099996351 -0.41018277 0.055359222
-0.10015826 -0.41028962 0.055330746
-0.10032692 -0.41039702 0.055325307
-0.10050543 -0.41050529 0.05535328
-0.10065561 -0.4106147 0.055262569
-0.10081407 -0.41072303 0.055211034
-0.10097337 -0.41082802 0.055183724
-0.10118589 -0.41094136 0.055314213
-0.10131875 -0.4110457 0.055186659
-0.10146418 -0.41115117 0.055101737
-0.10161579 -0.41125888 0.055027168
-0.10181217 -0.41137105 0.055101201
-0.10196804 -0.41147923 0.055040449
-0.10214627 -0.41158807 0.055063814
-0.10232432 -0.41169867 0.055075631
-0.10249123 -0.4118081 0.055050593
-0.10264969 -0.41191661 0.05499791
-0.10282452 -0.412027 0.054998212
-0.10300098 -0.41213435 0.055023894
-0.10319146 -0.41224834 0.055063337
-0.1033408 -0.4123559 0.05498071
-0.10350245 -0.41246331 0.054947618
-0.10370359 -0.41257721 0.055029709
-0.10389187 -0.4126913 0.055059936
-0.1040223 -0.4127965 0.054917403
-0.10419741 -0.41290578 0.054925784
-0.10435683 -0.41301307 0.05488462
-0.10451835 -0.41312224 0.054840002
-0.1046903 -0.41323283 0.054827631
-0.10487575 -0.41334531 0.054856718
-0.10505918 -0.4134576 0.054878898
-0.10521668 -0.41356793 0.054811221
-0.10539 -0.41367736 0.05481153
-0.10557687 -0.41379037 0.054842934
-0.10572979 -0.41389853 0.054770656
-0.10589559 -0.41400856 0.054737546
-0.10608046 -0.41411993 0.054771259
-0.10624509 -0.41423145 0.054724313
-0.10641639 -0.41434088 0.054716554
-0.10659143 -0.41445249 0.054709937
-0.10675417 -0.41456226 0.05466646
-0.10692941 -0.41467401 0.054659843
-0.10709499 -0.41478428 0.054624423
-0.10726063 -0.41489458 0.054589011
-0.10744517 -0.41500646 0.054618105
-0.10761297 -0.4151172 0.054588456
-0.10780545 -0.41523209 0.054630201
-0.10796154 -0.41534099 0.054565988
-0.10814714 -0.41545337 0.054596238
-0.10830295 -0.41556373 0.054521646
-0.10849654 -0.41567913 0.054564551
-0.10866616 -0.41579196 0.054529108
-0.10880786 -0.41589838 0.054423437
-0.1089995 -0.41601366 0.054459419
-0.10917382 -0.41612595 0.054445885
-0.10935522 -0.41623956 0.054451928
-0.10953227 -0.41635245 0.054445289
-0.10970446 -0.41646597 0.054415621
-0.1098801 -0.41657871 0.054404378
-0.11004773 -0.41668564 0.054397795
-0.11022932 -0.41680253 0.054384217
-0.11039941 -0.4169158 0.054347627
-0.1105752 -0.41702735 0.054344468
-0.11074153 -0.41713569 0.054324042
-0.11093597 -0.41725385 0.054353099
-0.11108136 -0.41735819 0.054275088
-0.11125018 -0.41747141 0.054233894
-0.11143188 -0.41759151 0.054200709
-0.11164112 -0.41770867 0.054294288
-0.11176748 -0.41780782 0.054173693
-0.11197739 -0.41793519 0.054206125
-0.11213985 -0.41804311 0.054173045
-0.1123154 -0.41815376 0.05417449
-0.11250399 -0.41826859 0.054201268
-0.11265658 -0.41837877 0.054115154
-0.11284375 -0.41849345 0.054137316
-0.11301728 -0.4186067 0.054114547
-0.11317523 -0.41871804 0.054042257
-0.1133704 -0.4188374 0.05406668
-0.11358005 -0.41896001 0.054127965
-0.11372812 -0.41906381 0.05406379
-0.028284542 -0.36774904 0.037499025
-0.028452065 -0.36785811 0.037478603
-0.028619114 -0.36796877 0.037446648
-0.028784335 -0.3680751 0.037434306
-0.028950419 -0.36818475 0.037404664
-0.029112309 -0.36828896 0.037392337
-0.029273864 -0.36838874 0.037406541
-0.029443596 -0.36850163 0.037371114
-0.029607885 -0.36860737 0.037358776
-0.029770769 -0.36871555 0.037325677
-0.029940177 -0.36882639 0.03730179
-0.030100197 -0.36892888 0.037292931
-0.030268561 -0.36904073 0.037258659
-0.030433148 -0.3691476 0.03724055
-0.03059715 -0.36925593 0.037210919
-0.030756101 -0.36935535 0.037217066
-0.030920632 -0.36946255 0.037196659
-0.031081818 -0.36956742 0.037177417
-0.031243511 -0.36967099 0.037168551
-0.03140723 -0.36977747 0.037149299
-0.031563994 -0.36987883 0.037134688
-0.031733867 -0.36998978 0.037111945
-0.031896304 -0.3700949 0.037096158
-0.032055642 -0.37020031 0.037066549
-0.032216564 -0.37030131 0.037070375
-0.032377064 -0.37040412 0.037061516
-0.032543018 -0.37051481 0.037024945
-0.032702051 -0.37062037 0.036993034
-0.032856133 -0.37071669 0.036999192
-0.033022854 -0.37082437 0.036984544
-0.033177678 -0.37092429 0.036971103
-0.033338923 -0.37103367 0.036924176
-0.033500805 -0.37113476 0.036931459
-0.03366131 -0.37123865 0.036915679
-0.033817038 -0.37134048 0.036894165
-0.033980291 -0.3714487 0.036862224
-0.034141582 -0.37155181 0.036854509
-0.034300294 -0.37165606 0.036829513
-0.034457937 -0.37175891 0.036809139
-0.0346152 -0.37186134 0.036789913
-0.034778692 -0.37196583 0.036782201
-0.034938596 -0.37207249 0.036746819
-0.035095334 -0.37217459 0.036727596
-0.035251185 -0.37227297 0.036727987
-0.035408698 -0.37237146 0.036734141
-0.035566639 -0.37247577 0.036705688
-0.035724189 -0.37257966 0.036678381
-0.03588336 -0.37268364 0.036656853
-0.036040533 -0.37278473 0.036645699
-0.036198962 -0.37288788 0.036626469
-0.036353804 -0.37298819 0.036610726
-0.036510285 -0.37309122 0.03658459
-0.036665458 -0.37318972 0.036581524
-0.036822263 -0.37329093 0.036568064
-0.03698086 -0.37339512 0.036543075
-0.037135124 -0.37349525 0.036526177
-0.037290502 -0.37359464 0.036518492
-0.037445046 -0.37369549 0.036498129
-0.037598666 -0.37379506 0.036482383
-0.037754185 -0.37389508 0.036471248
-0.037908077 -0.37399259 0.03646934
-0.038067207 -0.37409878 0.036433958
-0.03821972 -0.37419429 0.036438987
-0.038376674 -0.37429726 0.036415145
-0.038526811 -0.37439477 0.036398266
-0.038683817 -0.37449816 0.036372125
-0.038840741 -0.37459868 0.036363281
-0.038994599 -0.37469709 0.036355615
-0.039145209 -0.37479603 0.03633181
-0.039298266 -0.3748934 0.036327608
-0.039454825 -0.37499684 0.036299158
-0.039608296 -0.37509519 0.036290333
-0.039759554 -0.37519288 0.036276907
-0.039914373 -0.37529689 0.036238085
-0.040067691 -0.37539238 0.036246568
-0.040219322 -0.37548807 0.036246981
-0.040375266 -0.37559152 0.036216225
-0.040528119 -0.37569278 0.036186654
-0.040681932 -0.37579599 0.036148988
-0.040835466 -0.37589252 0.0361517
-0.040985156 -0.37598866 0.036141742
-0.041139185 -0.3760896 0.036119074
-0.041291349 -0.37618729 0.036109105
-0.041443396 -0.37628493 0.036099136
-0.041594569 -0.37638444 0.036074173
-0.041744687 -0.37647879 0.0360769
-0.041895997 -0.37658226 0.036027718
-0.042050242 -0.37668127 0.036017738
-0.042199049 -0.37677705 0.036006633
-0.042353787 -0.37687731 0.035990883
-0.042505801 -0.37697604 0.035973992
-0.042657528 -0.37707439 0.035958257
-0.042807687 -0.37717342 0.035932146
-0.042959578 -0.37727243 0.03591295
-0.043109223 -0.37737447 0.035866085
-0.043261498 -0.37747467 0.035841126
-0.043411586 -0.37757438 0.035810407
-0.043561511 -0.37767398 0.035779681
-0.043707434 -0.37776202 0.035805497
-0.043858219 -0.37785241 0.035835899
-0.044004522 -0.37794513 0.035834033
-0.044154219 -0.37804109 0.035825226
-0.044301242 -0.37813553 0.03581528
-0.044453181 -0.37823254 0.035808772
-0.04460036 -0.37832767 0.035795365
-0.04475145 -0.37842321 0.035794627
-0.044901483 -0.37852067 0.035777748
-0.045050535 -0.37861624 0.035768941
-0.0451947 -0.37870961 0.035754401
-0.045344569 -0.3788031 0.03576174
-0.045493908 -0.37889978 0.03574717
-0.045638934 -0.37899131 0.035747614
-0.045784112 -0.37908331 0.035745755
-0.04593046 -0.37917808 0.035731193
-0.04607825 -0.37926748 0.03575585
-0.046221972 -0.37935653 0.035766676
-0.046363845 -0.37943682 0.035824805
-0.046509035 -0.37952939 0.03581949
-0.04665117 -0.37960559 0.035904136
-0.046791703 -0.37968245 0.035978418
-0.046930254 -0.37975436 0.036075771
-0.04706987 -0.3798286 0.036162749
-0.047208197 -0.37989947 0.036265869
-0.047346883 -0.37996593 0.036397826
-0.047480814 -0.3800301 0.036525194
-0.047617532 -0.38009068 0.036685996
-0.047749557 -0.38014907 0.036842201
-0.047884647 -0.38020954 0.036997244
-0.048021238 -0.38026801 0.037170734
-0.048156839 -0.38032863 0.037326921
-0.048289642 -0.38037565 0.037556946
-0.048420932 -0.38042322 0.037777744
-0.048554413 -0.38047585 0.037975468
-0.048822269 -0.38056928 0.038448181
-0.049234428 -0.38072515 0.039100111
-0.049446184 -0.37830907 0.055012904
-0.049744692 -0.3784315 0.055425487
-0.049886607 -0.37849998 0.05555743
-0.050041102 -0.37858552 0.0556328
-0.050207481 -0.3786861 0.055660818
-0.050370749 -0.37878457 0.055690013
-0.050534621 -0.37888524 0.055707663
-0.051841021 -0.38228139 0.03966289
-0.051977102 -0.38236004 0.039708357
-0.052127156 -0.38243961 0.039803348
-0.052267157 -0.38251501 0.039884552
-0.053773127 -0.38211036 0.048346184
-0.053911928 -0.38218689 0.048415869
-0.054062799 -0.38227344 0.048470486
-0.054761611 -0.3809303 0.059607215
-0.054908451 -0.38102981 0.05956497
-0.055105135 -0.3811869 0.059359871
-0.055292264 -0.38129082 0.059448913
-0.055449154 -0.38138062 0.059506971
-0.055618633 -0.3814795 0.059558045
-0.055768359 -0.38158378 0.059497342
-0.055927996 -0.38167071 0.059584215
-0.056089036 -0.38177237 0.05958458
-0.056255043 -0.38189989 0.059443057
-0.056450807 -0.38203609 0.059364825
-0.05662632 -0.38213822 0.059419334
-0.056791008 -0.38225695 0.059327412
-0.056954127 -0.38235089 0.059384279
-0.0571362 -0.38246399 0.059396081
-0.057312462 -0.38258284 0.059349079
-0.057479322 -0.38269615 0.059299827
-0.057648964 -0.38280565 0.059285156
-0.057799913 -0.38289687 0.059310947
-0.057975564 -0.38300574 0.059323926
-0.058123507 -0.38310447 0.059290908
-0.058283672 -0.38321519 0.059231304
-0.058437638 -0.3833046 0.05928015
-0.058600727 -0.38341293 0.059247062
-0.058772855 -0.383531 0.059188552
-0.058969639 -0.3836562 0.059182972
-0.059129566 -0.38375551 0.059193723
-0.059301365 -0.38387173 0.0591456
-0.059482779 -0.38398314 0.059165478
-0.059630204 -0.38407671 0.059162449
-0.059795842 -0.38418445 0.059143178
-0.059955433 -0.38428611 0.059137791
-0.060135227 -0.38441625 0.059034266
-0.060304001 -0.38452151 0.059042662
-0.060445137 -0.38460967 0.059048891
-0.060625728 -0.38472664 0.059030712
-0.060782205 -0.38482377 0.059041478
-0.060944252 -0.38492939 0.059021082
-0.061133318 -0.38505596 0.05897633
-0.061301515 -0.38516381 0.058966279
-0.061457932 -0.38526034 0.058980506
-0.061631054 -0.38537925 0.058920845
-0.061793551 -0.38547942 0.058936194
-0.061956104 -0.38557926 0.058953848
-0.0621286 -0.38569963 0.058882654
-0.062296756 -0.38580561 0.058884136
-0.06246122 -0.38591275 0.058863729
-0.062612921 -0.38601443 0.058827236
-0.062785581 -0.38613102 0.05878026
-0.062940419 -0.38623318 0.058752969
-0.06312006 -0.38634863 0.058740564
-0.063281618 -0.38645136 0.058736309
-0.063446715 -0.38655394 0.058747038
-0.063614786 -0.38665873 0.05875545
-0.06376946 -0.38676026 0.058731619
-0.063930638 -0.38686386 0.058720455
-0.064106919 -0.38697737 0.058706902
-0.064274944 -0.38708198 0.058716469
-0.064432256 -0.38717407 0.058761828
-0.064582154 -0.38728973 0.058630772
-0.064756006 -0.38740966 0.058567636
-0.064918168 -0.38750908 0.058586456
-0.065086827 -0.38762185 0.058547571
-0.06526228 -0.38772577 0.058590539
-0.065421581 -0.387833 0.058549389
-0.06557782 -0.3879281 0.058571693
-0.065748379 -0.38803524 0.058575474
-0.06591583 -0.38815001 0.058519289
-0.066074081 -0.38825876 0.058464319
-0.066256322 -0.38836515 0.05851879
-0.066421568 -0.38848406 0.058428019
-0.066578917 -0.38858524 0.058416862
-0.06673795 -0.38869119 0.058382645
-0.066897698 -0.38879535 0.05836226
-0.067067251 -0.38890368 0.058354508
-0.067223489 -0.3889986 0.058377963
-0.067395769 -0.3891094 0.058365591
-0.067545615 -0.38920897 0.058334861
-0.067723781 -0.38931611 0.058368597
-0.067885116 -0.38943183 0.058282461
-0.06805943 -0.38953117 0.058349662
-0.068213142 -0.38963798 0.058288928
-0.068355672 -0.38975656 0.058110621
-0.068531014 -0.38985416 0.058192804
-0.068692073 -0.38994807 0.058241606
-0.068860196 -0.39004442 0.058303073
-0.069015466 -0.39016792 0.058144305
-0.069190145 -0.39027396 0.058171123
-0.069371879 -0.39035007 0.058412436
-0.069521636 -0.39046809 0.058266383
-0.069676585 -0.39059675 0.058074173
-0.06985002 -0.39067981 0.058239412
-0.070010543 -0.39078763 0.058199406
-0.070195623 -0.3909041 0.058201961
-0.070354678 -0.39100766 0.058182731
-0.070511147 -0.39110863 0.058169279
-0.070674203 -0.39123005 0.058054302
-0.070837945 -0.39132732 0.058092721
-0.070995152 -0.39143839 0.058019284
-0.071166113 -0.39154375 0.058035754
-0.071341947 -0.3916544 0.058038354
-0.071525469 -0.39176157 0.058092818
-0.071670361 -0.39185932 0.058054045
-0.071839564 -0.3919774 0.057984021
-0.072010405 -0.39208823 0.057965882
-0.072172329 -0.3921982 0.057917804
-0.072318114 -0.39229447 0.057891726
-0.072496526 -0.3924073 0.057890851
-0.072649397 -0.39250618 0.057876259
-0.072808892 -0.39261815 0.05780628
-0.072969891 -0.39271867 0.057813566
-0.073137894 -0.39281735 0.057860039
-0.073303863 -0.39292285 0.057855763
-0.073488757 -0.39303443 0.057888303
-0.073641352 -0.39313352 0.057871412
-0.07380794 -0.39324775 0.057815239
-0.073982999 -0.39335439 0.057839759
-0.074129142 -0.3934544 0.057791751
-0.07429646 -0.39355871 0.057800166
-0.074451923 -0.3936685 0.057727899
-0.074621312 -0.39378858 0.057646334
-0.074771367 -0.39388493 0.057636376
-0.074935406 -0.39397889 0.057696704
-0.075113244 -0.39409208 0.057691213
-0.075262025 -0.39418951 0.057669729
-0.075408898 -0.3942883 0.057632107
-0.075571164 -0.39440459 0.057545967
-0.075749673 -0.39450899 0.057598148
-0.075920075 -0.39461121 0.057631917
-0.076065496 -0.39471483 0.057558537
-0.076221757 -0.39482677 0.057475887
-0.076385997 -0.3949253 0.057508536
-0.076556683 -0.39503136 0.057519235
-0.07671804 -0.39513582 0.057503454
-0.076882809 -0.39524576 0.057466898
-0.077060252 -0.3953515 0.05750639
-0.077220872 -0.3954564 0.057484843
-0.077382669 -0.39556059 0.05747252
-0.07754688 -0.39567071 0.057432506
-0.077704974 -0.39577699 0.057392523
-0.077862136 -0.39588007 0.057368681
-0.078026325 -0.3959828 0.057374801
-0.078192636 -0.39608797 0.057373993
-0.078359172 -0.3961966 0.057352416
-0.078528062 -0.39630046 0.057370048
-0.07868214 -0.39640865 0.057302393
-0.078848757 -0.39651716 0.057281978
-0.079029001 -0.3966291 0.057293784
-0.079185054 -0.39673942 0.057220355
-0.079352759 -0.39683387 0.057292201
-0.079505131 -0.39693576 0.057256855
-0.079681493 -0.39703307 0.057344798
-0.079843372 -0.39713395 0.057353228
-0.080010377 -0.39724901 0.057293598
-0.080170318 -0.39737031 0.057167105
-0.080337062 -0.39747223 0.057188202
-0.080505349 -0.39756721 0.057258889
-0.080649346 -0.39768526 0.057089794
-0.080788843 -0.397789 0.056992233
-0.080960445 -0.39789218 0.057024837
-0.08114142 -0.39800107 0.057058558
-0.081324585 -0.39811543 0.05706688
-0.081490219 -0.39822423 0.057040699
-0.081663571 -0.39831799 0.057139035
-0.081804872 -0.3984116 0.057111818
-0.081971347 -0.39853221 0.057015281
-0.082116932 -0.39863315 0.056959208
-0.082283445 -0.39873865 0.056957241
-0.082453281 -0.3988283 0.057067133
-0.082611911 -0.39893955 0.056998309
-0.082770541 -0.39904484 0.05696639
-0.08291088 -0.39915597 0.056826152
-0.083082221 -0.39925712 0.056870297
-0.083253205 -0.39936137 0.056893684
-0.083437026 -0.39947319 0.056920461
-0.083598241 -0.39958051 0.056886233
-0.08376579 -0.39968038 0.056923464
-0.083926618 -0.39978501 0.056904227
-0.084087849 -0.39988959 0.056887291
-0.084252626 -0.40000692 0.056804601
-0.084419683 -0.40011534 0.056786485
-0.084573686 -0.40021089 0.056797262
-0.084736921 -0.40031761 0.056774553
-0.084895536 -0.40042016 0.056759942
-0.085063428 -0.40052578 0.056762576
-0.085249573 -0.40063241 0.056830868
-0.085401319 -0.4007498 0.056696337
-0.085549384 -0.40084955 0.05665756
-0.085712388 -0.40095374 0.056649838
-0.085893288 -0.40105668 0.056720465
-0.086039469 -0.40115172 0.056703601
-0.086199492 -0.40126181 0.056647461
-0.086350352 -0.40137365 0.056544077
-0.086499192 -0.4014807 0.056462608
-0.086671002 -0.40158328 0.056499831
-0.086833805 -0.40168512 0.056505963
-0.087008901 -0.40178975 0.05654316
-0.087175399 -0.40189359 0.056551568
-0.087343536 -0.40200454 0.056521915
-0.087523408 -0.40211108 0.056566022
-0.08769355 -0.40220961 0.056621701
-0.087846719 -0.40232792 0.056487169
-0.088003866 -0.40242621 0.056493312
-0.088166937 -0.4025332 0.056468304
-0.088342443 -0.40263125 0.056548174
-0.088496372 -0.40274912 0.056419399
-0.088663056 -0.40285563 0.056411672
-0.08880911 -0.40295559 0.056363665
-0.088970274 -0.40306288 0.056329437
-0.089145452 -0.4031707 0.056347024
-0.089305922 -0.40327349 0.056338176
-0.089469686 -0.40338278 0.056301612
-0.089620054 -0.40348676 0.056245517
-0.089793362 -0.40359044 0.056281582
-0.089963615 -0.40369681 0.056288827
-0.090134457 -0.4038032 0.056298368
-0.090295874 -0.40391952 0.056208774
-0.090427771 -0.40401623 0.056125086
-0.090604559 -0.40412211 0.056161124
-0.090789244 -0.40422523 0.056245573
-0.090962172 -0.4043383 0.056221657
-0.091113359 -0.40444869 0.056128651
-0.091285333 -0.40455747 0.056127816
-0.09144178 -0.40466306 0.056085531
-0.091609895 -0.40477213 0.056067407
-0.091775149 -0.40487072 0.056103509
-0.091929369 -0.40497437 0.056064695
-0.092106611 -0.40508091 0.056098431
-0.09225253 -0.40518501 0.056023896
-0.092426442 -0.40529186 0.056042653
-0.092581168 -0.40539968 0.055979617
-0.092765033 -0.40549785 0.056091744
-0.092921324 -0.40560982 0.056009091
-0.093089186 -0.40571302 0.056026727
-0.093274966 -0.4058198 0.056092709
-0.093418159 -0.40593418 0.055943239
-0.093555152 -0.40603635 0.055845678
-0.093737572 -0.40613934 0.055922069
-0.093903229 -0.4062489 0.055891268
-0.094065212 -0.40635857 0.055845495
-0.094234169 -0.40646207 0.055865433
-0.094416827 -0.40657151 0.055902593
-0.094572797 -0.40668327 0.055819944
-0.094725154 -0.40678313 0.055797294
-0.094893612 -0.40688688 0.055813767
-0.09503445 -0.40699074 0.055720806
-0.095215544 -0.40710047 0.055749908
-0.095390327 -0.40721026 0.055753671
-0.095557213 -0.40732005 0.055726334
-0.095706269 -0.40741616 0.055714071
-0.095870361 -0.40752789 0.055663668
-0.09603411 -0.40763384 0.055647872
-0.096219026 -0.40774027 0.055712711
-0.096377686 -0.40785003 0.055653118
-0.096519992 -0.40795368 0.055567071
-0.096689925 -0.40805617 0.055597384
-0.096877694 -0.4081668 0.055647209
-0.097042039 -0.40828237 0.05557375
-0.097197466 -0.40838084 0.055571835
-0.097362645 -0.40848529 0.055571031
-0.097546943 -0.40859798 0.055594347
-0.097700417 -0.40870208 0.055549774
-0.097849756 -0.40880778 0.055478685
-0.09801995 -0.40891266 0.055495158
-0.098185405 -0.40902099 0.055471279
-0.098347537 -0.40912554 0.055457801
-0.098529831 -0.40923306 0.055505354
-0.098683938 -0.40934089 0.055440009
-0.098816559 -0.4094438 0.055320565
-0.098988891 -0.40954909 0.055342786
-0.099184133 -0.40966129 0.055412184
-0.099337906 -0.40976906 0.055345695
-0.099495232 -0.40987355 0.055313792
-0.099680617 -0.40998358 0.055357862
-0.099846855 -0.41009057 0.055345517
-0.10002395 -0.41020015 0.055359647
-0.1001867 -0.41030696 0.055334628
-0.10035284 -0.41041407 0.055321135
-0.10052388 -0.41051817 0.055345669
-0.10068175 -0.41062984 0.055271082
-0.10083793 -0.41073617 0.055223025
-0.10099325 -0.41083902 0.055193435
-0.10119664 -0.41094974 0.055304319
-0.10133515 -0.41105449 0.055196386
-0.10147037 -0.41115722 0.055088457
-0.10162346 -0.41126329 0.055030048
-0.10181964 -0.41137367 0.055114429
-0.10196836 -0.41148102 0.055030666
-0.1021478 -0.41158989 0.055058625
-0.10232321 -0.4116984 0.055072762
-0.10248606 -0.41180566 0.055045433
-0.10263903 -0.41191182 0.054985866
-0.10281049 -0.41202009 0.054986183
-0.1029913 -0.4121311 0.055006057
-0.10317664 -0.4122411 0.055050135
-0.1033327 -0.41234773 0.054999769
-0.10348269 -0.41245201 0.054940216
-0.10367354 -0.41256294 0.055000417
-0.10386239 -0.41267532 0.055043321
-0.10400578 -0.4127821 0.05494228
-0.1041636 -0.41288745 0.054906908
-0.10432391 -0.41299474 0.054869212
-0.10449164 -0.41310304 0.054854561
-0.10465634 -0.41321254 0.054820307
-0.10484546 -0.41332382 0.054871283
-0.10501313 -0.41343227 0.054855462
-0.10517285 -0.41354123 0.054805093
-0.10535216 -0.41365299 0.054814592
-0.1055256 -0.41376081 0.05482528
-0.10568397 -0.41386965 0.054770298
-0.10584942 -0.41397798 0.054746427
-0.10602924 -0.41409004 0.054755926
-0.10619564 -0.41419861 0.054734349
-0.1063633 -0.41430739 0.054716237
-0.10654454 -0.41441834 0.054738417
-0.10669973 -0.41452682 0.054673068
-0.10686958 -0.41463608 0.054660708
-0.10702783 -0.41474354 0.054613791
-0.10719471 -0.41485241 0.054592226
-0.10738064 -0.41496593 0.054616682
-0.10755012 -0.41507533 0.054602012
-0.10772724 -0.41518605 0.054609224
-0.10789139 -0.41529468 0.054578438
-0.10806482 -0.41540638 0.054564901
-0.10822995 -0.41551673 0.054527182
-0.10840556 -0.41562742 0.054528631
-0.10859427 -0.41574344 0.05454848
-0.10873418 -0.41584799 0.054447446
-0.10892718 -0.41596487 0.054478802
-0.10908255 -0.41607073 0.054430749
-0.1092788 -0.41618687 0.054479387
-0.10943311 -0.41629261 0.054427881
-0.10963097 -0.41641071 0.05447074
-0.10977995 -0.41651842 0.054385826
-0.10995845 -0.41662872 0.0544011
-0.1101241 -0.41673958 0.05436223
-0.11029781 -0.41685054 0.054354459
-0.1104916 -0.41696829 0.054383498
-0.11063059 -0.41706839 0.054306697
-0.11080888 -0.41718039 0.054310441
-0.11097832 -0.41729218 0.054280773
-0.11114106 -0.41740268 0.054232702
-0.11132845 -0.41752377 0.054215636
-0.11152081 -0.41763601 0.054273508
-0.11167227 -0.41774011 0.054220866
-0.11186053 -0.41786158 0.054204959
-0.11203498 -0.41797042 0.054213334
-0.11218411 -0.41807693 0.054136485
-0.11237626 -0.41819233 0.054173604
-0.11254074 -0.41830209 0.054137047
-0.11271512 -0.41841257 0.054135043
-0.11289296 -0.41852799 0.054115713
-0.11304341 -0.41863626 0.054033089
-0.11324729 -0.41875595 0.054089762
-0.11343154 -0.41887155 0.054094627
-0.1136222 -0.41898862 0.054115616
-0.1137706 -0.41908967 0.054069906
-0.028322041 -0.36777356 0.037493706
-0.028489728 -0.36788294 0.037472162
-0.028648604 -0.36798489 0.03746219
-0.028814547 -0.36809224 0.037446428
-0.028980274 -0.36820146 0.037417967
-0.029150348 -0.36831254 0.037395261
-0.029307749 -0.36841097 0.037401445
-0.029472671 -0.36851749 0.037386835
-0.029638182 -0.36862493 0.037368763
-0.029807013 -0.36873907 0.037321839
-0.029973119 -0.36884764 0.037299156
-0.030133802 -0.36895108 0.037286866
-0.030296337 -0.36905721 0.037265349
-0.030463256 -0.36916515 0.03724958
-0.030630175 -0.36927757 0.037206125
-0.03079119 -0.3693777 0.037215751
-0.03095023 -0.3694796 0.037206929
-0.031114485 -0.36958659 0.037186563
-0.031272687 -0.36968756 0.037180051
-0.031439494 -0.36979842 0.037145827
-0.031599306 -0.36990187 0.037130091
-0.031762801 -0.3700062 0.037123557
-0.031919841 -0.37010828 0.037105523
-0.032087978 -0.37022161 0.037060913
-0.032246433 -0.37031925 0.037076313
-0.032408968 -0.37042499 0.037057102
-0.032572709 -0.3705326 0.037030961
