# .PCD v0.7 - Point Cloud Data file format
VERSION 0.7
FIELDS x y z
SIZE 4 4 4
TYPE F F F
COUNT 1 1 1
WIDTH 1309
HEIGHT 1
VIEWPOINT 0 0 0 1 0 0 0
POINTS 1309
DATA ascii
-0.12597477 -0.49178007 0.052692689
-0.12611805 -0.49189642 0.05264689
-0.12627897 -0.49201554 0.05266327
-0.12643869 -0.49213454 0.052675046
-0.12656887 -0.49225059 0.052572817
-0.12673137 -0.49237013 0.052593794
-0.12688802 -0.49248877 0.052594058
-0.12703648 -0.4926061 0.05256553
-0.12718898 -0.49272415 0.052550815
-0.12734924 -0.49284357 0.052562587
-0.12749551 -0.4929606 0.052525993
-0.12764335 -0.49307963 0.052484788
-0.12779744 -0.4931981 0.052474678
-0.12795809 -0.49331781 0.052486446
-0.12811118 -0.49343786 0.0524625
-0.12827274 -0.49355787 0.052476574
-0.12841378 -0.4936741 0.052421562
-0.12856102 -0.49379149 0.052387279
-0.12871154 -0.49391118 0.052354127
-0.12887068 -0.49403089 0.052358977
-0.12903133 -0.494151 0.052368447
-0.1291865 -0.49427009 0.052359477
-0.12932697 -0.49438629 0.052302167
-0.12949473 -0.49450961 0.052324276
-0.1296615 -0.4946312 0.052352149
-0.12977965 -0.49474284 0.052222311
-0.12992588 -0.49486026 0.052183416
-0.13012309 -0.49498999 0.052298769
-0.13028032 -0.49510986 0.052294407
-0.13041852 -0.4952257 0.052229032
-0.13056062 -0.49534076 0.05218555
-0.13070826 -0.49546024 0.052140884
-0.13087855 -0.4955847 0.052167587
-0.13103253 -0.49570563 0.05214249
-0.13119024 -0.49582428 0.052147355
-0.13134253 -0.4959465 0.052107275
-0.13148783 -0.49606401 0.052063774
-0.13165137 -0.49618569 0.052076679
-0.13181019 -0.49630794 0.052065387
-0.13195533 -0.49642393 0.05202996
-0.13212444 -0.49654868 0.052049749
-0.13228172 -0.49666917 0.052041929
-0.13241944 -0.49678504 0.051974256
-0.13259736 -0.49691057 0.052028593
-0.13275105 -0.49703187 0.052000031
-0.132916 -0.49715444 0.052014086
-0.13306373 -0.49727437 0.051967103
-0.1331999 -0.4973869 0.051912129
-0.13337314 -0.4975132 0.051941123
-0.13352102 -0.49762872 0.051920667
-0.13367853 -0.49775273 0.051893245
-0.13382819 -0.49787179 0.05186009
-0.13398889 -0.49799368 0.051859178
-0.13414341 -0.49811405 0.051839836
-0.13429588 -0.4982354 0.051805526
-0.13445273 -0.49835497 0.051801167
-0.13459341 -0.49847034 0.051749617
-0.1347594 -0.49859685 0.051745214
-0.13492152 -0.49871942 0.051746584
-0.1350874 -0.4988431 0.051758323
-0.13522789 -0.49896145 0.051688321
-0.13537204 -0.49907789 0.051645987
-0.13552997 -0.49919808 0.051642776
-0.13567723 -0.49931687 0.051600415
-0.13586858 -0.49945217 0.051656984
-0.1360362 -0.49957818 0.051662944
-0.13617186 -0.49969387 0.051587209
-0.13634369 -0.4998197 0.051612753
-0.13651401 -0.49994949 0.051608317
-0.13665564 -0.50006258 0.051574059
-0.13680209 -0.50018001 0.051536322
-0.13696538 -0.50030369 0.051536538
-0.13712513 -0.50042778 0.051518321
-0.13728499 -0.500552 0.051500116
-0.13744099 -0.50067234 0.051487684
-0.13759685 -0.50079548 0.05145796
-0.13779223 -0.50093168 0.051527195
-0.13792996 -0.50104678 0.051464133
-0.13808277 -0.50117058 0.051417127
-0.13826969 -0.50130033 0.051486403
-0.1384154 -0.50142074 0.051427912
-0.13856788 -0.50153756 0.051420119
-0.13871925 -0.50165826 0.051384654
-0.13887374 -0.50178277 0.051341102
-0.13903131 -0.5019027 0.051337898
-0.13918072 -0.50202429 0.051288605
-0.055213578 -0.4369483 0.059866969
-0.055385552 -0.43707225 0.059904069
-0.055559598 -0.4372023 0.059914641
-0.055742625 -0.43734685 0.059880175
-0.055921689 -0.43748522 0.059864186
-0.056105424 -0.43762854 0.059840098
-0.056311902 -0.43781152 0.059684396
-0.056464821 -0.43790823 0.059796575
-0.056639429 -0.43804008 0.059799064
-0.056822319 -0.43818274 0.059774984
-0.05700063 -0.43832096 0.059756692
-0.057165124 -0.43843669 0.059808824
-0.057354867 -0.43859398 0.059729345
-0.057530966 -0.43872619 0.059736438
-0.057709828 -0.43886602 0.059711218
-0.057896927 -0.43901676 0.059658285
-0.058070138 -0.43914756 0.059660777
-0.058245998 -0.43928295 0.059648268
-0.058427021 -0.43942714 0.059606895
-0.058606539 -0.43956605 0.059589751
-0.058773797 -0.43968743 0.059621111
-0.058956549 -0.43983215 0.059584342
-0.059133362 -0.43997002 0.059561446
-0.059306871 -0.4401024 0.059555862
-0.059492357 -0.44025549 0.059482168
-0.05966723 -0.44038755 0.059484664
-0.05984221 -0.44052303 0.059467539
-0.060016215 -0.44065699 0.059455041
-0.060197242 -0.44080335 0.059400976
-0.060373232 -0.44093803 0.059393086
-0.060541723 -0.4410629 0.059409447
-0.060729966 -0.44121945 0.059327655
-0.060899511 -0.4413465 0.059335943
-0.061072215 -0.44147927 0.059324604
-0.06125053 -0.4416222 0.05927863
-0.061425455 -0.44175607 0.059270736
-0.061592694 -0.44187957 0.059289418
-0.061767191 -0.44201624 0.059263077
-0.061937995 -0.4421531 0.059219446
-0.062119849 -0.44229361 0.059203442
-0.062269904 -0.44240311 0.059227984
-0.062456641 -0.44254613 0.059218869
-0.062629864 -0.44268146 0.059194837
-0.062807843 -0.44282237 0.059159249
-0.062945746 -0.44292009 0.059198845
-0.063139558 -0.44306317 0.059220843
-0.06331037 -0.44319472 0.059208352
-0.063491717 -0.44334623 0.059125461
-0.063672222 -0.44349653 0.05904603
-0.063847259 -0.44363323 0.059021983
-0.064009391 -0.44374913 0.0590626
-0.064174853 -0.44388586 0.058995947
-0.064364769 -0.44404092 0.058930296
-0.064518288 -0.44413692 0.059049394
-0.064689934 -0.44427165 0.059021913
-0.064863861 -0.44441104 0.058977123
-0.065028571 -0.44453266 0.058995806
-0.065212682 -0.44468883 0.058897901
-0.065388203 -0.44483218 0.058836956
-0.065550216 -0.444949 0.058871806
-0.065717727 -0.44507685 0.058866266
-0.065895252 -0.44522113 0.058808759
-0.066063076 -0.44535002 0.058798596
-0.066229343 -0.44547594 0.058798835
-0.066387177 -0.44560057 0.058769118
-0.066554934 -0.44570994 0.058873132
-0.066730261 -0.44585493 0.058801807
-0.066903532 -0.44599599 0.058744326
-0.067075528 -0.44613472 0.058694929
-0.067248754 -0.44627222 0.058658216
-0.067410864 -0.44639066 0.058683835
-0.067568064 -0.44651127 0.058674894
-0.067719243 -0.44663185 0.058639452
-0.067885377 -0.44675079 0.05868005
-0.068089426 -0.44692603 0.058558971
-0.068247549 -0.44703653 0.058613449
-0.068413243 -0.44716358 0.058604449
-0.068590567 -0.44731206 0.058521576
-0.068755239 -0.44743738 0.05851835
-0.068919003 -0.44756082 0.058522061
-0.069079362 -0.44768578 0.058501564
-0.06925109 -0.4478139 0.058513287
-0.069421023 -0.44795185 0.058459293
-0.069588289 -0.44808403 0.058427226
-0.069754623 -0.44821432 0.058402073
-0.069919154 -0.44833598 0.058419619
-0.070090197 -0.44847772 0.058348309
-0.07025104 -0.44859108 0.058398165
-0.070419006 -0.44872618 0.058352243
-0.070579521 -0.44884378 0.058375575
-0.070745125 -0.44897375 0.058349274
-0.070909932 -0.44909698 0.05835874
-0.071076781 -0.44923043 0.058317445
-0.071242735 -0.44936201 0.058283072
-0.071384959 -0.44947127 0.058274209
-0.071556866 -0.44959736 0.058298633
-0.071732007 -0.4497422 0.058227301
-0.071874231 -0.44984674 0.058246117
-0.072043814 -0.44997811 0.058229022
-0.072234444 -0.4501422 0.058113791
-0.072377332 -0.4502435 0.058154516
-0.072547972 -0.45037293 0.058153562
-0.072709046 -0.45049983 0.058124989
-0.072863899 -0.45062181 0.058097597
-0.073041201 -0.4507699 0.05801703
-0.073188797 -0.45087871 0.058034666
-0.073347583 -0.45100051 0.058025707
-0.073519789 -0.45112976 0.058032826
-0.073700234 -0.45128217 0.057940703
-0.07386747 -0.45139802 0.058004364
-0.074028604 -0.45152125 0.0579977
-0.074196689 -0.45165837 0.057940245
-0.074359663 -0.4517875 0.057907052
-0.074519858 -0.45190883 0.057907313
-0.074679978 -0.45203009 0.057907578
-0.074844994 -0.45215958 0.057881281
-0.075006634 -0.45228595 0.057858467
-0.075165078 -0.45240277 0.057877198
-0.075329281 -0.45253757 0.057816308
-0.075491078 -0.45265833 0.05782694
-0.075654529 -0.45279154 0.057771824
-0.075812459 -0.45290762 0.057792861
-0.075975426 -0.45304006 0.057740059
-0.076137185 -0.45316908 0.057702251
-0.076296896 -0.45328411 0.057737116
-0.076463394 -0.45342201 0.057668142
-0.076620281 -0.45354339 0.057653423
-0.076781206 -0.45366308 0.057666369
-0.076924793 -0.45377868 0.057626363
-0.077075526 -0.45390368 0.057563242
-0.077232748 -0.45401919 0.057584278
-0.077400364 -0.45414731 0.05757758
-0.077559888 -0.454263 0.057607833
-0.077733174 -0.45440409 0.05755036
-0.077879727 -0.45451546 0.057548381
-0.078026906 -0.45462945 0.057533734
-0.078185029 -0.45474958 0.057531696
-0.078349143 -0.4548845 0.057469659
-0.078496851 -0.45499203 0.057495363
-0.078656629 -0.45511991 0.057455257
-0.078812085 -0.45523015 0.057499375
-0.078982681 -0.4553743 0.057411928
-0.079135545 -0.45549458 0.057385705
-0.079290807 -0.45560449 0.057430975
-0.079450577 -0.45573473 0.057377029
-0.079612225 -0.45585185 0.057408422
-0.079766691 -0.45598122 0.057336062
-0.079920605 -0.45609698 0.057340968
-0.080077529 -0.45621562 0.057342399
-0.080249123 -0.45635876 0.057265326
-0.08039961 -0.45647076 0.057277177
-0.080556355 -0.45658964 0.057276309
-0.080714792 -0.45670453 0.057306558
-0.080885045 -0.45684332 0.057249106
-0.081036001 -0.45697334 0.057157151
-0.081187926 -0.45708072 0.057202432
-0.08134412 -0.45719841 0.05720618
-0.081506342 -0.45732224 0.05720067
-0.081659004 -0.45745063 0.057126008
-0.08181075 -0.45755729 0.057174757
-0.081967562 -0.45768076 0.05714735
-0.082126938 -0.4578048 0.05712802
-0.082281694 -0.4579336 0.057060264
-0.082441211 -0.4580605 0.057024769
-0.082595378 -0.45816663 0.057087347
-0.082754523 -0.45829168 0.057061084
-0.082911059 -0.45841768 0.05701755
-0.083066583 -0.45853585 0.057015531
-0.083219521 -0.45865521 0.056995075
-0.08337485 -0.45877263 0.056996513
-0.083537541 -0.45891199 0.056902185
-0.083686642 -0.45902193 0.056919809
-0.083841912 -0.45914128 0.056909721
-0.083996721 -0.45925575 0.056926154
-0.084158197 -0.4593873 0.056872211
-0.084313348 -0.45950833 0.056851733
-0.084459499 -0.45961782 0.056858998
-0.084617294 -0.45973969 0.056845434
-0.084774978 -0.45986086 0.056835331
-0.084929943 -0.45998451 0.056798715
-0.085078955 -0.46010107 0.056777123
-0.085236371 -0.46022165 0.05676933
-0.085388303 -0.4603487 0.056699283
-0.08554551 -0.46046856 0.056694955
-0.08570265 -0.46058735 0.056696385
-0.085851185 -0.46070081 0.056690942
-0.08600539 -0.46082035 0.056675091
-0.086162381 -0.46093607 0.056693822
-0.086319327 -0.46105748 0.056679115
-0.086470537 -0.46117061 0.056687497
-0.086627096 -0.46130332 0.056604743
-0.08677803 -0.46142155 0.056581989
-0.086929001 -0.46153587 0.056582294
-0.087088525 -0.46165532 0.056590639
-0.08723934 -0.46177149 0.056579418
-0.087392658 -0.46189487 0.056537043
-0.087546229 -0.46201175 0.056533884
-0.087700307 -0.46212056 0.05658032
-0.087849341 -0.46225759 0.056438781
-0.088003218 -0.46236783 0.056475978
-0.088164233 -0.4625006 0.056412809
-0.088311911 -0.46261162 0.056417756
-0.088465519 -0.46272442 0.056438815
-0.088620506 -0.4628526 0.056375667
-0.088773265 -0.46297181 0.056355216
-0.088926047 -0.46309027 0.056339368
-0.08908505 -0.46320811 0.056354627
-0.089238249 -0.46332276 0.056363013
-0.089387894 -0.46344 0.056340255
-0.089540809 -0.46355599 0.056339413
-0.08969418 -0.46368846 0.056243986
-0.089841686 -0.4637976 0.056259312
-0.0899937 -0.46391743 0.056231931
-0.090152092 -0.46403718 0.056233365
-0.09029828 -0.46415281 0.05620487
-0.090456098 -0.46427488 0.056190144
-0.090609066 -0.46438855 0.056203142
-0.090762503 -0.46450001 0.056231119
-0.090910897 -0.46461928 0.056191083
-0.091056488 -0.46473581 0.056154519
-0.09120895 -0.46485105 0.05615598
-0.091359928 -0.46497208 0.056117076
-0.091510884 -0.46509266 0.056080483
-0.091663636 -0.46521878 0.05601966
-0.091821536 -0.46532577 0.056093745
-0.091968723 -0.46544665 0.056038722
-0.092118196 -0.46555924 0.056042507
-0.092269301 -0.4656778 0.056018595
-0.092420936 -0.46579438 0.056008525
-0.092577845 -0.46591616 0.055991508
-0.092727572 -0.46602759 0.056003362
-0.092879683 -0.46614236 0.056005981
-0.09302891 -0.4662652 0.05594863
-0.093180425 -0.46638131 0.05594087
-0.093332022 -0.46649709 0.055935413
-0.093480177 -0.46661222 0.055918436
-0.093634568 -0.46672994 0.055914123
-0.093782268 -0.4668459 0.05589024
-0.093926184 -0.4669708 0.055797167
-0.09408582 -0.46707559 0.055892002
-0.094232894 -0.46720108 0.055809304
-0.094382867 -0.46731958 0.055780783
-0.094538376 -0.46743399 0.055800684
-0.09468729 -0.46755442 0.055756025
-0.094842657 -0.46766913 0.055773612
-0.094987743 -0.4677735 0.055806253
-0.095144682 -0.4679006 0.055758096
-0.095298618 -0.46802562 0.055708796
-0.095440514 -0.46813601 0.055691864
-0.095591374 -0.46825892 0.055641435
-0.095746987 -0.46836573 0.0557063
-0.0958919 -0.4684847 0.055652443
-0.096042693 -0.46860716 0.05560432
-0.096190169 -0.46872807 0.055550441
-0.096346125 -0.46884814 0.055539198
-0.096497722 -0.46895525 0.055584487
-0.096646369 -0.46906722 0.055588279
-0.096795931 -0.46919718 0.055490565
-0.096945569 -0.46930107 0.055546246
-0.097096078 -0.46942902 0.05546467
-0.097253434 -0.46953422 0.055546835
-0.097394466 -0.46964473 0.055525288
-0.097537331 -0.46977669 0.055386096
-0.097699448 -0.46989948 0.05538635
-0.097850874 -0.47000724 0.05542703
-0.098003417 -0.47012532 0.055412337
-0.098158136 -0.47023481 0.055457611
-0.098297134 -0.47035304 0.055381868
-0.098449275 -0.47047138 0.05536373
-0.098612353 -0.47058743 0.0554078
-0.098760806 -0.47069925 0.055411581
-0.098902524 -0.47080281 0.055433862
-0.099043801 -0.47092295 0.055356957
-0.09918718 -0.47104567 0.05527427
-0.099333011 -0.47117576 0.055159278
-0.099497713 -0.47128499 0.055250634
-0.099640891 -0.47139201 0.055259064
-0.099787049 -0.47150603 0.055239797
-0.099939764 -0.47162816 0.055202037
-0.10009351 -0.47174418 0.055204645
-0.10023964 -0.47186291 0.055157699
-0.10038631 -0.47197613 0.055145342
-0.10053747 -0.4720898 0.055150278
-0.10068968 -0.47220722 0.055137895
-0.10084583 -0.47231171 0.055218909
-0.10098688 -0.47243464 0.055124708
-0.1011451 -0.47255582 0.05511691
-0.10128573 -0.47266507 0.055101126
-0.10143109 -0.47279263 0.05499883
-0.10158466 -0.47291306 0.05497491
-0.1017362 -0.47302189 0.055009823
-0.10188504 -0.47313738 0.054994002
-0.10202879 -0.47325683 0.054932073
-0.10221165 -0.47335443 0.055172104
-0.10236466 -0.47345003 0.055291194
-0.10250454 -0.47356421 0.055243138
-0.10264355 -0.47368303 0.055163935
-0.10277215 -0.47381324 0.054971758
-0.10290694 -0.47393847 0.054836072
-0.10304764 -0.47406331 0.054729182
-0.10318745 -0.47418842 0.054616526
-0.10335556 -0.47431418 0.054625973
-0.10352151 -0.47442964 0.054686178
-0.10367746 -0.47453612 0.054754514
-0.10383157 -0.47464398 0.054806709
-0.10396565 -0.47475669 0.054741375
-0.10411805 -0.47488096 0.054689776
-0.10427438 -0.47499523 0.054714277
-0.10442933 -0.4751029 0.054771092
-0.10456696 -0.47522068 0.054691896
-0.10472428 -0.47533825 0.054701407
-0.10488006 -0.47546035 0.054677464
-0.10501935 -0.475566 0.054676689
-0.10517234 -0.47567517 0.054716211
-0.10531747 -0.47579214 0.054675035
-0.10545601 -0.47590885 0.054606214
-0.10560159 -0.47602537 0.054569654
-0.10575505 -0.47613448 0.054611474
-0.10590872 -0.47625402 0.054593325
-0.10605744 -0.47636899 0.054579802
-0.10620326 -0.47648531 0.054545552
-0.10634854 -0.47660181 0.054507829
-0.10650113 -0.47671834 0.054502368
-0.10665163 -0.47682914 0.054521136
-0.1068036 -0.476946 0.054511067
-0.10694595 -0.47706363 0.054453764
-0.10710463 -0.47717768 0.054489784
-0.1072419 -0.477294 0.054417513
-0.10739377 -0.47740763 0.054425895
-0.10754763 -0.47752374 0.054428503
-0.10769717 -0.47763836 0.054420747
-0.10783749 -0.47775325 0.054370377
-0.10798401 -0.47787207 0.054324578
-0.10813638 -0.47798252 0.054353718
-0.10827927 -0.47810254 0.054284882
-0.10843091 -0.47821027 0.054326706
-0.108594 -0.4783265 0.054369628
-0.10874467 -0.4784469 0.054333035
-0.10888533 -0.47856441 0.054268822
-0.10902881 -0.47867796 0.054240346
-0.10918339 -0.47879404 0.0542464
-0.10932405 -0.47891137 0.054183338
-0.10948891 -0.47903326 0.054200873
-0.1096304 -0.47915024 0.054143574
-0.10976742 -0.47925967 0.054110512
-0.10992244 -0.47936997 0.054152336
-0.11006899 -0.47949117 0.054092698
-0.11022858 -0.47960615 0.054127563
-0.11037533 -0.47972158 0.054102525
-0.11052453 -0.47983083 0.054124761
-0.11067175 -0.47995174 0.054069731
-0.11081809 -0.48006728 0.054042395
-0.11097779 -0.48018253 0.054076109
-0.1111147 -0.48030013 0.053994611
-0.11127836 -0.48041463 0.054050218
-0.11141871 -0.48052603 0.054020599
-0.11155555 -0.48064613 0.05392411
-0.11172149 -0.48076043 0.053991236
-0.11186638 -0.48087621 0.053955831
-0.11201945 -0.48099312 0.053950362
-0.1121678 -0.48111349 0.053903405
-0.11230996 -0.48122451 0.053884163
-0.11246444 -0.4813464 0.05385562
-0.11261889 -0.48146826 0.053827085
-0.11275952 -0.48157436 0.053829763
-0.11291314 -0.48169127 0.053826604
-0.1130664 -0.48180321 0.053851128
-0.11320359 -0.4819175 0.053790383
-0.11335746 -0.48203695 0.053773385
-0.11351325 -0.48215121 0.05379558
-0.11366314 -0.48226628 0.053786673
-0.11379963 -0.48237807 0.053737476
-0.11396121 -0.48249671 0.053759638
-0.11410634 -0.48260993 0.053740382
-0.11425598 -0.48273486 0.053672656
-0.11441129 -0.48284459 0.053719074
-0.11455257 -0.48295826 0.05368023
-0.1146879 -0.48307723 0.053583749
-0.11484766 -0.4831939 0.053609394
-0.11499514 -0.48330459 0.053615488
-0.11512394 -0.48341921 0.053515587
-0.11529821 -0.48353958 0.053583816
-0.11544724 -0.48365265 0.053582992
-0.11558323 -0.48376662 0.053518798
-0.1157461 -0.48388112 0.053570945
-0.11589988 -0.48400089 0.053551633
-0.11604659 -0.48411652 0.053525448
-0.11619607 -0.48422971 0.053525768
-0.11633841 -0.48434556 0.053478848
-0.11648525 -0.48446342 0.053439971
-0.11664474 -0.48458302 0.053447157
-0.11678679 -0.48469883 0.053399075
-0.11694182 -0.48481643 0.053398218
-0.11709879 -0.48492959 0.053431936
-0.11723707 -0.48504552 0.053366579
-0.11738593 -0.48516333 0.053336918
-0.11755738 -0.48527864 0.053422473
-0.11769844 -0.48539451 0.05336979
-0.11784048 -0.48551029 0.053321708
-0.11799381 -0.48562819 0.053311631
-0.1181415 -0.48574394 0.053288896
-0.11829022 -0.48586187 0.053258076
-0.11845669 -0.48598206 0.053292911
-0.11859582 -0.48609781 0.053232156
-0.11874352 -0.48621577 0.053196736
-0.11889397 -0.48633164 0.053185523
-0.11906783 -0.48645014 0.053262983
-0.11921711 -0.48656616 0.053245999
-0.11937143 -0.48668438 0.053238228
-0.11950538 -0.48679996 0.053155594
-0.1196388 -0.48691747 0.053059123
-0.11979715 -0.48702973 0.053104378
-0.11995576 -0.48715025 0.053102337
-0.12009135 -0.48726371 0.053039305
-0.12024948 -0.48738426 0.053034961
-0.12041175 -0.48750103 0.05307097
-0.12056164 -0.48761928 0.053043611
-0.1207146 -0.48773569 0.053040449
-0.12086658 -0.48785806 0.052998088
-0.12100829 -0.48796988 0.052971922
-0.12115315 -0.4880898 0.052912295
-0.12130599 -0.48820433 0.052919518
-0.12145515 -0.48832259 0.052888706
-0.12161673 -0.48843986 0.052918948
-0.12176338 -0.48855799 0.052877761
-0.12191536 -0.48867267 0.05288038
-0.12205633 -0.48878649 0.052839227
-0.1222145 -0.4889037 0.052854493
-0.12238143 -0.48902562 0.052881245
-0.12254025 -0.48914117 0.052909192
-0.12266407 -0.48925537 0.05278971
-0.12281096 -0.48937169 0.052760061
-0.12296893 -0.48948917 0.052773025
-0.12311141 -0.4896051 0.052726105
-0.12328931 -0.48972666 0.052803539
-0.12342823 -0.4898423 0.052742787
-0.12358008 -0.48995745 0.052741949
-0.12372753 -0.49007404 0.052713446
-0.12387808 -0.49019098 0.052696466
-0.1240411 -0.49031129 0.05271516
-0.12418281 -0.49042726 0.052664783
-0.12431642 -0.49054217 0.052584451
-0.12445962 -0.49065828 0.052539833
-0.12461002 -0.49077529 0.052521694
-0.12476864 -0.49089345 0.052533492
-0.1249318 -0.49101231 0.052561428
-0.12509891 -0.49113178 0.05260317
-0.12521179 -0.49124375 0.052447993
-0.12539408 -0.49136552 0.052543864
-0.12554009 -0.49148041 0.05251883
-0.12569967 -0.49159908 0.052531783
-0.12584481 -0.49171567 0.052492917
-0.1260042 -0.49183619 0.052494332
-0.12614159 -0.49195161 0.052427828
-0.12628487 -0.4920662 0.052392431
-0.12644255 -0.49218482 0.052397318
-0.12660363 -0.49230406 0.052413724
-0.12675856 -0.49242237 0.052408248
-0.1269096 -0.49254009 0.052388955
-0.12705334 -0.49265659 0.052344333
-0.12719709 -0.49277312 0.052299701
-0.12736335 -0.49289352 0.05233223
-0.12750922 -0.49301046 0.052294504
-0.12767 -0.49313006 0.052307453
-0.12781732 -0.4932473 0.052274343
-0.12795886 -0.49336353 0.052221656
-0.12812299 -0.4934839 0.052244961
-0.1282713 -0.49359974 0.052224524
-0.12842259 -0.49371785 0.05220408
-0.12857635 -0.49383646 0.05219169
-0.12872268 -0.49395531 0.052144744
-0.12888494 -0.49407566 0.052159984
-0.12905541 -0.49419767 0.052201714
-0.12919021 -0.4943127 0.052125998
-0.12933977 -0.49443069 0.052098632
-0.1295085 -0.49455258 0.052133456
-0.1296362 -0.49466616 0.05203471
-0.12978759 -0.49478295 0.05202233
-0.12996098 -0.49490604 0.052070957
-0.13010514 -0.49502304 0.052025173
-0.13026011 -0.49514237 0.052013937
-0.13042602 -0.49526408 0.052037232
-0.13054998 -0.4953768 0.05192697
-0.13073906 -0.49550527 0.052013583
-0.13088748 -0.49562338 0.051980466
-0.13101906 -0.49573615 0.051903605
-0.13119107 -0.49586269 0.051925719
-0.13133778 -0.49598047 0.051886842
-0.13148493 -0.49609524 0.051867567
-0.13164616 -0.49621952 0.051855136
-0.1318076 -0.49634078 0.05186116
-0.13194707 -0.49645543 0.051808484
-0.13211396 -0.4965781 0.051830627
-0.13226818 -0.49669784 0.051813614
-0.1324334 -0.49682179 0.051820777
-0.13258561 -0.4969396 0.051806085
-0.1327197 -0.49705154 0.051745363
-0.13287692 -0.49717218 0.051736422
-0.13303834 -0.49729541 0.051730908
-0.13317651 -0.49741143 0.051664401
-0.13335523 -0.49753755 0.051718764
-0.13351287 -0.49765852 0.051709808
-0.13365465 -0.4977755 0.051653661
-0.13380542 -0.49789479 0.051623989
-0.13396668 -0.49801829 0.051616177
-0.13411957 -0.49813819 0.051592261
-0.13428651 -0.49826029 0.051617853
-0.13443941 -0.49838179 0.051584709
-0.13459416 -0.49850231 0.051565394
-0.13472748 -0.49861425 0.051501222
-0.13490833 -0.49874181 0.051556733
-0.13505036 -0.49885759 0.051508654
-0.13520643 -0.49898013 0.05148356
-0.13536547 -0.49910057 0.05148384
-0.13555267 -0.49923313 0.051538151
-0.13568157 -0.49934545 0.051452089
-0.13583842 -0.49946839 0.05142815
-0.13600013 -0.49959123 0.051426094
-0.13613175 -0.49970287 0.051356167
-0.13630582 -0.49983215 0.051371347
-0.13646457 -0.49995434 0.051360078
-0.13661699 -0.50007194 0.051347695
-0.13677543 -0.5001927 0.051343359
-0.13692169 -0.50031286 0.051288333
-0.13707699 -0.50043285 0.051274784
-0.13724902 -0.50056195 0.051281907
-0.13739353 -0.50067747 0.051246502
-0.13755731 -0.50080287 0.051238671
-0.1377144 -0.500925 0.051220492
-0.13786775 -0.50104606 0.051191956
-0.13804033 -0.50117147 0.051223293
-0.13819745 -0.50129795 0.051179744
-0.13832834 -0.50141233 0.051090211
-0.13850878 -0.50154585 0.051108815
-0.1386807 -0.50167 0.051144768
-0.13884851 -0.50179434 0.051161133
-0.13899478 -0.50191492 0.051103801
-0.13914108 -0.50203276 0.051062625
-0.055084266 -0.43687052 0.059748504
-0.055801082 -0.43742037 0.059708767
-0.055944819 -0.43752959 0.059706815
-0.056170031 -0.43771183 0.05963866
-0.056346193 -0.43784586 0.059635378
-0.056532465 -0.43799639 0.059580129
-0.056705117 -0.43812224 0.059609167
-0.056891356 -0.43827313 0.059551612
-0.057067752 -0.43840536 0.059559859
-0.057246782 -0.43854493 0.059536949
-0.057409875 -0.43865842 0.059596032
-0.057619642 -0.438849 0.059410296
-0.057794392 -0.43897918 0.059423175
-0.057960354 -0.43909779 0.059464931
-0.058137693 -0.4392325 0.059462793
-0.058321532 -0.43938121 0.059407558
-0.058493149 -0.43950665 0.059434295
-0.058667399 -0.43963963 0.059428714
-0.058853544 -0.43978986 0.059374623
-0.059026156 -0.43992043 0.059375972
-0.059206601 -0.44006142 0.059350751
-0.0593886 -0.44020832 0.059297822
-0.059567165 -0.44034654 0.059280686
-0.059738457 -0.44047546 0.059285507
-0.05991767 -0.44061515 0.059262596
-0.060099341 -0.4407624 0.059206218
-0.060270932 -0.44089237 0.059206419
-0.060439989 -0.44101804 0.059220482
-0.060625341 -0.44116926 0.059157155
-0.060800366 -0.44130576 0.059134275
-0.060984593 -0.44145554 0.059074424
-0.061128709 -0.44153437 0.059252419
-0.061320715 -0.44169831 0.05914408
-0.061506871 -0.44185543 0.05904961
-0.061680295 -0.4419868 0.059049804
-0.061853439 -0.44212109 0.059031539
-0.062020972 -0.44224206 0.05906637
-0.062205862 -0.4423947 0.058992676
-0.062380504 -0.44252896 0.058981325
-0.062544711 -0.44264761 0.059015013
-0.062731773 -0.44280505 0.05892285
-0.062901929 -0.44293156 0.058936901
-0.063081264 -0.44307524 0.058890924
-0.063246757 -0.44319686 0.058913074
-0.063427627 -0.44334388 0.058854401
-0.063599318 -0.44347394 0.058854595
-0.063771568 -0.44360518 0.058850184
-0.063943133 -0.44373885 0.058828458
-0.064116448 -0.44387248 0.058814816
-0.064288177 -0.44400689 0.058789641
-0.064459473 -0.44413701 0.05878754
-0.064628631 -0.44426316 0.058799289
-0.064800665 -0.44439504 0.058790259
-0.064975992 -0.44453353 0.058756985
-0.065146074 -0.44466195 0.058759511
-0.065319747 -0.44479764 0.058735475
-0.065503478 -0.44495353 0.058637559
-0.065672651 -0.4450846 0.058620468
-0.065849334 -0.44522709 0.058569886
-0.066014998 -0.44534764 0.058598965
-0.066181064 -0.44546908 0.058624573
-0.066360116 -0.44561708 0.058552057
-0.06653294 -0.44575271 0.058524575
-0.066696838 -0.44587013 0.058564037
-0.066863514 -0.44600955 0.058486983
-0.067044586 -0.44615084 0.058462903
-0.067208044 -0.44626775 0.058503523
-0.067394048 -0.44643223 0.058365226
-0.067556091 -0.44654649 0.058415078
-0.067721993 -0.44666901 0.058433764
-0.067885689 -0.44678688 0.058469776
-0.068050757 -0.44690776 0.05849424
-0.068233579 -0.44706729 0.058370952
-0.068415575 -0.44722992 0.058225751
-0.068580516 -0.44735131 0.058246754
-0.06873782 -0.44745588 0.058332391
-0.068902306 -0.44757631 0.058356859
-0.069081455 -0.44772974 0.058253199
-0.069246344 -0.44785145 0.058271896
-0.06941624 -0.44798467 0.058245581
-0.069580935 -0.44810623 0.058264278
-0.069755502 -0.44825065 0.058192946
-0.069923498 -0.44838026 0.058179323
-0.070088111 -0.44850215 0.05819571
-0.070255995 -0.44863188 0.058180936
-0.070418634 -0.44875425 0.058185805
-0.070590369 -0.44889358 0.058131792
-0.070755064 -0.44901633 0.058143564
-0.070927605 -0.44915825 0.058078017
-0.071091585 -0.44927967 0.058094405
-0.071258977 -0.4494096 0.058076177
-0.071418859 -0.44952634 0.058101818
-0.071586922 -0.44965836 0.058074355
-0.071758181 -0.44979867 0.058012266
-0.071927756 -0.4499352 0.057965182
-0.072087511 -0.45004693 0.058019668
-0.072254419 -0.45017707 0.057997979
-0.072426513 -0.4503265 0.057886288
-0.072588608 -0.45044473 0.057913076
-0.072753884 -0.45057148 0.057904087
-0.072919667 -0.45069978 0.057888169
-0.073088259 -0.45083594 0.057838783
-0.073240772 -0.4509463 0.057869088
-0.0734028 -0.45107689 0.0578232
-0.073578797 -0.45121059 0.057821073
-0.073745579 -0.451343 0.057785537
-0.073913507 -0.45147902 0.057733852
-0.074068032 -0.45160216 0.057698391
-0.074235223 -0.45171794 0.05776206
-0.074399121 -0.45184326 0.057755388
-0.074565537 -0.45197618 0.057715245
-0.074724004 -0.45209244 0.05773744
-0.07489004 -0.45222488 0.057698447
-0.075048894 -0.45234263 0.057713717
-0.075219244 -0.45248896 0.057612412
-0.075378716 -0.45260227 0.057656519
-0.075545147 -0.45273736 0.057603683
-0.075706303 -0.45286334 0.057580873
-0.075870767 -0.45299301 0.057551131
-0.076031208 -0.45310998 0.057577919
-0.076191783 -0.45324239 0.057514742
-0.076335624 -0.45334995 0.057523169
-0.076483414 -0.45346323 0.057515431
-0.076650545 -0.45358804 0.057526033
-0.076830521 -0.45371768 0.05756541
-0.076982662 -0.45385492 0.057436533
-0.077129617 -0.45396638 0.057435714
-0.077292517 -0.45409369 0.0574129
-0.077451654 -0.45421618 0.057401627
-0.077613033 -0.45434722 0.057349984
-0.077774145 -0.4544602 0.057403296
-0.07793653 -0.45458692 0.057381637
-0.078117974 -0.45472395 0.057384096
-0.078268915 -0.454853 0.057297893
-0.078416906 -0.45496133 0.057320148
-0.078576587 -0.45508835 0.057284653
-0.078739867 -0.455201 0.057349496
-0.078906611 -0.4553383 0.05728513
-0.079058483 -0.45545369 0.057283133
-0.07921429 -0.455576 0.057258051
-0.079382196 -0.45572048 0.05715676
-0.079527028 -0.45582721 0.057174411
-0.079688102 -0.45594153 0.057219658
-0.079856806 -0.45609212 0.057086073
-0.080006689 -0.4562003 0.057117537
-0.080163129 -0.45631659 0.057130508
-0.08033134 -0.45644262 0.057138801
-0.080488585 -0.45656347 0.057128705
-0.080643475 -0.45668548 0.057101317
-0.080801025 -0.45680892 0.057077374
-0.080966637 -0.45693594 0.057068374
-0.081124753 -0.45706373 0.057021361
-0.081280306 -0.45719215 0.056959361
-0.081435665 -0.45730489 0.056988493
-0.081603736 -0.45743355 0.05698064
-0.081759945 -0.45755205 0.056979772
-0.081911229 -0.4576723 0.056946639
-0.082061827 -0.4577885 0.056934267
-0.082223348 -0.45790946 0.056942601
-0.082380734 -0.45803869 0.05688405
-0.082542345 -0.45816147 0.056881994
-0.082695238 -0.45827764 0.056880001
-0.082855038 -0.4584083 0.056823745
-0.083016135 -0.45852852 0.056834381
-0.083175138 -0.45865425 0.05680351
-0.083328314 -0.45877594 0.056770366
-0.083483614 -0.45889336 0.056771807
-0.083635367 -0.45900157 0.056811336
-0.083795011 -0.45913881 0.056715865
-0.083950467 -0.45926046 0.056693085
-0.084111013 -0.45937911 0.056710653
-0.084263086 -0.45949346 0.056715574
-0.084424376 -0.45962447 0.05666393
-0.084582046 -0.45974287 0.05666998
-0.084733918 -0.45985672 0.056677207
-0.08489161 -0.45997712 0.056671716
-0.085049257 -0.46009806 0.056662772
-0.085207246 -0.4602311 0.056584612
-0.085361667 -0.46034428 0.056606825
-0.085516259 -0.4604651 0.0565852
-0.085679337 -0.46059275 0.056561224
-0.085833795 -0.46071815 0.056511924
-0.085988022 -0.46082708 0.056558359
-0.086142287 -0.46094882 0.056529827
-0.086299323 -0.46106911 0.056522027
-0.086453281 -0.4611983 0.056448508
-0.086607337 -0.46131358 0.056456875
-0.086761378 -0.46142864 0.056466404
-0.086923629 -0.46155921 0.056421675
-0.087074444 -0.4616785 0.056392003
-0.087228425 -0.46179119 0.056415372
-0.08738187 -0.46191388 0.056377605
-0.087538041 -0.46203864 0.05633983
-0.087691933 -0.46215105 0.056364346
-0.087847538 -0.46228087 0.056294277
-0.088004276 -0.46239445 0.056324549
-0.088159956 -0.46252021 0.056278698
-0.088313557 -0.46263438 0.056291692
-0.08846961 -0.46275431 0.056281596
-0.088619567 -0.46287319 0.05625077
-0.08877483 -0.46299863 0.056204922
-0.088931635 -0.46311048 0.056245584
-0.089087881 -0.46322703 0.056256246
-0.08924289 -0.46335229 0.056210399
-0.089392021 -0.46347368 0.056161128
-0.089544646 -0.46359199 0.056145288
-0.089706466 -0.46369252 0.056274734
-0.089850441 -0.46382415 0.056142434
-0.090010203 -0.46395537 0.056082722
-0.090166822 -0.46408519 0.056017257
-0.09032046 -0.46419603 0.056049857
-0.090469882 -0.46431172 0.056035191
-0.090628982 -0.46442789 0.056060839
-0.090777926 -0.4645454 0.056033477
-0.09092582 -0.46466702 0.055977292
-0.09108454 -0.46478447 0.055993713
-0.091243789 -0.46491334 0.055945534
-0.091396682 -0.46502694 0.055958528
-0.091550969 -0.46514809 0.055933453
-0.091705255 -0.46526888 0.055910684
-0.091862887 -0.46538964 0.05590288
-0.092014551 -0.46549523 0.05595741
-0.09216506 -0.46562809 0.055846993
-0.092320696 -0.46574339 0.055862278
-0.092481993 -0.46587381 0.055814087
-0.092622936 -0.46598011 0.05581677
-0.092779577 -0.46610269 0.055793986
-0.092929602 -0.46621335 0.055811606
-0.09308482 -0.46633953 0.055761136
-0.093238816 -0.46644905 0.055802964
-0.093387142 -0.46657377 0.05573063
-0.093543261 -0.46668729 0.055758603
-0.093693711 -0.46680593 0.055731237
-0.093838513 -0.46692008 0.055705056
-0.093992814 -0.46703792 0.055699583
-0.094149694 -0.46716696 0.055639889
-0.094306752 -0.46728668 0.055635557
-0.094457418 -0.46739545 0.055667013
-0.094610639 -0.46751523 0.055645406
-0.094770633 -0.46764466 0.055597223
-0.094918646 -0.46775889 0.055584867
-0.095070094 -0.46788162 0.055537891
-0.095221117 -0.46798971 0.055575117
-0.095381208 -0.46811056 0.055577688
-0.095524192 -0.46822649 0.055533063
-0.095679224 -0.46834192 0.055544894
-0.095829554 -0.46847287 0.055444859
-0.09598358 -0.46858281 0.055484373
-0.096138395 -0.46869847 0.055493899
-0.096291237 -0.46882424 0.055435374
-0.096438512 -0.46893203 0.055457622
-0.096595392 -0.46905753 0.055418693
-0.096743189 -0.46917102 0.0554098
-0.096896559 -0.46928874 0.055400871
-0.097049728 -0.46940669 0.055389643
-0.097200178 -0.46953475 0.055306904
-0.097355157 -0.46964368 0.055356797
-0.097506605 -0.46975777 0.055360571
-0.097646475 -0.46987587 0.055289432
-0.09779878 -0.47000045 0.055235535
-0.097952649 -0.47011107 0.05527043
-0.098110169 -0.47022858 0.055281099
-0.09825556 -0.47033885 0.055280287
-0.098402604 -0.47046947 0.055167578
-0.098568171 -0.47057146 0.055305086
-0.09870968 -0.47068098 0.055291608
-0.098850429 -0.47081292 0.055143178
-0.099001594 -0.47094291 0.055052366
-0.099158607 -0.47106594 0.055028427
-0.099320479 -0.47116789 0.055149805
-0.099473894 -0.47128466 0.055146649
-0.099624917 -0.47140393 0.055118125
-0.099765167 -0.47152427 0.055035446
-0.099923 -0.47164124 0.05505072
-0.10007194 -0.47175738 0.055031437
-0.10022891 -0.47187525 0.055037491
-0.10037399 -0.4719806 0.055064369
-0.10051886 -0.47210053 0.055004731
-0.10066431 -0.47221971 0.054952022
-0.10082716 -0.47234145 0.054961499
-0.10097128 -0.47246161 0.054897256
-0.10113347 -0.47257477 0.054954037
-0.10128315 -0.47267634 0.055023566
-0.10143669 -0.47281069 0.054917742
-0.10157704 -0.47292462 0.054873131
-0.10173088 -0.4730362 0.05490227
-0.10187632 -0.47314593 0.054904927
-0.10202388 -0.47327125 0.054825667
-0.10218225 -0.47339648 0.0547948
-0.10233617 -0.47351658 0.05477434
-0.10249129 -0.47362736 0.054813851
-0.10263153 -0.4737367 0.054795768
-0.10278251 -0.47385064 0.054798394
-0.10292381 -0.4739714 0.054718018
-0.10308622 -0.47408947 0.054747108
-0.10323071 -0.47421578 0.054648254
-0.10338768 -0.47432563 0.054701604
-0.10354047 -0.4744305 0.054765347
-0.10367671 -0.47453445 0.05476113
-0.10381988 -0.47464952 0.054722272
-0.10396555 -0.47477064 0.054659173
-0.10411033 -0.47489974 0.054545328
-0.10425922 -0.47502232 0.054487977
-0.1044133 -0.47513053 0.054537885
-0.10457399 -0.47523886 0.054616582
-0.1047206 -0.47536266 0.054541945
-0.10485878 -0.47547632 0.054489266
-0.1050117 -0.4756 0.054443434
-0.10516839 -0.47570723 0.054510623
-0.1053279 -0.47582391 0.054535117
-0.1054842 -0.47595289 0.054473117
-0.10562556 -0.47606465 0.054445796
-0.10575864 -0.47617346 0.05439892
-0.10591815 -0.47629368 0.054402646
-0.10607445 -0.47640514 0.054443311
-0.10621981 -0.47651502 0.054444809
-0.10635997 -0.47662723 0.054409429
-0.10650667 -0.47674993 0.054341711
-0.10665476 -0.4768652 0.054323584
-0.10679739 -0.47697949 0.054287031
-0.10695776 -0.47709289 0.054334592
-0.10710351 -0.47720915 0.054300331
-0.10725769 -0.47732195 0.054323703
-0.10740414 -0.4774411 0.054275598
-0.10755794 -0.47755739 0.054277048
-0.10769611 -0.4776732 0.05421168
-0.10785461 -0.47778457 0.054262713
-0.10801791 -0.47790688 0.054271035
-0.10815126 -0.47801805 0.054211468
-0.10829347 -0.47814149 0.054119557
-0.10845312 -0.47825274 0.054176342
-0.10861092 -0.47836477 0.054220453
-0.10874015 -0.47848916 0.05406516
-0.10889813 -0.47861016 0.054057367
-0.10904843 -0.47871867 0.054088838
-0.10920869 -0.47883019 0.054146778
-0.10934782 -0.47894222 0.054107934
-0.10949829 -0.4790597 0.054087494
-0.10963237 -0.47917598 0.054001391
-0.10979025 -0.4792971 0.053992435
-0.10993958 -0.47941196 0.053982385
-0.11008535 -0.47952488 0.053967729
-0.11024391 -0.47964025 0.053995691
-0.11039858 -0.47976229 0.053967144
-0.11053272 -0.47987249 0.053916801
-0.1106888 -0.47998303 0.053962074
-0.11084166 -0.48010546 0.05392316
-0.11099071 -0.4802205 0.053910799
-0.11114378 -0.48033738 0.053905345
-0.11129631 -0.4804517 0.053912569
-0.11143537 -0.48057154 0.053827591
-0.11158469 -0.48069188 0.053785235
-0.11173722 -0.4808009 0.053823613
-0.11188632 -0.48092127 0.053780101
-0.11203312 -0.48103678 0.05375506
-0.11217605 -0.48115817 0.053678147
-0.11233246 -0.48126933 0.053721108
-0.11247541 -0.48138544 0.053675324
-0.11262856 -0.48149472 0.053714845
-0.11278528 -0.48161125 0.053727828
-0.11293969 -0.48173073 0.053713124
-0.11307286 -0.48184571 0.053630486
-0.11322846 -0.48195744 0.053666536
-0.11337575 -0.48207292 0.053643804
-0.11352991 -0.48218748 0.05365679
-0.11367787 -0.48231035 0.053593677
-0.11383633 -0.48241952 0.053657394
-0.11398967 -0.48253682 0.053650778
-0.11413161 -0.48265788 0.053571548
-0.11428025 -0.48277083 0.053569578
-0.11441946 -0.48288959 0.053491518
-0.11457936 -0.48300144 0.053545997
-0.11472358 -0.4831197 0.053493295
-0.11487912 -0.48323688 0.053497046
-0.11503005 -0.48335451 0.053477753
-0.11518803 -0.48347631 0.053465337
-0.11532676 -0.48359022 0.053413816
-0.11548394 -0.48370275 0.053452164
-0.1156281 -0.48381859 0.053413302
-0.1157784 -0.48393634 0.05339054
-0.11592218 -0.48404756 0.053377062
-0.11608745 -0.48416683 0.053411901
-0.11621869 -0.48427877 0.053338505
-0.1163513 -0.48439509 0.053245492
-0.11650932 -0.48451477 0.053245768
-0.11666682 -0.48463228 0.053256422
-0.11682697 -0.48474529 0.053305134
-0.11696513 -0.48486131 0.053238615
-0.117114 -0.48497698 0.053221647
-0.11726642 -0.48509261 0.053220805
-0.11742253 -0.48521259 0.053210713
-0.11756615 -0.48532844 0.053169541
-0.11772769 -0.48544839 0.053183634
-0.11786465 -0.48556429 0.053112514
-0.11803199 -0.48568216 0.053164642
-0.11816993 -0.48579803 0.053098127
-0.1183195 -0.48591599 0.053070772
-0.11847805 -0.48603195 0.053095274
-0.11862928 -0.48615 0.053074818
-0.11876851 -0.48626366 0.053026754
-0.1189194 -0.48638383 0.052992471
-0.11906248 -0.48649964 0.052948996
-0.11923563 -0.48662037 0.053010318
-0.11938997 -0.48673862 0.053002547
-0.11953843 -0.48685262 0.052993648
-0.11968297 -0.48696852 0.052955933
-0.11983716 -0.48708689 0.052947
-0.1199863 -0.48720708 0.052904651
-0.12014104 -0.48732346 0.052909561
-0.12028929 -0.48744163 0.052875284
-0.12044528 -0.48755819 0.052884802
-0.12059558 -0.4876785 0.052847054
-0.12074809 -0.48779693 0.052830059
-0.12089917 -0.48790938 0.052841917
-0.121062 -0.48802856 0.052866392
-0.12120388 -0.48814446 0.052817151
-0.12135401 -0.4882648 0.052778251
-0.12149928 -0.48838288 0.052731305
-0.12164599 -0.48849908 0.052701656
-0.12181365 -0.48861504 0.052766472
-0.12196016 -0.48873326 0.052724138
-0.12211052 -0.48884988 0.052708305
-0.1222635 -0.48896867 0.052691311
-0.12240039 -0.48908409 0.05262249
-0.12256584 -0.48920408 0.052653871
-0.12272806 -0.48932576 0.052661054
-0.12287271 -0.48944199 0.052622184
-0.12301735 -0.48955819 0.052583311
-0.12317029 -0.48967713 0.052565165
-0.12332147 -0.48979223 0.052562021
-0.12346357 -0.48991004 0.052502401
-0.12362974 -0.49003059 0.052533776
-0.12378167 -0.49014956 0.052511014
-0.12395169 -0.49026889 0.052566599
-0.12409504 -0.49038512 0.052521974
-0.12424737 -0.49050242 0.052510738
-0.12442227 -0.49062446 0.052572064
-0.12454014 -0.49073926 0.052422609
-0.12470114 -0.49085963 0.052432097
-0.12483508 -0.49097458 0.052352913
-0.12501331 -0.49109739 0.052424598
-0.12514438 -0.49121195 0.052335043
-0.12528047 -0.49132895 0.052253548
-0.12544821 -0.4914487 0.052296445
-0.12560745 -0.4915691 0.052297872
-0.12576778 -0.49168622 0.052323513
-0.12591134 -0.49180436 0.052268505
-0.12606828 -0.4919228 0.052271094
-0.12621741 -0.49204183 0.052235663
-0.12636854 -0.49216118 0.052207138
-0.12652464 -0.49228138 0.052195895
-0.12669314 -0.4924019 0.052237637
-0.1268331 -0.49252123 0.05215957
-0.12698829 -0.49263796 0.05216448
-0.12715441 -0.49276006 0.052186631
-0.12729996 -0.49287695 0.052147757
-0.12745318 -0.4929969 0.052124992
-0.12760521 -0.49311498 0.052108001
-0.12775886 -0.49323508 0.052086383
-0.12791906 -0.49335641 0.052086644
-0.12807149 -0.49347636 0.052060422
-0.12822106 -0.49359414 0.052034218
-0.12838118 -0.49371558 0.052033328
-0.12853862 -0.49383658 0.052023228
-0.12867586 -0.4939521 0.051955566
-0.12885424 -0.4940756 0.052023791
-0.12900601 -0.49419564 0.051994104
-0.1291528 -0.49431309 0.051957533
-0.1293029 -0.49443287 0.051922098
-0.12945834 -0.49455371 0.051903926
-0.12962247 -0.49467802 0.051904175
-0.12976474 -0.494793 0.051861852
-0.12994875 -0.49492157 0.051925436
-0.1300815 -0.49503624 0.051842801
-0.13026191 -0.49516425 0.051893704
-0.13041793 -0.49528712 0.051866308
-0.13055471 -0.49540424 0.051787108
-0.13070379 -0.49552086 0.051765516
-0.13087383 -0.49564531 0.051791113
-0.13101906 -0.49576589 0.051729161
-0.13116613 -0.49588376 0.051691443
-0.13133098 -0.49600723 0.051699758
-0.13147967 -0.49612394 0.051675856
-0.13164735 -0.49624977 0.051683005
-0.13179162 -0.49636865 0.051626831
-0.1319558 -0.49649221 0.051631689
-0.1321141 -0.49661443 0.051618125
-0.13226134 -0.49672946 0.051597703
-0.13242617 -0.4968549 0.051594477
-0.13257502 -0.49697194 0.051569425
-0.13273175 -0.49709398 0.051550101
-0.13291004 -0.49722135 0.051595256
-0.13304615 -0.49733993 0.05150453
-0.13321704 -0.49746561 0.051526651
-0.1333726 -0.49758756 0.05150272
-0.13352956 -0.49770838 0.051491462
-0.1336775 -0.49782845 0.051444508
-0.13383916 -0.49795207 0.05143784
-0.13399582 -0.49807444 0.051416203
-0.13416611 -0.49819595 0.051460244
-0.13430147 -0.49831438 0.051367216
-0.13446891 -0.49844116 0.051367443
-0.13462195 -0.49855983 0.051351599
-0.13479443 -0.4986881 0.051365636
-0.13494205 -0.49880835 0.051316373
-0.13511164 -0.49893305 0.051338501
-0.13525341 -0.49904886 0.05128926
-0.13540524 -0.4991703 0.051251516
-0.13557214 -0.49929592 0.051256359
-0.13573879 -0.49942154 0.051260043
-0.13588813 -0.49953955 0.051231526
-0.13606051 -0.49966836 0.051242106
-0.13622129 -0.49979109 0.051236607
-0.13636979 -0.49991041 0.05119656
-0.1365371 -0.50003654 0.051200248
-0.13668555 -0.50015879 0.051142901
-0.13684018 -0.50028139 0.051110897
-0.1370091 -0.50040817 0.051118039
-0.13715997 -0.50052691 0.051091827
-0.137328 -0.50065494 0.051087432
-0.13747869 -0.50077516 0.051051989
-0.13764012 -0.50089997 0.051037256
-0.13780332 -0.50102395 0.051035192
-0.13796981 -0.5011546 0.051008895
-0.13813789 -0.50127739 0.051035643
-0.13830972 -0.50140554 0.051047385
-0.13844244 -0.50151783 0.05097859
-0.13859597 -0.5016433 0.050924674
-0.13875687 -0.50176555 0.050922632
-0.13892965 -0.5018943 0.050935507
-0.13906163 -0.50200778 0.050856337
-0.055110112 -0.436932 0.059502818
-0.055282701 -0.43705958 0.059521448
-0.05546011 -0.43719217 0.059531979
-0.055651993 -0.43735072 0.059454739
-0.055828553 -0.43748504 0.059451424
-0.056004006 -0.43761775 0.059452739
-0.056195501 -0.43777364 0.059389345
-0.056377698 -0.43791756 0.059354853
-0.056554198 -0.43804967 0.059364229
-0.056728907 -0.43818182 0.059365548
-0.056921978 -0.438344 0.059272148
-0.057091992 -0.438483 0.059212334
-0.057260726 -0.43861157 0.059207916
-0.057454027 -0.43875211 0.059242584
-0.057618991 -0.438869 0.059290107
-0.05779596 -0.43900579 0.0592741
-0.057987273 -0.43916368 0.059198014
-0.058167033 -0.43930557 0.059164695
-0.058341168 -0.4394353 0.059177544
-0.058510691 -0.43956035 0.059197351
-0.058701977 -0.43972218 0.059098192
-0.058879379 -0.43986088 0.059072956
-0.0590562 -0.4399958 0.059067339
-0.059218626 -0.44010937 0.05912295
-0.059396755 -0.4402498 0.059090786
-0.059576314 -0.44039291 0.059049375
-0.059753913 -0.44052979 0.059035677
-0.059927534 -0.44066307 0.059025463
-0.060104772 -0.44079968 0.059011765
-0.060283456 -0.44094211 0.058970369
-0.060452346 -0.44106767 0.058984414
-0.06063161 -0.44121152 0.058937233
-0.060807306 -0.44134617 0.058928166
-0.060984552 -0.44148692 0.058890231
-0.061160464 -0.44162232 0.058877692
-0.061335355 -0.44175932 0.058851317
-0.061506033 -0.44188899 0.058849197
-0.061682448 -0.44202909 0.058811266
-0.061855391 -0.44215989 0.058812592
-0.062024485 -0.44228718 0.058817402
-0.062204391 -0.44243091 0.058773693
-0.062374275 -0.44255999 0.058771566
-0.062547505 -0.44269535 0.058747515
-0.062713094 -0.44281682 0.058770802
-0.062895626 -0.44296628 0.058705147
-0.063060954 -0.44308758 0.058728438
-0.063236259 -0.4432241 0.058706671
-0.063418314 -0.44337696 0.058619112
-0.063587755 -0.44350293 0.058633149
-0.063768037 -0.44365305 0.058553666
-0.0639382 -0.44378075 0.058560766
-0.064105988 -0.44390765 0.058562122
-0.064281851 -0.44404656 0.058528818
-0.06444481 -0.44416448 0.058561351
-0.064613223 -0.44429302 0.058555778
-0.064794272 -0.4444463 0.058461301
-0.064963929 -0.444574 0.058466095
-0.065129727 -0.44469798 0.058475547
-0.065308705 -0.44484439 0.05841222
-0.065478712 -0.44497707 0.058389336
-0.065639198 -0.44508722 0.058456495
-0.065816849 -0.44523555 0.058375876
-0.065983981 -0.44535917 0.058393389
-0.0661484 -0.44548136 0.058407445
-0.066323362 -0.4456251 0.058341842
-0.066497751 -0.445768 0.058278553
-0.066664651 -0.44589186 0.058293756
-0.066836663 -0.44603041 0.058245469
-0.06699916 -0.44614539 0.058293007
-0.067171857 -0.44628584 0.058236636
-0.067339905 -0.44641274 0.058239143
-0.067509145 -0.44654644 0.058207035
-0.067681395 -0.4466826 0.058173746
-0.067841575 -0.4467974 0.058212068
-0.068018608 -0.4469443 0.058137223
-0.068191886 -0.44708773 0.058065854
-0.068333864 -0.44718501 0.058126196
-0.068509668 -0.44730833 0.058184039
-0.068676576 -0.44743848 0.058162324
-0.068850607 -0.44758466 0.058078267
-0.069018446 -0.44771296 0.058071543
-0.069149852 -0.44781381 0.058063876
-0.069345444 -0.44795963 0.05807776
-0.069513969 -0.44809002 0.058061801
-0.069681063 -0.44821739 0.058057383
-0.069853388 -0.44836167 0.057976797
-0.070024438 -0.4484987 0.057933137
-0.070183434 -0.44861263 0.057971466
-0.070354402 -0.44874999 0.057925496
-0.070513956 -0.44888008 0.057871513
-0.070691273 -0.44901851 0.057847429
-0.07085482 -0.44914395 0.057838421
-0.071011811 -0.44926873 0.05780407
-0.071187243 -0.44940338 0.057793844
-0.071352936 -0.44953477 0.057759449
-0.071508765 -0.44964197 0.057823174
-0.071677551 -0.44977629 0.057785287
-0.071837924 -0.44989499 0.057801686
-0.072010502 -0.45003948 0.057721101
-0.072175756 -0.45017114 0.057683233
-0.072338015 -0.45028991 0.05770769
-0.07249821 -0.45040888 0.057721786
-0.072665952 -0.45054221 0.057685062
-0.072828129 -0.45066682 0.057674915
-0.07299453 -0.45079714 0.057649739
-0.073154539 -0.45091638 0.057661511
-0.073325373 -0.45105934 0.057582084
-0.073483966 -0.45117512 0.057607725
-0.073648766 -0.45130819 0.057559483
-0.073809825 -0.45143116 0.057553951
-0.073973455 -0.45155549 0.057551872
-0.074138999 -0.45169169 0.057488628
-0.074294209 -0.45181748 0.057440437
-0.074440241 -0.45192334 0.057468452
-0.074621297 -0.45205459 0.05750319
-0.074792847 -0.4522036 0.05739145
-0.074945137 -0.45232207 0.057373278
-0.075077869 -0.45241508 0.057417523
-0.075244464 -0.45254362 0.057403885
-0.075405777 -0.45266992 0.057379894
-0.0755876 -0.45280471 0.057397317
-0.075733647 -0.45292592 0.057335336
-0.075895831 -0.45304874 0.057335574
-0.076055959 -0.45316511 0.057364658
-0.07622622 -0.45329997 0.057330232
-0.076371528 -0.45342788 0.057225563
-0.076537803 -0.45355028 0.05724654
-0.07669273 -0.45367312 0.057214513
-0.076853715 -0.45379347 0.057223983
-0.077014618 -0.45392182 0.057186142
-0.077180117 -0.45404226 0.057215199
-0.077353746 -0.45418379 0.057156526
-0.077503748 -0.45429894 0.0571476
-0.077671319 -0.45441899 0.057188176
-0.077839069 -0.45455745 0.057121456
-0.077981278 -0.45467064 0.057089508
-0.078150228 -0.45478737 0.057155464
-0.078301236 -0.45490783 0.057119992
-0.078456052 -0.45503452 0.057064887
-0.078613989 -0.4551551 0.057059374
-0.078787059 -0.45528933 0.057041079
-0.078939669 -0.4554185 0.05696176
-0.079098977 -0.4555358 0.056981616
-0.079256475 -0.45564523 0.057039563
-0.079435609 -0.45579743 0.056942787
-0.079594895 -0.45591533 0.056959182
-0.07976611 -0.45605505 0.056900524
-0.079916611 -0.45616665 0.056914661
-0.08005099 -0.45627153 0.056896597
-0.080205142 -0.45638946 0.056889951
-0.080367208 -0.45651022 0.056901723
-0.080528207 -0.45663863 0.056863882
-0.080677256 -0.45675701 0.056831881
-0.080839962 -0.45688242 0.05681942
