# .PCD v0.7 - Point Cloud Data file format
VERSION 0.7
FIELDS x y z
SIZE 4 4 4
TYPE F F F
COUNT 1 1 1
WIDTH 1297
HEIGHT 1
VIEWPOINT 0 0 0 1 0 0 0
POINTS 1297
DATA ascii
-0.24651295 -0.15649107 0.058768634
-0.24673811 -0.1564205 0.058759928
-0.24694145 -0.15636256 0.058710907
-0.24712116 -0.1563058 0.058706943
-0.24738255 -0.15623881 0.058590874
-0.24753784 -0.15618122 0.058648098
-0.24777599 -0.15611561 0.058574766
-0.24794422 -0.15605877 0.05859736
-0.24812941 -0.15599214 0.058651034
-0.24833587 -0.15593369 0.058598559
-0.2485282 -0.15587243 0.058598008
-0.24875338 -0.15581241 0.058514334
-0.24894981 -0.15574643 0.058538001
-0.24914379 -0.15568383 0.058543213
-0.24929242 -0.1556308 0.058583163
-0.24952601 -0.15556729 0.058505233
-0.24972984 -0.15550318 0.058498885
-0.24992982 -0.15544614 0.058451034
-0.25014541 -0.15538691 0.058383539
-0.25034404 -0.1553199 0.058409497
-0.25056118 -0.15525529 0.058376595
-0.25073013 -0.15519936 0.058391102
-0.25094056 -0.15513737 0.058354758
-0.2511183 -0.15508369 0.058333494
-0.25131384 -0.15502027 0.058341011
-0.25152013 -0.15495959 0.058304679
-0.25172836 -0.15490156 0.058245271
-0.25192195 -0.15483584 0.058273554
-0.25211537 -0.15477423 0.05827301
-0.25231674 -0.15471269 0.058253981
-0.25254226 -0.1546493 0.058193378
-0.25270364 -0.15459612 0.058205605
-0.25290176 -0.15453398 0.058198124
-0.25308797 -0.15447924 0.058165304
-0.25330737 -0.15441895 0.058096647
-0.2534968 -0.15434608 0.058184907
-0.25367889 -0.15428613 0.05819824
-0.25385827 -0.15423192 0.058176961
-0.25406748 -0.1541778 0.058087572
-0.25430286 -0.15410544 0.058068454
-0.25446567 -0.15405537 0.058055311
-0.2546607 -0.15399747 0.058024772
-0.25484914 -0.15393323 0.05805422
-0.255016 -0.15386902 0.058132175
-0.25523046 -0.1538129 0.058045071
-0.25544819 -0.1537468 0.058021381
-0.25563744 -0.15368977 0.057997778
-0.25582045 -0.1536331 0.05798573
-0.25605032 -0.15356672 0.057936646
-0.25623211 -0.15350522 0.057961505
-0.25641137 -0.15344521 0.057981752
-0.25661862 -0.15339008 0.057903901
-0.25682437 -0.15332764 0.057881404
-0.25702366 -0.15326774 0.057855465
-0.25720808 -0.15321453 0.057815734
-0.25738779 -0.15315501 0.057831369
-0.2575905 -0.15308946 0.057837717
-0.25777391 -0.15303136 0.057834893
-0.25797397 -0.15297464 0.057784732
-0.25816771 -0.1529157 0.057764575
-0.25833344 -0.15285851 0.057795245
-0.25852859 -0.15280271 0.057749718
-0.25875494 -0.1527319 0.057739846
-0.25891995 -0.1526795 0.05773823
-0.25912157 -0.15262163 0.057692684
-0.25931656 -0.15256375 0.057662141
-0.25950181 -0.15250456 0.057662778
-0.25969639 -0.15244927 0.057614941
-0.25987893 -0.15238656 0.057646714
-0.26006895 -0.15232442 0.057657704
-0.26026437 -0.15226202 0.057658304
-0.26046249 -0.15220866 0.057588547
-0.26063046 -0.15215027 0.057622679
-0.26083192 -0.15209603 0.057551753
-0.26102602 -0.15203339 0.057556976
-0.26122332 -0.1519642 0.057601392
-0.26140746 -0.15191595 0.057527054
-0.26160613 -0.1518556 0.057505734
-0.26178506 -0.15180528 0.057457939
-0.26200259 -0.15173209 0.05748501
-0.26220578 -0.15167144 0.057455603
-0.26238024 -0.15161374 0.057470106
-0.2625699 -0.15155789 0.057437275
-0.26275969 -0.15149939 0.057422899
-0.26291475 -0.15144919 0.057428226
-0.26315001 -0.15137669 0.057410255
-0.26334339 -0.15132029 0.057372808
-0.26352656 -0.15126455 0.057353828
-0.26372868 -0.15120424 0.057324436
-0.26390368 -0.15113842 0.05739544
-0.26408821 -0.15107769 0.057408758
-0.26427975 -0.15102676 0.057336707
-0.2645005 -0.15098019 0.057167701
-0.2646713 -0.15092123 0.057199515
-0.26486087 -0.1508576 0.057222042
-0.26503533 -0.15079455 0.057274595
-0.26524949 -0.15074211 0.057162125
-0.26543003 -0.15067956 0.057197362
-0.26561397 -0.15061902 0.057210688
-0.26580825 -0.15056477 0.057155933
-0.26600185 -0.15051027 0.05710464
-0.26618707 -0.15044753 0.057130639
-0.26637384 -0.15038902 0.057123184
-0.26655471 -0.1503301 0.057131905
-0.26674464 -0.15027042 0.057125602
-0.26693773 -0.15021624 0.057073161
-0.26713112 -0.15016243 0.057017252
-0.26731479 -0.1501023 0.057028268
-0.26749861 -0.1500423 0.057038128
-0.26769307 -0.14998621 0.056996059
-0.2678822 -0.14993003 0.056966688
-0.26804885 -0.14986865 0.05702503
-0.26824513 -0.14980711 0.057017554
-0.26843402 -0.14975101 0.056988195
-0.26862416 -0.14969955 0.056923069
-0.26881281 -0.14963996 0.056919079
-0.2690016 -0.1495842 0.056887403
-0.26918742 -0.14952633 0.05687765
-0.26937732 -0.14947169 0.056835596
-0.26953346 -0.14940196 0.056977004
-0.26968563 -0.14935544 0.056962736
-0.26988268 -0.14931446 0.056807637
-0.27010071 -0.14925233 0.056755118
-0.27031302 -0.14918569 0.0567476
-0.27049673 -0.14912668 0.05675054
-0.27067798 -0.14907366 0.056716584
-0.27086785 -0.14901204 0.056724116
-0.27103806 -0.1489536 0.056753621
-0.271218 -0.14889142 0.056787711
-0.27142352 -0.1488357 0.056717932
-0.27159163 -0.14877956 0.05673591
-0.2717627 -0.14873043 0.056697365
-0.27197725 -0.14866665 0.056664467
-0.27216363 -0.14860646 0.056669712
-0.27234712 -0.14854786 0.056670345
-0.2725229 -0.1484995 0.056615639
-0.27270105 -0.14844471 0.056601293
-0.27290192 -0.14838594 0.056563824
-0.27305976 -0.14833795 0.056547225
-0.27323657 -0.14829138 0.056477536
-0.27344838 -0.14821188 0.056562278
-0.27362651 -0.14816231 0.056511026
-0.27380821 -0.14809759 0.056558952
-0.27397779 -0.14804357 0.056558475
-0.27419597 -0.14798075 0.056510564
-0.27437955 -0.14792813 0.056468524
-0.27453652 -0.14786968 0.056528054
-0.27470863 -0.14781892 0.056498744
-0.27489692 -0.14776723 0.056439385
-0.27508515 -0.14770517 0.05645385
-0.27529615 -0.14763975 0.056440566
-0.27547583 -0.14758301 0.056436591
-0.27565506 -0.14752576 0.056437243
-0.2758452 -0.14746633 0.056428634
-0.27604154 -0.14742118 0.056304675
-0.27623206 -0.14735693 0.056329507
-0.27641922 -0.14730544 0.056271315
-0.27660435 -0.14725134 0.056236189
-0.2767835 -0.14718859 0.056276046
-0.27694711 -0.14713925 0.056255981
-0.27714512 -0.14707406 0.056270409
-0.2773326 -0.14701776 0.056245662
-0.2775223 -0.14696515 0.056189761
-0.27768382 -0.14687352 0.056474164
-0.27784774 -0.14683807 0.056354921
-0.27806303 -0.14678836 0.056220524
-0.27823758 -0.14674495 0.056133538
-0.27842459 -0.1466888 0.056108784
-0.27861962 -0.14662586 0.056114003
-0.27880716 -0.146571 0.05607887
-0.27898869 -0.14651237 0.056084126
-0.27917048 -0.1464543 0.056084763
-0.27933487 -0.14640829 0.056039318
-0.27953243 -0.14633495 0.056112573
-0.27971926 -0.14628747 0.056026705
-0.27990457 -0.14622894 0.056022711
-0.28009048 -0.14618029 0.055947222
-0.28026792 -0.14611304 0.056022838
-0.28044957 -0.14605503 0.056023479
-0.28063533 -0.1460069 0.055944525
-0.28081349 -0.14594999 0.055945184
-0.28096908 -0.14590304 0.055926289
-0.28117609 -0.14583303 0.055954527
-0.28136486 -0.14577436 0.055943623
-0.28153956 -0.1457184 0.055945426
-0.281721 -0.14567085 0.055872254
-0.28190178 -0.14561115 0.055886742
-0.2820884 -0.14555773 0.055843543
-0.28226998 -0.1455007 0.055837266
-0.28246346 -0.14544623 0.055785973
-0.28264213 -0.14537972 0.055853508
-0.28282598 -0.14533044 0.05578725
-0.28300726 -0.14527269 0.05578674
-0.28314751 -0.14522493 0.055808254
-0.28336433 -0.145164 0.055749979
-0.28355154 -0.14510112 0.055772513
-0.28373691 -0.14504549 0.055747762
-0.28391221 -0.14499338 0.055720747
-0.28407976 -0.14495531 0.05561186
-0.28426665 -0.14489122 0.055643618
-0.28444418 -0.14483339 0.055652346
-0.28460765 -0.14477643 0.055686481
-0.28481349 -0.14471802 0.055635154
-0.28499106 -0.14466016 0.055643879
-0.2851837 -0.14460856 0.055574134
-0.2853719 -0.14455202 0.055549387
-0.2855559 -0.14449064 0.055568472
-0.28571334 -0.14443937 0.055576101
-0.2859146 -0.14437592 0.055570919
-0.28608125 -0.1443134 0.05563733
-0.28624576 -0.14426263 0.055625338
-0.28642908 -0.14422847 0.055452973
-0.286643 -0.14415398 0.055497348
-0.28680742 -0.14410421 0.055478431
-0.28698882 -0.14405325 0.055429481
-0.28718969 -0.1439857 0.055454284
-0.28737044 -0.14392276 0.055491831
-0.28753164 -0.14388002 0.055430248
-0.28772607 -0.14382005 0.055415858
-0.28789371 -0.1437712 0.055383097
-0.28806788 -0.14370857 0.055433348
-0.28827572 -0.14364579 0.055408534
-0.28845331 -0.14359476 0.055368818
-0.28862405 -0.14354964 0.055302605
-0.28881836 -0.14348677 0.055308975
-0.28900573 -0.14343391 0.05526001
-0.2891866 -0.1433768 0.055256031
-0.28937101 -0.14331448 0.055280883
-0.28955206 -0.14325519 0.055291906
-0.28973272 -0.14320204 0.055260248
-0.2899068 -0.14314887 0.055243615
-0.29007044 -0.14310275 0.05520048
-0.29025784 -0.1430455 0.055182651
-0.29043236 -0.14298698 0.05520292
-0.29063967 -0.14292486 0.055174649
-0.29081991 -0.14287314 0.055133779
-0.29100063 -0.14281704 0.055122886
-0.29116693 -0.14277269 0.055061292
-0.29135117 -0.14271383 0.055061921
-0.29151881 -0.14265962 0.055067215
-0.29170167 -0.14259 0.055147424
-0.29187202 -0.14253949 0.055120416
-0.29203728 -0.14249969 0.055028837
-0.2922281 -0.14243989 0.055021383
-0.29241577 -0.14238027 0.055019695
-0.29260302 -0.14232273 0.055004176
-0.29279169 -0.14227337 0.054927517
-0.29297036 -0.14221191 0.054959312
-0.29314724 -0.14215899 0.054934591
-0.29334438 -0.1420988 0.054915577
-0.29351223 -0.14204435 0.054922018
-0.29371017 -0.14198098 0.054923773
-0.29387817 -0.14193852 0.054844871
-0.29405314 -0.14188051 0.054860521
-0.29424948 -0.14182319 0.054823056
-0.29441702 -0.1417703 0.054819122
-0.29461011 -0.14170262 0.054862402
-0.29479736 -0.14164509 0.054846883
-0.29498866 -0.14158416 0.054846343
-0.29514635 -0.14154401 0.054774385
-0.29534826 -0.14147808 0.054785356
-0.29553595 -0.1414191 0.054779049
-0.29571539 -0.14136699 0.054742791
-0.29589659 -0.1413096 0.054739971
-0.29607973 -0.14124656 0.054772899
-0.29625973 -0.14120124 0.054687049
-0.29641464 -0.14115922 0.054634709
-0.2965917 -0.1410968 0.054676883
-0.29679289 -0.14104167 0.054612886
-0.2969811 -0.14098139 0.054614656
-0.29716048 -0.14092898 0.054580703
-0.29733241 -0.14087291 0.054589443
-0.29750597 -0.14080542 0.054675449
-0.29768407 -0.14075635 0.054620739
-0.29786518 -0.14070679 0.054562565
-0.29804426 -0.14064795 0.054574743
-0.29821309 -0.14059287 0.054583494
-0.29842454 -0.14053333 0.054527532
-0.29860812 -0.14047112 0.054553535
-0.29877761 -0.14041485 0.054569211
-0.2989631 -0.14036162 0.054527164
-0.29915166 -0.14030157 0.054526627
-0.29933178 -0.14024745 0.054503057
-0.29950997 -0.14019135 0.054497935
-0.29967952 -0.1401414 0.054468621
-0.29984304 -0.14008623 0.054490078
-0.30004802 -0.14003362 0.054399543
-0.30023947 -0.13997377 0.05439093
-0.30041486 -0.13991775 0.054391582
-0.30061194 -0.13985254 0.054408319
-0.30077851 -0.1398029 0.054383628
-0.30095091 -0.13975823 0.054310486
-0.30115777 -0.13968535 0.054359496
-0.30133352 -0.13962904 0.054361299
-0.30150494 -0.13958077 0.054315832
-0.30170634 -0.13951337 0.054338336
-0.30186054 -0.13947612 0.054253705
-0.30204907 -0.13941202 0.054282002
-0.30221263 -0.13936284 0.054260779
-0.30241114 -0.13930091 0.054250993
-0.30256927 -0.139266 0.054140985
-0.30276352 -0.13920183 0.054156579
-0.30296177 -0.13913578 0.054176778
-0.30314347 -0.1390792 0.05416704
-0.30333117 -0.13902186 0.054149207
-0.30349851 -0.13897555 0.054099146
-0.3036676 -0.13892184 0.054097507
-0.30386823 -0.13886118 0.054073874
-0.30404925 -0.13880157 0.05408721
-0.30423123 -0.13874914 0.054047473
-0.30441603 -0.138688 0.054063097
-0.30457759 -0.13863377 0.054082252
-0.30479047 -0.13856694 0.054074727
-0.30497122 -0.13852058 0.053994641
-0.30514777 -0.1384642 0.053995293
-0.30532998 -0.13840339 0.054014381
-0.30549622 -0.13835858 0.053956244
-0.30566633 -0.13830797 0.053930394
-0.30585748 -0.13824594 0.053937927
-0.30602819 -0.13819841 0.053889003
-0.3062095 -0.13813545 0.053925399
-0.30640197 -0.13807186 0.053941
-0.30657196 -0.13803284 0.053833265
-0.30677667 -0.1379595 0.053890347
-0.30694997 -0.13790463 0.053887546
-0.30713779 -0.1378479 0.053865109
-0.30729979 -0.13780507 0.053802367
-0.30748528 -0.13774794 0.053787999
-0.3076658 -0.13769759 0.053736746
-0.30784974 -0.1376356 0.053760447
-0.30804807 -0.13756835 0.053788714
-0.30823654 -0.13751093 0.053769734
-0.30839828 -0.13746494 0.053730063
-0.30858991 -0.13740683 0.053708762
-0.30875742 -0.13735996 0.053662159
-0.30896094 -0.13729319 0.053675421
-0.30914152 -0.13723616 0.053671446
-0.30930728 -0.13717523 0.05372864
-0.30950466 -0.13712634 0.053628899
-0.30968064 -0.13707209 0.053615719
-0.30986851 -0.13701257 0.05361288
-0.31007186 -0.13694341 0.053643435
-0.31025469 -0.13689347 0.053584106
-0.31042531 -0.13684286 0.053557098
-0.31059328 -0.13679554 0.0535128
-0.31078586 -0.13672444 0.05358145
-0.31096607 -0.13668069 0.053484064
-0.31115872 -0.13661282 0.053529654
-0.31134582 -0.13655779 0.05349683
-0.31149629 -0.1365253 0.053386837
-0.3117106 -0.13644403 0.053478502
-0.31187123 -0.13639954 0.053430755
-0.31205919 -0.13633771 0.053444061
-0.31226936 -0.1362763 0.053404257
-0.31244963 -0.13622066 0.053391065
-0.31261274 -0.1361762 0.053337544
-0.31278464 -0.13612729 0.053295549
-0.31295887 -0.13607018 0.053306583
-0.31315854 -0.13600397 0.053324472
-0.31332853 -0.1359573 0.053270936
-0.31354162 -0.13588732 0.053285323
-0.3137103 -0.13583668 0.053262934
-0.31391528 -0.13576227 0.053326946
-0.31410542 -0.13570708 0.053288344
-0.31432694 -0.13561767 0.053421497
-0.31447324 -0.13559432 0.053256162
-0.31463385 -0.13554999 0.053207267
-0.31485319 -0.13547395 0.053250477
-0.315034 -0.13542107 0.053216521
-0.31521556 -0.13536227 0.053222924
-0.31539625 -0.13530959 0.053187814
-0.31557712 -0.1352593 0.053135403
-0.31575823 -0.13520111 0.053138353
-0.31592488 -0.13515307 0.053102128
-0.31611809 -0.13508748 0.053130411
-0.31632301 -0.13502479 0.053111386
-0.31651765 -0.13496783 0.053075083
-0.31670046 -0.13491075 0.053066492
-0.31687057 -0.13485934 0.053046398
-0.3170467 -0.13481639 0.052952483
-0.31724215 -0.13474423 0.053022284
-0.31744736 -0.13467918 0.053019401
-0.3176108 -0.13462991 0.052999325
-0.31780481 -0.13456908 0.052991863
-0.31800002 -0.13450949 0.052972853
-0.31815547 -0.13447055 0.052897453
-0.31835702 -0.13440245 0.052924555
-0.31850725 -0.1343663 0.052841093
-0.31871429 -0.13429759 0.052860115
-0.31891072 -0.13422333 0.0529426
-0.31911224 -0.13416937 0.052869376
-0.31928822 -0.13411738 0.052840039
-0.31946224 -0.13406733 0.052801486
-0.31963789 -0.13401121 0.052802149
-0.3198337 -0.13394266 0.052845411
-0.32004204 -0.13387565 0.052849434
-0.32021388 -0.13383003 0.052784368
-0.32039821 -0.13377699 0.052743487
-0.32056776 -0.13372479 0.052730311
-0.32078189 -0.13365479 0.052742396
-0.32096314 -0.13360259 0.052702673
-0.32114935 -0.13355011 0.052653708
-0.32130432 -0.13350514 0.052622132
-0.32152867 -0.13342603 0.052675702
-0.32172456 -0.133369 0.052637089
-0.32192001 -0.13330609 0.05264115
-0.32208669 -0.13325691 0.052612998
-0.32227474 -0.13319668 0.052614767
-0.32247934 -0.13312988 0.052625719
-0.3226544 -0.1330795 0.05258717
-0.32283008 -0.13303265 0.052522086
-0.32302368 -0.13296773 0.052544601
-0.32321006 -0.13290933 0.052537158
-0.32339942 -0.13284837 0.052541234
-0.32358438 -0.13279742 0.052484196
-0.32376939 -0.13274045 0.052469831
-0.32396761 -0.13267389 0.052493498
-0.32416624 -0.13261501 0.052461792
-0.3243342 -0.1325711 0.052393273
-0.3245393 -0.13249293 0.052483801
-0.3247484 -0.132433 0.052435927
-0.32492098 -0.13238323 0.052398533
-0.32509926 -0.13232855 0.052383039
-0.32529947 -0.13226479 0.052382465
-0.32548308 -0.1322076 0.052372724
-0.32568067 -0.13215002 0.052334104
-0.32588169 -0.13208389 0.052348532
-0.32606012 -0.13203128 0.052318044
-0.32624233 -0.13197552 0.052301377
-0.32642823 -0.13191858 0.052284703
-0.32663691 -0.1318557 0.052258745
-0.3268334 -0.13179003 0.052280094
-0.32700962 -0.13173762 0.052253071
-0.32717982 -0.13168846 0.052216843
-0.32738823 -0.13161866 0.052240469
-0.32758549 -0.13156185 0.052197244
-0.32777098 -0.13150747 0.052163266
-0.32796746 -0.13144228 0.052181166
-0.32815877 -0.13138688 0.052141413
-0.32834774 -0.13132441 0.052157026
-0.3285369 -0.13126725 0.052134573
-0.32873344 -0.13120595 0.052124798
-0.32894009 -0.13113298 0.052174956
-0.3291249 -0.13108663 0.052085623
-0.32932752 -0.13102062 0.052095428
-0.32953542 -0.13095051 0.052122526
-0.32973468 -0.13089614 0.052057374
-0.32993689 -0.13083597 0.052026819
-0.33010006 -0.13078952 0.051987141
-0.33028296 -0.13073434 0.051964719
-0.33048159 -0.13067368 0.051945698
-0.33070916 -0.13059372 0.051998109
-0.33089805 -0.13054428 0.05192145
-0.33108005 -0.13049005 0.051894419
-0.33125061 -0.13044141 0.051853564
-0.33147618 -0.1303668 0.051872537
-0.3316884 -0.13030098 0.051859245
-0.33185831 -0.13025469 0.05180341
-0.33204663 -0.13019079 0.051830549
-0.33225647 -0.13012704 0.051808052
-0.23888431 -0.1619729 0.037144635
-0.23909409 -0.16191584 0.037074864
-0.23929043 -0.16186191 0.03701321
-0.23949285 -0.16180475 0.036960762
-0.2396934 -0.16174884 0.036903702
-0.23988877 -0.16169278 0.036859345
-0.2400718 -0.16163741 0.036838077
-0.24025749 -0.16158102 0.03681796
-0.24044248 -0.1615247 0.036798988
-0.24062756 -0.16146721 0.036788091
-0.24080196 -0.16141166 0.036787611
-0.24097475 -0.16135482 0.036799807
-0.24115001 -0.1612982 0.036805082
-0.24132054 -0.16124257 0.036813825
-0.241487 -0.16118549 0.036842182
-0.24165665 -0.16112739 0.036870532
-0.24181873 -0.16107008 0.036910437
-0.24197899 -0.16101138 0.036964178
-0.24214107 -0.16095537 0.03699486
-0.24229419 -0.1608962 0.037068214
-0.24244206 -0.16083917 0.037138134
-0.24259238 -0.16077976 0.037219573
-0.24274072 -0.16072145 0.037297558
-0.24289079 -0.16066325 0.037370931
-0.24303885 -0.16060486 0.037450068
-0.24318413 -0.16054493 0.037546515
-0.24333033 -0.16048634 0.037631422
-0.24347501 -0.16042627 0.03773018
-0.24361172 -0.16036679 0.037842784
-0.24375018 -0.16030741 0.037950784
-0.24387723 -0.16024695 0.038092241
-0.2440065 -0.16018659 0.038227923
-0.24414045 -0.16012523 0.038360145
-0.24426661 -0.1600644 0.038506225
-0.24438673 -0.16000289 0.03867076
-0.24450783 -0.15993863 0.038852595
-0.24461845 -0.15987591 0.039047133
-0.24473739 -0.15981251 0.039227817
-0.23960003 -0.15859605 0.059475802
-0.23980492 -0.15853323 0.059457935
-0.23996386 -0.15848146 0.059465561
-0.24020347 -0.15840156 0.059490252
-0.24040779 -0.15834054 0.059460863
-0.24062429 -0.1582745 0.059439495
-0.24082467 -0.15820988 0.059444696
-0.24103329 -0.15814635 0.059423365
-0.24123807 -0.15808243 0.05941356
-0.24145606 -0.15802534 0.05932533
-0.24166703 -0.15795571 0.05934203
-0.24185279 -0.15789962 0.059319608
-0.24206083 -0.1578314 0.059332859
-0.2422778 -0.15776619 0.059304584
-0.24247915 -0.15770401 0.059290182
-0.24267788 -0.1576381 0.059308067
-0.24283822 -0.15759078 0.059281103
-0.24308604 -0.15751493 0.059258502
-0.24330637 -0.15744898 0.05922791
-0.24350843 -0.15738559 0.059220426
-0.24370629 -0.15732338 0.059214111
-0.24391851 -0.15725821 0.059196215
-0.24412143 -0.1571952 0.059184119
-0.24433166 -0.15713345 0.059146635
-0.24454334 -0.15707204 0.059103381
-0.24473359 -0.15700899 0.059120148
-0.24491605 -0.15695363 0.059100032
-0.24511242 -0.15689352 0.059082188
-0.24528894 -0.15683551 0.059094377
-0.24550734 -0.15677033 0.059062637
-0.24572678 -0.15670727 0.059013594
-0.24594422 -0.15663671 0.059022211
-0.24614345 -0.15657389 0.059017044
-0.24631453 -0.15652071 0.059007347
-0.24657676 -0.15644757 0.058932818
-0.24678348 -0.15638645 0.058898799
-0.24695534 -0.15633366 0.058884479
-0.2471389 -0.15627015 0.058919709
-0.24734622 -0.15620379 0.058921438
-0.24755296 -0.15615615 0.058791723
-0.24772662 -0.15607953 0.058942281
-0.247978 -0.15601279 0.058847029
-0.24816957 -0.15596445 0.058756568
-0.24832366 -0.1559009 0.058858745
-0.24849151 -0.15583248 0.058964349
-0.24878538 -0.15577529 0.058705263
-0.24897468 -0.15570962 0.05874278
-0.24915701 -0.15564829 0.058765329
-0.24936102 -0.15558787 0.058732469
-0.24954584 -0.15553501 0.058689296
-0.24976921 -0.15547524 0.058607958
-0.24992254 -0.1554056 0.058755111
-0.25015706 -0.15534066 0.058685273
-0.25035751 -0.15527989 0.058662809
-0.25054315 -0.15522173 0.058655374
-0.25076643 -0.15515858 0.05859825
-0.25095767 -0.15509588 0.058610395
-0.25115627 -0.155031 0.058621366
-0.25137085 -0.15497012 0.05856774
-0.25155368 -0.15490961 0.058583364
-0.25173259 -0.15485018 0.058600154
-0.25193477 -0.15479472 0.058536172
-0.25216657 -0.1547243 0.058511313
-0.25231257 -0.15467308 0.058544345
-0.25254437 -0.15460494 0.058503337
-0.25272971 -0.15455386 0.058446325
-0.25294369 -0.15448961 0.05841805
-0.25316849 -0.15442207 0.058388602
-0.25334555 -0.15435624 0.058454975
-0.25351393 -0.15430082 0.058467187
-0.25369608 -0.15423857 0.058496658
-0.25388488 -0.15418477 0.058451157
-0.25409311 -0.15412155 0.058428675
-0.25430381 -0.15406352 0.058363512
-0.25449711 -0.15400487 0.058342218
-0.25466198 -0.15394652 0.058383264
-0.25485078 -0.15388215 0.058412716
-0.25507048 -0.15382518 0.058319859
-0.25527117 -0.15376695 0.058278948
-0.25543517 -0.15369941 0.058386866
-0.25570357 -0.15363359 0.058246605
-0.25590295 -0.1535753 0.058209151
-0.25609607 -0.15351735 0.058183242
-0.25627166 -0.15345135 0.058254234
-0.25648764 -0.15339197 0.058186758
-0.25665417 -0.15334153 0.058167845
-0.25688717 -0.15326959 0.058151051
-0.25709137 -0.15321365 0.058085907
-0.25727138 -0.15315405 0.05810155
-0.25747174 -0.1530946 0.058069855
-0.25764701 -0.15304057 0.058056686
-0.25784355 -0.15298235 0.058025006
-0.25802743 -0.15292199 0.058037173
-0.25824809 -0.1528535 0.05802387
-0.25843415 -0.15279406 0.058024507
-0.25859144 -0.15273845 0.058063265
-0.25883925 -0.15268324 0.057894234
-0.25901347 -0.15262693 0.057899509
-0.25919941 -0.15256527 0.057916291
-0.25939196 -0.15250377 0.057916898
-0.25959298 -0.15244073 0.057909414
-0.25977913 -0.15238695 0.057869699
-0.25996715 -0.15232122 0.057910673
-0.26015458 -0.15226819 0.057862885
-0.26035187 -0.15220648 0.057854254
-0.26053244 -0.15215334 0.057822619
-0.26074171 -0.15208913 0.057804741
-0.26092869 -0.15202843 0.057812288
-0.26111966 -0.15197492 0.057759866
-0.26130405 -0.1519105 0.057799708
-0.26151738 -0.15185393 0.057718404
-0.26169991 -0.15179692 0.057709824
-0.26189959 -0.15173706 0.057682745
-0.26208133 -0.15167983 0.057677627
-0.26226687 -0.15161893 0.057689786
-0.26243603 -0.1515613 0.057715829
-0.26260823 -0.15149669 0.057784524
-0.26285633 -0.15143296 0.057675447
-0.26305348 -0.15137812 0.057618406
-0.2632589 -0.15132196 0.057552107
-0.26343828 -0.15125538 0.057618476
-0.26361433 -0.15119867 0.057622597
-0.26379907 -0.15115251 0.057532143
-0.26396957 -0.15109299 0.057568565
-0.26419151 -0.15102261 0.057565637
-0.26438466 -0.15096354 0.0575478
-0.26458398 -0.15090802 0.057490747
-0.26477209 -0.15087688 0.057286143
-0.264961 -0.15079133 0.057465486
-0.26514658 -0.15073141 0.057470731
-0.26533338 -0.15067224 0.057467896
-0.2655198 -0.15061921 0.057422411
-0.26572025 -0.15055892 0.057396479
-0.26590729 -0.15050016 0.057390194
-0.26609856 -0.15044412 0.057355069
-0.26627767 -0.15039358 0.057308443
-0.26647198 -0.15032662 0.057343647
-0.26665598 -0.15026623 0.057355814
-0.26684421 -0.1502053 0.05736221
-0.2670165 -0.15015742 0.057312142
-0.26722753 -0.15009491 0.057278115
-0.26742223 -0.150042 0.057213005
-0.26757646 -0.14998572 0.057263307
-0.26776487 -0.1499218 0.057290446
-0.26797247 -0.14985731 0.057278339
-0.26816344 -0.14980233 0.057236299
-0.26835382 -0.14974706 0.057197709
-0.2685414 -0.1496899 0.057178739
-0.26873362 -0.14963631 0.057124011
-0.2689316 -0.14958723 0.0570243
-0.26910955 -0.1495195 0.057102203
-0.2692939 -0.14946029 0.057105154
-0.26947296 -0.1494083 0.057068903
-0.26966226 -0.14934556 0.057085674
-0.26985681 -0.1492909 0.057033237
-0.27003986 -0.14922707 0.057071924
-0.27019331 -0.14919348 0.056963116
-0.27040079 -0.1491186 0.057024799
-0.27059045 -0.1490564 0.057036951
-0.27077767 -0.14899611 0.057041042
-0.27094421 -0.14894633 0.057017513
-0.27113122 -0.14889424 0.056963958
-0.27133426 -0.14883184 0.056947242
-0.27153194 -0.14876887 0.056946687
-0.27171955 -0.14872211 0.056853928
-0.27188876 -0.14867553 0.056801572
-0.27208477 -0.14859831 0.056905936
-0.2722685 -0.14853962 0.056906581
-0.2724157 -0.14848493 0.05696151
-0.27261332 -0.1484267 0.056927517
-0.27279428 -0.14837898 0.056856677
-0.27300468 -0.14832057 0.056794982
-0.27319631 -0.14826132 0.056781761
-0.27337286 -0.14820492 0.056782424
-0.27355734 -0.14814763 0.056771528
-0.27373126 -0.14808361 0.05683215
-0.27387249 -0.148017 0.056985106
-0.2740562 -0.14796856 0.056913108
-0.27425545 -0.14793338 0.056711931
-0.27445638 -0.14789084 0.056559172
-0.27465984 -0.14783141 0.056520555
-0.27486864 -0.1477631 0.056532655
-0.27504489 -0.14771248 0.056492954
-0.275224 -0.14766032 0.056457866
-0.27541599 -0.14759234 0.056505755
-0.27560273 -0.14753383 0.056498311
-0.27576619 -0.14747234 0.05656473
-0.27594307 -0.14742315 0.056513503
-0.2761237 -0.14736788 0.056496851
-0.27629805 -0.14729805 0.056597829
-0.27648109 -0.14724624 0.056551192
-0.27667555 -0.14718723 0.056529894
-0.27686003 -0.14713188 0.056505166
-0.27704695 -0.14706795 0.056535777
-0.2772311 -0.14701857 0.056469545
-0.27741736 -0.14694721 0.056554336
-0.2775844 -0.14690977 0.05644203
-0.27778393 -0.14686003 0.05634347
-0.27798197 -0.14678802 0.056406327
-0.27817628 -0.14673002 0.056378111
-0.27837902 -0.14666593 0.056374088
-0.27856037 -0.14660637 0.056386262
-0.27874807 -0.14655113 0.056353457
-0.27893117 -0.14649493 0.056337956
-0.27911529 -0.14643319 0.056359351
-0.27929333 -0.14637485 0.05637037
-0.2794821 -0.14632237 0.056315653
-0.27966487 -0.14626594 0.056302465
-0.27985141 -0.14620928 0.056282338
-0.2800335 -0.1461516 0.056279525
-0.28021723 -0.14609763 0.05624672
-0.28040019 -0.14604212 0.056226615
-0.28057414 -0.14599256 0.05618462
-0.28074196 -0.14594691 0.056128811
-0.28091279 -0.14588079 0.056211345
-0.28107852 -0.14583012 0.056195892
-0.28131256 -0.14576077 0.056158341
-0.28147772 -0.1457293 0.056007989
-0.2816807 -0.14564759 0.05612848
-0.28186318 -0.14559205 0.056109522
-0.28203723 -0.1455337 0.056129791
-0.28223076 -0.14547805 0.056086585
-0.28241172 -0.14541814 0.05610222
-0.28259638 -0.14537038 0.0560233
-0.28277835 -0.14531404 0.056011263
-0.28296158 -0.14526235 0.055963479
-0.28314671 -0.14520468 0.055953741
-0.28332746 -0.14514433 0.055972833
-0.28350541 -0.145087 0.05597695
-0.28366458 -0.14504184 0.055937298
-0.2838687 -0.14497307 0.055963241
-0.28404373 -0.14491878 0.055952385
-0.28423896 -0.14485855 0.055937998
-0.28442061 -0.14480199 0.055928264
-0.28460395 -0.14475448 0.055850498
-0.28477466 -0.14469703 0.055871926
-0.28496128 -0.14464961 0.055786088
-0.28513166 -0.14459029 0.055821352
-0.28530324 -0.14453809 0.055803575
-0.28546536 -0.14449392 0.055750087
-0.28565267 -0.14442953 0.055782996
-0.28584158 -0.14437734 0.055725969
-0.28604922 -0.14430763 0.055750757
-0.28622997 -0.14424533 0.055783682
-0.28642476 -0.14418443 0.055775069
-0.2866061 -0.14412747 0.055768799
-0.28678694 -0.14406386 0.055810954
-0.28696579 -0.14402087 0.055711292
-0.28715059 -0.14396623 0.055680804
-0.28731126 -0.14390644 0.055741463
-0.28751656 -0.14385551 0.055638269
-0.28767425 -0.14380579 0.055634364
-0.28787896 -0.1437448 0.055603813
-0.2880601 -0.14368774 0.055598695
-0.2882379 -0.14362851 0.055616647
-0.2884157 -0.14357577 0.055588476
-0.28857681 -0.14352106 0.05561224
-0.28878462 -0.14346379 0.055548243
-0.28896916 -0.14340436 0.055552341
-0.28912666 -0.1433581 0.055524226
-0.2893177 -0.14330082 0.055498332
-0.28948864 -0.14324865 0.055481706
-0.28965297 -0.14319663 0.055478942
-0.28986749 -0.14313075 0.055461049
-0.29004797 -0.14308089 0.055406351
-0.29020283 -0.14302556 0.055448573
-0.29038116 -0.14296371 0.055483818
-0.29059029 -0.14288799 0.055547804
-0.29075721 -0.14281549 0.055684537
-0.29091552 -0.14276262 0.05570139
-0.29112384 -0.1427213 0.05552325
-0.29131585 -0.14267899 0.055388965
-0.29148304 -0.14262964 0.055360824
-0.29163718 -0.142582 0.055350013
-0.29185981 -0.14252377 0.055259455
-0.29201764 -0.14247268 0.055264786
-0.29219219 -0.14241676 0.055266604
-0.29235634 -0.14238252 0.055138163
-0.29258308 -0.14228477 0.055318542
-0.2927506 -0.14223321 0.055305395
-0.29293263 -0.14218692 0.055221867
-0.29313222 -0.14213099 0.05516712
-0.29328305 -0.14208376 0.055160932
-0.29345712 -0.1420171 0.055239998
-0.29364899 -0.14196721 0.055159904
-0.29382348 -0.14192429 0.055069488
-0.29402569 -0.14184509 0.055173837
-0.29420474 -0.14178464 0.055197552
-0.29436475 -0.14174929 0.055086415
-0.29454964 -0.14168991 0.055089355
-0.29473346 -0.14164485 0.054993145
-0.29489988 -0.14159639 0.0549604
-0.29508483 -0.14153667 0.054965645
-0.29525432 -0.14148788 0.054928273
-0.29544985 -0.14141406 0.055009589
-0.29563552 -0.14135264 0.055025209
-0.29581338 -0.14128786 0.055082366
-0.29599544 -0.14125539 0.054900836
-0.29617718 -0.14119686 0.054904934
-0.29636276 -0.14113595 0.054917097
-0.29655683 -0.14106828 0.054958064
-0.29673439 -0.14101352 0.054944888
-0.2969209 -0.14095865 0.054912075
-0.29709703 -0.14091539 0.054820497
-0.29726836 -0.14086132 0.054816566
-0.29745618 -0.14080279 0.054806814
-0.29763049 -0.14074872 0.054795943
-0.29781339 -0.14068803 0.054812729
-0.29799369 -0.1406267 0.05483989
-0.29816827 -0.14057922 0.054781754
-0.29835075 -0.14052662 0.054742046
-0.29854199 -0.14046051 0.054778401
-0.29872608 -0.14041081 0.054714479
-0.2988978 -0.14036278 0.054666728
-0.29908007 -0.14029773 0.05471579
-0.29924259 -0.14025083 0.054680746
-0.29944929 -0.14018305 0.054694001
-0.29960352 -0.14013554 0.054682039
-0.29977769 -0.1400882 0.054623902
-0.30000791 -0.1400017 0.05471665
-0.30016571 -0.1399529 0.054705836
-0.30033106 -0.13991177 0.054623514
-0.30050683 -0.13986099 0.05458612
-0.30069566 -0.13981222 0.054504886
-0.30089214 -0.13973761 0.054589659
-0.30107263 -0.1396832 0.05456724
-0.30125013 -0.1396291 0.054549456
-0.30141833 -0.13957146 0.054577805
-0.30162853 -0.13951394 0.054510348
-0.30179867 -0.13946316 0.054485656
-0.30198124 -0.139405 0.054485142
-0.30215019 -0.13935639 0.05444777
-0.30234367 -0.13929866 0.054419558
-0.30252498 -0.13924286 0.054405212
-0.3027049 -0.13918474 0.054410484
-0.30286714 -0.1391381 0.054374278
-0.30306223 -0.13907303 0.054394491
-0.30322063 -0.13902827 0.054353692
-0.30342266 -0.13896099 0.054373875
-0.30361062 -0.13890356 0.054356053
-0.30379379 -0.13884506 0.054356698
-0.30397514 -0.13879395 0.054308914
-0.30414659 -0.1387413 0.054294597
-0.30432636 -0.13868403 0.054294102
-0.30450583 -0.13862313 0.054320112
-0.30469021 -0.1385631 0.054328822
-0.30487898 -0.13850476 0.054315615
-0.30506241 -0.13845868 0.054227475
-0.30523744 -0.13840081 0.054241966
-0.30540133 -0.13835576 0.054190785
-0.30559099 -0.13829617 0.054184482
-0.30576313 -0.1382428 0.05417363
-0.30596265 -0.13818054 0.054163843
-0.30614421 -0.13812906 0.054118372
-0.30632231 -0.13807103 0.054127097
-0.30650941 -0.13801159 0.054125421
-0.30669436 -0.13795528 0.054106448
-0.306878 -0.13790086 0.054077111
-0.30704081 -0.13784981 0.054070894
-0.30723312 -0.13779067 0.05405537
-0.30740923 -0.13773587 0.054045647
-0.3075937 -0.13768393 0.053996708
-0.30777156 -0.13763037 0.053974304
-0.30793339 -0.13758436 0.053934645
-0.30815086 -0.13750565 0.054000907
-0.30833131 -0.13745224 0.053971581
-0.30851337 -0.13740009 0.053929567
-0.30869234 -0.13734862 0.053889856
-0.308887 -0.13728012 0.053935431
-0.30907923 -0.1372249 0.05389224
-0.30921304 -0.13719513 0.053800773
-0.3093988 -0.13713823 0.053784117
-0.30959681 -0.13706589 0.053849284
-0.30979335 -0.13699564 0.05390292
-0.30997753 -0.13694105 0.053873584
-0.31015471 -0.13688248 0.053888079
-0.31034037 -0.1368136 0.053956736
-0.31051713 -0.13677453 0.053834021
-0.31071213 -0.13670999 0.053850774
-0.31089485 -0.13663584 0.053963251
-0.31107745 -0.13660483 0.053770188
-0.31127599 -0.13654533 0.053743113
-0.31142926 -0.13650675 0.053670049
-0.31161875 -0.13643712 0.053735238
-0.31181937 -0.13637826 0.053698938
-0.31200412 -0.13631746 0.053712253
-0.31218165 -0.13626806 0.053661022
-0.31235731 -0.13621505 0.053639777
-0.31253177 -0.13615768 0.05365197
-0.31272382 -0.13610026 0.053624921
-0.31290048 -0.13604902 0.053588677
-0.3130931 -0.13598539 0.053604279
-0.31326094 -0.13594136 0.053536944
-0.31345108 -0.13588063 0.053537555
-0.31365135 -0.13580871 0.053594649
-0.31384107 -0.13575414 0.053552616
-0.31400606 -0.13571052 0.053488735
-0.31419963 -0.13564903 0.05348704
-0.31437573 -0.13559863 0.053446192
-0.31456617 -0.13553797 0.053445656
-0.31474262 -0.13547932 0.053462461
-0.31492445 -0.13542546 0.053433131
-0.31511304 -0.13536702 0.053421065
-0.31531024 -0.13529949 0.053453948
-0.31550163 -0.13524079 0.053437278
-0.31567386 -0.13519473 0.053374536
-0.31587023 -0.13513087 0.053383213
-0.31604603 -0.13508105 0.053338904
-0.3162353 -0.13502222 0.053327996
-0.31642166 -0.134964 0.053319406
-0.31657031 -0.13493226 0.053208299
-0.31678003 -0.13483539 0.053421013
-0.31701651 -0.13474348 0.053537954
-0.31716475 -0.13472927 0.053303488
-0.31733426 -0.13468356 0.053244203
-0.31754899 -0.13461873 0.053218246
-0.31773627 -0.13456477 0.053177364
-0.31788516 -0.13452776 0.053103153
-0.31809351 -0.1344505 0.053179827
-0.31829417 -0.13438576 0.05318502
-0.31846905 -0.13433251 0.053167243
-0.31865281 -0.13427755 0.053141356
-0.31882879 -0.13422328 0.053128187
-0.31902313 -0.13415813 0.053150702
-0.31921238 -0.13410257 0.053116731
-0.31939265 -0.13404888 0.053089716
-0.31956291 -0.13400035 0.053048879
-0.31975427 -0.13393386 0.053087547
-0.31996807 -0.13387291 0.05303622
-0.32011428 -0.13382731 0.053028885
-0.32032561 -0.13375773 0.053044438
-0.32049978 -0.13371004 0.052988611
-0.32070503 -0.1336398 0.053022619
-0.32088396 -0.13359207 0.052956402
-0.32105753 -0.13354069 0.052928247
-0.32126391 -0.13346535 0.052995697
-0.32143873 -0.13342576 0.052881062
-0.32163227 -0.1333646 0.052877061
-0.32180744 -0.13330767 0.052884631
-0.32199094 -0.13324744 0.052896809
-0.3221873 -0.13318813 0.052873198
-0.32237583 -0.13313182 0.052846149
-0.32256687 -0.13307536 0.052814484
-0.32275581 -0.13301258 0.052832406
-0.32294253 -0.1329601 0.052782301
-0.32314128 -0.13289483 0.052795589
-0.32332313 -0.13284472 0.052739728
-0.32350335 -0.13278796 0.052734613
-0.32372364 -0.13271193 0.052775498
-0.32389551 -0.13266273 0.05273582
-0.3240675 -0.1326094 0.052724957
-0.32425809 -0.13255177 0.052702524
-0.32446069 -0.13249163 0.052670825
-0.32464603 -0.13243081 0.052682988
-0.32483247 -0.13238086 0.05261559
-0.32503775 -0.13230684 0.052676134
-0.32523218 -0.13224623 0.052666359
-0.32540876 -0.13219517 0.052628964
-0.32557657 -0.13215163 0.052558172
-0.3257708 -0.1320875 0.05257377
-0.3259846 -0.13201825 0.052581236
-0.32617766 -0.13196099 0.052550718
-0.32636577 -0.13190416 0.052528284
-0.32654768 -0.13184135 0.052562371
-0.32673356 -0.13179027 0.0525042
-0.3269262 -0.13173166 0.052484058
-0.32711196 -0.13167331 0.052477766
-0.32730037 -0.13161832 0.0524415
-0.32752511 -0.13154805 0.052431647
-0.32769477 -0.131494 0.052431181
-0.32788724 -0.13143221 0.052434094
-0.32806194 -0.13138145 0.052399017
-0.32826263 -0.13132028 0.052378856
-0.32842666 -0.13127828 0.052305758
-0.32862812 -0.13120581 0.052363992
-0.32882658 -0.1311413 0.052372657
-0.32900298 -0.13109469 0.052304137
-0.32917807 -0.13104738 0.052243702
-0.32939288 -0.13097343 0.052282292
-0.32959369 -0.13090557 0.052309409
-0.32977882 -0.13085033 0.052282367
-0.32996431 -0.13079661 0.052243799
-0.33016992 -0.13073389 0.052223623
-0.33038345 -0.13066149 0.052254163
-0.33057037 -0.13061024 0.05219483
-0.33078414 -0.13053614 0.052236892
-0.33095467 -0.13048247 0.052231804
-0.33115947 -0.13042243 0.052194335
-0.33132488 -0.13037966 0.052123539
-0.33152455 -0.13032028 0.052093007
-0.33172461 -0.13025396 0.052110892
-0.33194298 -0.13018864 0.0520803
-0.33211654 -0.13013628 0.052059062
-0.33229676 -0.13008049 0.052047029
-0.23883274 -0.16192783 0.037580948
-0.23904739 -0.16187327 0.037482407
-0.23925981 -0.16181633 0.037405774
-0.23947716 -0.16175976 0.037315283
-0.23967999 -0.16170263 0.037261724
-0.23987544 -0.16164769 0.037209347
-0.24006975 -0.16159034 0.037176564
-0.2402579 -0.16153398 0.037150715
-0.24045822 -0.16147716 0.037100624
-0.24064326 -0.16142081 0.0370817
-0.24082665 -0.1613632 0.037075456
-0.24100184 -0.16130641 0.03708192
-0.24117947 -0.16124983 0.037081458
-0.24136701 -0.16119269 0.037062526
-0.24153538 -0.16113564 0.037086293
-0.24170578 -0.16107877 0.037104294
-0.24187386 -0.1610205 0.037137292
-0.24203776 -0.16096325 0.037172604
-0.24220356 -0.16090362 0.037220586
-0.24236445 -0.16084619 0.037263982
-0.2425203 -0.16078711 0.03733043
-0.24267209 -0.16072901 0.03739921
-0.24283084 -0.16066885 0.037466813
-0.24297819 -0.16060907 0.037557505
-0.24312846 -0.16055079 0.03763089
-0.24327557 -0.16049093 0.037722733
-0.24342355 -0.1604324 0.037803046
-0.24357246 -0.16037261 0.037890267
-0.24371709 -0.1603111 0.03799941
-0.24385701 -0.16025044 0.038113173
-0.24399385 -0.16019076 0.038226947
-0.24413252 -0.16012985 0.038345329
-0.2442686 -0.16006862 0.038471781
-0.2444033 -0.16000718 0.038602851
-0.24452883 -0.15994476 0.038761616
-0.24465427 -0.1598822 0.038921528
-0.24478193 -0.15981975 0.039075669
-0.24490038 -0.15975489 0.039267886
-0.24500959 -0.15969165 0.039469339
-0.24015221 -0.15838267 0.05974023
-0.24034944 -0.15832894 0.059675161
-0.24057621 -0.1582541 0.059693009
-0.24078462 -0.15818869 0.059685558
-0.2409976 -0.15812393 0.059663102
-0.24120674 -0.15805876 0.059652179
-0.24141735 -0.15799558 0.059623972
-0.24161027 -0.15792844 0.05966381
-0.24184681 -0.15786722 0.059562899
-0.24203517 -0.15779959 0.059616596
-0.24225137 -0.15773754 0.059567615
-0.24246058 -0.15767463 0.059540559
-0.24264851 -0.15761736 0.059521627
-0.24283102 -0.15755938 0.059520002
-0.24304883 -0.15749454 0.059487157
-0.2432263 -0.1574325 0.059525892
-0.2434893 -0.15736075 0.05943989
-0.24370259 -0.15729555 0.059419744
-0.24392739 -0.15723403 0.059347682
-0.24412 -0.15716226 0.059420973
-0.24430914 -0.15710056 0.059430853
-0.24452406 -0.1570342 0.059415311
-0.24474721 -0.15697287 0.059345555
-0.24495296 -0.15690878 0.059334651
-0.24514551 -0.15684615 0.059343364
-0.24535078 -0.15679295 0.059256375
-0.24553528 -0.1567345 0.059253585
-0.24574415 -0.15667495 0.059203468
-0.24593049 -0.15660422 0.059283692
-0.24616686 -0.15653884 0.059212752
-0.24635735 -0.15647441 0.059238777
-0.24656618 -0.15641342 0.059199035
-0.24677429 -0.15635428 0.059147771
-0.24697286 -0.15628973 0.059156481
-0.24714939 -0.15622471 0.059218265
-0.24739474 -0.15615435 0.059162296
-0.24756742 -0.15609805 0.059171073
-0.24778014 -0.15603466 0.059139393
-0.2479701 -0.15597057 0.059164263
-0.24819061 -0.15591091 0.059088759
-0.24843155 -0.15584032 0.059044324
-0.24863148 -0.15577663 0.059043802
-0.2487859 -0.15572843 0.05903649
-0.24904132 -0.15565941 0.058948211
-0.24923593 -0.15560067 0.058924645
-0.24941894 -0.15553749 0.058958754
-0.24961069 -0.1554704 0.059000909
-0.2497883 -0.15541787 0.058971629
-0.25001645 -0.15534732 0.058956049
-0.2502048 -0.15529349 0.058911756
-0.25040483 -0.15523253 0.058891639
-0.25059548 -0.15516742 0.058922261
-0.25081313 -0.15509874 0.058917094
-0.25100264 -0.15504356 0.058879707
-0.25122568 -0.15497641 0.058851466
-0.2514236 -0.15491742 0.058822133
-0.25164151 -0.15485126 0.058798511
-0.25181136 -0.15479976 0.05877962
-0.25202185 -0.15474018 0.058726039
-0.2521905 -0.15467393 0.058814377
-0.25239953 -0.15461206 0.058780394
-0.25262851 -0.15454726 0.058722157
-0.25284505 -0.15448347 0.058684707
-0.25301191 -0.1544295 0.058690041
-0.25319254 -0.1543666 0.058727618
-0.2534062 -0.154313 0.058624461
-0.2535983 -0.15424271 0.058688514
-0.25380161 -0.15418428 0.058643032
-0.25402492 -0.15412095 0.058587108
-0.25422868 -0.15406075 0.058553152
-0.25441948 -0.153999 0.05855957
-0.25457188 -0.15393451 0.058672152
-0.2547591 -0.15387391 0.058678582
-0.25501814 -0.15380877 0.05855456
-0.25523397 -0.15375513 0.058446795
-0.25541201 -0.15369874 0.058444023
-0.25557882 -0.15364334 0.058459722
-0.25579724 -0.15357506 0.058449931
-0.25599539 -0.15352087 0.058386013
-0.25618893 -0.15346068 0.058375135
-0.25636542 -0.15340413 0.058376987
-0.25655258 -0.15333492 0.058444507
-0.25677958 -0.15327238 0.058374755
-0.25699031 -0.15320198 0.058397263
-0.25720087 -0.15314581 0.058319472
-0.25740507 -0.15308757 0.058270533
-0.25757328 -0.15302603 0.05832658
-0.25777805 -0.15296096 0.058324896
-0.25799853 -0.15290421 0.058228642
-0.25816122 -0.15284801 0.058259349
-0.25837851 -0.15278058 0.058246091
-0.25856182 -0.15272738 0.058208734
-0.25874487 -0.15266924 0.05820711
-0.25892434 -0.15261222 0.058205482
-0.25916058 -0.15254265 0.058164518
-0.25932139 -0.15248591 0.058203295
-0.25951895 -0.15242882 0.058161288
-0.25973076 -0.15236492 0.058135375
-0.25992292 -0.15230842 0.058101438
-0.26010022 -0.15224577 0.058144793
-0.26031312 -0.15218526 0.058092356
-0.2604979 -0.15212852 0.058076892
-0.26067695 -0.15206936 0.05809141
-0.26087558 -0.15201357 0.058037866
-0.26105469 -0.15195455 0.058051232
-0.26125798 -0.15189305 0.058027651
-0.26145786 -0.15183279 0.058002923
-0.26164916 -0.15177688 0.057966687
-0.2618522 -0.15171286 0.05796155
-0.26204756 -0.15164803 0.057979494
-0.26224256 -0.15159144 0.05793979
-0.26241699 -0.15153895 0.057917427
-0.26260817 -0.15147789 0.05791809
-0.26278597 -0.15142158 0.057915319
-0.26299283 -0.15136284 0.057864059
-0.26320431 -0.15130375 0.057804711
-0.26339287 -0.15123588 0.057859559
-0.26358593 -0.15117617 0.057846379
-0.2637721 -0.15112174 0.057811309
-0.26395658 -0.15106948 0.05776472
-0.26417062 -0.15100357 0.057748027
-0.2643427 -0.15094778 0.057754487
-0.26454622 -0.15087922 0.057780474
-0.26472113 -0.15082203 0.057790399
-0.26494867 -0.15076727 0.057664152
-0.26513264 -0.15070622 0.057680968
-0.26531756 -0.15065202 0.057647049
-0.2655094 -0.15058945 0.057656925
-0.26570022 -0.15052947 0.05765067
-0.26589137 -0.15047297 0.05761905
-0.26608217 -0.15041317 0.057611633
-0.2662693 -0.15035437 0.05760539
-0.26645976 -0.15029451 0.057599127
-0.26663372 -0.15024397 0.057564087
-0.26683286 -0.15017989 0.057568189
-0.2670199 -0.1501281 0.057512365
-0.2672185 -0.15006045 0.057542972
-0.26740789 -0.15000369 0.057517119
-0.26757202 -0.14995043 0.057523616
-0.26778403 -0.14988518 0.057506915
-0.2679756 -0.14982675 0.057487976
-0.26815456 -0.14977007 0.0574852
-0.26833972 -0.14971432 0.057461668
-0.26851255 -0.1496713 0.057375915
-0.2687363 -0.14960815 0.057317693
-0.26889509 -0.14955139 0.057361085
-0.26910526 -0.14948559 0.057352468
-0.26928166 -0.14942743 0.057365846
-0.26947153 -0.14936094 0.057408005
-0.26963541 -0.14930044 0.057466377
-0.26985091 -0.14925066 0.057332087
-0.27003929 -0.1491908 0.057330448
-0.27022165 -0.14913385 0.057321899
-0.27041185 -0.14908756 0.057219952
-0.27060843 -0.149023 0.057233285
-0.27079487 -0.14896588 0.057216659
-0.27096355 -0.14890549 0.057263482
-0.27116221 -0.14885113 0.057199568
-0.27135706 -0.14878516 0.057226721
-0.27155152 -0.14872728 0.057197396
-0.27174023 -0.14866847 0.057187691
-0.27192879 -0.14861391 0.057148006
-0.2721127 -0.14855941 0.057118706
-0.27229977 -0.14849932 0.057121679
-0.27246162 -0.14844549 0.057137396
-0.27263957 -0.14839433 0.05709774
-0.27283451 -0.14834246 0.057024602
-0.27302757 -0.14827967 0.057033326
-0.27321205 -0.14822188 0.057025928
-0.27338204 -0.14816284 0.05706007
-0.27358755 -0.14810891 0.056977689
-0.27379167 -0.14804406 0.056976009
-0.27396217 -0.14799055 0.056969799
-0.27412945 -0.14793338 0.056997035
-0.27430254 -0.14787792 0.056998886
-0.27447316 -0.14781445 0.057063006
-0.27469033 -0.14776543 0.056919485
-0.27487567 -0.14770427 0.056933988
-0.27506733 -0.14764565 0.056916207
-0.27523777 -0.14758177 0.056983776
-0.27545121 -0.14752954 0.056871396
-0.27564126 -0.14746918 0.056869753
-0.27580652 -0.14741506 0.056879699
-0.2759929 -0.14736122 0.056840021
-0.27618161 -0.14730501 0.056811862
-0.27636823 -0.1472519 0.056766413
-0.27656457 -0.14718919 0.056767061
-0.27674416 -0.14714433 0.056678981
-0.27693036 -0.1470543 0.056896377
-0.27707589 -0.1469951 0.056987062
-0.27728006 -0.14696337 0.056750208
-0.27749449 -0.14692985 0.056502949
-0.27766892 -0.14685868 0.056613173
-0.2778706 -0.14679216 0.05662879
-0.27802995 -0.14673555 0.056669872
-0.27823618 -0.14667684 0.056619763
-0.27840802 -0.14662811 0.056576665
-0.27858523 -0.14657491 0.056553155
-0.27877757 -0.14651331 0.056554951
-0.27895176 -0.14645474 0.056576401
-0.2791439 -0.14640036 0.056527492
-0.27936697 -0.14633775 0.056466963
-0.27955502 -0.14627573 0.056481466
-0.27972984 -0.14623484 0.056376107
-0.27992943 -0.1461646 0.056422848
-0.28010729 -0.1460972 0.056498472
-0.28028128 -0.14603804 0.05652453
-0.28047684 -0.14598435 0.056462929
-0.28063989 -0.14592642 0.056505159
-0.28080785 -0.14586169 0.056584269
-0.28102729 -0.14580154 0.056514524
-0.28121474 -0.14575742 0.056403372
-0.2813901 -0.14570189 0.056400608
-0.28158575 -0.14565046 0.056322861
-0.28177115 -0.14559188 0.05631892
-0.28195217 -0.14553145 0.056338049
-0.2821385 -0.14547567 0.056312207
-0.2823211 -0.1454201 0.056293279
-0.28250581 -0.14535964 0.056304336
-0.28268924 -0.14530706 0.056262355
-0.28287598 -0.14525375 0.056218069
-0.28304869 -0.14520296 0.056187645
-0.28319782 -0.14517365 0.056058142
-0.28341675 -0.14507726 0.056246631
-0.2836099 -0.14502142 0.056205787
-0.28379187 -0.14496475 0.056196086
-0.28397784 -0.1449099 0.056164473
-0.28415576 -0.1448516 0.056175537
-0.28434208 -0.14479907 0.056126643
-0.28452379 -0.14474167 0.056122713
-0.28468591 -0.14469409 0.056093466
-0.28489563 -0.14463508 0.05603759
-0.28507686 -0.14457557 0.056049794
-0.28526112 -0.1445128 0.056078143
-0.28543991 -0.14446008 0.0560477
-0.28562483 -0.14440149 0.056044921
-0.28581294 -0.14434043 0.056052499
-0.28597778 -0.1442889 0.056045156
-0.28617963 -0.14422606 0.056034252
-0.28636178 -0.1441747 0.05598652
-0.28654724 -0.14412293 0.055934157
-0.28672823 -0.14405958 0.055974033
-0.28690994 -0.14400512 0.055949349
-0.28705448 -0.14395973 0.055944368
-0.28725669 -0.1439075 0.055857379
-0.28746143 -0.14383887 0.055881053
-0.28764611 -0.14377663 0.055904783
-0.2878277 -0.14372592 0.05585359
-0.2880125 -0.14367063 0.055827752
-0.28819391 -0.14361463 0.055814598
-0.28837866 -0.1435553 0.055817574
-0.28856006 -0.14349751 0.055817105
-0.28873479 -0.14343956 0.055832792
-0.28892601 -0.14338873 0.055760816
-0.28909686 -0.14334503 0.055684295
-0.2892887 -0.14327449 0.055750657
-0.28946993 -0.14321986 0.055728283
-0.28964794 -0.14316364 0.055724353
-0.28983623 -0.14310122 0.055741169
-0.29002497 -0.14303476 0.055785626
-0.29018804 -0.14300004 0.055663005
-0.29037282 -0.14294085 0.055664834
-0.29057047 -0.14288293 0.055628583
-0.29074913 -0.14282081 0.055665005
-0.2909081 -0.1427622 0.055721082
-0.29110822 -0.14271 0.055638712
