# .PCD v0.7 - Point Cloud Data file format
VERSION 0.7
FIELDS x y z
SIZE 4 4 4
TYPE F F F
COUNT 1 1 1
WIDTH 1286
HEIGHT 1
VIEWPOINT 0 0 0 1 0 0 0
POINTS 1286
DATA ascii
-0.24228084 -0.24452558 0.048410937
-0.24244374 -0.24451461 0.048577599
-0.24146414 -0.24374445 0.056458253
-0.24175021 -0.24378265 0.056140613
-0.24186444 -0.2437408 0.056620587
-0.2420782 -0.24374576 0.056633834
-0.24230105 -0.24375644 0.056589067
-0.24262574 -0.24372032 0.057073057
-0.24318364 -0.24369857 0.05747626
-0.24341762 -0.24371439 0.057380415
-0.24482246 -0.24409783 0.053740025
-0.24503292 -0.24409844 0.053798504
-0.24528091 -0.24411173 0.053733818
-0.24551529 -0.2441221 0.05369591
-0.24569696 -0.24412283 0.053744204
-0.24592212 -0.24413238 0.053712163
-0.24614367 -0.24414206 0.053677842
-0.24634905 -0.244158 0.053571798
-0.24652749 -0.24415372 0.053672265
-0.24678284 -0.24417149 0.053562328
-0.24697815 -0.24417743 0.053559523
-0.24720591 -0.24418347 0.053565703
-0.24740353 -0.24418521 0.053608067
-0.24759464 -0.24418546 0.053664394
-0.24781014 -0.24419822 0.053595353
-0.2480213 -0.24422187 0.053409301
-0.24820513 -0.24422036 0.053481914
-0.24846594 -0.24422717 0.053490136
-0.24866571 -0.24423215 0.053498872
-0.24887846 -0.24424405 0.053437971
-0.24909858 -0.24425237 0.05341756
-0.24928911 -0.24425642 0.053433333
-0.24947181 -0.2442621 0.053429469
-0.24971788 -0.24427304 0.053389136
-0.24992074 -0.24428204 0.053356126
-0.25014594 -0.24429159 0.053324088
-0.25036028 -0.24430519 0.05324579
-0.25055319 -0.24430691 0.053287029
-0.25074682 -0.24431105 0.053302772
-0.25095883 -0.24432163 0.053255782
-0.25114748 -0.24432509 0.053277366
-0.25132677 -0.24432726 0.053309452
-0.25156191 -0.24434738 0.053168401
-0.25175023 -0.24434449 0.053257193
-0.25201052 -0.24435869 0.053186614
-0.25219268 -0.24436489 0.053176958
-0.25236937 -0.24436787 0.053199798
-0.25260979 -0.24438126 0.053131707
-0.25281641 -0.24438731 0.053131111
-0.25301915 -0.24439543 0.053107385
-0.25319847 -0.24439578 0.053159162
-0.25343153 -0.24440731 0.053108528
-0.25361791 -0.24441211 0.053115055
-0.25382197 -0.24442136 0.053079717
-0.25406814 -0.24444398 0.052915387
-0.25426161 -0.24444441 0.052970544
-0.25445321 -0.24444358 0.053038448
-0.25465864 -0.24445647 0.052964851
-0.25486115 -0.24446525 0.05293417
-0.25507522 -0.24447228 0.0529254
-0.2552771 -0.24447842 0.052922539
-0.25549501 -0.2444858 0.052911416
-0.25569132 -0.24449559 0.052868038
-0.25589925 -0.24450365 0.052846577
-0.25610864 -0.24451283 0.052813515
-0.25628066 -0.2445159 0.052834071
-0.25648171 -0.24451678 0.052886836
-0.25670236 -0.24453425 0.052769087
-0.25690684 -0.24454287 0.052740693
-0.25711656 -0.24454498 0.05278296
-0.25732076 -0.24455883 0.05269894
-0.25751138 -0.24456538 0.052688058
-0.25772929 -0.24456839 0.052723303
-0.25791565 -0.24457996 0.052657977
-0.25812727 -0.24459194 0.052595928
-0.25833884 -0.24459575 0.052620783
-0.2585209 -0.24459039 0.052733976
-0.25873974 -0.24460553 0.052640572
-0.25892138 -0.24460255 0.052728269
-0.259139 -0.2446228 0.052580409
-0.2593345 -0.24463113 0.052552089
-0.25953934 -0.24463551 0.052568898
-0.25975066 -0.24464235 0.052561317
-0.25994828 -0.24464673 0.052575864
-0.26014549 -0.24465381 0.052561454
-0.26036224 -0.24467173 0.052437931
-0.2605496 -0.24467982 0.052409694
-0.2607542 -0.24468441 0.052424185
-0.26095721 -0.24469395 0.052385379
-0.26116782 -0.24469762 0.052411407
-0.26136532 -0.24470559 0.052387714
-0.26154441 -0.24470319 0.052468479
-0.26175126 -0.24472006 0.052353155
-0.26196867 -0.24473035 0.052310754
-0.26215628 -0.24473268 0.052343935
-0.26234382 -0.24473839 0.052341186
-0.2625716 -0.24475576 0.052226838
-0.26278767 -0.24476537 0.05219141
-0.26299053 -0.24476892 0.05221634
-0.26319948 -0.24477504 0.05221574
-0.26340196 -0.24478567 0.052165348
-0.26357839 -0.24478395 0.052238021
-0.26376927 -0.24478997 0.052232921
-0.26397997 -0.24480216 0.052168563
-0.26419771 -0.24481051 0.052147008
-0.26437506 -0.24481766 0.052125815
-0.26456302 -0.24482076 0.052150879
-0.26477221 -0.24482776 0.052140988
-0.26498401 -0.24483375 0.052142672
-0.2651948 -0.24484713 0.052065566
-0.26539797 -0.24485156 0.052081224
-0.26559684 -0.24486829 0.051964812
-0.26577368 -0.24487564 0.05194129
-0.26598892 -0.24487302 0.052035652
-0.26619405 -0.2448848 0.051973663
-0.26638347 -0.24489494 0.051924534
-0.26655498 -0.24488118 0.052123573
-0.2667807 -0.24490198 0.051972166
-0.2669645 -0.24490966 0.051947434
-0.26715222 -0.24491799 0.051916871
-0.26735842 -0.24492741 0.05188036
-0.26755971 -0.24493505 0.051861271
-0.26775849 -0.24493901 0.051880442
-0.26796356 -0.24494721 0.051856693
-0.2681506 -0.2449552 0.051829614
-0.26834863 -0.24495816 0.051859222
-0.2685726 -0.24496844 0.051819086
-0.26875427 -0.24497387 0.051817536
-0.26894116 -0.24498217 0.051786996
-0.26913717 -0.24498791 0.05178649
-0.26933539 -0.24499764 0.051744252
-0.2695471 -0.24501279 0.051648583
-0.26974127 -0.24500877 0.051751237
-0.26994625 -0.24502537 0.051638246
-0.27012414 -0.24502413 0.051706277
-0.27032489 -0.24503285 0.05167561
-0.2705248 -0.24504754 0.051581204
-0.27073681 -0.24505812 0.051534206
-0.27093369 -0.24505907 0.051584698
-0.27112588 -0.24505728 0.051663034
-0.27131203 -0.24506623 0.05162552
-0.2715022 -0.2450766 0.051574081
-0.27170736 -0.24508904 0.05150513
-0.27190319 -0.24510579 0.051387578
-0.27210456 -0.24510919 0.051413685
-0.27230099 -0.2451086 0.051480398
-0.27249166 -0.24510109 0.051619012
-0.2726866 -0.24511674 0.051513061
-0.27288151 -0.24513336 0.051396679
-0.27308655 -0.24513686 0.051422752
-0.27328095 -0.24514046 0.051444292
-0.27347544 -0.24515773 0.051320955
-0.27367771 -0.24516463 0.051309977
-0.27386585 -0.2451577 0.051441655
-0.27406874 -0.24516703 0.051405169
-0.27427584 -0.24517965 0.051335037
-0.27446666 -0.24518381 0.05134964
-0.27466318 -0.24519895 0.051249482
-0.27485859 -0.24520937 0.051199149
-0.27506366 -0.24521385 0.051214792
-0.27525043 -0.24521549 0.051254928
-0.27544838 -0.24521966 0.051271796
-0.27564713 -0.24523027 0.051220283
-0.27583387 -0.24523062 0.051274329
-0.27602863 -0.24523839 0.051251825
-0.27622479 -0.24526584 0.051020697
-0.27643314 -0.24526791 0.051062971
-0.27661574 -0.2452558 0.051248003
-0.27681416 -0.24527176 0.051139701
-0.27701586 -0.2452877 0.051032536
-0.27721 -0.24528009 0.051173441
-0.27740061 -0.245303 0.050988719
-0.27760553 -0.24530716 0.051007845
-0.277807 -0.24530968 0.05104322
-0.27800432 -0.24532385 0.050953474
-0.27819484 -0.24532834 0.050964609
-0.27839231 -0.24533652 0.050938606
-0.27859795 -0.24533339 0.051035367
-0.27878118 -0.24534006 0.051021062
-0.27897787 -0.24535432 0.050930165
-0.27917492 -0.24536413 0.050886773
-0.27937594 -0.24537079 0.050878122
-0.27956674 -0.24537376 0.050905474
-0.2797603 -0.24538171 0.050880656
-0.27995399 -0.24538869 0.050866276
-0.28015125 -0.24539568 0.050853007
-0.28034711 -0.24540894 0.050772548
-0.28054237 -0.24540843 0.050838113
-0.28073844 -0.24541995 0.050776184
-0.28094089 -0.24542032 0.05083473
-0.28114349 -0.24543379 0.050754212
-0.28133011 -0.24543925 0.050753787
-0.28152961 -0.24545 0.050701112
-0.28171527 -0.24544702 0.05078993
-0.28190094 -0.24545552 0.050757073
-0.28209904 -0.24546982 0.050666157
-0.28229049 -0.24547184 0.050703935
-0.28249234 -0.24548495 0.0506269
-0.28269416 -0.24549773 0.050553337
-0.28289023 -0.24549736 0.05061774
-0.28307641 -0.24550368 0.050608054
-0.28327167 -0.24551409 0.050557721
-0.28347099 -0.24552342 0.050520103
-0.28366479 -0.2455208 0.050607696
-0.28385395 -0.24552852 0.050584082
-0.28404683 -0.24553591 0.050565064
-0.28423947 -0.24554373 0.050541412
-0.28443813 -0.24555393 0.050494529
-0.28463423 -0.24556184 0.050470859
-0.28483194 -0.24556676 0.05047961
-0.28503022 -0.24557726 0.050429255
-0.28522888 -0.24558057 0.050455384
-0.28541675 -0.24558988 0.050414398
-0.28561309 -0.24559116 0.050461404
-0.28580025 -0.24560744 0.050346248
-0.28599131 -0.24562284 0.050241489
-0.28619346 -0.24561524 0.050384641
-0.28637832 -0.24562873 0.050298475
-0.28657293 -0.24563836 0.050256267
-0.2867671 -0.24564317 0.050265048
-0.28696689 -0.24564531 0.050303921
-0.28715804 -0.24565451 0.050265219
-0.28735289 -0.24566358 0.050228801
-0.28754985 -0.2456746 0.050172664
-0.28774217 -0.24567717 0.050204642
-0.28794622 -0.24567901 0.050248109
-0.28813735 -0.24568798 0.050211724
-0.288331 -0.24570282 0.050113894
-0.28850669 -0.24572136 0.049971025
-0.28871328 -0.24572459 0.050000563
-0.28890955 -0.2457228 0.050080027
-0.28910354 -0.24572815 0.050083019
-0.28930739 -0.24573904 0.050030299
-0.28951913 -0.24574514 0.050030828
-0.28970891 -0.24574709 0.050068621
-0.28989586 -0.24575225 0.050071668
-0.29008776 -0.2457561 0.050089747
-0.29028237 -0.2457726 0.049974527
-0.29048395 -0.24577034 0.050060898
-0.29066554 -0.24578851 0.049923766
-0.29086164 -0.24579927 0.049869955
-0.29106075 -0.24579976 0.049926218
-0.29125702 -0.24580671 0.049912959
-0.29145473 -0.24581937 0.049839441
-0.29164672 -0.24582335 0.049856357
-0.29184476 -0.2458321 0.049824543
-0.29204381 -0.24583989 0.049803156
-0.29223159 -0.24584779 0.049777232
-0.29242197 -0.24585009 0.049811546
-0.29262921 -0.24585399 0.049834128
-0.29282838 -0.24585851 0.04984751
-0.29302275 -0.24587359 0.049747355
-0.29319766 -0.24587978 0.049735442
-0.29339477 -0.2458861 0.049729131
-0.29358125 -0.24589504 0.049691632
-0.29378277 -0.24590084 0.049692247
-0.293984 -0.24590391 0.04972183
-0.29418153 -0.24591002 0.04971784
-0.29435819 -0.24592663 0.049595822
-0.29455334 -0.24593453 0.049572147
-0.29472935 -0.24595134 0.049447812
-0.29493976 -0.24594192 0.049612906
-0.29512137 -0.24595998 0.049476944
-0.29531577 -0.24596284 0.049506586
-0.29552281 -0.24596204 0.049579002
-0.29573816 -0.24596356 0.049629323
-0.29593331 -0.24597429 0.049575523
-0.29611376 -0.24599004 0.049463905
-0.29633638 -0.24598664 0.049568631
-0.29654109 -0.24599068 0.049588922
-0.29671532 -0.2460105 0.049432155
-0.29691178 -0.24601756 0.049417738
-0.29710025 -0.24602242 0.049424261
-0.29728171 -0.24603449 0.049352031
-0.2974903 -0.24603362 0.049425591
-0.29767859 -0.24604611 0.049350984
-0.29788163 -0.24604902 0.049382873
-0.29807225 -0.24605754 0.049351122
-0.298262 -0.24606659 0.049313594
-0.29844689 -0.24607155 0.049317826
-0.2986432 -0.24608123 0.049275603
-0.29884952 -0.24608706 0.049277332
-0.29903701 -0.24609745 0.049224749
-0.29922792 -0.24610119 0.049243994
-0.29942265 -0.2461095 0.049215693
-0.29962063 -0.24611814 0.049185045
-0.29980871 -0.24612811 0.049137097
-0.30000228 -0.24613269 0.049148202
-0.3002035 -0.24613728 0.049161568
-0.3003996 -0.2461427 0.049164537
-0.30058965 -0.24615371 0.049106136
-0.30078194 -0.24616131 0.049084809
-0.30098781 -0.24616559 0.049102772
-0.30118304 -0.24617371 0.049076777
-0.30137107 -0.24618161 0.049050853
-0.30156687 -0.24618942 0.04902833
-0.30176833 -0.24619423 0.049039368
-0.30196568 -0.24619925 0.049046971
-0.30216968 -0.24620686 0.049029026
-0.30235788 -0.24621673 0.048982233
-0.30254462 -0.24622536 0.048948202
-0.30275089 -0.24622987 0.048963834
-0.30293584 -0.24623944 0.048919387
-0.30312806 -0.24624725 0.048895746
-0.30333009 -0.24625207 0.048906781
-0.30352429 -0.24626277 0.048852988
-0.30371803 -0.24626987 0.048837438
-0.30390337 -0.24627921 0.048795309
-0.30411229 -0.24628273 0.048822507
-0.30432969 -0.24628223 0.048894834
-0.30449301 -0.24630216 0.048733529
-0.30469713 -0.24630442 0.048772357
-0.30490702 -0.2463059 0.048821568
-0.30510154 -0.24631464 0.048788633
-0.30527624 -0.24633436 0.048633024
-0.30547112 -0.24633931 0.048640646
-0.3056972 -0.24633361 0.048770841
-0.30589324 -0.24634351 0.048726298
-0.30608013 -0.24635749 0.04863549
-0.30628297 -0.24636255 0.0486442
-0.3064878 -0.24636507 0.048680708
-0.30668449 -0.2463764 0.048621099
-0.3068783 -0.24638043 0.048637997
-0.30705753 -0.24639253 0.048564628
-0.30724704 -0.24640353 0.048506238
-0.30745831 -0.2464069 0.048535738
-0.30764869 -0.24641421 0.048516743
-0.30786848 -0.24641412 0.048585579
-0.30806202 -0.24642514 0.048528306
-0.30825505 -0.24643144 0.048520878
-0.30843464 -0.24644171 0.048467204
-0.30862957 -0.24645211 0.04841689
-0.30882698 -0.24645668 0.048429117
-0.30903679 -0.24646109 0.048447039
-0.30923778 -0.24646753 0.048440699
-0.30943578 -0.24647518 0.048420485
-0.30962148 -0.24648617 0.048360966
-0.30982637 -0.24649425 0.048338376
-0.31001711 -0.24650016 0.048334442
-0.31020978 -0.2465069 0.04832238
-0.31038517 -0.24652337 0.048201524
-0.31056806 -0.24653384 0.048146673
-0.31080028 -0.24652855 0.048274495
-0.31097686 -0.24654299 0.048175655
-0.31119302 -0.24654397 0.048231773
-0.31137881 -0.24655345 0.048188474
-0.31160969 -0.24655063 0.048289664
-0.31175962 -0.24657485 0.048078626
-0.31198016 -0.24657303 0.048165996
-0.31216809 -0.24658322 0.048115738
-0.31238258 -0.24658526 0.048160274
-0.31258011 -0.24659203 0.048149332
-0.31277779 -0.24660021 0.048123319
-0.3129653 -0.24661061 0.048070744
-0.31317616 -0.24661417 0.048097923
-0.31337202 -0.24662307 0.048063822
-0.31358695 -0.24662535 0.048106033
-0.31376097 -0.24664046 0.047999099
-0.31397501 -0.24664314 0.048036687
-0.31417608 -0.24665034 0.048022244
-0.31437176 -0.24665804 0.048000887
-0.31455979 -0.24666834 0.047949463
-0.31476048 -0.24667574 0.047932692
-0.3149707 -0.24667864 0.047966838
-0.31516871 -0.24668837 0.047924601
-0.31535587 -0.24669766 0.047883619
-0.31556055 -0.24670388 0.047880724
-0.31576994 -0.2467086 0.047895171
-0.31597674 -0.24671422 0.04789922
-0.31615025 -0.24672933 0.047792289
-0.31633881 -0.24673954 0.047742017
-0.31656459 -0.24673918 0.047815431
-0.31675109 -0.2467514 0.04774316
-0.31696001 -0.24675524 0.047766887
-0.31720054 -0.24675052 0.047891174
-0.31736648 -0.24676922 0.047743745
-0.31755915 -0.24677955 0.047693439
-0.31775653 -0.24678969 0.047646567
-0.31796002 -0.24679545 0.047648318
-0.31819904 -0.24679418 0.047735531
-0.31836855 -0.24681036 0.047615893
-0.31858888 -0.24681365 0.047648787
-0.31878006 -0.2468233 0.047605455
-0.31898224 -0.24682966 0.047600258
-0.31918454 -0.24683602 0.047595073
-0.31938335 -0.24684468 0.047564417
-0.31958574 -0.24685475 0.047519825
-0.31977913 -0.2468614 0.04750891
-0.31998047 -0.24686697 0.047511846
-0.32016897 -0.24687751 0.047458097
-0.32036883 -0.24688478 0.0474425
-0.32057017 -0.24689166 0.047431517
-0.32074523 -0.24690604 0.047332693
-0.32097575 -0.24690235 0.047443151
-0.32116404 -0.24691539 0.047362756
-0.32137048 -0.2469198 0.04737955
-0.32160106 -0.24691871 0.047462191
-0.32178548 -0.24693403 0.047356326
-0.32199621 -0.24694207 0.047336005
-0.32219937 -0.24694759 0.047340084
-0.32239625 -0.24695717 0.047299009
-0.32260352 -0.2469628 0.047303043
-0.32279927 -0.24697389 0.04724576
-0.32301423 -0.24697867 0.047261328
-0.32320938 -0.24698427 0.047261987
-0.32340431 -0.24698998 0.047261503
-0.32362783 -0.24699828 0.04724222
-0.32380605 -0.24700961 0.047176972
-0.3240326 -0.24701047 0.047237635
-0.3242197 -0.24702173 0.047175784
-0.32439339 -0.24703203 0.047119848
-0.32460219 -0.24704099 0.047089115
-0.32484221 -0.24703977 0.047176316
-0.32503107 -0.24705063 0.047119081
-0.3252399 -0.24706079 0.047075599
-0.32542077 -0.24706934 0.047040455
-0.32565218 -0.24707277 0.047075577
-0.32585922 -0.24707697 0.047094688
-0.32604718 -0.24708924 0.047022406
-0.32624152 -0.24709778 0.046991788
-0.32643637 -0.24710619 0.046962321
-0.32663473 -0.24711485 0.046931669
-0.32685441 -0.24712043 0.046940237
-0.3270542 -0.24712878 0.04691305
-0.32726935 -0.24713346 0.046929769
-0.32745764 -0.24714257 0.04689109
-0.32767645 -0.24714856 0.046895035
-0.32789075 -0.24715462 0.046896696
-0.32807532 -0.24716678 0.046824433
-0.3282842 -0.24717422 0.046809927
-0.32848978 -0.24717937 0.046818614
-0.32869071 -0.24718875 0.046780989
-0.32888204 -0.24719936 0.046727218
-0.32908282 -0.24720678 0.046710446
-0.32930502 -0.24721231 0.046720158
-0.32949701 -0.24722284 0.046667539
-0.32974035 -0.24722868 0.046680547
-0.32993454 -0.24723776 0.046644136
-0.33013093 -0.24724634 0.046613492
-0.33036125 -0.24724929 0.046653263
-0.33055261 -0.24725609 0.046640053
-0.33073017 -0.24727 0.046547003
-0.33096465 -0.24727416 0.046575151
-0.33116466 -0.24728014 0.046573449
-0.33138356 -0.24728492 0.046590138
-0.33156213 -0.24729864 0.046499394
-0.33178663 -0.24730426 0.04650908
-0.22410099 -0.24365486 0.052051831
-0.22433555 -0.24366525 0.052013896
-0.22458367 -0.24367866 0.051948037
-0.22482975 -0.24369265 0.051875249
-0.2250904 -0.24371003 0.051771052
-0.22533718 -0.24372448 0.051693618
-0.22559209 -0.24373929 0.051614955
-0.22586244 -0.24376002 0.051478229
-0.22608867 -0.24376971 0.051445004
-0.22632025 -0.24378 0.051407091
-0.22655675 -0.24379078 0.051365677
-0.226794 -0.24380298 0.051309183
-0.2270271 -0.24381289 0.051275898
-0.22726327 -0.24382494 0.051220577
-0.2275058 -0.24383797 0.051157087
-0.22774434 -0.24385098 0.051092476
-0.22798957 -0.24386506 0.051018525
-0.22822617 -0.24387769 0.050957404
-0.22846261 -0.24388921 0.050907873
-0.22870569 -0.24390411 0.050824672
-0.2289433 -0.24391621 0.050769337
-0.2291773 -0.24392843 0.050711714
-0.22941419 -0.24394053 0.050656386
-0.22965381 -0.24395476 0.050579011
-0.22989033 -0.24396695 0.050522529
-0.23013251 -0.24398226 0.050434709
-0.23036975 -0.24399489 0.05037358
-0.23060156 -0.24400705 0.050315976
-0.23085409 -0.24402495 0.050203733
-0.23108009 -0.24403541 0.050162394
-0.23130505 -0.24404441 0.050136141
-0.231538 -0.24405736 0.050070412
-0.23177522 -0.24407066 0.050002337
-0.2320039 -0.24408239 0.04994823
-0.23223403 -0.24409352 0.049901072
-0.23246521 -0.24410631 0.04983652
-0.23269296 -0.24411681 0.049795169
-0.23292738 -0.2441297 0.049730591
-0.23315832 -0.2441415 0.04967647
-0.23338397 -0.24415281 0.049625874
-0.23361219 -0.24416389 0.049578723
-0.23383792 -0.24417542 0.049525805
-0.23406245 -0.24418539 0.049489122
-0.2342869 -0.24419668 0.049438529
-0.23451357 -0.24420759 0.049392555
-0.23473673 -0.2442186 0.049344301
-0.23496179 -0.24422914 0.049301818
-0.23518956 -0.24424075 0.049248882
-0.23541537 -0.24425174 0.049201753
-0.23563337 -0.24426129 0.049167439
-0.23585436 -0.24427073 0.049135424
-0.23607707 -0.24428217 0.049082525
-0.23634985 -0.2443082 0.048890159
-0.23655494 -0.2443056 0.0489811
-0.23670597 -0.24429604 0.049129281
-0.23693025 -0.24431102 0.049039301
-0.23723644 -0.24434754 0.048745833
-0.23745701 -0.24436416 0.048637338
-0.237682 -0.24437328 0.048609927
-0.23782839 -0.24435931 0.048803337
-0.23805954 -0.24437353 0.048723724
-0.23827693 -0.24438395 0.048680149
-0.2384951 -0.24439341 0.04864699
-0.2387089 -0.24440262 0.048615035
-0.238933 -0.24441181 0.048586458
-0.23914115 -0.24442174 0.048545279
-0.23935895 -0.24443141 0.048509814
-0.2395739 -0.24444142 0.048469733
-0.23978995 -0.24444917 0.048453979
-0.23999739 -0.24445777 0.048426706
-0.24021365 -0.24446717 0.048393577
-0.24044278 -0.2444776 0.048353367
-0.24063908 -0.24448477 0.048337787
-0.24084684 -0.2444924 0.048320938
-0.24106394 -0.24450247 0.04828085
-0.24126896 -0.24451056 0.048258226
-0.24147704 -0.2445171 0.048252974
-0.24167728 -0.24452187 0.048264004
-0.24188295 -0.24452604 0.048283104
-0.24207169 -0.24452753 0.048325516
-0.24225959 -0.24452573 0.048402704
-0.2424244 -0.24451408 0.04857742
-0.24142849 -0.24373707 0.05652567
-0.24171062 -0.24377504 0.056209236
-0.24184468 -0.24374186 0.056603216
-0.24205591 -0.24374565 0.056628067
-0.2422739 -0.24375412 0.056605339
-0.24260168 -0.24371929 0.057076454
-0.24315293 -0.24369606 0.057493526
-0.24339467 -0.24371538 0.057362832
-0.24479941 -0.24409835 0.053727403
-0.24500029 -0.2440978 0.053795204
-0.24525368 -0.24411015 0.053742055
-0.24548413 -0.24412031 0.05370532
-0.24566908 -0.24412256 0.053738493
-0.24589077 -0.24413212 0.053705305
-0.24610794 -0.24413958 0.053693026
-0.24631584 -0.2441567 0.053575367
-0.2464893 -0.24415348 0.053663108
-0.24675514 -0.24417101 0.053558856
-0.24695009 -0.24417672 0.053558346
-0.24717776 -0.24418265 0.053565674
-0.24737322 -0.24418324 0.053619616
-0.24756336 -0.24418478 0.053662017
-0.24777652 -0.24419627 0.053605732
-0.24799526 -0.24422188 0.053401075
-0.24817781 -0.24422155 0.053460926
-0.24843475 -0.24422628 0.053490009
-0.24863487 -0.24423137 0.053497568
-0.24884354 -0.24424295 0.05343901
-0.24906272 -0.24425068 0.053424384
-0.2492515 -0.24425568 0.053429715
-0.24943982 -0.24426238 0.053416513
-0.24968855 -0.24427275 0.053383101
-0.24988775 -0.24428165 0.053350113
-0.25011081 -0.24428993 0.053330816
-0.25032967 -0.244304 0.053248994
-0.25051433 -0.24430504 0.053294912
-0.2507053 -0.24430965 0.053304866
-0.25092983 -0.24432115 0.053251963
-0.25111839 -0.24432449 0.053274684
-0.25129461 -0.24432692 0.053303301
-0.25153387 -0.24434724 0.05316104
-0.25171629 -0.24434507 0.053240594
-0.25196829 -0.24435641 0.053197883
-0.25216171 -0.24436283 0.053189263
-0.25233594 -0.24436639 0.053205155
-0.25257292 -0.24437979 0.053135917
-0.25277573 -0.24438563 0.053136505
-0.25298181 -0.24439353 0.053116202
-0.25316632 -0.24439478 0.053159803
-0.25339732 -0.24440494 0.053123064
-0.25358692 -0.24441169 0.053109851
-0.25378162 -0.24441947 0.053087335
-0.25403923 -0.24444243 0.052922897
-0.25423014 -0.24444345 0.052971095
-0.25441739 -0.24444205 0.053043649
-0.25462991 -0.24445483 0.052973457
-0.25482762 -0.2444627 0.052950907
-0.25504372 -0.244471 0.052929368
-0.25524539 -0.24447691 0.052928798
-0.25546327 -0.24448417 0.052918814
-0.25565651 -0.2444942 0.052871972
-0.25586861 -0.2445026 0.052848138
-0.25608155 -0.24451168 0.052817345
-0.25624818 -0.2445159 0.052824028
-0.25645128 -0.24451563 0.0528895
-0.25666854 -0.24453314 0.052770603
-0.25687423 -0.24454254 0.052734077
-0.25707522 -0.24454342 0.05278682
-0.25728548 -0.24455635 0.052714333
-0.25747973 -0.24456553 0.052676756
-0.2576879 -0.24456652 0.052730583
-0.25788125 -0.24458057 0.05264087
-0.25809658 -0.24459256 0.052579928
-0.25830248 -0.24459466 0.052621044
-0.25848848 -0.24458954 0.052733004
-0.25870407 -0.2446048 0.052637301
-0.25888893 -0.24460149 0.052729577
-0.25910187 -0.24462071 0.052591015
-0.25930017 -0.24463122 0.052540652
-0.2595033 -0.24463411 0.052572519
-0.2597186 -0.2446412 0.052563719
-0.25991198 -0.2446449 0.052584086
-0.2601063 -0.24465244 0.052563872
-0.26033032 -0.24467036 0.05244261
-0.26051947 -0.24467993 0.05239927
-0.26072025 -0.24468417 0.052416094
-0.26092544 -0.24469239 0.052392319
-0.26112929 -0.24469629 0.05241375
-0.26133367 -0.2447039 0.052395776
-0.2615099 -0.24470209 0.052469581
-0.26171666 -0.24471873 0.052356571
-0.26193008 -0.24472848 0.052318826
-0.26212266 -0.24473204 0.052340355
-0.26231384 -0.24473774 0.052338719
-0.26254454 -0.24475434 0.052233607
-0.26275343 -0.24476375 0.052198216
-0.26295331 -0.24476774 0.052217372
-0.26316851 -0.24477287 0.052229427
-0.26337922 -0.24478449 0.052170843
-0.26354569 -0.24478346 0.052233145
-0.26373869 -0.24478781 0.052246559
-0.26394692 -0.244801 0.052170612
-0.26416722 -0.24480812 0.052162938
-0.26434988 -0.24481706 0.052124292
-0.26453546 -0.24482141 0.052135445
-0.26473925 -0.24482618 0.052147605
-0.26494339 -0.2448314 0.05215513
-0.26516616 -0.24484612 0.052067481
-0.26536524 -0.24484977 0.052090101
-0.26557523 -0.24486685 0.051973589
-0.26575005 -0.24487598 0.051930379
-0.2659646 -0.24487236 0.052035153
-0.26617622 -0.24488315 0.051985823
-0.26635864 -0.24489328 0.051934436
-0.26652715 -0.24488021 0.05212535
-0.26675516 -0.244899 0.051995929
-0.26694053 -0.24490869 0.051950313
-0.26712838 -0.24491702 0.051919729
-0.26733774 -0.24492566 0.051892452
-0.26753595 -0.24493387 0.05186642
-0.2677387 -0.2449383 0.051882058
-0.26794347 -0.24494582 0.051865242
-0.26813141 -0.24495503 0.051825393
-0.26832607 -0.24495812 0.051852703
-0.26854926 -0.24496695 0.051827617
-0.26873448 -0.24497217 0.051829502
-0.26892552 -0.24498124 0.051791944
-0.26912192 -0.24498744 0.051786788
-0.26932338 -0.2449964 0.051753774
-0.26953173 -0.24501167 0.051655822
-0.26972985 -0.2450082 0.051753771
-0.26993096 -0.24502391 0.051648919
-0.27011403 -0.24502566 0.051686749
-0.27030617 -0.24503118 0.051687427
-0.27051377 -0.24504676 0.051585995
-0.27072236 -0.24505734 0.051537853
-0.27092305 -0.24505866 0.051585957
-0.27111149 -0.24505621 0.051670089
-0.27130201 -0.24506681 0.051616319
-0.271492 -0.2450764 0.051572982
-0.2716969 -0.24508797 0.051513292
-0.27189341 -0.24510616 0.051380664
-0.27209461 -0.24510878 0.051414862
-0.27228776 -0.24510877 0.051474623
-0.27247801 -0.24509972 0.051629424
-0.27267244 -0.24511349 0.051543169
-0.27286926 -0.24513562 0.051368833
-0.2730732 -0.24513516 0.051436607
-0.27326459 -0.24514043 0.051439606
-0.27346554 -0.24515462 0.051350981
-0.27366903 -0.24516571 0.051295944
-0.27385688 -0.24515724 0.0514438
-0.27405971 -0.24516569 0.051416576
-0.27426344 -0.24517876 0.051340669
-0.27445793 -0.24518271 0.051358707
-0.27465081 -0.24519686 0.051267825
-0.27485013 -0.24520838 0.051207028
-0.27505174 -0.24521276 0.051222675
-0.27524233 -0.24521528 0.051254652
-0.27543673 -0.2452189 0.051276162
-0.27563915 -0.24522932 0.051228084
-0.27582976 -0.24523097 0.051269315
-0.276021 -0.24523865 0.051246829
-0.27622089 -0.2452663 0.051014524
-0.2764293 -0.24526784 0.051062565
-0.2766192 -0.24525574 0.051249817
-0.27680695 -0.2452718 0.051136963
-0.27701238 -0.24528743 0.051034398
-0.27721018 -0.24528003 0.051174067
-0.27740091 -0.24530284 0.050990514
-0.27760595 -0.24530831 0.050995715
-0.27780402 -0.24530756 0.051064692
-0.278005 -0.24532327 0.050959852
-0.2781921 -0.24532701 0.050977945
-0.27839318 -0.24533638 0.050940301
-0.27859169 -0.24533403 0.051026665
-0.27878225 -0.24534038 0.051018074
-0.27897537 -0.24535529 0.050919101
-0.27917641 -0.24536294 0.050899994
-0.27937403 -0.24536917 0.050894819
-0.27956849 -0.24537246 0.050919808
-0.27975848 -0.24538097 0.050888054
-0.27995211 -0.24538882 0.05086438
-0.28015304 -0.24539623 0.050847597
-0.28035277 -0.24540873 0.050776362
-0.28054473 -0.24540737 0.050850026
-0.28074446 -0.24541923 0.05078575
-0.28094292 -0.24542156 0.050822288
-0.2811465 -0.24543189 0.050775353
-0.28133276 -0.24543898 0.050757542
-0.28153592 -0.24545005 0.050702494
-0.28172135 -0.24544807 0.050780855
-0.2819033 -0.2454572 0.050739907
-0.28210163 -0.24547109 0.050653622
-0.28229335 -0.24547255 0.050697163
-0.28249598 -0.24548395 0.050638657
-0.28270108 -0.24549793 0.050553467
-0.28289726 -0.24549755 0.05061784
-0.28308323 -0.24550463 0.050600018
-0.28327197 -0.24551365 0.050562479
-0.28348228 -0.24552299 0.050528243
-0.28366816 -0.2455221 0.050595012
-0.28386107 -0.24552971 0.050573654
-0.28405064 -0.24553668 0.050558135
-0.284244 -0.24554332 0.050547209
-0.28444248 -0.24555404 0.050494522
-0.284639 -0.24556144 0.050476622
-0.28483242 -0.24556775 0.050469171
-0.28503546 -0.24557644 0.050439619
-0.28522983 -0.24558105 0.050450698
-0.28542539 -0.24558993 0.050416585
-0.28561342 -0.24559304 0.050441619
-0.28580633 -0.24560609 0.050362334
-0.28599256 -0.24562354 0.05023443
-0.28619924 -0.24561478 0.050391413
-0.28638092 -0.24562773 0.050309904
-0.28657162 -0.24563789 0.050260756
-0.28676906 -0.24564345 0.050262544
-0.28696507 -0.24564593 0.050296791
-0.28716162 -0.24565288 0.050283518
-0.28735229 -0.24566282 0.050236691
-0.28754866 -0.2456748 0.050170124
-0.28774044 -0.24567823 0.050192818
-0.28793713 -0.24568018 0.050232843
-0.28813708 -0.24568745 0.050217234
-0.28832901 -0.24570006 0.050142586
-0.28850299 -0.24572085 0.049975395
-0.28870887 -0.24572502 0.049994484
-0.28891397 -0.24572167 0.050093543
-0.28909916 -0.24572882 0.05007457
-0.28930557 -0.24573696 0.050051946
-0.28950894 -0.24574433 0.050036311
-0.28970262 -0.24574618 0.050076358
-0.28988552 -0.24575186 0.050072473
-0.2900821 -0.24575478 0.050102085
-0.29026806 -0.24577276 0.049968384
-0.29047722 -0.24577039 0.050058141
-0.29065374 -0.24578635 0.049943071
-0.29085514 -0.24579935 0.049867183
-0.29104662 -0.24580015 0.049917694
-0.29124692 -0.2458069 0.049907867
-0.29144496 -0.24581935 0.049836643
-0.2916376 -0.24582282 0.04985933
-0.29183322 -0.24583051 0.049837951
-0.2920281 -0.24583884 0.049809627
-0.29221219 -0.24584684 0.049781408
-0.29240733 -0.24585158 0.049791317
-0.29260799 -0.24585156 0.049853332
-0.29280737 -0.24585925 0.049833089
-0.29300308 -0.24587327 0.049744502
-0.29318228 -0.24587907 0.049738336
-0.29337579 -0.24588539 0.049730886
-0.29356572 -0.24589466 0.049691014
-0.29375592 -0.24590066 0.04968591
-0.29396138 -0.24590342 0.049720079
-0.29415473 -0.24590994 0.049710311
-0.29433623 -0.24592289 0.049628802
-0.29452038 -0.24593362 0.049571607
-0.29470754 -0.24594772 0.049479619
-0.29490978 -0.24594459 0.049575225
-0.29510376 -0.24595627 0.049510986
-0.29528874 -0.24596342 0.049492028
-0.29549026 -0.24596399 0.049548231
-0.29570436 -0.24596374 0.049617082
-0.29590476 -0.2459708 0.049603779
-0.29607981 -0.2459878 0.049477134
-0.29629868 -0.24598975 0.049523931
-0.29650861 -0.24598502 0.049639169
-0.2966848 -0.24600619 0.049468484
-0.29687643 -0.24601409 0.049443666
-0.29706022 -0.24602219 0.049414281
-0.29724714 -0.24602821 0.049408041
-0.29744211 -0.24603392 0.049407534
-0.29763636 -0.24604507 0.049349092
-0.29784209 -0.2460463 0.049399473
-0.29802677 -0.24605629 0.049350381
-0.29822221 -0.24606419 0.049326696
-0.29841068 -0.24606939 0.049329709
-0.29859164 -0.24607925 0.049280655
-0.2988027 -0.24608457 0.049289275
-0.29899392 -0.24609508 0.049236652
-0.29918358 -0.24609965 0.049246617
-0.29937309 -0.24610662 0.049231093
-0.29956391 -0.24611732 0.049176153
-0.29976067 -0.24612451 0.049160559
-0.29994932 -0.246132 0.04913925
-0.30015099 -0.24613638 0.0491549
-0.30034557 -0.24614055 0.049170617
-0.30053139 -0.24615188 0.049107611
-0.30072737 -0.24615958 0.049086232
-0.30093205 -0.24616461 0.04909607
-0.3011283 -0.24617013 0.049097866
-0.30131757 -0.24617949 0.049056847
-0.30151066 -0.24618471 0.049060989
-0.30170149 -0.24619325 0.049029227
-0.30189928 -0.24619806 0.049039125
-0.30210945 -0.24620248 0.049057022
-0.30229419 -0.24621224 0.049010247
-0.30247408 -0.24622449 0.0489357
-0.30268803 -0.24622509 0.048995286
-0.30286688 -0.24623784 0.048914958
-0.30306041 -0.24624504 0.048898235
-0.30325583 -0.24625131 0.048891932
-0.30346251 -0.24625584 0.048907541
-0.30364341 -0.24626747 0.048839949
-0.30383247 -0.24627693 0.048797764
-0.30403847 -0.24628001 0.048828453
-0.30425268 -0.24627736 0.048922792
-0.30442628 -0.24629803 0.048756763
-0.30461818 -0.2463043 0.048749324
-0.30482754 -0.24630423 0.048814744
-0.30502895 -0.2463098 0.048817649
-0.30520758 -0.24632779 0.048681702
-0.3053886 -0.24633919 0.048616428
-0.30560789 -0.24633482 0.048730422
-0.30581045 -0.24634001 0.048737958
-0.30600363 -0.24635123 0.048678368
-0.30620271 -0.24635978 0.048648857
-0.30640438 -0.24636373 0.048669133
-0.30660662 -0.24636923 0.048673198
-0.30679384 -0.24637961 0.048620608
-0.30697879 -0.24638927 0.048574995
-0.30716065 -0.24640027 0.048514344
-0.30736643 -0.24640433 0.048534598
-0.3075574 -0.2464131 0.048500516
-0.30777285 -0.2464132 0.048565879
-0.30797544 -0.24642044 0.048551396
-0.30816907 -0.24642819 0.04852888
-0.30835143 -0.24643898 0.048470542
-0.30854583 -0.24644642 0.048451494
-0.30872616 -0.24645801 0.048383906
-0.3089425 -0.24645978 0.048431881
-0.30915564 -0.24646135 0.04848104
-0.30934173 -0.24647224 0.048422661
-0.30953136 -0.24648172 0.048380483
-0.3097223 -0.24649222 0.048327859
-0.30993703 -0.24649186 0.048397861
-0.31011006 -0.2465063 0.04829789
-0.31030259 -0.24651466 0.04826843
-0.310478 -0.24652961 0.048163805
-0.31068933 -0.24653079 0.048216455
-0.31088138 -0.24654089 0.048168462
-0.31109816 -0.24654016 0.048243087
-0.31128421 -0.24655105 0.048184708
-0.31151274 -0.24654762 0.048291676
-0.31167722 -0.24656802 0.048125718
-0.31187573 -0.24657287 0.048135608
-0.31207266 -0.24658124 0.04810727
-0.31228709 -0.24658187 0.048166852
-0.31248304 -0.24658924 0.048148945
-0.31268159 -0.24659571 0.04814145
-0.31287318 -0.24660613 0.048089989
-0.31307614 -0.24661109 0.048099842
-0.31327122 -0.2466203 0.04806225
-0.31347957 -0.24662346 0.048092905
-0.31367624 -0.24663217 0.048061095
-0.31386343 -0.24664277 0.048006192
-0.31408432 -0.24664457 0.048055284
-0.3142705 -0.24665417 0.048010819
-0.31446591 -0.24666338 0.047973223
-0.3146514 -0.24667458 0.047911376
-0.31487608 -0.24667399 0.047987089
-0.31507048 -0.2466836 0.04794487
-0.31525937 -0.24669372 0.047895741
-0.31545401 -0.24670193 0.047868587
-0.31566867 -0.24670626 0.047888763
-0.31587577 -0.24671048 0.047907844
-0.31605995 -0.2467235 0.047826312
-0.31624526 -0.24673481 0.047763314
-0.31646293 -0.24673575 0.047820546
-0.31664139 -0.24675056 0.047718205
-0.31685412 -0.2467532 0.047755778
-0.31708282 -0.24675219 0.04783725
-0.31728488 -0.24675962 0.047820456
-0.31744668 -0.24677962 0.047658011
-0.31766382 -0.24678239 0.047695544
-0.31786543 -0.24679255 0.047649793
-0.31810194 -0.24678828 0.047768269
-0.31826088 -0.24681024 0.04758383
-0.31849447 -0.24680828 0.047676843
-0.31869349 -0.24681684 0.047647331
-0.31888431 -0.24682787 0.047588915
-0.31909198 -0.24683265 0.047602206
-0.3192831 -0.2468424 0.047557697
-0.31950864 -0.24684934 0.047553439
-0.31969672 -0.24685758 0.04752402
-0.31989434 -0.24686304 0.047526967
-0.32008672 -0.2468725 0.047485925
-0.32028085 -0.24688146 0.047450658
-0.32048124 -0.24688743 0.047448933
-0.32066536 -0.24690285 0.047341917
-0.32085973 -0.24690822 0.047344882
-0.32110459 -0.24690647 0.047438964
-0.32127294 -0.24692045 0.047342505
-0.3215183 -0.24691524 0.047473662
-0.32170358 -0.24693036 0.047370106
-0.32192141 -0.24693762 0.047360122
-0.32211822 -0.24694492 0.047343384
-0.32232761 -0.24695225 0.047329996
-0.32252249 -0.24696015 0.047306314
-0.32272977 -0.24696928 0.047273248
-0.32293352 -0.24697711 0.047252964
-0.32313871 -0.24698345 0.047248892
-0.32333517 -0.24698877 0.047253005
-0.3235468 -0.24699575 0.047244236
-0.3237468 -0.24700694 0.047186907
-0.32395309 -0.24701092 0.047208313
-0.32415608 -0.24701916 0.047183398
-0.32432568 -0.24703056 0.047114745
-0.32454368 -0.24703826 0.047100127
-0.3247788 -0.2470372 0.04718386
-0.32496241 -0.24704945 0.047110446
-0.32519856 -0.24705486 0.047125809
-0.325378 -0.24706599 0.047062859
-0.32557908 -0.24707386 0.047041431
-0.32580817 -0.24707469 0.0471032
-0.32599664 -0.24708687 0.047032069
-0.32620749 -0.2470924 0.047038373
-0.32638475 -0.24710521 0.046956901
-0.32659149 -0.24711183 0.046950493
-0.32680139 -0.24711983 0.04693016
-0.32699978 -0.2471275 0.046909921
-0.32722911 -0.24713086 0.046945035
-0.32741752 -0.24713996 0.046906341
-0.32761642 -0.24714972 0.046864085
-0.3278425 -0.24715298 0.046899226
-0.32804471 -0.24716306 0.046854623
-0.32824862 -0.24717067 0.046836648
-0.32844362 -0.24718042 0.046793271
-0.32866007 -0.24718513 0.046809953
-0.32885316 -0.24719743 0.046738774
-0.32905099 -0.24720454 0.046724334
-0.32928804 -0.24720769 0.04676402
-0.32947963 -0.24721734 0.046720661
-0.32971361 -0.24722639 0.046696641
-0.32991582 -0.24723668 0.046649717
-0.33012074 -0.24724236 0.046652608
-0.33034012 -0.24724782 0.046662312
-0.33052996 -0.247256 0.046634033
-0.330717 -0.24726681 0.046576813
-0.33093876 -0.24727485 0.046559844
-0.33115956 -0.24727523 0.046624012
-0.3313674 -0.24728449 0.046589784
-0.33155698 -0.24729483 0.046538331
-0.33177114 -0.24730374 0.046509847
-0.22425351 -0.24365982 0.052046224
-0.2244954 -0.24367249 0.051986225
-0.22475563 -0.24368964 0.051884376
-0.22500357 -0.24370435 0.051804628
-0.22525395 -0.2437188 0.051728345
-0.2254982 -0.24373263 0.051656738
-0.22578298 -0.24375662 0.0514898
-0.22601743 -0.24376886 0.051432181
-0.22624299 -0.24377623 0.051423296
-0.22647256 -0.24378604 0.051390052
-0.22671412 -0.24379848 0.051332377
-0.22695413 -0.24381055 0.051278185
-0.2271864 -0.24382032 0.051246062
-0.22742325 -0.24383274 0.051187269
-0.22766532 -0.24384573 0.051123805
-0.22790374 -0.24385884 0.051058039
-0.22815728 -0.24387568 0.050957397
-0.22838232 -0.2438848 0.050929975
-0.22862473 -0.24389836 0.05086071
-0.22886413 -0.24391107 0.050799575
-0.22910579 -0.2439246 0.050730318
-0.22934191 -0.24393766 0.050664574
-0.22957794 -0.24394961 0.050610416
-0.22981261 -0.24396239 0.050547007
-0.23005605 -0.24397697 0.050467301
-0.23029584 -0.24399164 0.050385315
-0.2305326 -0.24400428 0.050324202
-0.23077627 -0.24401928 0.050239861
-0.23101261 -0.24403201 0.050177597
-0.23123132 -0.24404018 0.050158344
-0.2314688 -0.24405348 0.050090276
-0.23169804 -0.24406534 0.050035022
-0.23193339 -0.24407814 0.049971603
-0.23216018 -0.24408938 0.049922161
-0.232392 -0.24410121 0.04986804
-0.23262271 -0.24411398 0.049803507
-0.23285176 -0.24412508 0.049756356
-0.23308049 -0.24413615 0.049709223
-0.23331133 -0.24414806 0.049653955
-0.23354 -0.24416056 0.049591754
-0.2337712 -0.24417281 0.049532998
-0.23398897 -0.24418171 0.049505651
-0.2342158 -0.24419262 0.049459685
-0.23443981 -0.24420388 0.049409106
-0.23466873 -0.24421574 0.049353853
-0.23488711 -0.2442252 0.049320702
-0.23511508 -0.24423692 0.049266614
-0.23533976 -0.24424754 0.049222976
-0.23556283 -0.24425769 0.049183995
-0.2357821 -0.24426784 0.049143888
-0.23600593 -0.24427845 0.049100269
-0.23625438 -0.24429686 0.04898113
-0.2364742 -0.24429972 0.049018629
-0.23664269 -0.24429408 0.049130708
-0.23685214 -0.24430621 0.049066354
-0.23711964 -0.24432564 0.048942424
-0.2373921 -0.244363 0.048629627
-0.23760581 -0.24437058 0.048615057
-0.23775052 -0.24435341 0.048842017
-0.23798244 -0.24436928 0.04874504
-0.23820382 -0.24437992 0.048700277
-0.23841712 -0.24438891 0.048670646
-0.23863463 -0.24439824 0.04863866
-0.23885508 -0.24440743 0.048608959
-0.23906933 -0.24441841 0.048558466
-0.23928109 -0.24442713 0.048531167
-0.23950002 -0.24443737 0.048489902
-0.23972386 -0.24444689 0.048457861
-0.2399244 -0.24445419 0.048442237
-0.24013674 -0.24446347 0.048409138
-0.24036577 -0.24447532 0.048353884
-0.2405622 -0.24448119 0.048352193
-0.24077389 -0.24448903 0.048334166
-0.24098825 -0.24449804 0.048304513
-0.2412021 -0.24450694 0.048276044
-0.24140884 -0.24451442 0.048260368
-0.24161237 -0.24451919 0.048272517
-0.24181373 -0.24452454 0.048277743
-0.24200827 -0.24452709 0.048310816
-0.24218996 -0.24452423 0.048397295
-0.2423649 -0.24451548 0.048544079
-0.24252062 -0.24449843 0.048773259
-0.24131081 -0.24371198 0.056755848
-0.24180257 -0.24375632 0.056436531
-0.24197835 -0.24374139 0.056649327
-0.24254401 -0.24372427 0.057005901
-0.24304868 -0.24367511 0.057683878
-0.24472807 -0.24409366 0.053755175
-0.24493718 -0.24410045 0.053747594
-0.2451656 -0.24410279 0.053793125
-0.24541336 -0.24411783 0.053709909
-0.24560826 -0.24412146 0.053731397
-0.24582469 -0.24412857 0.05372259
-0.24604434 -0.24413557 0.053716075
-0.24625865 -0.24415058 0.053622723
-0.24643299 -0.24415317 0.053649023
-0.24669425 -0.24416675 0.053585388
-0.24689326 -0.24417454 0.053563982
-0.24709953 -0.24417885 0.053581912
-0.2473124 -0.24418105 0.053624101
-0.24750775 -0.24418351 0.053658333
-0.24770114 -0.24419048 0.053643931
-0.24793933 -0.24421504 0.053456537
-0.24813044 -0.24422292 0.053431731
-0.24837174 -0.24422337 0.053501479
-0.24857819 -0.24422811 0.053514771
-0.24877071 -0.24423692 0.053480674
-0.24901082 -0.24424823 0.053434595
-0.24921376 -0.24425319 0.053444441
-0.24939588 -0.24426244 0.053402327
-0.24961843 -0.24426843 0.053407378
-0.2498377 -0.24427858 0.053367261
-0.25005427 -0.24428537 0.053361923
-0.2502766 -0.24429943 0.05328124
-0.25047022 -0.24430357 0.053296957
-0.25065601 -0.24430737 0.053313896
-0.25088692 -0.24431852 0.053266741
-0.25106281 -0.2443229 0.05327449
-0.25124797 -0.24432439 0.05331577
-0.25149381 -0.24434656 0.053156108
-0.25167242 -0.24434644 0.053212494
-0.25189599 -0.24435169 0.053225644
-0.25212103 -0.24436212 0.053184323
-0.25228968 -0.24436246 0.053232685
-0.25252604 -0.24437988 0.053120609
-0.25271904 -0.24438204 0.053157173
-0.25292197 -0.24439028 0.053132266
-0.25312465 -0.24439403 0.053154856
-0.25334617 -0.24440065 0.053152945
-0.25354633 -0.24441186 0.053095624
-0.25373068 -0.24441323 0.053138062
-0.2539843 -0.24443823 0.052950539
-0.25418499 -0.24444106 0.052982405
-0.25437436 -0.24444115 0.053039871
-0.2545751 -0.24444868 0.053021923
-0.25478023 -0.24445917 0.052973829
-0.25499415 -0.2444685 0.052940719
-0.25519481 -0.24447383 0.052945942
-0.25541469 -0.24448258 0.052920885
-0.2556029 -0.24448928 0.052907683
-0.25581703 -0.24449916 0.052868776
-0.25603303 -0.24450801 0.05284144
-0.25621653 -0.24451666 0.052806266
-0.25640255 -0.24451457 0.052885756
-0.25661042 -0.24452546 0.052834168
-0.25682732 -0.24454044 0.052741952
-0.2570278 -0.24454108 0.052796986
-0.25723696 -0.2445507 0.052759275
-0.25744078 -0.24456443 0.052676436
-0.2576279 -0.24456315 0.052747816
-0.25784677 -0.24457775 0.052660208
-0.25803676 -0.24459225 0.052564751
-0.25824913 -0.24459128 0.052640535
-0.25845701 -0.24459225 0.052694358
-0.25866431 -0.24460118 0.052663624
-0.25884926 -0.24460375 0.052693311
-0.25904524 -0.24461232 0.052662659
-0.25925931 -0.24462995 0.052541509
-0.25945872 -0.24463284 0.052572235
-0.25967297 -0.24464218 0.052539118
-0.25986195 -0.24464238 0.052595422
-0.26006204 -0.24465194 0.052555472
-0.26027617 -0.24466455 0.052487601
-0.26048222 -0.24467964 0.052390844
-0.26067489 -0.24468322 0.052412353
-0.26087293 -0.2446852 0.052452356
-0.26108393 -0.24469565 0.052406527
-0.26129076 -0.24470247 0.052397795
-0.26146924 -0.24470289 0.052448399
-0.26166382 -0.24471165 0.052415453
-0.26187918 -0.24472669 0.05232209
-0.26208106 -0.24472912 0.052358575
-0.26226795 -0.24473426 0.052361608
-0.26248541 -0.24475199 0.052240428
-0.26269063 -0.24475789 0.052240983
-0.26290047 -0.24476492 0.052231073
-0.26311371 -0.24476823 0.052261673
-0.26332968 -0.24478176 0.052184522
-0.26351103 -0.24478532 0.052202664
-0.2636871 -0.24478328 0.052278768
-0.26389414 -0.24479917 0.052173883
-0.26409909 -0.24480528 0.052172124
-0.26430619 -0.24481386 0.052144863
-0.26448393 -0.24482156 0.052117851
-0.26467982 -0.24482164 0.052177563
-0.26487938 -0.24483 0.052150369
-0.26510683 -0.24484202 0.052092809
-0.26529926 -0.24484645 0.052105062
-0.2655198 -0.24485914 0.05203829
-0.26569271 -0.24487488 0.051924448
-0.26590326 -0.24487102 0.05203037
-0.26610759 -0.24487723 0.052027456
-0.2663027 -0.24489014 0.051950485
-0.26647305 -0.24488455 0.052062549
-0.26666903 -0.2448844 0.052124575
-0.26688197 -0.24490754 0.051944353
-0.26706553 -0.24491009 0.051974051
-0.26726741 -0.24492352 0.051893547
-0.26746985 -0.24492772 0.051911503
-0.26767194 -0.24493669 0.05187849
-0.26787585 -0.24494322 0.051872104
-0.26806262 -0.24495086 0.051848494
-0.2682592 -0.24495727 0.051841013
-0.2684685 -0.24496123 0.05186354
-0.26867294 -0.24496898 0.051844411
-0.26885572 -0.24497639 0.051821992
-0.26904973 -0.24498491 0.05179137
-0.26924673 -0.24499254 0.051771142
-0.26945317 -0.24500458 0.051706813
-0.2696586 -0.24500842 0.051729381
-0.2698586 -0.24501549 0.051716074
-0.27003813 -0.24502456 0.051675141
-0.27022034 -0.24502487 0.051728033
-0.27043211 -0.24504188 0.051612686
-0.27064028 -0.24505191 0.051570356
-0.27084583 -0.24505641 0.051585957
-0.27103075 -0.24505462 0.051661991
-0.27122018 -0.24506301 0.051631398
-0.27141315 -0.2450716 0.051599629
-0.2716144 -0.24508327 0.051537663
-0.2718026 -0.24509861 0.051432952
-0.27200413 -0.24510254 0.051453233
-0.27220383 -0.24511135 0.051421393
-0.27239275 -0.24509943 0.051606275
-0.27258322 -0.24510173 0.051640555
-0.27278697 -0.24513431 0.05135731
-0.27298346 -0.24513374 0.051423971
-0.27318519 -0.24513835 0.0514373
-0.27337369 -0.24514692 0.051404402
-0.27357677 -0.24517043 0.05121731
-0.27376565 -0.24515328 0.0514578
-0.27396825 -0.2451614 0.051434044
-0.27417153 -0.24517302 0.051373221
-0.27436966 -0.24517795 0.051381953
-0.27456173 -0.24518859 0.051328175
-0.27475786 -0.24520285 0.051237285
-0.27496707 -0.24521074 0.051218115
-0.27515402 -0.24521434 0.05123736
-0.27534786 -0.24521555 0.05128435
-0.2755464 -0.24522497 0.051245581
-0.27573729 -0.24523088 0.051241618
-0.27592415 -0.24523287 0.051278241
-0.27612376 -0.24525736 0.051079601
-0.27632922 -0.24527015 0.051007174
-0.27652586 -0.24525705 0.051207051
-0.27671307 -0.24526438 0.051186908
-0.27691141 -0.24528557 0.051023029
-0.27711609 -0.24527751 0.051171862
-0.27730313 -0.24529149 0.051081058
-0.27750427 -0.24531025 0.050943799
-0.27770591 -0.24529925 0.051122777
-0.27791038 -0.24531658 0.051001705
-0.27810082 -0.24532217 0.051001232
-0.27829802 -0.24533351 0.050941616
-0.27850312 -0.24533494 0.050989665
-0.27869049 -0.24533486 0.051048301
-0.2788837 -0.24534804 0.050967868
-0.27907705 -0.24535862 0.050915234
-0.27927813 -0.2453644 0.050915822
-0.2794722 -0.24536899 0.050926898
-0.27966595 -0.24537565 0.050915971
-0.27985907 -0.24538545 0.050871454
-0.28005269 -0.2453922 0.050859362
-0.28025287 -0.24540189 0.050818261
-0.2804502 -0.245408 0.050814256
-0.28064421 -0.24541259 0.050825328
-0.28084454 -0.24542098 0.050798126
-0.28104287 -0.24542318 0.050835807
-0.28123838 -0.24543567 0.050763462
-0.28143466 -0.24544491 0.05072587
-0.28162962 -0.24544647 0.050769374
-0.28181234 -0.2454527 0.050759695
-0.28200927 -0.24547024 0.050634056
-0.28220496 -0.24547009 0.050696082
-0.28240141 -0.24547802 0.05067239
-0.28259894 -0.24549253 0.050579179
-0.28280795 -0.24549583 0.050608665
-0.28299144 -0.24549967 0.050624456
-0.28317991 -0.24550889 0.050584618
-0.28338733 -0.24551618 0.050571244
-0.28358436 -0.24552228 0.05056724
-0.28376812 -0.24552569 0.050587669
-0.28395683 -0.24553405 0.050557088
-0.28415853 -0.24553812 0.050576214
-0.28434497 -0.24555077 0.050499316
-0.28454521 -0.24555761 0.050488334
-0.28474051 -0.24556683 0.050450739
-0.28494164 -0.24557196 0.050458279
-0.28513443 -0.24557902 0.050442725
-0.28532737 -0.24558575 0.050430641
-0.28552493 -0.2455909 0.050437056
-0.28571218 -0.24559507 0.050450508
-0.28590235 -0.24561787 0.050267
-0.28610542 -0.24561422 0.050368354
-0.28629208 -0.24561936 0.050371397
-0.28648329 -0.245634 0.050274763
-0.28668422 -0.24563956 0.050277665
-0.28687859 -0.24564406 0.050289899
-0.28708309 -0.24564472 0.050346069
-0.28726661 -0.24565925 0.050248343
-0.28745624 -0.24567024 0.05018995
-0.28765783 -0.24567495 0.050202124
-0.28784668 -0.24568202 0.050185442
-0.28805315 -0.24568066 0.050263599
-0.28824899 -0.24569282 0.050194725
-0.28842658 -0.24571361 0.050028708
-0.28862438 -0.24572289 0.049991105
-0.28883001 -0.24571857 0.050100539
-0.2890102 -0.245727 0.050066557
-0.28921446 -0.24572895 0.050108828
-0.28941643 -0.24574184 0.05003411
-0.28962547 -0.24574275 0.050089076
