# .PCD v0.7 - Point Cloud Data file format
VERSION 0.7
FIELDS x y z
SIZE 4 4 4
TYPE F F F
COUNT 1 1 1
WIDTH 1285
HEIGHT 1
VIEWPOINT 0 0 0 1 0 0 0
POINTS 1285
DATA ascii
-0.33160335 -0.1822488 0.048926916
-0.33178926 -0.18222535 0.048895154
-0.33198506 -0.18219678 0.048899192
-0.33217701 -0.18217306 0.048861571
-0.33237317 -0.18214719 0.048838977
-0.33256921 -0.18212003 0.048829116
-0.33275345 -0.18210444 0.048723269
-0.33294797 -0.18207534 0.048734263
-0.33319086 -0.18203133 0.048822384
-0.33336359 -0.18201478 0.048742119
-0.33359763 -0.18197 0.048849996
-0.33378053 -0.18195377 0.048752267
-0.3339949 -0.18192448 0.048737615
-0.33419833 -0.18189529 0.048736945
-0.33440068 -0.18186937 0.048706189
-0.33459389 -0.18184404 0.048682455
-0.33479983 -0.18181773 0.048650511
-0.33500347 -0.18178995 0.048635952
-0.33521202 -0.18175979 0.048637558
-0.33539981 -0.18173333 0.048632398
-0.33561212 -0.18170275 0.048632812
-0.33580816 -0.18168144 0.048566218
-0.33601892 -0.18164656 0.048610635
-0.33621913 -0.1816207 0.048582215
-0.3363888 -0.18160315 0.048515864
-0.33659658 -0.18157752 0.04847464
-0.33683306 -0.18153442 0.048562817
-0.33702275 -0.18151246 0.048511334
-0.33724824 -0.18148109 0.048501216
-0.33742535 -0.18146259 0.048433632
-0.33762717 -0.18143496 0.048420247
-0.33784992 -0.18139753 0.048472662
-0.33804342 -0.18137513 0.04841999
-0.33824566 -0.18134743 0.048406601
-0.33842534 -0.18132906 0.048334368
-0.33863491 -0.18129922 0.048331335
-0.3388474 -0.18126935 0.048324794
-0.33904216 -0.18124403 0.048298743
-0.33926663 -0.18120874 0.048327982
-0.3394537 -0.18118584 0.048289254
-0.33965269 -0.18116112 0.048251584
-0.3398762 -0.18112525 0.048287787
-0.34007624 -0.18110132 0.048240848
-0.34027442 -0.18107589 0.04821128
-0.34047037 -0.18105146 0.048174787
-0.34067965 -0.18102109 0.048177548
-0.34087843 -0.18099783 0.048125982
-0.34106737 -0.1809743 0.048090719
-0.34130162 -0.18093643 0.048131451
-0.34149387 -0.18091266 0.04809384
-0.34172773 -0.18088093 0.048075527
-0.34192553 -0.18085709 0.048030924
-0.34212688 -0.18082941 0.048018698
-0.34234619 -0.18079616 0.048035264
-0.34253061 -0.18077256 0.048006974
-0.34273002 -0.18074813 0.047965828
-0.34294888 -0.18071866 0.047946498
-0.3431561 -0.18068524 0.047981687
-0.34336308 -0.18065877 0.047949731
-0.34354925 -0.18063684 0.047902916
-0.34377414 -0.18060493 0.047898579
-0.23713559 -0.19536027 0.053495042
-0.23737971 -0.19533233 0.053425647
-0.23763257 -0.19530457 0.053342283
-0.23787501 -0.19527663 0.05327522
-0.23812574 -0.19524881 0.05319535
-0.23837572 -0.19522218 0.053105067
-0.2386412 -0.19519562 0.052992634
-0.23889531 -0.19517101 0.052876841
-0.23911622 -0.19514054 0.052864395
-0.23933977 -0.19511051 0.052843828
-0.23958343 -0.1950824 0.052776754
-0.23981699 -0.19505405 0.052725986
-0.24004732 -0.19502415 0.052694932
-0.24027862 -0.19499564 0.052648809
-0.24051921 -0.19496748 0.052586399
-0.24076384 -0.19494127 0.052499637
-0.24100684 -0.19491491 0.052416366
-0.24123195 -0.19488586 0.052384198
-0.24146628 -0.19485717 0.052335739
-0.24170537 -0.19483054 0.0522606
-0.24194841 -0.19480348 0.052184269
-0.24218163 -0.19477613 0.05212424
-0.24241687 -0.19474801 0.052068833
-0.24265093 -0.19472104 0.052004162
-0.2428873 -0.19469456 0.051931366
-0.24312638 -0.19466865 0.05184928
-0.2433621 -0.19464107 0.051788077
-0.24359351 -0.19461411 0.051726904
-0.24384329 -0.19458918 0.051620413
-0.24406187 -0.19456023 0.051596407
-0.24429464 -0.19453259 0.051539857
-0.24452166 -0.1945053 0.051487993
-0.24475357 -0.19447897 0.051419873
-0.24497846 -0.19445151 0.051372655
-0.24520877 -0.19442387 0.051319599
-0.24543892 -0.19439757 0.051253811
-0.24566564 -0.19436948 0.051210046
-0.24589038 -0.1943424 0.05115936
-0.24612337 -0.19431569 0.051093545
-0.24634674 -0.19428855 0.051045187
-0.24657544 -0.19426127 0.050990991
-0.24679536 -0.19423367 0.050951924
-0.24701248 -0.19420564 0.050920993
-0.24723998 -0.19417971 0.050855219
-0.2474636 -0.19415183 0.050813809
-0.24768552 -0.19412504 0.0507643
-0.24790682 -0.19409689 0.050728694
-0.24812956 -0.19407044 0.050674554
-0.24835584 -0.1940435 0.050620381
-0.2485728 -0.1940161 0.050583649
-0.24878779 -0.19398837 0.050552733
-0.24900562 -0.19396132 0.050511368
-0.24929574 -0.19394413 0.050273683
-0.24948755 -0.19390514 0.050384235
-0.24962714 -0.19386718 0.050557777
-0.24984673 -0.19384488 0.050467774
-0.2501739 -0.19383779 0.050080381
-0.25036651 -0.19381005 0.050080925
-0.25058237 -0.19377922 0.050078951
-0.25074211 -0.1937429 0.050208323
-0.2509656 -0.19371659 0.050151855
-0.25117916 -0.19368955 0.050116323
-0.25139916 -0.19366267 0.050070301
-0.25161189 -0.19363563 0.050035939
-0.25183889 -0.19360773 0.049989864
-0.25203377 -0.19358097 0.049977653
-0.25225085 -0.19355379 0.049938615
-0.25246644 -0.19352777 0.049890328
-0.25267485 -0.19349873 0.049881466
-0.25288555 -0.19347173 0.049849428
-0.25309888 -0.19344401 0.049820848
-0.25332129 -0.1934157 0.04978523
-0.25351673 -0.19338958 0.049766075
-0.25372472 -0.19336225 0.049741015
-0.25393778 -0.1933348 0.049710106
-0.25413954 -0.19330755 0.049693212
-0.25434676 -0.19327879 0.049683206
-0.25454593 -0.19324949 0.049689483
-0.2547448 -0.19321871 0.049710818
-0.25493017 -0.1931859 0.049770489
-0.25511485 -0.1931514 0.049847521
-0.25527164 -0.19311097 0.050020918
-0.25418717 -0.19246294 0.057816014
-0.25446311 -0.19245075 0.057549499
-0.25456205 -0.19238444 0.058054563
-0.25477239 -0.19235402 0.058056109
-0.25499463 -0.19232707 0.058007747
-0.25530428 -0.19223101 0.058507405
-0.25585049 -0.19211286 0.058891423
-0.25608164 -0.19208857 0.058804788
-0.25753018 -0.19225591 0.055162914
-0.25773764 -0.19222006 0.055221222
-0.25798351 -0.19219103 0.055159912
-0.25821266 -0.19216213 0.055120762
-0.2583923 -0.19213158 0.055166587
-0.25861526 -0.1921026 0.055136755
-0.25883499 -0.19207443 0.055103481
-0.25904012 -0.19205588 0.054997407
-0.25920531 -0.19202249 0.05509083
-0.25946632 -0.19199573 0.05498654
-0.25965574 -0.19196866 0.054984808
-0.25988194 -0.19193588 0.054987364
-0.26007998 -0.1919027 0.055033021
-0.26026878 -0.19186999 0.05508687
-0.26048139 -0.1918456 0.05502703
-0.26069057 -0.19183506 0.054837536
-0.26087356 -0.19180237 0.054899544
-0.2611272 -0.1917647 0.054911114
-0.26132795 -0.1917346 0.054923169
-0.2615307 -0.19171101 0.054869205
-0.26175469 -0.19168188 0.054839373
-0.26194286 -0.19165309 0.05485617
-0.26212546 -0.19162808 0.054844074
-0.26236421 -0.19159697 0.054812945
-0.26256657 -0.19157176 0.054775193
-0.26278833 -0.19154224 0.05475232
-0.26300254 -0.19151987 0.054670468
-0.26319292 -0.19148827 0.054711558
-0.26337999 -0.1914594 0.054730684
-0.26359537 -0.19143377 0.054678924
-0.26377457 -0.19140591 0.054699279
-0.26395294 -0.19137564 0.05474396
-0.26419184 -0.1913579 0.054583147
-0.26437351 -0.19132286 0.054669477
-0.26462162 -0.19129255 0.054617424
-0.26481822 -0.19126806 0.054580875
-0.26498261 -0.19123837 0.054639582
-0.26522371 -0.19121397 0.054540113
-0.26542112 -0.19118361 0.054559141
-0.26562291 -0.19115742 0.054531824
-0.26580498 -0.19112688 0.054574154
-0.26603794 -0.19109719 0.054537274
-0.26622719 -0.19107218 0.054515868
-0.26641509 -0.19104439 0.054523408
-0.26666328 -0.19102888 0.054327771
-0.26685706 -0.19099499 0.054386199
-0.26704565 -0.19096088 0.054453947
-0.26725039 -0.19093679 0.054402284
-0.26744333 -0.19091174 0.0543762
-0.26765668 -0.19088508 0.054337192
-0.26785737 -0.19085462 0.054352723
-0.26807576 -0.19082594 0.054326404
-0.26826078 -0.19080202 0.05430039
-0.268475 -0.19077381 0.054275274
-0.26868591 -0.19074643 0.054246712
-0.26886502 -0.19072217 0.054232329
-0.26904911 -0.19068822 0.054304741
-0.26926661 -0.19066706 0.054206651
-0.26947328 -0.1906428 0.054153807
-0.2696794 -0.19060823 0.054201707
-0.26987541 -0.19058596 0.054144341
-0.27007926 -0.19056305 0.054082263
-0.2702733 -0.19052698 0.054161541
-0.27047518 -0.19050579 0.054085582
-0.27067465 -0.19048601 0.053999234
-0.27088329 -0.19045047 0.054052889
-0.27108157 -0.19041416 0.054128647
-0.27128991 -0.19039191 0.054053795
-0.27147549 -0.19035885 0.05411578
-0.27167714 -0.19033828 0.054034039
-0.2718769 -0.1903168 0.0539639
-0.27207425 -0.1902855 0.053992197
-0.2722857 -0.19026032 0.05394163
-0.27247852 -0.1902262 0.054003537
-0.27267238 -0.19020139 0.05397398
-0.27289242 -0.19017927 0.053881645
-0.27308393 -0.19015908 0.053810429
-0.27327883 -0.19012944 0.053826004
-0.27347389 -0.19009991 0.053840421
-0.27368736 -0.19007097 0.053823419
-0.27388459 -0.19004615 0.053789191
-0.27406141 -0.19001313 0.053862825
-0.274261 -0.18999012 0.053807743
-0.27447501 -0.18996826 0.05372126
-0.27466846 -0.18993789 0.053746108
-0.27485019 -0.18990846 0.05377803
-0.27507767 -0.18989079 0.053632364
-0.27528587 -0.189862 0.053621203
-0.27548429 -0.18983234 0.053632118
-0.27569216 -0.18980002 0.05365568
-0.27590385 -0.18977767 0.053577326
-0.27608144 -0.1897486 0.053611591
-0.27626288 -0.18971564 0.053678237
-0.27646896 -0.18969612 0.053580251
-0.27668011 -0.18966679 0.053570211
-0.27687579 -0.18964241 0.053533684
-0.27704492 -0.18961707 0.053543717
-0.27724805 -0.1895846 0.053575426
-0.2774474 -0.18955624 0.053572439
-0.2776733 -0.18953317 0.053481214
-0.27786615 -0.18950288 0.053506076
-0.27808097 -0.18948163 0.053412639
-0.27824533 -0.189464 0.053354401
-0.27845347 -0.1894246 0.053446282
-0.27866122 -0.18939695 0.053424694
-0.27884948 -0.1893789 0.053337283
-0.27902526 -0.18933982 0.053471137
-0.27923587 -0.18931106 0.053456467
-0.27942669 -0.18929622 0.053334311
-0.27961162 -0.18926658 0.053363878
-0.27981624 -0.18924512 0.053286742
-0.28001735 -0.18921544 0.053294167
-0.28021193 -0.18918765 0.053292371
-0.28041545 -0.18916084 0.053268518
-0.28060037 -0.1891361 0.053250611
-0.28079429 -0.18910769 0.053255782
-0.28100711 -0.18907788 0.053248044
-0.28120309 -0.18905216 0.053224247
-0.28138348 -0.18902712 0.053215638
-0.28157869 -0.18900065 0.053199966
-0.28177425 -0.18897475 0.053178482
-0.28197798 -0.18895473 0.05308862
-0.28217649 -0.18892232 0.053126168
-0.28238133 -0.18889879 0.053068716
-0.28255612 -0.18887202 0.053084485
-0.28274632 -0.1888389 0.053140625
-0.28295186 -0.18882291 0.05300907
-0.28315598 -0.18879925 0.052953936
-0.28335509 -0.18876794 0.052979909
-0.28354785 -0.18873253 0.053054549
-0.28372875 -0.18870956 0.053025108
-0.28391558 -0.18868358 0.053016447
-0.28412434 -0.18866225 0.052932329
-0.28431523 -0.18864393 0.052843742
-0.28451592 -0.18861575 0.052837268
-0.28470218 -0.1885895 0.052832089
-0.28489441 -0.18854485 0.052997053
-0.28508341 -0.18851607 0.053012688
-0.28528741 -0.18851045 0.052782729
-0.2854892 -0.18847696 0.052826032
-0.28567773 -0.18844765 0.052847467
-0.28587204 -0.18842277 0.052817892
-0.28607684 -0.18841393 0.052618027
-0.28626734 -0.18836224 0.052853636
-0.28646135 -0.18833704 0.052827537
-0.28666419 -0.18831547 0.052753903
-0.28686026 -0.18828627 0.052763678
-0.28704789 -0.18826509 0.052707545
-0.28723913 -0.18824397 0.052645586
-0.28745112 -0.18821824 0.052599639
-0.28763542 -0.18818785 0.052637324
-0.28782672 -0.18815564 0.05268304
-0.28802401 -0.18813115 0.052645333
-0.28820977 -0.18810557 0.05263437
-0.2884008 -0.18807173 0.052696295
-0.28859827 -0.18806382 0.052497663
-0.28880352 -0.18804418 0.052401997
-0.28899482 -0.18799499 0.052612126
-0.28918028 -0.18796863 0.052609265
-0.28938007 -0.18796015 0.052412923
-0.28958043 -0.18791635 0.052558124
-0.28976715 -0.18789841 0.052471891
-0.2899684 -0.18788196 0.052350789
-0.29016554 -0.18783745 0.052507605
-0.29036659 -0.18782163 0.052380718
-0.29055139 -0.1877926 0.052404501
-0.29074782 -0.18777135 0.0523367
-0.29094666 -0.18773794 0.052383505
-0.29113486 -0.18770461 0.052444302
-0.29132766 -0.1876865 0.052351069
-0.29152355 -0.18766247 0.05231107
-0.29171926 -0.18763654 0.05228959
-0.29191127 -0.18760648 0.052313298
-0.29210335 -0.1875806 0.052296489
-0.29229543 -0.18755579 0.052269258
-0.29249102 -0.18752785 0.052267469
-0.29268643 -0.18750472 0.052219361
-0.29288197 -0.18747704 0.052215248
-0.29307032 -0.18745108 0.052204262
-0.29327303 -0.18742117 0.052211668
-0.29346859 -0.18739276 0.052214503
-0.29366001 -0.18737115 0.052157171
-0.29385856 -0.18734734 0.052111357
-0.29404765 -0.18731375 0.052173302
-0.2942256 -0.18728666 0.05218789
-0.29442236 -0.18727456 0.052030936
-0.29461527 -0.18723984 0.052098632
-0.29481381 -0.18721411 0.05207134
-0.29500708 -0.18719809 0.051957265
-0.29521379 -0.1871645 0.051994737
-0.29539183 -0.1871368 0.0520151
-0.29558295 -0.1871125 0.0519844
-0.29578787 -0.18708776 0.05193853
-0.29598054 -0.18705642 0.051973812
-0.29616231 -0.18702807 0.051995303
-0.29634979 -0.18700415 0.051965795
-0.29654911 -0.18697424 0.051977858
-0.29674259 -0.18695307 0.051913567
-0.2969335 -0.18692854 0.051885188
-0.29712775 -0.18690401 0.051852144
-0.29732624 -0.18687674 0.051839907
-0.29752171 -0.18684822 0.051843904
-0.29770914 -0.18682361 0.05182134
-0.29790479 -0.1867947 0.051828809
-0.29809308 -0.18676756 0.051829405
-0.2982814 -0.18675822 0.051657479
-0.29848057 -0.18671998 0.051750593
-0.29866561 -0.1866926 0.051758163
-0.29885733 -0.18667346 0.051676512
-0.29905573 -0.18664595 0.051666588
-0.29924461 -0.1866173 0.05168106
-0.29944515 -0.18658507 0.051713962
-0.29963031 -0.18656495 0.0516509
-0.29981837 -0.18654551 0.051577389
-0.30001485 -0.18651493 0.051599901
-0.30020657 -0.18648754 0.051598147
-0.30040812 -0.18645373 0.051644925
-0.3006036 -0.18643215 0.05158177
-0.30077872 -0.18642409 0.051415756
-0.30097875 -0.18639934 0.051376872
-0.30117738 -0.18635903 0.051490832
-0.30136502 -0.18633318 0.051479854
-0.3015686 -0.18630219 0.051496513
-0.3017737 -0.18628006 0.051425163
-0.30197233 -0.18624656 0.051473133
-0.30215392 -0.18622002 0.05147725
-0.30234545 -0.18618789 0.051521812
-0.30253094 -0.1861762 0.051376544
-0.30273774 -0.18614045 0.051434852
-0.30291542 -0.18612021 0.051383436
-0.30310765 -0.1861072 0.051241577
-0.30330473 -0.18607177 0.051310401
-0.30349603 -0.18604527 0.051300541
-0.30369666 -0.18602391 0.051228069
-0.30389148 -0.18599226 0.05126334
-0.30408505 -0.18596712 0.051237248
-0.3042784 -0.18594225 0.051208846
-0.3044717 -0.18591738 0.051180452
-0.30465609 -0.18589164 0.051172964
-0.3048597 -0.18585289 0.051264882
-0.30505019 -0.18583189 0.051202927
-0.30525538 -0.18580806 0.051147792
-0.30543777 -0.18578094 0.051156536
-0.30562636 -0.18575807 0.05111545
-0.30581367 -0.18573275 0.051099837
-0.30600509 -0.18570624 0.051089976
-0.30620685 -0.18567479 0.051113598
-0.30639425 -0.18564945 0.051097985
-0.30658528 -0.18562731 0.05104645
-0.30676866 -0.18561043 0.050954457
-0.30696014 -0.1855875 0.050909862
-0.30714726 -0.18555874 0.050927833
-0.30734929 -0.18552725 0.050951451
-0.30752999 -0.18550599 0.050905798
-0.30772835 -0.18547526 0.050927132
-0.30793786 -0.18543579 0.051017843
-0.30814439 -0.18540664 0.051012471
-0.30832818 -0.1853921 0.050897319
-0.30852365 -0.18536811 0.050857324
-0.30874303 -0.18531875 0.05103014
-0.30892858 -0.18530861 0.050869823
-0.30911428 -0.18528518 0.05083802
-0.30929956 -0.18526219 0.050802741
-0.30948761 -0.18523318 0.050821859
-0.30967069 -0.1852124 0.050768077
-0.30987668 -0.18518393 0.050756924
-0.31007379 -0.18515219 0.050789855
-0.31026408 -0.18513027 0.050737165
-0.31045577 -0.18510397 0.050724983
-0.31064549 -0.18507662 0.050725564
-0.31082895 -0.18505532 0.050676417
-0.31103635 -0.18502569 0.050674509
-0.31122753 -0.1850028 0.050629925
-0.3114152 -0.18497469 0.050640941
-0.31160375 -0.18494859 0.050631106
-0.31179929 -0.18492723 0.05056563
-0.31199661 -0.18489869 0.050567299
-0.31217742 -0.18487692 0.050526269
-0.31237641 -0.18484694 0.050539501
-0.31257927 -0.1848163 0.050553847
-0.31276256 -0.18479501 0.050504699
-0.31295723 -0.184769 0.050485551
-0.31315616 -0.1847419 0.050470985
-0.31335622 -0.18471129 0.050488841
-0.31354573 -0.18468721 0.050458148
-0.31373659 -0.18465947 0.050461039
-0.31392869 -0.18463573 0.05042338
-0.31412324 -0.18460746 0.050426234
-0.31432989 -0.18457663 0.050437078
-0.31452259 -0.18455246 0.050402883
-0.31470436 -0.18453234 0.05034449
-0.31491208 -0.18449837 0.050384268
-0.31509039 -0.18448102 0.050303902
-0.31528383 -0.18445387 0.050297495
-0.31548077 -0.18442634 0.050289907
-0.31568635 -0.18439434 0.050313488
-0.31586656 -0.18437769 0.050223842
-0.31605321 -0.18435365 0.050196659
-0.31626058 -0.18432045 0.050229497
-0.31646857 -0.18428238 0.050308637
-0.31664577 -0.18427235 0.050158806
-0.31683731 -0.18424691 0.050138533
-0.31704801 -0.18420929 0.050209537
-0.31724507 -0.18417983 0.050220467
-0.31742293 -0.18416899 0.050077587
-0.31760293 -0.18414997 0.050011098
-0.31782031 -0.18410781 0.050116781
-0.31803015 -0.18407558 0.050136857
-0.31821871 -0.18405461 0.050077237
-0.31841525 -0.18403204 0.050022177
-0.3186138 -0.18399973 0.05005857
-0.31881645 -0.18397078 0.050056703
-0.31899837 -0.18395041 0.050000615
-0.31918857 -0.18392624 0.04996993
-0.31937486 -0.18390475 0.049918436
-0.31957859 -0.18387519 0.049921207
-0.31976628 -0.18385077 0.049896322
-0.31997854 -0.18381542 0.049943015
-0.32017723 -0.18378752 0.049936559
-0.32037491 -0.18376227 0.049905803
-0.32055652 -0.18374015 0.049867086
-0.32075086 -0.18371335 0.049856037
-0.32092905 -0.18369542 0.04978146
-0.32114196 -0.18366012 0.04982698
-0.32135072 -0.18362576 0.049869068
-0.32153857 -0.18360525 0.049805984
-0.32173359 -0.18358003 0.049778722
-0.3219209 -0.18355985 0.049713325
-0.32213178 -0.18352255 0.049780861
-0.3223061 -0.1835071 0.049687795
-0.32249883 -0.18348338 0.049648978
-0.32267755 -0.18346681 0.049560498
-0.3228856 -0.1834316 0.049611855
-0.32307231 -0.18341175 0.049544156
-0.32328737 -0.1833723 0.049626701
-0.32347348 -0.1833511 0.049572892
-0.32370159 -0.18330729 0.049679637
-0.32386506 -0.18330185 0.049504459
-0.32406417 -0.1832709 0.049526948
-0.32425725 -0.18324715 0.049488127
-0.32446951 -0.18321002 0.049552187
-0.32466689 -0.18318374 0.049531847
-0.32486668 -0.18315604 0.049521912
-0.32505715 -0.18313396 0.04947038
-0.32525814 -0.18310395 0.049481276
-0.32545263 -0.18307951 0.049447075
-0.32566023 -0.18304569 0.049485691
-0.32585061 -0.18302374 0.049433
-0.32604021 -0.18300059 0.049393054
-0.32625115 -0.18296665 0.049428172
-0.32644704 -0.18294153 0.049398594
-0.32664052 -0.18291783 0.049358606
-0.32682675 -0.18289673 0.049303643
-0.32704461 -0.18285905 0.049365323
-0.32723799 -0.18283549 0.049324188
-0.32742685 -0.18281293 0.049279619
-0.32762247 -0.18278654 0.049262777
-0.32783324 -0.18275476 0.049277052
-0.32803962 -0.18272397 0.049287897
-0.3282218 -0.18270679 0.049200542
-0.32840708 -0.1826863 0.049140953
-0.32862771 -0.18264619 0.049222291
-0.3287999 -0.18263447 0.049095675
-0.32900953 -0.1826006 0.049131956
-0.32924286 -0.18255533 0.0492456
-0.32943279 -0.18253393 0.049188286
-0.32960713 -0.18252395 0.049041964
-0.32980984 -0.18249261 0.049063258
-0.3300091 -0.18246761 0.04902786
-0.33025116 -0.18241966 0.04915531
-0.33040866 -0.18241568 0.048974406
-0.33063036 -0.18237589 0.049051113
-0.33082908 -0.18235132 0.04901224
-0.33102351 -0.18232761 0.048971087
-0.33122545 -0.18229854 0.048971549
-0.33141938 -0.1822737 0.048941992
-0.3316361 -0.18224549 0.048913367
-0.3318246 -0.18222071 0.048890803
-0.33202368 -0.18219049 0.048906349
-0.33221218 -0.18216859 0.04885599
-0.33240744 -0.1821432 0.048829883
-0.33260292 -0.18211636 0.048817668
-0.3327851 -0.18210047 0.048717588
-0.33299485 -0.18206502 0.048768919
-0.33321315 -0.18203217 0.048783138
-0.33339369 -0.18201032 0.048743267
-0.33362818 -0.18196537 0.048852272
-0.33381224 -0.18194994 0.048745226
-0.33402565 -0.18192114 0.048727058
-0.33422542 -0.18189248 0.048726384
-0.33442274 -0.18186776 0.048690997
-0.33462381 -0.18183988 0.048681051
-0.33482265 -0.18181577 0.048637547
-0.33502841 -0.18178567 0.048642609
-0.3352319 -0.18175672 0.048639584
-0.33542389 -0.18172954 0.048635509
-0.33564213 -0.18169872 0.048630029
-0.33582655 -0.18167919 0.048562352
-0.33603913 -0.18164346 0.048612501
-0.33623376 -0.18162031 0.048565567
-0.33640349 -0.18160276 0.048499167
-0.33661455 -0.1815756 0.048468288
-0.33685064 -0.18153018 0.048579589
-0.33703631 -0.18151142 0.048502628
-0.3372505 -0.18148416 0.048468247
-0.33743146 -0.18146262 0.048424914
-0.33765417 -0.18142889 0.048441399
-0.33786434 -0.18139493 0.048477672
-0.33804712 -0.18137635 0.048403054
-0.33824593 -0.18134902 0.048390809
-0.33843207 -0.18132888 0.048326589
-0.33863902 -0.18129909 0.048327003
-0.3388496 -0.18126889 0.048326228
-0.33904183 -0.18124478 0.048292052
-0.33926296 -0.18121104 0.048310868
-0.33945155 -0.18118745 0.048276711
-0.33966434 -0.18115765 0.048268974
-0.33987957 -0.1811256 0.04827974
-0.34006584 -0.18110555 0.04821435
-0.34027135 -0.18107799 0.048195101
-0.34047434 -0.18104924 0.048190929
-0.34067938 -0.18102199 0.048169367
-0.3408674 -0.18100122 0.048108585
-0.34106028 -0.18097593 0.048084825
-0.3412883 -0.18094085 0.04810705
-0.34148088 -0.18091813 0.048058975
-0.34171763 -0.18088394 0.048060272
-0.34191012 -0.18086016 0.04802262
-0.3421075 -0.18083423 0.047998808
-0.34233916 -0.18079673 0.048039522
-0.34252688 -0.18077171 0.048020437
-0.34270546 -0.18075527 0.047930807
-0.34293044 -0.18072087 0.047950745
-0.34313646 -0.18069024 0.047960438
-0.3433505 -0.18065849 0.047970049
-0.34353048 -0.18064149 0.047883876
-0.34375444 -0.18060891 0.047887616
-0.23707727 -0.19536981 0.053483807
-0.23731351 -0.19534072 0.053436466
-0.23756236 -0.19531235 0.053364698
-0.23780504 -0.19528438 0.053297624
-0.23806718 -0.19525696 0.05319795
-0.23830914 -0.19523029 0.053119302
-0.2385674 -0.19520259 0.053027775
-0.23882188 -0.19517915 0.052900389
-0.23904991 -0.19514848 0.052879751
-0.23928064 -0.19511947 0.052839413
-0.23951674 -0.19509017 0.052794393
-0.23975132 -0.19506192 0.052741285
-0.23998266 -0.1950321 0.052707884
-0.24021861 -0.19500425 0.052648969
-0.2404598 -0.19497614 0.052585378
-0.24069782 -0.19494882 0.052518345
-0.24093905 -0.19492213 0.052440867
-0.24116954 -0.19489387 0.052393578
-0.24140683 -0.19486558 0.052336976
-0.24164927 -0.19483943 0.052252535
-0.24188505 -0.19481114 0.052198254
-0.24211845 -0.19478378 0.052138206
-0.24234958 -0.19475614 0.052083977
-0.24258849 -0.19472989 0.052005358
-0.24282284 -0.19470179 0.051951088
-0.24306366 -0.19467612 0.051864345
-0.24329996 -0.19464858 0.051801965
-0.2435354 -0.19462223 0.051729165
-0.24378195 -0.19459669 0.051633105
-0.24400489 -0.19456843 0.05159631
-0.24423091 -0.1945408 0.051549073
-0.24445663 -0.19451322 0.051501837
-0.24469341 -0.19448645 0.051431332
-0.24492034 -0.19445929 0.051378299
-0.24514863 -0.19443122 0.051332191
-0.24537897 -0.19440489 0.051266383
-0.24560164 -0.19437726 0.051223811
-0.24583092 -0.19435096 0.051159162
-0.24606086 -0.19432361 0.051103782
-0.24628441 -0.19429646 0.051055402
-0.24651153 -0.19426881 0.051007003
-0.24673522 -0.19424187 0.050956301
-0.24695851 -0.19421367 0.050918348
-0.24718159 -0.19418684 0.050867658
-0.24740608 -0.19415906 0.050823905
-0.2476282 -0.19413224 0.050774381
-0.24785142 -0.19410442 0.050732959
-0.248074 -0.19407788 0.050679952
-0.24829836 -0.19405049 0.05063273
-0.24851516 -0.19402298 0.050597146
-0.24873416 -0.1939947 0.050566174
-0.24895558 -0.19396833 0.050513189
-0.24923125 -0.19394937 0.050312676
-0.24942875 -0.19391018 0.050417356
-0.24957485 -0.19387355 0.050568808
-0.24979764 -0.19385187 0.050468352
-0.2501097 -0.19383872 0.050160989
-0.25032529 -0.19381723 0.050068695
-0.25054786 -0.19378783 0.050043482
-0.25068679 -0.1937483 0.050233208
-0.2509129 -0.19372387 0.050154705
-0.25113267 -0.19369678 0.050110996
-0.25134549 -0.19366962 0.050077762
-0.25156122 -0.19364178 0.050046831
-0.25178361 -0.19361277 0.050018139
-0.25199041 -0.19358729 0.049976863
-0.25220323 -0.19356048 0.049940161
-0.25241676 -0.19353393 0.04989998
-0.25263095 -0.19350477 0.049884103
-0.2528365 -0.19347791 0.049857892
-0.25304809 -0.19345115 0.049822364
-0.25327566 -0.19342259 0.049782056
-0.25346971 -0.19339608 0.049768679
-0.25367886 -0.19336751 0.049754005
-0.25388864 -0.19334066 0.049721964
-0.25409415 -0.19331428 0.049691118
-0.25429779 -0.19328603 0.049681127
-0.25449932 -0.19325583 0.049693149
-0.25469896 -0.19322516 0.049712144
-0.25488603 -0.19319426 0.049750924
-0.25506681 -0.19316021 0.049829125
-0.25523257 -0.19311909 0.049996614
-0.2540921 -0.19245492 0.05802634
-0.25439087 -0.19245212 0.057636917
-0.25452751 -0.1923963 0.057987578
-0.25472164 -0.1923613 0.058056403
-0.25493649 -0.19233216 0.058039367
-0.25526485 -0.19224145 0.058461189
-0.25577483 -0.19211249 0.059000567
-0.25748283 -0.19226316 0.055158652
-0.25768447 -0.19223066 0.055192679
-0.25792304 -0.19219753 0.055181205
-0.25815603 -0.19216976 0.055125795
-0.25834298 -0.19213971 0.055156473
-0.25856152 -0.192111 0.055130143
-0.25877652 -0.19208124 0.055118885
-0.25898489 -0.19206187 0.055016242
-0.25915346 -0.19203135 0.055077195
-0.25941569 -0.1920031 0.05498562
-0.25960574 -0.19197619 0.054981552
-0.25981897 -0.19194442 0.054992303
-0.26002425 -0.19190997 0.055040181
-0.26022011 -0.19187781 0.055078894
-0.26041594 -0.19185308 0.055045821
-0.26064521 -0.19184014 0.054851532
-0.26082611 -0.19181228 0.054869529
-0.26107296 -0.19177212 0.054914713
-0.26127386 -0.191742 0.054926738
-0.26146287 -0.19171907 0.054885626
-0.26169643 -0.19168952 0.054846417
-0.26189014 -0.19166079 0.054855041
-0.26207563 -0.1916368 0.054829009
-0.26230335 -0.19160534 0.054816492
-0.26251078 -0.19158003 0.054772884
-0.26272663 -0.19155015 0.05476163
-0.26294747 -0.19152625 0.054685488
-0.26313666 -0.19149612 0.054713838
-0.26331678 -0.19146849 0.054730691
-0.26354381 -0.19144131 0.054677658
-0.26372024 -0.19141433 0.054693386
-0.26390266 -0.19138362 0.054736849
-0.26414528 -0.1913652 0.054577153
-0.2643199 -0.19133346 0.054641522
-0.26455325 -0.19130108 0.054630101
-0.2647627 -0.19127558 0.05458533
-0.26492593 -0.19124535 0.054650962
-0.26517013 -0.19122218 0.054535247
-0.26536188 -0.19119143 0.054565892
-0.26556364 -0.19116513 0.054539703
-0.26575217 -0.19113521 0.054566905
-0.26597652 -0.19110377 0.054559033
-0.26617134 -0.1910812 0.054506287
-0.26635399 -0.19105093 0.054545123
-0.26660615 -0.19103485 0.054349452
-0.26680729 -0.19100207 0.054386951
-0.26699248 -0.19096857 0.054453537
-0.26718962 -0.19094305 0.054426245
-0.26738966 -0.19091901 0.054380395
-0.26760709 -0.19089191 0.05434018
-0.26779974 -0.19086212 0.05436039
-0.26802257 -0.19083315 0.05433055
-0.26820973 -0.19080786 0.054314919
-0.26841947 -0.19078209 0.054272465
-0.26862982 -0.19075431 0.054248519
-0.26881579 -0.19073109 0.054214377
-0.26899412 -0.19069655 0.054300711
-0.26920298 -0.19067316 0.054236267
-0.26941758 -0.19065051 0.054156713
-0.2696161 -0.19061679 0.054206971
-0.26982036 -0.19059131 0.054169182
-0.27002046 -0.19057134 0.054083981
-0.27020741 -0.19053639 0.05416213
-0.27042535 -0.19051374 0.054077923
-0.27061361 -0.19049533 0.053993981
-0.2708177 -0.19045973 0.054054603
-0.27102816 -0.19042513 0.054096643
-0.27123064 -0.19039932 0.054064669
-0.27141717 -0.19036946 0.054094195
-0.27161545 -0.19034401 0.054064579
-0.2718206 -0.19032569 0.053956177
-0.27201882 -0.19029486 0.053978644
-0.27223238 -0.19026807 0.05394078
-0.27241769 -0.1902348 0.054005053
-0.27261686 -0.1902104 0.053963847
-0.2728298 -0.19018644 0.053899363
-0.27302796 -0.19016758 0.05380607
-0.2732186 -0.19013795 0.053827453
-0.27341804 -0.19010529 0.053866126
-0.27362895 -0.19008054 0.053812079
-0.27383372 -0.19005166 0.053806707
-0.27401036 -0.19002153 0.053852536
-0.27420267 -0.18999633 0.053828765
-0.2744188 -0.18997586 0.05372604
-0.27461562 -0.18994464 0.053754319
-0.27479789 -0.18991551 0.053782731
-0.27502111 -0.1898977 0.053644061
-0.275224 -0.18986802 0.053649127
-0.27542946 -0.18984035 0.053631015
-0.27564043 -0.18980698 0.053660318
-0.27585569 -0.18978389 0.053584233
-0.27603588 -0.18975683 0.053595304
-0.27620777 -0.18972297 0.053684004
-0.27641463 -0.18970393 0.053580217
-0.27661818 -0.18967521 0.053574853
-0.27683166 -0.18964782 0.053542782
-0.2769995 -0.18962494 0.053530805
-0.27719715 -0.18959121 0.053582229
-0.27739459 -0.18956481 0.053563029
-0.27762169 -0.18953881 0.053498417
-0.27781248 -0.18951038 0.05350823
-0.27803177 -0.18948527 0.053446002
-0.27820772 -0.18947063 0.053342499
-0.27840859 -0.18943216 0.053435557
-0.27861428 -0.1894023 0.053438284
-0.27881342 -0.18938257 0.053351935
-0.27898586 -0.1893484 0.053442948
-0.27916941 -0.18931274 0.053532705
-0.27938813 -0.18930109 0.053340822
-0.27956477 -0.18927121 0.05338433
-0.27977043 -0.18925066 0.05329676
-0.27996719 -0.18922053 0.053314626
-0.28016797 -0.18919496 0.05328266
-0.28037021 -0.18916656 0.053276163
-0.28056249 -0.18914077 0.053258166
-0.280754 -0.18911412 0.053249449
-0.28096449 -0.18908131 0.053274125
-0.28117219 -0.189055 0.053239785
-0.28134963 -0.18903109 0.053224254
-0.28154221 -0.18900621 0.053196996
-0.28174114 -0.18897934 0.053180106
-0.28194326 -0.18895693 0.053115718
-0.2821517 -0.18892704 0.053114954
-0.28234571 -0.1888992 0.05311431
-0.28252777 -0.18887703 0.053075582
-0.28270686 -0.18884477 0.053138748
-0.28291884 -0.18882643 0.053021021
-0.28311914 -0.18880272 0.052971698
-0.28333008 -0.18877128 0.052982479
-0.2835159 -0.18873709 0.053054847
-0.28370324 -0.18871164 0.053040382
-0.2838909 -0.18868688 0.053018965
-0.28409597 -0.18866558 0.052939497
-0.28428704 -0.18864737 0.052849747
-0.2844879 -0.18861929 0.052842095
-0.28467888 -0.18859439 0.052817173
-0.28487071 -0.18854885 0.052991368
-0.28505793 -0.18851626 0.053046353
-0.2852602 -0.18851459 0.052780539
-0.28545842 -0.18848138 0.052826162
-0.28565791 -0.18845074 0.052845158
-0.28584829 -0.18842533 0.052826025
-0.28604981 -0.18841733 0.052622728
-0.28624076 -0.18836653 0.052849013
-0.28643081 -0.18834059 0.052835688
-0.28663674 -0.18831679 0.052779362
-0.2868371 -0.18828864 0.05277288
-0.28702441 -0.18826608 0.05273062
-0.28721657 -0.18824723 0.05264549
-0.28742847 -0.1882209 0.052605323
-0.28761667 -0.18819068 0.052636001
-0.28780425 -0.18815815 0.052689828
-0.28800532 -0.18813339 0.052649759
-0.28819513 -0.18810855 0.052626006
-0.28838256 -0.18807484 0.052691419
-0.28857979 -0.18806542 0.052507836
-0.2887857 -0.18804795 0.052390166
-0.28897381 -0.18800066 0.052586384
-0.28915873 -0.18797138 0.052612454
-0.28936186 -0.1879604 0.052435759
-0.28956643 -0.18791878 0.052554265
-0.28975263 -0.18789719 0.052503925
-0.28994402 -0.18788646 0.05234123
-0.2901445 -0.18783943 0.052517656
-0.2903491 -0.18782167 0.05240462
-0.29053789 -0.18779483 0.052401718
-0.29073438 -0.18777297 0.052339703
-0.29093346 -0.18774107 0.052371427
-0.29112515 -0.1877051 0.052453004
-0.29131088 -0.18768658 0.052373722
-0.29150695 -0.18766382 0.052320968
-0.29170278 -0.18763717 0.052306414
-0.29189852 -0.18760814 0.052315027
-0.29208714 -0.18758143 0.052310966
-0.29228288 -0.18755706 0.052274413
-0.29247501 -0.18753058 0.052263375
-0.29267061 -0.18750623 0.052226841
-0.29286614 -0.18748128 0.052196085
-0.2930584 -0.18745036 0.052227877
-0.29325739 -0.18742505 0.052195933
-0.29345343 -0.18739215 0.052241579
-0.29364827 -0.18737304 0.052155271
-0.29384357 -0.18734765 0.052129153
-0.29403594 -0.18731707 0.052157462
-0.29421762 -0.18728885 0.052177783
-0.29440755 -0.18727641 0.052033626
-0.29460397 -0.18724203 0.052093163
-0.29479581 -0.18721558 0.052082129
-0.29499662 -0.18719682 0.05198418
-0.29520282 -0.18716677 0.051988062
-0.29538488 -0.18713659 0.05202689
-0.295569 -0.18711351 0.051993929
-0.29577425 -0.18708789 0.05195614
-0.295966 -0.187061 0.051949732
-0.29614851 -0.18702979 0.051997818
-0.2963396 -0.18700573 0.051964793
-0.29653549 -0.18697619 0.051978029
-0.29672185 -0.1869565 0.05190916
-0.29692012 -0.18693045 0.051885329
-0.297111 -0.18690617 0.051854618
-0.29731378 -0.18687637 0.051860839
-0.29750481 -0.18685147 0.051835924
-0.29769692 -0.18682332 0.051841088
-0.29789189 -0.18679667 0.051827706
-0.2980817 -0.18676575 0.051862992
-0.29826602 -0.18675852 0.051676054
-0.2984632 -0.18672571 0.051719379
-0.29865068 -0.18669236 0.051781315
-0.29883757 -0.18667713 0.051668454
-0.29903644 -0.18664873 0.051666602
-0.29922542 -0.18662018 0.051679902
-0.299427 -0.18658577 0.051732451
-0.2996113 -0.18656781 0.051649705
-0.29980007 -0.18654706 0.05158776
-0.29999951 -0.18651751 0.051596332
-0.30018759 -0.186491 0.051591121
-0.30039072 -0.18645422 0.051664483
-0.30058298 -0.18643273 0.051604819
-0.30076581 -0.18642274 0.05144684
-0.30095667 -0.18640324 0.051369824
-0.30115464 -0.18636422 0.05147218
-0.30134258 -0.18633798 0.051464647
-0.30154011 -0.1863063 0.051496394
-0.30173725 -0.18628685 0.051410057
-0.30195045 -0.18625079 0.051462498
-0.30212522 -0.186225 0.051468976
-0.30231586 -0.18619442 0.051499628
-0.30249816 -0.18617758 0.051408801
-0.30270836 -0.18614697 0.051412638
-0.3028903 -0.18612015 0.051419057
-0.30307889 -0.18610801 0.051273763
-0.30326945 -0.18607782 0.051300935
-0.30346578 -0.1860487 0.051309541
-0.30366224 -0.18602422 0.051272988
-0.30386057 -0.18599696 0.051260736
-0.30404833 -0.18597111 0.051249739
-0.30424517 -0.18594597 0.051218968
-0.30443496 -0.18592173 0.05118943
-0.30462599 -0.18589577 0.051174916
-0.30481437 -0.1858605 0.051254213
-0.30500576 -0.18583842 0.051201504
-0.3052167 -0.18580721 0.051209968
-0.30540171 -0.18578508 0.051166583
-0.30557901 -0.18576467 0.051117472
-0.30577233 -0.18573587 0.051127259
-0.30595773 -0.18571308 0.051089652
-0.3061586 -0.18568283 0.051102847
-0.30634734 -0.18565601 0.051099945
-0.30654231 -0.18562923 0.051087715
-0.30671564 -0.18561701 0.050964549
-0.30691856 -0.18558815 0.050961517
-0.30709019 -0.18557391 0.050860364
-0.30730113 -0.18552503 0.051040173
-0.30747655 -0.18551706 0.050872989
-0.30766711 -0.18548816 0.050887439
-0.30787465 -0.18544741 0.050993182
-0.30808711 -0.18541181 0.051042151
-0.30827302 -0.18539518 0.050944347
-0.30846265 -0.18537764 0.050849967
-0.30868384 -0.18532635 0.051038936
-0.30887416 -0.18530813 0.050950356
-0.30904734 -0.18529473 0.050838768
-0.30924052 -0.18527001 0.050809197
-0.30942672 -0.18523984 0.050842199
-0.30959842 -0.1852276 0.05072137
-0.30981457 -0.18518898 0.050794613
-0.31000093 -0.18516499 0.050767422
-0.31019655 -0.18513788 0.050757505
-0.31038362 -0.18511319 0.050736096
-0.31056952 -0.18508962 0.050705425
-0.31075406 -0.18506446 0.050692149
-0.31095234 -0.18503781 0.050674099
-0.31115392 -0.18500806 0.050681494
-0.3113333 -0.18498783 0.050627738
-0.31152421 -0.18495961 0.050635234
-0.31171766 -0.18493746 0.050580181
-0.3119199 -0.18490726 0.050591044
-0.3120932 -0.18488967 0.050519984
-0.31228963 -0.18485935 0.05054016
-0.31249207 -0.18482912 0.05055102
-0.31268147 -0.18480256 0.050544631
-0.3128694 -0.18477988 0.050502375
-0.31306598 -0.18475492 0.050470456
-0.31326601 -0.18472181 0.05051259
-0.31345674 -0.18469934 0.050464522
-0.3136453 -0.18467361 0.050451197
-0.31383425 -0.18465008 0.050415874
-0.31402957 -0.18462123 0.050423328
-0.31423444 -0.18458948 0.050445735
-0.31442916 -0.18456368 0.050424255
-0.31460518 -0.18454595 0.050350852
-0.31481117 -0.18451342 0.050379038
-0.31499967 -0.18449032 0.05034025
-0.31518763 -0.18446526 0.050321139
-0.31537724 -0.18444128 0.050289284
-0.31558362 -0.18440871 0.050317477
-0.31575906 -0.18439355 0.050219767
-0.31595695 -0.18436542 0.050216772
-0.3161456 -0.18433991 0.05020114
-0.31635088 -0.18430617 0.050242066
-0.31655419 -0.1842763 0.050248291
-0.31672347 -0.18426561 0.050115906
-0.31692997 -0.18422896 0.050183456
-0.31713656 -0.18419455 0.050229006
-0.3173205 -0.18417497 0.050162472
-0.31749776 -0.18416457 0.050016116
-0.31769717 -0.18413132 0.050060578
-0.31791905 -0.18408817 0.050169662
-0.31810692 -0.18406779 0.050105408
-0.31829783 -0.18404935 0.050017964
-0.318499 -0.18401727 0.050048523
-0.31869781 -0.18398696 0.050065205
-0.31889051 -0.1839672 0.049988169
-0.31908417 -0.18393657 0.050015315
-0.31925803 -0.18391985 0.049934987
-0.31944874 -0.18389535 0.049906593
-0.319655 -0.1838641 0.049922045
-0.31984547 -0.18383786 0.049911018
-0.32005805 -0.18380046 0.049977355
-0.32025009 -0.18377911 0.049916539
-0.32044512 -0.18375185 0.049908943
-0.32062304 -0.1837323 0.049850564
-0.32080433 -0.18371429 0.049772479
-0.32102224 -0.18367563 0.049843401
-0.3212283 -0.1836431 0.049871586
-0.32141677 -0.18362036 0.049829327
-0.32161427 -0.18359359 0.049813598
-0.32179794 -0.18357584 0.049729712
-0.32201058 -0.18353926 0.049787939
-0.3221817 -0.18352592 0.049678691
-0.322384 -0.18349248 0.049720809
-0.3225562 -0.18348198 0.049582612
-0.32274026 -0.18346024 0.04953691
-0.32296628 -0.18341553 0.049655218
-0.3231537 -0.18339354 0.049607176
-0.32335636 -0.18336375 0.049613398
-0.32355303 -0.18333603 0.049608108
-0.32376611 -0.18330166 0.049644336
-0.32392523 -0.1832972 0.049465735
-0.32414594 -0.18325648 0.049552836
-0.32433599 -0.18323125 0.049532551
-0.32454109 -0.18320028 0.04954686
-0.32473937 -0.18317184 0.049546178
-0.32493308 -0.18314788 0.049508497
-0.32512209 -0.18312506 0.04946623
-0.32532927 -0.18309309 0.04948746
-0.32552317 -0.18306741 0.049465992
-0.32573116 -0.18303508 0.049489535
-0.32590216 -0.18302296 0.049368709
-0.32612276 -0.18298332 0.049445383
-0.32630992 -0.18296173 0.049393874
-0.326507 -0.18293597 0.049368892
-0.32669389 -0.18291454 0.04931622
-0.32690513 -0.18288067 0.049350157
-0.3271091 -0.18285106 0.049352899
-0.32729584 -0.18282975 0.049299072
-0.32748878 -0.18280651 0.04925561
-0.32769781 -0.18277569 0.049262937
-0.32790449 -0.18274318 0.049289964
-0.32810479 -0.18271589 0.049275376
-0.32828048 -0.18270083 0.049176499
-0.32846645 -0.18268 0.049119212
-0.328677 -0.18264706 0.049145039
-0.32888114 -0.18261623 0.049159367
-0.32909727 -0.1825819 0.049190931
-0.32932472 -0.18253998 0.049280278
-0.32947531 -0.18254009 0.049069345
-0.32969055 -0.18250492 0.049110189
-0.32988405 -0.18248457 0.049037784
-0.33009374 -0.18244961 0.049084455
-0.33029491 -0.18242517 0.049040917
-0.33049622 -0.18239631 0.04904021
-0.33070603 -0.18236586 0.049042903
-0.33089501 -0.18234508 0.048980951
-0.33109945 -0.18231325 0.049004525
-0.33129817 -0.18228595 0.048992261
-0.33151001 -0.1822589 0.04895905
-0.33170351 -0.18223581 0.048913263
-0.33189878 -0.182209 0.04890104
-0.33209318 -0.18218267 0.048885345
-0.3322818 -0.18216074 0.048834976
-0.33248588 -0.18213087 0.048840031
-0.33268145 -0.18210819 0.048787281
-0.33284986 -0.1820925 0.048704688
-0.33310369 -0.18203881 0.048871353
-0.33327231 -0.1820299 0.048722766
-0.33349669 -0.18198866 0.04880983
-0.3337082 -0.18195808 0.048811346
-0.33390436 -0.18193664 0.048745859
-0.33411008 -0.18190904 0.048726588
-0.33430943 -0.18188201 0.048710849
-0.33450204 -0.181857 0.048684753
-0.33472314 -0.18182459 0.048690807
-0.33491296 -0.18180369 0.048628848
-0.3351247 -0.18177333 0.048628047
-0.33531499 -0.18174568 0.048630919
-0.33552057 -0.18171452 0.048646376
-0.33573169 -0.18168855 0.0486039
-0.33591774 -0.18166567 0.048566297
-0.33613804 -0.18163015 0.048603613
-0.33631328 -0.18161383 0.048517473
-0.3365187 -0.18158557 0.048505161
-0.33672297 -0.18155664 0.048500955
-0.3369326 -0.18152645 0.04850132
-0.33714789 -0.18149619 0.0484947
-0.33734667 -0.18147126 0.048459288
-0.33753338 -0.1814483 0.048421666
-0.33776802 -0.18140905 0.048475068
-0.33796504 -0.18138258 0.04845703
-0.33816037 -0.18136065 0.04839734
-0.33834597 -0.18133833 0.048355103
-0.33854976 -0.18131125 0.048333533
-0.33874166 -0.1812885 0.048286606
-0.33895886 -0.18125652 0.048293859
-0.33918181 -0.18122074 0.048329998
-0.3393808 -0.18119363 0.048315413
-0.33956167 -0.18117484 0.048245437
-0.33978796 -0.18113893 0.048278078
-0.3399981 -0.18111047 0.048261076
-0.3401922 -0.18108813 0.048207182
-0.34039062 -0.18106265 0.048177563
-0.34060541 -0.18102983 0.048196409
-0.34080282 -0.18100724 0.048140168
-0.34098953 -0.18098475 0.048097923
-0.34121466 -0.18094866 0.048134044
-0.34142146 -0.18092079 0.048115917
-0.34164143 -0.18089296 0.048079159
-0.34185496 -0.18086569 0.048045922
-0.34205762 -0.18083745 0.048037093
-0.34225446 -0.18081185 0.04801096
-0.34245944 -0.18078269 0.048007913
-0.34266326 -0.18075526 0.047989812
-0.34285623 -0.18073486 0.047918562
-0.34308761 -0.18069321 0.047999777
-0.34328881 -0.18066818 0.047962025
-0.34348994 -0.1806398 0.047956683
-0.34368509 -0.1806197 0.047879636
-0.23704544 -0.19537254 0.053501803
-0.23728344 -0.1953426 0.053460248
-0.23753609 -0.19531594 0.053366471
-0.23778389 -0.1952876 0.053295884
-0.238031 -0.19526042 0.053214893
-0.23827919 -0.19523238 0.053140834
-0.23853602 -0.19520453 0.053052805
-0.23880668 -0.19518115 0.052902158
-0.23902893 -0.19515203 0.052874632
-0.23925523 -0.19512126 0.052857488
-0.23948875 -0.1950928 0.052807868
-0.23972593 -0.19506383 0.052758217
-0.2399604 -0.19503571 0.052703962
-0.24019325 -0.19500627 0.052664757
-0.24043025 -0.19497874 0.052601226
-0.24067208 -0.19495089 0.052534167
-0.24092269 -0.19492453 0.052440409
-0.24115773 -0.19489585 0.05239078
-0.24138609 -0.19486742 0.052348144
-0.24162914 -0.19484022 0.052272983
-0.24186154 -0.19481264 0.052216433
-0.2421038 -0.19478557 0.052141264
-0.24233626 -0.19475821 0.052082397
-0.2425727 -0.19473042 0.052022342
-0.24280368 -0.19470303 0.051965795
-0.24304825 -0.19467682 0.051879048
-0.24328616 -0.19465083 0.051799294
-0.24352074 -0.19462317 0.051740408
-0.24376279 -0.19459815 0.051645577
-0.24398831 -0.19456917 0.051612228
-0.24421489 -0.19454171 0.051562678
-0.24444544 -0.19451378 0.051511925
-0.24468423 -0.19448744 0.05143448
-0.24491113 -0.1944591 0.051393032
-0.24513569 -0.19443168 0.05134581
-0.2453745 -0.19440569 0.05126489
-0.2455962 -0.19437796 0.051224645
-0.24582551 -0.19435047 0.051171586
-0.24605027 -0.1943235 0.051119737
-0.24627894 -0.19429609 0.051066693
-0.24650486 -0.19426955 0.05100904
-0.24673109 -0.1942419 0.0509618
-0.24694961 -0.19421415 0.050926208
-0.24717456 -0.19418643 0.050881308
-0.24739605 -0.19415946 0.050834112
-0.24762496 -0.19413273 0.050774124
-0.24784203 -0.19410507 0.050739702
-0.24806684 -0.19407773 0.050691318
-0.24828649 -0.19405079 0.050646454
-0.2485107 -0.19402353 0.050598081
-0.24872531 -0.19399574 0.050568312
-0.24894759 -0.1939683 0.050524592
-0.24922179 -0.19394776 0.050341502
-0.24939483 -0.19390753 0.050490342
-0.24979487 -0.19385326 0.050458856
-0.25009957 -0.19383994 0.050163224
-0.25053483 -0.1937872 0.050067745
-0.25068557 -0.19374897 0.050228376
-0.25090688 -0.19372356 0.050166138
-0.25112614 -0.19369642 0.050123598
-0.25133842 -0.19366921 0.050091535
-0.25155717 -0.19364214 0.050048999
-0.25178596 -0.19361329 0.050009843
-0.25198367 -0.1935872 0.049987175
-0.25219661 -0.19356048 0.049949314
-0.25241464 -0.19353364 0.049905632
-0.252628 -0.19350436 0.049892079
-0.25283462 -0.19347784 0.049861223
-0.2530438 -0.19345059 0.049833823
-0.25326496 -0.19342199 0.049802832
-0.2534647 -0.19339548 0.0497813
-0.25367671 -0.19336772 0.049755029
-0.25388628 -0.19334088 0.049722999
-0.25409603 -0.19331272 0.049703695
-0.25429916 -0.19328442 0.049694862
-0.25449854 -0.19325523 0.049699951
-0.25469798 -0.19322459 0.049718935
-0.25488621 -0.19319259 0.04976695
-0.25507051 -0.19315803 0.049845099
-0.25522795 -0.19311632 0.05002996
-0.25411081 -0.19246049 0.057946093
-0.2543872 -0.19244836 0.057678498
-0.25452086 -0.19239178 0.05804066
-0.25472885 -0.19236076 0.058051459
-0.25494629 -0.19233079 0.058039024
-0.25525707 -0.19223519 0.058532633
-0.25580865 -0.19211702 0.058909431
-0.25603336 -0.19208565 0.058900401
-0.25750229 -0.19226056 0.055156674
-0.25769341 -0.1922249 0.055235915
-0.25794804 -0.19219343 0.0551861
-0.2581749 -0.19216557 0.055140018
-0.25836137 -0.19213548 0.055171844
-0.25858098 -0.19210722 0.055139713
-0.25879803 -0.19207646 0.055135392
-0.25901076 -0.19205861 0.055011887
-0.25918013 -0.19202666 0.055085547
-0.25944713 -0.19199832 0.054988168
-0.25963926 -0.19197039 0.054991014
-0.2598553 -0.19193786 0.055005215
-0.26005229 -0.19190437 0.055055454
-0.2602376 -0.19187419 0.055089619
-0.2604543 -0.19184755 0.055045936
-0.26068339 -0.19183655 0.054833177
-0.26086304 -0.19180647 0.054874334
-0.26110867 -0.19176602 0.054924134
-0.26130933 -0.19173592 0.054936156
-0.26151249 -0.19171253 0.054879874
-0.26173803 -0.1916821 0.054860421
-0.26192987 -0.1916547 0.054858636
-0.26211491 -0.19163066 0.054833774
-0.26235592 -0.1915985 0.054809548
-0.26254773 -0.19157326 0.054786932
-0.26277599 -0.19154233 0.054768622
-0.26299855 -0.19151926 0.054682061
-0.26318064 -0.19148847 0.054726668
-0.26336655 -0.19146121 0.054731883
-0.26359242 -0.19143373 0.054683488
-0.26377571 -0.19140552 0.05470147
-0.26395392 -0.19137731 0.054726437
-0.26419714 -0.19135725 0.054581814
-0.2643736 -0.19132429 0.05465541
-0.26460817 -0.19129258 0.054635867
-0.26481396 -0.19126356 0.054630492
-0.26498607 -0.19123933 0.054625422
-0.26522392 -0.19121145 0.054564193
-0.26541981 -0.19118264 0.054570466
-0.26562381 -0.19115528 0.054551221
-0.26581115 -0.19112496 0.05458419
-0.26603043 -0.19109578 0.054561324
-0.2662214 -0.19107161 0.054529466
-0.26641512 -0.1910443 0.054524191
-0.26667273 -0.19102421 0.054359779
-0.26686138 -0.1909925 0.054404315
-0.26704678 -0.19095922 0.054468568
-0.26725221 -0.19093549 0.054412268
-0.26745149 -0.19090894 0.054391891
-0.2676644 -0.19088212 0.054355197
-0.26786724 -0.19085279 0.054356784
-0.26808295 -0.19082281 0.054346681
-0.2682732 -0.19079922 0.054310195
-0.26848012 -0.19077218 0.054283969
-0.26869851 -0.19074385 0.054254167
-0.26887032 -0.19072074 0.054238688
-0.26906082 -0.1906853 0.054316774
-0.26927209 -0.19066587 0.054210648
-0.26948288 -0.19064137 0.054154299
-0.26968244 -0.19060583 0.054220736
-0.26988691 -0.19058318 0.054155178
-0.27008334 -0.19056134 0.054093167
-0.27028146 -0.19052504 0.054168873
-0.27049112 -0.19050573 0.054063924
-0.27069294 -0.19048478 0.05398567
-0.27089566 -0.19044855 0.054054379
-0.27108008 -0.19041218 0.054149888
-0.27130032 -0.19038896 0.054067984
-0.27148008 -0.19035517 0.054145016
-0.27168784 -0.19033565 0.054044716
-0.27188987 -0.19031562 0.053957198
-0.27208477 -0.1902829 0.054002829
-0.2722964 -0.19025505 0.053977728
-0.27248919 -0.19022381 0.054011814
-0.27268279 -0.19019891 0.053983394
-0.27290729 -0.19017687 0.053884096
-0.27309549 -0.19015752 0.053809434
-0.27329379 -0.19012728 0.053826116
-0.2734921 -0.19009705 0.05384279
-0.27369717 -0.19006848 0.053833939
-0.27389979 -0.19004133 0.053814702
-0.2740702 -0.19001007 0.053880244
-0.27427262 -0.18998915 0.053800821
