# .PCD v0.7 - Point Cloud Data file format
VERSION 0.7
FIELDS x y z
SIZE 4 4 4
TYPE F F F
COUNT 1 1 1
WIDTH 1310
HEIGHT 1
VIEWPOINT 0 0 0 1 0 0 0
POINTS 1310
DATA ascii
-0.054114677 -0.30843952 0.056847043
-0.054308712 -0.30855903 0.056863271
-0.054451853 -0.30864534 0.056887865
-0.054626089 -0.30876535 0.056816407
-0.054824363 -0.3088831 0.056862645
-0.054995365 -0.30899394 0.056839716
-0.055165432 -0.30910212 0.05683066
-0.055337064 -0.30921555 0.05679271
-0.055488087 -0.30931994 0.056728318
-0.055664226 -0.30942395 0.056773517
-0.055851012 -0.30954656 0.056737795
-0.056020856 -0.30964661 0.056783043
-0.056194149 -0.30976757 0.056701183
-0.056365553 -0.30987337 0.056714073
-0.056514226 -0.30996245 0.05674326
-0.056707717 -0.31010211 0.056620851
-0.056879424 -0.31020978 0.056622192
-0.057050541 -0.31032544 0.05656692
-0.057218783 -0.31043047 0.056571729
-0.057384465 -0.31053588 0.056562699
-0.05755122 -0.31063518 0.05659987
-0.057723466 -0.31074625 0.056580409
-0.057898987 -0.31086046 0.056553993
-0.058071502 -0.31097358 0.056521814
-0.058241308 -0.31108707 0.056475796
-0.05841057 -0.31118622 0.056524508
-0.058579084 -0.31129447 0.056508534
-0.058747903 -0.31140459 0.056480996
-0.058917347 -0.31151834 0.056431517
-0.059089232 -0.31163144 0.056397028
-0.059248008 -0.31171888 0.05648046
-0.059399962 -0.31182882 0.056382552
-0.059595436 -0.31195214 0.056379125
-0.059767213 -0.31206685 0.056333095
-0.059921101 -0.31215787 0.056371495
-0.060101286 -0.31227395 0.056351982
-0.060268946 -0.31238201 0.056333698
-0.060440958 -0.31250131 0.056257624
-0.060591944 -0.31259239 0.05628334
-0.060750175 -0.31269532 0.05625933
-0.060895361 -0.31278583 0.056264281
-0.0610708 -0.31289041 0.056302555
-0.061228205 -0.31298757 0.056314364
-0.061424807 -0.31312829 0.056197725
-0.061616592 -0.31325287 0.056170058
-0.061782781 -0.31335318 0.056198001
-0.061952643 -0.31346226 0.056182005
-0.062122479 -0.31357184 0.056162558
-0.06228935 -0.31368244 0.05612348
-0.062459026 -0.31379262 0.056099411
-0.062625274 -0.31389636 0.056104243
-0.062791713 -0.31400448 0.056080192
-0.062958188 -0.31411567 0.05603534
-0.063127205 -0.3142176 0.056064405
-0.063281216 -0.31432199 0.056012705
-0.063453436 -0.3144339 0.055987459
-0.063619375 -0.31453916 0.055980738
-0.063794486 -0.31465054 0.055971652
-0.063960291 -0.31476372 0.055910636
-0.064126 -0.31486899 0.055902757
-0.064291768 -0.31496885 0.055931851
-0.064463563 -0.31507745 0.055927403
-0.064610779 -0.31517074 0.055921949
-0.064772643 -0.31528947 0.055806655
-0.064959474 -0.31540784 0.05579982
-0.065131426 -0.31550819 0.055851981
-0.065293722 -0.31561098 0.05584643
-0.065439112 -0.31572548 0.055689637
-0.065623239 -0.31583363 0.05574058
-0.065798149 -0.31593722 0.05578348
-0.065963112 -0.31604356 0.055765212
-0.066131786 -0.31614506 0.055795446
-0.066290423 -0.31624863 0.055769119
-0.066449344 -0.31634912 0.055764753
-0.066620432 -0.31645745 0.055759154
-0.066794328 -0.31656906 0.05574315
-0.066958547 -0.31667784 0.055705242
-0.067116007 -0.31678611 0.055641964
-0.067289367 -0.31689909 0.055614412
-0.067459099 -0.31699395 0.055694308
-0.067613319 -0.31709948 0.055635665
-0.067789495 -0.31721461 0.05560578
-0.067954905 -0.31731457 0.055632565
-0.068120763 -0.31742865 0.055565771
-0.068277955 -0.317534 0.05552097
-0.068451978 -0.31764162 0.05553269
-0.068613499 -0.31774288 0.055534072
-0.068765558 -0.31783959 0.055526279
-0.068932094 -0.31794846 0.055497602
-0.069107935 -0.31806216 0.055475805
-0.069277942 -0.31817082 0.055463284
-0.069440745 -0.31827921 0.055421919
-0.069604456 -0.31838426 0.055407129
-0.069752082 -0.31848225 0.055371627
-0.069923952 -0.3185955 0.055335991
-0.070096433 -0.31869581 0.055390462
-0.0702639 -0.31880015 0.055396438
-0.070436381 -0.31891122 0.055378128
-0.070594929 -0.31901917 0.055321775
-0.070750304 -0.31912512 0.05526543
-0.070921674 -0.31922865 0.055293337
-0.071091764 -0.3193447 0.055231143
-0.071246117 -0.31943396 0.055283401
-0.07142134 -0.31954661 0.055266228
-0.071577057 -0.31965053 0.05522491
-0.071720116 -0.31974769 0.055175573
-0.071893089 -0.3198562 0.055176895
-0.07206139 -0.31995797 0.055203661
-0.072232313 -0.32007062 0.05516804
-0.072386265 -0.32016918 0.055155613
-0.072552308 -0.32026768 0.055195101
-0.07271681 -0.32038429 0.055105202
-0.072893105 -0.32049385 0.055113442
-0.073046349 -0.32059333 0.055091772
-0.073221341 -0.32069796 0.05512774
-0.07336124 -0.32078481 0.05513503
-0.073507793 -0.32088825 0.05505795
-0.073680386 -0.32100368 0.055010751
-0.073842853 -0.3211081 0.054994807
-0.074026145 -0.3212263 0.054974124
-0.074172273 -0.32132286 0.054942101
-0.074381448 -0.32144728 0.054989431
-0.074530788 -0.32154533 0.054960858
-0.074675612 -0.3216373 0.054954253
-0.074851647 -0.321753 0.054919742
-0.075016558 -0.32185367 0.054939602
-0.075181842 -0.32196569 0.054884367
-0.075342201 -0.32207221 0.054845326
-0.07550583 -0.32217446 0.054849014
-0.07566268 -0.32227945 0.054805376
-0.075817302 -0.32237586 0.054810274
-0.075984031 -0.3224799 0.054815095
-0.076145805 -0.32260045 0.054687105
-0.076318234 -0.32269785 0.054761209
-0.076473981 -0.3228035 0.054708328
-0.076633357 -0.32289985 0.054733995
-0.076784134 -0.32300547 0.054660358
-0.076966956 -0.32310769 0.054745957
-0.077134974 -0.3232204 0.054697633
-0.077302292 -0.32332379 0.05470939
-0.077452198 -0.32341996 0.05469583
-0.077639826 -0.32353273 0.054730572
-0.077787824 -0.3236497 0.054567996
-0.077936299 -0.32374227 0.054572918
-0.078124247 -0.32385013 0.054642323
-0.078298882 -0.32396543 0.054604355
-0.078444943 -0.32406023 0.054583889
-0.078594163 -0.32414779 0.054625783
-0.078755677 -0.32425624 0.054578647
-0.078937769 -0.32437831 0.05452678
-0.079078972 -0.32446817 0.054519046
-0.079229012 -0.32456818 0.054480065
-0.079400033 -0.32466879 0.054526452
-0.0795644 -0.32477885 0.054480463
-0.079728 -0.32488519 0.054456435
-0.079895958 -0.32499239 0.054445077
-0.080054939 -0.32510197 0.054379471
-0.080225609 -0.3251991 0.054447819
-0.080401942 -0.3253085 0.054457214
-0.080542266 -0.32540685 0.054388247
-0.08071503 -0.32551861 0.054366469
-0.080887809 -0.32562646 0.054371268
-0.081038058 -0.32573345 0.054286074
-0.081215717 -0.32584196 0.054307014
-0.0813988 -0.32596228 0.054271311
-0.081553034 -0.32606271 0.054247327
-0.081688136 -0.32615232 0.054215364
-0.081853963 -0.32625324 0.054237522
-0.082041457 -0.32637087 0.054238763
-0.082190745 -0.3264704 0.054199796
-0.082344189 -0.32656404 0.054218557
-0.082499951 -0.32667413 0.054135647
-0.082668796 -0.32677713 0.054156639
-0.082841039 -0.32689232 0.054109439
-0.082982428 -0.32699218 0.054034702
-0.083142862 -0.32709262 0.054037254
-0.083313815 -0.32719129 0.054096349
-0.083488211 -0.32729521 0.054134637
-0.083656751 -0.32739204 0.05419606
-0.083820879 -0.32750759 0.054111943
-0.083971813 -0.32761583 0.054020979
-0.084153421 -0.32772976 0.054022253
-0.08428666 -0.32781973 0.0539799
-0.084461287 -0.32791749 0.054060932
-0.084628582 -0.32802171 0.054066911
-0.084781885 -0.32813486 0.053952817
-0.084946275 -0.32823709 0.053959973
-0.085120499 -0.32835099 0.053930096
-0.085274033 -0.32845134 0.053903803
-0.085462891 -0.32856572 0.053932771
-0.085619897 -0.32866177 0.053950351
-0.085788555 -0.32878065 0.053862754
-0.085957177 -0.32888451 0.053876806
-0.086100146 -0.32898554 0.053800903
-0.086251363 -0.32907778 0.053819679
-0.08640606 -0.32917768 0.053801466
-0.086577818 -0.32929513 0.053736955
-0.086751454 -0.32939464 0.053801809
-0.086901858 -0.32948449 0.053833306
-0.087079957 -0.32959995 0.053809173
-0.087225549 -0.32970262 0.053733259
-0.087383553 -0.32980716 0.053697698
-0.087539271 -0.32991228 0.053648293
-0.087713517 -0.33001491 0.053694665
-0.087880544 -0.33011693 0.05371451
-0.088046849 -0.3302328 0.053637318
-0.088198774 -0.33034152 0.053547494
-0.088381767 -0.33045289 0.053571869
-0.088536754 -0.33054206 0.053627588
-0.088699371 -0.33065066 0.05358392
-0.088871337 -0.33076227 0.053559832
-0.089029327 -0.3308562 0.053595901
-0.08917848 -0.33095226 0.053580035
-0.089336425 -0.33106187 0.05350982
-0.089497857 -0.33116037 0.053529698
-0.089668073 -0.33126983 0.053512551
-0.089844219 -0.3313781 0.053528875
-0.089995921 -0.33148378 0.053458694
-0.090157524 -0.33158493 0.053461239
-0.090275042 -0.33168206 0.053303458
-0.090449139 -0.3317858 0.053341739
-0.090656348 -0.33190337 0.053427204
-0.090795562 -0.33200613 0.053323593
-0.090964273 -0.33211347 0.053314544
-0.091122024 -0.33222023 0.053262811
-0.091276422 -0.33231786 0.053258471
-0.091444768 -0.33242053 0.053279459
-0.091599055 -0.33251828 0.053273957
-0.09177807 -0.33262426 0.053318001
-0.091939084 -0.33272353 0.053330943
-0.092111848 -0.3328329 0.053325336
-0.092293613 -0.33292952 0.053444445
-0.092459381 -0.33303073 0.05346429
-0.092586115 -0.33314833 0.053207114
-0.092762582 -0.33325049 0.053266179
-0.092941754 -0.33335927 0.053291723
-0.093111418 -0.33347148 0.053253796
-0.093263745 -0.33357653 0.053190541
-0.093427017 -0.3336871 0.053136468
-0.093569785 -0.33377963 0.053117167
-0.093731083 -0.33389255 0.053038854
-0.093892768 -0.33398557 0.053096849
-0.094073847 -0.33409455 0.053129315
-0.094235763 -0.33420086 0.053098358
-0.094375804 -0.33430669 0.052977417
-0.094550788 -0.33440977 0.053023785
-0.094725527 -0.33452159 0.053010076
-0.094884627 -0.3346217 0.053009171
-0.095034286 -0.33472455 0.052949395
-0.095176116 -0.33482572 0.052867725
-0.095348924 -0.33493137 0.052887529
-0.095521659 -0.3350392 0.052892327
-0.095671982 -0.33514398 0.052822154
-0.095837869 -0.33524391 0.052851249
-0.096007705 -0.33534583 0.052883778
-0.096181773 -0.33545175 0.05290705
-0.096346207 -0.33555812 0.052886471
-0.096514031 -0.33566439 0.052880891
-0.096665859 -0.33576912 0.05281765
-0.096834324 -0.3358734 0.052828237
-0.096995398 -0.33598188 0.052778803
-0.09714888 -0.33608255 0.052750204
-0.097318754 -0.33618891 0.052752692
-0.097470604 -0.33629552 0.052676745
-0.097628921 -0.33639222 0.052695479
-0.097816721 -0.33649862 0.052774116
-0.098006569 -0.33660322 0.052873544
-0.098149955 -0.33671764 0.052708682
-0.09829618 -0.33682227 0.052622363
-0.098460063 -0.33692503 0.052623734
-0.098626658 -0.3370336 0.052597374
-0.09879075 -0.33714023 0.052573334
-0.098943301 -0.33723536 0.052578241
-0.09912204 -0.33734611 0.052588772
-0.099298656 -0.33745876 0.052577369
-0.099456526 -0.33755791 0.052577622
-0.099637926 -0.33766335 0.052635506
-0.099811152 -0.33776122 0.052709609
-0.099957407 -0.33786947 0.052599028
-0.10011399 -0.33797428 0.052555393
-0.10027879 -0.33807576 0.052569464
-0.10041791 -0.33818167 0.052443914
-0.10059483 -0.33828735 0.052481029
-0.10075089 -0.33839577 0.052410826
-0.10092448 -0.33849782 0.05245835
-0.10109428 -0.33861589 0.052381143
-0.10126867 -0.3387253 0.052382454
-0.10142364 -0.33882296 0.05238042
-0.10159861 -0.33892894 0.052407142
-0.10174373 -0.33903491 0.052306972
-0.10189968 -0.33914325 0.052236766
-0.10207874 -0.33924788 0.052290041
-0.10221907 -0.33934471 0.052231476
-0.10238316 -0.33945015 0.052215524
-0.10256023 -0.3395566 0.052248023
-0.10272171 -0.33966196 0.052221682
-0.1028783 -0.33977208 0.052142233
-0.10307471 -0.33988199 0.05223354
-0.10318098 -0.33997938 0.052026138
-0.10338177 -0.34008986 0.052132435
-0.10358065 -0.340202 0.0522191
-0.10373894 -0.34031063 0.052156962
-0.10391647 -0.34041601 0.052198701
-0.10406329 -0.34052357 0.052095044
-0.10423334 -0.34062833 0.0521091
-0.10440379 -0.34073985 0.052079245
-0.10454556 -0.3408418 0.051991787
-0.10471825 -0.34094533 0.05202546
-0.10489164 -0.34105068 0.05204989
-0.10503861 -0.3411532 0.051980894
-0.10520877 -0.34125993 0.051982231
-0.1053873 -0.34137088 0.051990461
-0.10554127 -0.34147424 0.051945679
-0.10572867 -0.34158632 0.051983897
-0.10585374 -0.34168786 0.051828377
-0.10605637 -0.3418051 0.051896539
-0.1062298 -0.34191251 0.0519071
-0.10636476 -0.34201038 0.051818535
-0.10653563 -0.34211755 0.051819868
-0.10673343 -0.34223142 0.05189037
-0.1068996 -0.34234124 0.051853612
-0.10705937 -0.34244397 0.051837683
-0.10718019 -0.34254301 0.051681034
-0.1073706 -0.34265462 0.051735397
-0.1075445 -0.34276095 0.051755205
-0.1077189 -0.34286898 0.051765762
-0.1078759 -0.34297609 0.051708259
-0.10806108 -0.34309193 0.051711824
-0.10821141 -0.34319505 0.051653206
-0.10838582 -0.3433063 0.051641811
-0.10855153 -0.34341174 0.051632781
-0.10872419 -0.3435168 0.05165606
-0.10893743 -0.34363425 0.051768057
-0.10905443 -0.34373376 0.051591799
-0.1092535 -0.34384468 0.051687703
-0.10940181 -0.3439506 0.051601369
-0.10957658 -0.34406227 0.051588822
-0.10974766 -0.34417042 0.051584378
-0.10989076 -0.34427544 0.051481903
-0.11006282 -0.34438235 0.051490158
-0.11026144 -0.34449673 0.051560655
-0.11042181 -0.34460324 0.051521614
-0.11060505 -0.34471667 0.051533282
-0.11074755 -0.34482011 0.05143889
-0.11090557 -0.34492484 0.051402178
-0.11109084 -0.34503439 0.051448487
-0.1112702 -0.34514877 0.051437069
-0.11142636 -0.34525469 0.051384196
-0.11159514 -0.34536293 0.051369369
-0.1117745 -0.34547457 0.051376432
-0.11192414 -0.34558219 0.051284313
-0.11211118 -0.34569255 0.051332928
-0.11228928 -0.34580269 0.051344622
-0.11243932 -0.34590477 0.051291782
-0.1125958 -0.34601089 0.051238898
-0.11276992 -0.34612045 0.051237911
-0.11295332 -0.34623328 0.051254191
-0.11313578 -0.34634739 0.051257774
-0.11331122 -0.34645879 0.051249839
-0.11348484 -0.34657127 0.051226906
-0.11365753 -0.34667665 0.051247872
-0.11382379 -0.34678775 0.051203024
-0.11398409 -0.34689897 0.051131643
-0.11415276 -0.34700647 0.051121436
-0.11433857 -0.34712166 0.051131926
-0.11448802 -0.34722933 0.05103866
-0.11467205 -0.34734154 0.051061869
-0.11483215 -0.34744874 0.051017061
-0.11499972 -0.3475562 0.051002242
-0.11516573 -0.34766337 0.050982803
-0.11534921 -0.34777439 0.051011804
-0.11552569 -0.34788796 0.050993469
-0.11566699 -0.34799254 0.050886381
-0.1158632 -0.34811056 0.050922226
-0.11604628 -0.34822571 0.050921187
-0.11622633 -0.34833765 0.050929397
-0.11639887 -0.34844926 0.050907623
-0.11656897 -0.34856036 0.050878923
-0.11673672 -0.34866965 0.05085256
-0.11691481 -0.34878135 0.050853852
-0.11707923 -0.34889129 0.050809011
-0.11730508 -0.34901154 0.050955601
-0.11743061 -0.34911644 0.050779283
-0.11762367 -0.34923059 0.050827861
-0.11779717 -0.34934279 0.050806083
-0.1179893 -0.34946078 0.05082462
-0.11818285 -0.349574 0.050881285
-0.11831 -0.34967789 0.050718825
-0.11851224 -0.34979591 0.050780047
-0.027271703 -0.29117566 0.059546493
-0.027487144 -0.2913262 0.059443638
-0.027679112 -0.29144767 0.059437931
-0.027853161 -0.29154676 0.059507392
-0.028073065 -0.29170352 0.059381414
-0.02825902 -0.29181778 0.059398845
-0.028439995 -0.29192585 0.059437089
-0.028631851 -0.29204774 0.05942791
-0.028846342 -0.29219854 0.059319288
-0.029025529 -0.29230464 0.059363313
-0.029229619 -0.29244256 0.059297487
-0.029407233 -0.29254681 0.059347291
-0.029595196 -0.29266438 0.059350841
-0.029802643 -0.29280716 0.059266515
-0.03000458 -0.29294309 0.059205316
-0.030195978 -0.29306555 0.059190374
-0.03038818 -0.2931892 0.059170812
-0.030578654 -0.29331073 0.05915818
-0.030783512 -0.29345122 0.059078481
-0.03096227 -0.2935577 0.059117883
-0.03113525 -0.29365665 0.059183899
-0.031321567 -0.29377317 0.059187461
-0.031520024 -0.29390588 0.059133209
-0.031709865 -0.29402736 0.059118275
-0.03189588 -0.29414389 0.059120685
-0.032111675 -0.29430026 0.05897972
-0.032290727 -0.29440781 0.059013348
-0.032486893 -0.29453838 0.058963738
-0.032668777 -0.2946499 0.058982339
-0.03286824 -0.29478529 0.058914218
-0.033050347 -0.29489985 0.058913194
-0.03323248 -0.29501206 0.058928322
-0.033414491 -0.29512417 0.058943462
-0.03361918 -0.29526743 0.058844138
-0.03380518 -0.2953853 0.058837306
-0.033980999 -0.29548928 0.058881357
-0.034171239 -0.29561323 0.058851402
-0.034365978 -0.29574358 0.058797173
-0.034561332 -0.29587501 0.058738321
-0.034745082 -0.29599044 0.058738433
-0.034911498 -0.29608166 0.058828734
-0.035126604 -0.2962414 0.058662359
-0.035307214 -0.2963528 0.058676355
-0.03548491 -0.29646015 0.058705375
-0.035674982 -0.2965852 0.058667339
-0.035864189 -0.29670918 0.058632769
-0.036052529 -0.29683211 0.05860167
-0.036236659 -0.29694915 0.058592547
-0.036419787 -0.29706487 0.058588043
-0.036608793 -0.29718924 0.058550015
-0.036792401 -0.29730594 0.058540896
-0.036967035 -0.29740965 0.058581475
-0.037162002 -0.29754323 0.058506459
-0.03734228 -0.29765546 0.05851353
-0.037531096 -0.29778039 0.058470875
-0.037731837 -0.29792321 0.058357708
-0.037909985 -0.29803273 0.058374029
-0.038085673 -0.29813868 0.058404211
-0.038274586 -0.2982645 0.058355793
-0.038466938 -0.29839575 0.058285404
-0.038642116 -0.2984983 0.058336385
-0.038817178 -0.29860365 0.058367729
-0.039001312 -0.29872292 0.058343589
-0.039179415 -0.29883307 0.058355287
-0.03936265 -0.29895127 0.058334611
-0.039547764 -0.2990725 0.058301222
-0.039736357 -0.29919934 0.05824472
-0.039924134 -0.29932514 0.058191687
-0.04009131 -0.2994189 0.058268122
-0.040267393 -0.2995266 0.058287911
-0.04045878 -0.2996586 0.058208287
-0.040637072 -0.29977009 0.0582119
-0.040835515 -0.29991385 0.058082577
-0.041008353 -0.30001697 0.058119714
-0.041181684 -0.30012092 0.058153376
-0.041355655 -0.30022591 0.058182426
-0.041522972 -0.30031687 0.058278486
-0.041723009 -0.30046454 0.058129527
-0.041904774 -0.30058265 0.058103085
-0.042090677 -0.30070779 0.058046591
-0.042272873 -0.30082703 0.058014378
-0.042455364 -0.30094695 0.057978697
-0.042639315 -0.3010661 0.057954557
-0.042813033 -0.30117163 0.057978984
-0.042999335 -0.30129856 0.057912096
-0.043162219 -0.30138585 0.058013957
-0.043338019 -0.30152357 0.057829328
-0.043539781 -0.3016493 0.057836279
-0.043706656 -0.30176163 0.057785667
-0.043850381 -0.30184114 0.057858761
-0.044073779 -0.30198678 0.057822853
-0.044248641 -0.30209526 0.057832256
-0.044415057 -0.30218515 0.057931796
-0.044602998 -0.30231702 0.057838336
-0.044777583 -0.30242532 0.057847738
-0.044957604 -0.30254352 0.057813227
-0.04513824 -0.30265921 0.057798345
-0.045318194 -0.30277771 0.05776152
-0.045501351 -0.30290231 0.057696961
-0.045659989 -0.30299377 0.057752661
-0.045854636 -0.30312425 0.05769727
-0.046033211 -0.30324101 0.057666227
-0.04620523 -0.30334568 0.05768951
-0.046384573 -0.30346838 0.057621509
-0.046566989 -0.30358484 0.057608932
-0.04673899 -0.30368984 0.057629891
-0.04692224 -0.30381244 0.05757919
-0.04709715 -0.30392334 0.057572432
-0.047274109 -0.30403844 0.057546016
-0.047451556 -0.30415466 0.057513833
-0.047626801 -0.30426237 0.057530165
-0.047803216 -0.30437693 0.057504907
-0.047974709 -0.30448174 0.05752473
-0.048150986 -0.30459639 0.057498313
-0.04833284 -0.30471814 0.057447635
-0.04850642 -0.30482769 0.057444334
-0.048688017 -0.30494943 0.057392489
-0.048859607 -0.30505517 0.057406537
-0.049039029 -0.30517283 0.057373177
-0.049194172 -0.30527264 0.057357285
-0.049378835 -0.30538252 0.057398975
-0.049556978 -0.305498 0.057374865
-0.049735732 -0.30561507 0.05734266
-0.049910814 -0.3057293 0.057313949
-0.050086595 -0.30584025 0.057310648
-0.050260339 -0.30595195 0.057293497
-0.050435834 -0.30606779 0.05725554
-0.050610535 -0.30618215 0.05722452
-0.050765231 -0.30627725 0.057238661
-0.050963357 -0.30641419 0.057154387
-0.051134296 -0.30651489 0.057199612
-0.051310003 -0.30663261 0.057150114
-0.051476166 -0.30672759 0.057213854
-0.05163911 -0.30683762 0.057162113
-0.051830418 -0.30696547 0.057110205
-0.052002646 -0.30707571 0.057096533
-0.052178465 -0.30718923 0.057075899
-0.052351978 -0.30730316 0.057042573
-0.052527882 -0.30741739 0.057017326
-0.052697808 -0.30752259 0.057027914
-0.052870937 -0.30762997 0.057037324
-0.053042769 -0.30774048 0.057020187
-0.053216211 -0.30785555 0.056978777
-0.053390212 -0.30797252 0.056926973
-0.053564232 -0.30808321 0.056917906
-0.053725779 -0.30819336 0.056859244
-0.053906679 -0.30829626 0.056932129
-0.054070733 -0.30840716 0.056879234
-0.054251626 -0.30852437 0.056855109
-0.054415639 -0.30861393 0.056946576
-0.05459341 -0.30873701 0.05686935
-0.054761343 -0.30884591 0.056846447
-0.054940164 -0.30896556 0.056796931
-0.055108659 -0.30906901 0.056813296
-0.055274516 -0.30917215 0.056820445
-0.05544908 -0.30928728 0.056783646
-0.055622905 -0.30940038 0.05675726
-0.055793546 -0.30951166 0.056729726
-0.055963561 -0.30961248 0.056770347
-0.056135938 -0.30973029 0.056705847
-0.056308981 -0.30985111 0.056624021
-0.056476839 -0.30995399 0.056641549
-0.056647528 -0.31005779 0.056664832
-0.056817271 -0.31016782 0.056641933
-0.056982543 -0.31027111 0.056645609
-0.057154994 -0.31038219 0.056627307
-0.057303071 -0.31046972 0.056664586
-0.05745279 -0.31057447 0.056592129
-0.057643104 -0.31070578 0.056512512
-0.057808392 -0.31081063 0.056505807
-0.058006708 -0.31093198 0.056527786
-0.058176223 -0.31104428 0.056488704
-0.058337405 -0.31114346 0.056502804
-0.05851502 -0.31125674 0.056491405
-0.058682948 -0.31136271 0.056488149
-0.05885249 -0.31147707 0.05643522
-0.059001878 -0.31157258 0.056423977
-0.059179131 -0.31168562 0.056412578
-0.059348252 -0.31179971 0.056359652
-0.05952879 -0.31191686 0.056334369
-0.059694663 -0.31201354 0.056385402
-0.059860885 -0.31212887 0.056311697
-0.060037799 -0.31224254 0.056294531
-0.060204908 -0.31234753 0.056294732
-0.060372546 -0.3124564 0.056270689
-0.060530074 -0.31255412 0.056279037
-0.060679715 -0.31263548 0.056364805
-0.060878254 -0.31278718 0.056182362
-0.061033972 -0.31287149 0.056273874
-0.061189663 -0.31297934 0.056206003
-0.061359547 -0.31308708 0.056199271
-0.061539255 -0.31320676 0.056153204
-0.061696269 -0.31330284 0.056170795
-0.061869614 -0.31341887 0.056122459
-0.062051427 -0.3135331 0.056122582
-0.062217727 -0.31363687 0.056127414
-0.06238731 -0.31374595 0.056110293
-0.062553957 -0.31385693 0.056067765
-0.062722787 -0.31395531 0.056119941
-0.062889464 -0.31407037 0.056049697
-0.063058585 -0.31417611 0.056053363
-0.063224934 -0.31429082 0.055984281
-0.063390732 -0.31438985 0.056019135
-0.063544467 -0.31449234 0.055978999
-0.06372565 -0.31460619 0.055979125
-0.063891456 -0.3147144 0.055951633
-0.064047977 -0.31481272 0.055951901
-0.064204432 -0.31491387 0.055932529
-0.064394608 -0.31503335 0.055932611
-0.064556897 -0.31514347 0.05587741
-0.06471625 -0.31524423 0.05587304
-0.064858034 -0.31531399 0.056003898
-0.065001689 -0.31541359 0.055940717
-0.065165304 -0.31554908 0.055719204
-0.065340839 -0.31568867 0.055520717
-0.06553562 -0.31582057 0.055456083
-0.065707669 -0.31587785 0.055800434
-0.065887406 -0.31599912 0.055743985
-0.066042237 -0.3161076 0.055668037
-0.066182643 -0.31619713 0.055659156
-0.066369608 -0.31630898 0.055697367
-0.066534609 -0.31641227 0.055699892
-0.066711806 -0.31652322 0.055702351
-0.066885613 -0.31663427 0.055689823
-0.067021713 -0.31675044 0.055482313
-0.067216404 -0.31685519 0.055601325
-0.067384064 -0.31696117 0.055596918
-0.067538865 -0.31706282 0.05556716
-0.067687377 -0.3171612 0.055532824
-0.06785468 -0.31726798 0.055521488
-0.067995295 -0.31737027 0.055427141
-0.068201035 -0.31749049 0.055488348
-0.068375632 -0.31759524 0.055521999
-0.068527192 -0.31769383 0.055499196
-0.068703711 -0.31780505 0.055497043
-0.068848476 -0.31791556 0.055364564
-0.069008924 -0.31800643 0.055431798
-0.06917268 -0.31811151 0.055417009
-0.06934765 -0.31821495 0.055461053
-0.069528386 -0.31833547 0.055413827
-0.069685668 -0.31843749 0.055392161
-0.069855817 -0.31854472 0.05539003
-0.069997028 -0.31862843 0.055423889
-0.070156135 -0.31872478 0.055448387
-0.070338994 -0.31884852 0.055388458
-0.070496023 -0.31894031 0.055434912
-0.070678838 -0.31907341 0.055311464
-0.070842169 -0.31917804 0.055297829
-0.071011581 -0.3192957 0.055221803
-0.071171969 -0.3193886 0.055275168
-0.071339227 -0.31950167 0.055221099
-0.071488917 -0.31960148 0.055182137
-0.07164567 -0.31970266 0.055163927
-0.071801394 -0.31980589 0.055127233
-0.071969233 -0.31990007 0.055203669
-0.072143734 -0.32002145 0.055124152
-0.072322488 -0.32013389 0.055123135
-0.072486378 -0.32024401 0.055074856
-0.072623886 -0.32034263 0.054992076
-0.072793998 -0.3204481 0.055001505
-0.072975539 -0.32055515 0.055048976
-0.073128276 -0.32064801 0.055070065
-0.073316999 -0.32075736 0.055132516
-0.073468111 -0.32083932 0.055220589
-0.073606156 -0.3209224 0.055245213
-0.073761038 -0.32103264 0.055157714
-0.073917404 -0.32115999 0.054960497
-0.074090548 -0.32128683 0.05483824
-0.074268438 -0.32139328 0.054874197
-0.074436195 -0.32149577 0.05489403
-0.074621193 -0.32160482 0.054942645
-0.074778147 -0.32171634 0.054855134
-0.074925624 -0.32179838 0.054927066
-0.075108901 -0.32191011 0.054950275
-0.075253882 -0.32199588 0.054986417
-0.075393751 -0.32210553 0.054838944
-0.075545356 -0.3222113 0.054767631
-0.075711042 -0.32231641 0.054760925
-0.075869605 -0.32242996 0.054666474
-0.076037832 -0.32252643 0.054729037
-0.076191507 -0.32263982 0.054614991
-0.076366931 -0.32276005 0.054547012
-0.076561362 -0.3228904 0.054491621
-0.076733828 -0.32298255 0.054601524
-0.076898992 -0.32308781 0.054591343
-0.07706514 -0.32318705 0.054626204
-0.077230528 -0.32329214 0.054618347
-0.077381462 -0.32338709 0.054617487
-0.077548973 -0.32349008 0.054632708
-0.077697985 -0.32359168 0.05457874
-0.077854529 -0.32368606 0.054605566
-0.078015767 -0.32377627 0.054680884
-0.078167722 -0.32389811 0.054502156
-0.078355759 -0.32401949 0.054480303
-0.078514926 -0.3241162 0.054502498
-0.078673579 -0.32421792 0.054488901
-0.078822345 -0.32431456 0.054467268
-0.07900957 -0.32441905 0.054556288
-0.07916601 -0.32452258 0.054520756
-0.079314053 -0.32461983 0.054492198
-0.07947351 -0.32472509 0.054457806
-0.079634205 -0.32483351 0.054407232
-0.079801761 -0.32493672 0.054421298
-0.07996963 -0.32503569 0.054465394
-0.08013691 -0.32514331 0.054448273
-0.080288045 -0.32524213 0.05442201
-0.08045119 -0.32534462 0.054422237
-0.080615394 -0.3254464 0.054431707
-0.080789618 -0.32555327 0.054449189
-0.080965623 -0.32567066 0.054403156
-0.081127711 -0.32578149 0.054342177
-0.081283778 -0.32588837 0.054282397
-0.081453748 -0.3259941 0.05428952
-0.081611156 -0.32610372 0.054217014
-0.081769243 -0.32619804 0.054250769
-0.081933618 -0.32630709 0.054211728
-0.082085654 -0.32640138 0.054220103
-0.082243636 -0.32650673 0.054178786
-0.082414299 -0.32662281 0.05411892
-0.082574815 -0.3267231 0.054122634
-0.082733944 -0.32682765 0.054091699
-0.082894005 -0.32692477 0.054115053
-0.083046608 -0.32702231 0.054103792
-0.083214149 -0.32713282 0.054068193
-0.083386287 -0.3272478 0.054022171
-0.083540276 -0.32735795 0.053931221
-0.083685219 -0.32745561 0.05388651
-0.08385168 -0.32755318 0.053934075
-0.084013224 -0.32765311 0.053944703
-0.084174491 -0.32775646 0.053931091
-0.084337585 -0.32786861 0.053865492
-0.084497668 -0.32797238 0.053843796
-0.084672093 -0.32807651 0.053880922
-0.084835209 -0.3281728 0.053922731
-0.08500272 -0.32827684 0.05393102
-0.085162558 -0.32837775 0.053927802
-0.085317709 -0.32847741 0.053913061
-0.085491896 -0.32858512 0.053924784
-0.085667282 -0.32869545 0.053923793
-0.085822925 -0.32879797 0.053891726
-0.085992172 -0.32891348 0.053829547
-0.086152092 -0.32901445 0.053826336
-0.086303063 -0.32911846 0.053764269
-0.08646635 -0.3292183 0.053782977
-0.086643726 -0.3293367 0.053735781
-0.086793549 -0.32944375 0.053648308
-0.086935967 -0.3295359 0.053630173
-0.087104827 -0.32963413 0.053683504
-0.08729101 -0.32974136 0.053749435
-0.087444201 -0.32985002 0.053665407
-0.087599382 -0.32994971 0.053650677
-0.087776624 -0.33005422 0.053697024
-0.087928295 -0.33016309 0.053604923
-0.088102423 -0.3302713 0.053613178
-0.088260822 -0.33037555 0.053581096
-0.088426732 -0.33047789 0.053594012
-0.088585429 -0.3305847 0.053545758
-0.088732049 -0.33068651 0.053480253
-0.088889644 -0.33078036 0.053515162
-0.089060046 -0.33088961 0.053500347
-0.089235388 -0.33099261 0.053549014
-0.089384168 -0.33110154 0.053444225
-0.089548931 -0.33120179 0.053466391
-0.08971861 -0.33131129 0.053446952
-0.089872137 -0.33140889 0.053439151
-0.090051234 -0.3315115 0.053506281
-0.09020745 -0.33161372 0.05347883
-0.090355121 -0.33172247 0.05337058
-0.090544596 -0.33182839 0.053459592
-0.090705499 -0.3319371 0.053407863
-0.090851232 -0.33203134 0.053389713
-0.091016337 -0.33213931 0.053361058
-0.091170795 -0.33224177 0.053324383
-0.091331318 -0.33234805 0.053287677
-0.091507271 -0.33245194 0.053332876
-0.091673717 -0.3325597 0.053311147
-0.091828138 -0.33266455 0.053258292
-0.091989659 -0.332766 0.053258535
-0.092148781 -0.3328678 0.053246085
-0.092319883 -0.33297732 0.053232409
-0.092478611 -0.33308843 0.053155288
-0.092629574 -0.33319125 0.053101301
-0.092801109 -0.33329388 0.053136133
-0.092974812 -0.33340317 0.053135149
-0.093134299 -0.33350503 0.053123847
-0.093295284 -0.33361125 0.053089451
-0.093461841 -0.33371469 0.053097747
-0.093625188 -0.3338207 0.05307487
-0.093790226 -0.33392435 0.053075094
-0.093949147 -0.3340286 0.053045325
-0.094122648 -0.33413163 0.053085912
-0.094287209 -0.33424196 0.053038791
-0.094456732 -0.33434761 0.053044755
-0.094616756 -0.33445612 0.05299072
-0.094786383 -0.33455753 0.053025559
-0.094934508 -0.3346647 0.052930016
-0.095084377 -0.334759 0.052929174
-0.095277816 -0.33486554 0.053030871
-0.095435634 -0.3349742 0.052966449
-0.095601954 -0.33508447 0.052927397
-0.095759258 -0.33518478 0.052917261
-0.095931947 -0.33529684 0.052893184
-0.096099302 -0.33540913 0.052844882
-0.096215732 -0.33550078 0.052719496
-0.096385114 -0.33560273 0.052749716
-0.096560165 -0.3357127 0.052749883
-0.096733376 -0.33582678 0.052714258
-0.096887603 -0.33592331 0.052716844
-0.097049713 -0.33602768 0.052699752
-0.097226739 -0.33612984 0.052761115
-0.09738382 -0.33623242 0.052734822
-0.097524241 -0.33633715 0.052623149
-0.097702555 -0.33644149 0.052675266
-0.097899735 -0.33655173 0.052767698
-0.098060928 -0.33666217 0.052705575
-0.098221257 -0.33676678 0.052679259
-0.098371275 -0.3368656 0.052648377
-0.098529711 -0.33697024 0.052613996
-0.098691568 -0.33707869 0.05256803
-0.098861933 -0.33718351 0.052583233
-0.099008679 -0.33728418 0.052525815
-0.099205278 -0.33739713 0.052597463
-0.099357679 -0.33750358 0.052524995
-0.099540532 -0.33761263 0.052564379
-0.099708825 -0.33771956 0.052556496
-0.099863812 -0.33782423 0.052507114
-0.10003327 -0.33793303 0.052491128
-0.10018609 -0.33803397 0.052457929
-0.10034633 -0.33813155 0.052478965
-0.10051947 -0.33824062 0.052476831
-0.10065828 -0.33834279 0.052375562
-0.10085215 -0.33845112 0.052466862
-0.10101597 -0.33856168 0.052415118
-0.10115445 -0.33866552 0.052301154
-0.10129116 -0.33876738 0.052192967
-0.10147557 -0.33887726 0.052233495
-0.1016816 -0.33898506 0.052380167
-0.10184427 -0.33910087 0.052288007
-0.10201158 -0.33920819 0.052273199
-0.10217085 -0.33930975 0.052263051
-0.10231484 -0.33940852 0.052206803
-0.10248222 -0.33951247 0.052215092
-0.10267697 -0.33962545 0.05227866
-0.10282794 -0.33972996 0.052213132
-0.10299629 -0.33984098 0.052177534
-0.10316312 -0.33994851 0.052159261
-0.10333695 -0.34005326 0.052189466
-0.10350171 -0.34016237 0.052151572
-0.10368018 -0.34026939 0.052186366
-0.10382041 -0.34037125 0.052093178
-0.1039972 -0.34047821 0.052121043
-0.10416052 -0.34058726 0.05207739
-0.10435229 -0.3406975 0.052146755
-0.10448329 -0.34080005 0.052009732
-0.10466386 -0.34091091 0.052027181
-0.10481848 -0.34101093 0.052007828
-0.10499515 -0.34111661 0.052043784
-0.10516183 -0.34122455 0.052022051
-0.10530546 -0.34132668 0.051941551
-0.10546637 -0.34143558 0.051888671
-0.10565463 -0.34154448 0.051952276
-0.10581995 -0.34165716 0.051892444
-0.10599461 -0.34176621 0.051897228
-0.10616446 -0.34187153 0.051906656
-0.10633294 -0.34197992 0.051889531
-0.10649849 -0.34208322 0.051894367
-0.10667373 -0.34219414 0.051888756
-0.10684802 -0.342305 0.051879689
-0.10700236 -0.34241009 0.051824532
-0.10715824 -0.34251073 0.051806323
-0.10732445 -0.34262058 0.051769573
-0.10746911 -0.34272745 0.051661354
-0.10762963 -0.3428303 0.051647734
-0.10780148 -0.34293792 0.051650222
-0.10800692 -0.34305352 0.051741458
-0.10816283 -0.343162 0.051670123
-0.10832798 -0.34326881 0.051649559
-0.10852881 -0.34338254 0.051733881
-0.10869844 -0.34349319 0.051706351
-0.10884134 -0.34359521 0.051623546
-0.10901225 -0.34370306 0.051620271
-0.10917608 -0.34380835 0.051604331
-0.10935582 -0.34391922 0.051618323
-0.10951869 -0.34402594 0.051588528
-0.10969576 -0.34413651 0.051593304
-0.10984518 -0.34424108 0.051520843
-0.11002392 -0.34435198 0.051530231
-0.11019519 -0.34446025 0.051525794
-0.11036792 -0.34457028 0.051515572
-0.11053419 -0.34467778 0.051495001
-0.11070074 -0.34478682 0.05146518
-0.11090779 -0.34490448 0.051549479
-0.11107405 -0.34501216 0.051527746
-0.11123505 -0.3451218 0.051470242
-0.11140029 -0.34522933 0.051445052
-0.11156592 -0.34533983 0.051401377
-0.11174095 -0.34544638 0.051424641
-0.11193636 -0.34556675 0.051440857
-0.11208939 -0.34567362 0.051368386
-0.11224252 -0.34577763 0.05131555
-0.11239682 -0.34588185 0.05126616
-0.11255632 -0.34598851 0.051222533
-0.1127415 -0.34609735 0.051273458
-0.1129154 -0.34620827 0.051262077
-0.11310794 -0.34632295 0.051304869
-0.11327714 -0.34643584 0.051260024
-0.11345942 -0.34655002 0.051262457
-0.11363179 -0.34665951 0.051254548
-0.1137991 -0.34676799 0.05123166
-0.11396089 -0.34687677 0.051183391
-0.11414766 -0.34698796 0.051225066
-0.11429625 -0.34708998 0.051166479
-0.11448056 -0.34720764 0.05115388
-0.11468212 -0.34732217 0.051235892
-0.11481334 -0.34742332 0.051109266
-0.11497799 -0.34753287 0.051067907
-0.11513823 -0.34763879 0.051032353
-0.11533692 -0.34775305 0.051103991
-0.11551508 -0.34786701 0.051090274
-0.11565397 -0.34796974 0.050985541
-0.11583734 -0.34808356 0.050994903
-0.11601677 -0.34819525 0.051001966
-0.11620049 -0.34830931 0.051011316
-0.11636721 -0.3484183 0.050982654
-0.116541 -0.34853154 0.050955109
-0.11669801 -0.3486397 0.050890703
-0.11690016 -0.34875819 0.050948456
-0.11707672 -0.34887353 0.050918587
-0.11724095 -0.34898216 0.050881848
-0.11738333 -0.34908178 0.0508129
-0.11757727 -0.34919867 0.050846454
-0.11774694 -0.34930867 0.050823543
-0.11791064 -0.34941727 0.050784506
-0.11808206 -0.34952903 0.050756969
-0.11824809 -0.34963825 0.050723694
-0.11842627 -0.34975174 0.050713442
-0.027368888 -0.29124406 0.059496783
-0.027583811 -0.29139411 0.059395149
-0.027776953 -0.29151493 0.059398726
-0.027960662 -0.29162624 0.059426591
-0.028184872 -0.29178637 0.059296038
-0.02835311 -0.2918784 0.05938866
-0.028570693 -0.29203063 0.059283547
-0.028748374 -0.29213473 0.059334546
-0.028941847 -0.29227024 0.059239961
-0.029146615 -0.2923955 0.059263095
-0.029333476 -0.29250932 0.059287488
-0.029536773 -0.29264656 0.059222877
-0.029650241 -0.29269376 0.059386224
-0.029835857 -0.29282689 0.059274361
-0.030098498 -0.29299501 0.059253305
-0.030220184 -0.29305503 0.05936465
-0.030435622 -0.29321817 0.059176415
-0.030683365 -0.29337454 0.059171602
-0.030886006 -0.29350987 0.059117377
-0.031078894 -0.29363495 0.059090935
-0.031254981 -0.29373568 0.059158102
-0.031469934 -0.29389018 0.05902645
-0.031657275 -0.29400599 0.059039287
-0.031858787 -0.29414314 0.058967754
-0.032038737 -0.29424936 0.059014112
-0.032226738 -0.29436883 0.059005007
-0.032420147 -0.29449323 0.05898549
-0.032613233 -0.2946198 0.058949791
-0.032787897 -0.29472169 0.059003122
-0.032990243 -0.29486108 0.05892003
-0.033179089 -0.29497987 0.058918998
-0.033355761 -0.29508471 0.058960773
-0.033566002 -0.29523301 0.058851074
-0.033751559 -0.29535025 0.058846608
-0.033939917 -0.29546893 0.058844429
-0.034114737 -0.29557157 0.058893129
-0.034307107 -0.29569599 0.058868989
-0.034508146 -0.29583526 0.058781296
-0.034700911 -0.29596061 0.058752526
-0.034887165 -0.29607967 0.058738813
-0.035075784 -0.2961995 0.058729708
-0.035263874 -0.29632142 0.058704436
-0.035451472 -0.29644012 0.058698796
-0.035638966 -0.29656148 0.058674678
-0.03583071 -0.29668638 0.058644772
-0.036017783 -0.29680747 0.058620654
-0.036214158 -0.29693937 0.058563009
-0.036389273 -0.29704356 0.058602475
-0.036582902 -0.29717186 0.058557536
-0.036765888 -0.29728764 0.058551922
-0.036956612 -0.29741207 0.058520861
-0.037146192 -0.2975378 0.058475956
-0.037335858 -0.29766104 0.058448367
-0.037509087 -0.29776305 0.058494769
-0.037701022 -0.29788992 0.058452152
-0.03788064 -0.29800156 0.058460414
-0.038066644 -0.29811993 0.05845017
-0.03824465 -0.29822937 0.058466516
-0.038441624 -0.29836452 0.058389239
-0.038621441 -0.29847696 0.058392875
-0.038799509 -0.29858387 0.058426548
-0.038990326 -0.2987133 0.058362007
-0.039177652 -0.2988376 0.05831711
-0.039346479 -0.29893973 0.058343895
-0.039467968 -0.29899928 0.058457553
-0.039707027 -0.29918581 0.058211453
-0.039916452 -0.2993145 0.058231093
-0.040100362 -0.29943445 0.058201239
-0.04028704 -0.29955581 0.058173656
-0.040469125 -0.29967326 0.058153033
-0.040640328 -0.29977039 0.058223695
-0.040826589 -0.29989475 0.058174189
-0.041012421 -0.30001539 0.058147773
-0.041201338 -0.30014446 0.058077462
-0.041392419 -0.30027404 0.05801291
-0.041549549 -0.30035195 0.058154099
-0.041731182 -0.30046636 0.058151945
-0.041918803 -0.30059412 0.058085106
-0.042103432 -0.30071384 0.058059849
-0.042294353 -0.30084759 0.057966441
-0.042467237 -0.30095157 0.05799783
-0.042636987 -0.30105036 0.058051188
-0.042811163 -0.30115312 0.058096424
-0.043003619 -0.30129039 0.057985678
-0.043200564 -0.30143219 0.057863358
-0.043371834 -0.30153397 0.057902846
-0.043550886 -0.30164558 0.057908799
-0.043739215 -0.30177701 0.057820015
-0.043910611 -0.30187562 0.057881437
-0.044091657 -0.3019948 0.057844654
-0.044266649 -0.30210355 0.057852942
-0.044442296 -0.30221352 0.05785545
-0.044628769 -0.3023392 0.057797864
-0.044806484 -0.30245322 0.057781875
-0.044987455 -0.30256945 0.057764728
-0.04514087 -0.30265898 0.057811234
-0.045356352 -0.30281907 0.057643786
-0.045525368 -0.3029179 0.057693683
-0.04570039 -0.30302784 0.057693876
-0.045879729 -0.30314595 0.057657104
-0.046066493 -0.30327415 0.057583347
-0.046229027 -0.30336109 0.057686381
-0.046412647 -0.30348375 0.057636887
-0.046584576 -0.30358851 0.057659041
-0.046767302 -0.30370992 0.05761417
-0.046944126 -0.30382442 0.057591267
-0.047121957 -0.30394107 0.05755797
-0.047296055 -0.30405059 0.057557024
-0.047481835 -0.30417904 0.0574775
-0.047631674 -0.30428013 0.057430483
-0.047807831 -0.30438548 0.057466485
-0.048000887 -0.3045027 0.057494298
-0.048162937 -0.30459747 0.057541918
-0.048344184 -0.30471799 0.057497054
-0.048534714 -0.30484876 0.057422109
-0.048711274 -0.30496475 0.057387665
-0.048862901 -0.3050569 0.05740878
-0.049025133 -0.30516204 0.057387121
-0.049229227 -0.30528924 0.057394087
-0.049395338 -0.30540311 0.057329673
-0.049590878 -0.30552697 0.057322837
-0.049768053 -0.30564576 0.057272218
-0.049944364 -0.30575788 0.057263181
-0.050114837 -0.30586225 0.057281889
-0.050289445 -0.305976 0.057254374
-0.050464831 -0.30609179 0.057216469
-0.050640989 -0.30620432 0.057203963
-0.050814755 -0.30631688 0.057181083
-0.050989185 -0.30642575 0.057185907
-0.051162414 -0.30653745 0.057166491
-0.051338702 -0.30665109 0.057147056
-0.051509585 -0.30675757 0.057153054
-0.051691376 -0.30688506 0.057063155
-0.051862106 -0.30699161 0.057067998
-0.052033775 -0.30710062 0.057060137
-0.05220814 -0.30721661 0.057016462
-0.052377999 -0.30732757 0.056987822
-0.052545421 -0.307414 0.057115085
-0.052728653 -0.30754748 0.056990538
-0.052899629 -0.30765572 0.056984991
-0.053070012 -0.30776259 0.056986369
-0.053240247 -0.30786917 0.056988902
-0.05341607 -0.30798456 0.056955613
-0.053578414 -0.30808991 0.056932796
-0.053760089 -0.30820864 0.056901783
-0.05393257 -0.30832243 0.056865051
-0.054104395 -0.30842763 0.056883752
-0.054276023 -0.30853951 0.056856252
-0.054451533 -0.30865592 0.056814887
-0.054619797 -0.30875835 0.056837067
-0.054790154 -0.30886722 0.056824595
-0.054963369 -0.30898523 0.056762446
-0.055137422 -0.30909848 0.056736097
-0.055304099 -0.3091965 0.056781389
-0.055464726 -0.30929944 0.056767806
-0.05564297 -0.30941054 0.056773767
-0.055817582 -0.30952671 0.056730092
-0.05598712 -0.30963472 0.056719936
-0.056153033 -0.30973926 0.056717873
-0.056327991 -0.30985785 0.056659184
-0.056497343 -0.30996612 0.05664672
-0.056667712 -0.31007841 0.056611147
-0.056824591 -0.31017947 0.056594133
-0.057005059 -0.31029132 0.056604698
-0.05717846 -0.31040636 0.05656334
-0.057348035 -0.31051713 0.056534704
-0.057515651 -0.31062037 0.0565488
-0.057685267 -0.31073201 0.056514394
-0.057853296 -0.31083739 0.056515791
-0.058022764 -0.31094927 0.056479074
-0.058167316 -0.3110339 0.056521013
-0.058307637 -0.31112355 0.056511015
-0.058531497 -0.31127715 0.056423187
-0.058698818 -0.31138071 0.056433819
-0.058857758 -0.31149673 0.056324422
-0.059033819 -0.31160408 0.056346551
-0.059206296 -0.31170696 0.056383722
-0.059371084 -0.31181267 0.056368966
-0.059521675 -0.31191644 0.056306951
-0.059698507 -0.31202906 0.056296755
-0.059877783 -0.31214014 0.056307323
-0.060045522 -0.31224889 0.056284472
-0.06021275 -0.31235495 0.056277782
-0.060380168 -0.31246266 0.056260712
-0.060550038 -0.31256834 0.056267869
-0.060716905 -0.31267297 0.056269273
-0.060884897 -0.31278682 0.056212928
-0.061051928 -0.31289396 0.056198172
-0.061219104 -0.31300303 0.056170702
-0.06138492 -0.31310037 0.056217138
-0.061554991 -0.31321079 0.056193121
-0.061721895 -0.31331936 0.056167964
-0.061889041 -0.31343183 0.056117401
-0.062051877 -0.31352881 0.056153469
-0.06220039 -0.31363025 0.056098387
-0.062373199 -0.31374443 0.0560605
-0.062548548 -0.31385371 0.056066476
-0.062721476 -0.31397426 0.055985861
-0.062887371 -0.31407607 0.056002282
-0.063034795 -0.31416574 0.056022257
-0.063179404 -0.31426099 0.055992607
-0.063369952 -0.31438375 0.055971943
-0.063544899 -0.31448784 0.056011401
-0.063719943 -0.31459677 0.056018535
-0.063885763 -0.3147195 0.055892926
-0.064051427 -0.31481826 0.055928972
-0.06420169 -0.314915 0.055913143
-0.064382486 -0.31503439 0.055874053
-0.064550914 -0.31514478 0.055843115
-0.064710461 -0.31523833 0.05588844
-0.064839274 -0.31531629 0.055908516
-0.065021828 -0.315456 0.055738941
-0.065199696 -0.31556076 0.055786472
-0.065377079 -0.31567353 0.055777423
-0.065545328 -0.31577921 0.055777662
-0.065698333 -0.31587446 0.05578376
-0.065868869 -0.31598958 0.055729713
-0.066040225 -0.31609517 0.055743791
-0.066179976 -0.31616142 0.055889688
-0.066322021 -0.3162663 0.055783834
-0.066509917 -0.31639764 0.055693895
-0.066680983 -0.31650457 0.055697583
-0.06686601 -0.31662983 0.055636536
-0.067030273 -0.31673658 0.055612542
-0.06719479 -0.31684127 0.055603571
-0.067349605 -0.31692368 0.055704348
-0.067482203 -0.31701714 0.055635493
-0.067652538 -0.31714457 0.055497151
-0.067834735 -0.31726226 0.055475369
-0.068006799 -0.31736216 0.055531025
-0.068181284 -0.31746733 0.055561244
-0.068346307 -0.31758341 0.055477213
-0.068500631 -0.31768477 0.055447508
-0.068675309 -0.31778887 0.055485815
-0.068840355 -0.31788945 0.055506855
-0.068989925 -0.31799462 0.055430986
-0.069136456 -0.31808442 0.055446353
-0.069296956 -0.3181881 0.055427007
-0.069463767 -0.31829458 0.055415709
-0.069650657 -0.31841812 0.05537428
-0.069810577 -0.31852284 0.055345692
-0.069964103 -0.31861344 0.055385277
-0.070112713 -0.31871852 0.055305943
-0.07026656 -0.31881872 0.055282019
-0.070441626 -0.31893209 0.055259116
-0.070601828 -0.3190349 0.055244401
-0.070776507 -0.3191489 0.055215731
-0.070943952 -0.31924281 0.055292189
-0.071098633 -0.31934032 0.055290189
-0.071277805 -0.31945249 0.055292688
-0.071425736 -0.31956536 0.055157922
-0.071575075 -0.31965691 0.055173282
-0.071741447 -0.31977096 0.055108868
-0.071912944 -0.31985718 0.05525459
-0.072085679 -0.31997421 0.055197068
-0.072221041 -0.32008594 0.055016186
-0.072389178 -0.32021081 0.054885946
-0.0725879 -0.32033038 0.054921821
-0.072740175 -0.32040861 0.05503992
-0.072899662 -0.32050383 0.055073701
-0.073081374 -0.32061797 0.055073872
-0.073244087 -0.32074335 0.054917097
-0.073420011 -0.32084584 0.054971568
-0.073572755 -0.32093853 0.054993831
-0.073745467 -0.32103986 0.055042543
-0.073913597 -0.32114851 0.055022001
-0.074050494 -0.32124606 0.054943882
-0.074225917 -0.32134995 0.054986812
-0.074381724 -0.32145736 0.054922454
-0.074547052 -0.32156953 0.054866128
-0.074700579 -0.32167345 0.054815639
-0.074859381 -0.32176995 0.054837875
-0.07502012 -0.32187584 0.054804672
-0.075183913 -0.32197171 0.05485227
-0.075337201 -0.32208127 0.054762527
-0.075512715 -0.322191 0.054766193
-0.075684756 -0.32230502 0.054725997
-0.075852267 -0.32240224 0.054780509
-0.076000266 -0.3225008 0.054742757
-0.076171331 -0.32261029 0.054729119
-0.07635162 -0.32272524 0.054717753
-0.076497406 -0.32282069 0.054691553
-0.076647416 -0.3229115 0.054714989
-0.076845989 -0.32303762 0.054705821
-0.077007078 -0.32312208 0.054819264
-0.077160321 -0.3232398 0.054674089
-0.077317014 -0.32333392 0.054703265
-0.077462003 -0.32342991 0.054670148
-0.077631325 -0.3235504 0.054574534
-0.077798463 -0.3236537 0.054586321
-0.077969767 -0.32375789 0.054609649
-0.078150421 -0.3238768 0.054572869
-0.078315727 -0.32398182 0.054565042
-0.078474298 -0.32408363 0.05455032
-0.078634024 -0.32418889 0.054517124
-0.078805082 -0.32429343 0.054536968
-0.07894551 -0.32438383 0.05452235
-0.079110846 -0.32448441 0.054544549
-0.079258546 -0.32459047 0.054454833
-0.079415537 -0.32468906 0.054455131
-0.079591826 -0.32480234 0.054438002
-0.079764582 -0.3249141 0.054416284
-0.079938054 -0.32502118 0.054429196
-0.080103338 -0.32513011 0.054394804
-0.080270566 -0.32523361 0.054405451
-0.080415577 -0.32532859 0.054379255
-0.080562025 -0.32543042 0.054312646
-0.08071886 -0.3255291 0.054311782
-0.08088579 -0.32563666 0.054293562
-0.081051551 -0.3257488 0.054239541
-0.081204519 -0.32584229 0.054257184
-0.081371799 -0.32594958 0.054242417
-0.081555426 -0.32606184 0.054263353
-0.081705183 -0.32615742 0.05425331
-0.081892982 -0.32627472 0.054258063
-0.082057133 -0.32638019 0.054242149
-0.08219742 -0.3264775 0.054180194
-0.082352184 -0.32657382 0.054186281
-0.082522355 -0.32667953 0.054194584
-0.082666583 -0.32677451 0.054164939
-0.082839027 -0.32688949 0.054120123
-0.083013922 -0.32699966 0.054118019
-0.083169818 -0.32710236 0.054085992
-0.083344534 -0.32721603 0.05405964
-0.083496071 -0.32731068 0.054063432
-0.083646074 -0.32741269 0.054010652
-0.083819762 -0.32752675 0.053977374
-0.083973065 -0.32762387 0.053971924
-0.084123671 -0.32772544 0.053924911
-0.084295318 -0.32782099 0.054008272
-0.084458306 -0.32792044 0.054028172
-0.08461374 -0.32802948 0.053951122
-0.084766209 -0.32813016 0.053917952
-0.084934756 -0.32823059 0.053955141
-0.085095167 -0.3283436 0.053872287
-0.08526516 -0.32843742 0.053960275
-0.085431181 -0.32855123 0.053895861
-0.085582376 -0.32865232 0.053854629
-0.085752264 -0.32875255 0.053898741
-0.085932642 -0.32886705 0.053890828
-0.0860845 -0.32896787 0.053854208
-0.086242601 -0.32907823 0.053779446
-0.086389326 -0.3291719 0.05376941
-0.086560078 -0.32927796 0.053777721
-0.086715177 -0.32938045 0.053743385
-0.086894222 -0.32948971 0.053765509
-0.087050222 -0.32959193 0.053736947
-0.087204449 -0.32969186 0.053716473
-0.087368265 -0.32980293 0.053661313
-0.08752431 -0.32990229 0.053652383
-0.087702282 -0.33001202 0.053666424
-0.087866902 -0.33011183 0.053690933
-0.088033088 -0.33022219 0.053650767
-0.088170312 -0.33032659 0.05352762
-0.088324502 -0.33042374 0.05352563
-0.088491954 -0.33052295 0.053566292
-0.088657796 -0.33062798 0.053560771
-0.088838086 -0.3307322 0.053622141
-0.089013249 -0.33084562 0.053599246
-0.089154042 -0.33093828 0.05357077
-0.089318886 -0.33104625 0.053541005
-0.089474209 -0.33114856 0.053508982
-0.089652598 -0.33125618 0.05353919
-0.089822955 -0.33136559 0.053523254
-0.089990534 -0.33147049 0.053525805
-0.090136036 -0.33157223 0.053455729
-0.090294994 -0.33167633 0.05342716
-0.090462521 -0.33177882 0.053445876
-0.090617977 -0.33189094 0.053348035
-0.090767488 -0.33198687 0.053334519
-0.090935402 -0.33209184 0.053338222
-0.091109209 -0.33219829 0.053356908
-0.091272995 -0.3323088 0.053305216
-0.091437355 -0.3324168 0.053273141
-0.091583028 -0.33251339 0.053238858
-0.091722056 -0.33261332 0.053153809
-0.091913238 -0.33271977 0.053246304
-0.092082895 -0.33282241 0.053273097
-0.092250928 -0.33293 0.053259473
-0.092419878 -0.33303288 0.053281654
-0.092559844 -0.33313712 0.053171195
-0.092723534 -0.33323839 0.053181849
-0.092889287 -0.33334404 0.053171705
-0.09304437 -0.33344638 0.053138532
-0.093210638 -0.333552 0.053130701
