# .PCD v0.7 - Point Cloud Data file format
VERSION 0.7
FIELDS x y z
SIZE 4 4 4
TYPE F F F
COUNT 1 1 1
WIDTH 1312
HEIGHT 1
VIEWPOINT 0 0 0 1 0 0 0
POINTS 1312
DATA ascii
-0.27007172 -0.35142452 0.058465872
-0.27029574 -0.3514547 0.058449797
-0.27049825 -0.35147303 0.058500689
-0.27072737 -0.35150626 0.058467288
-0.27096635 -0.35154513 0.058401562
-0.27117747 -0.35156849 0.058423594
-0.27141657 -0.35160771 0.058355555
-0.27161869 -0.35162616 0.058405302
-0.2718643 -0.35166934 0.058314182
-0.27208531 -0.3516987 0.058301572
-0.27232727 -0.35174015 0.05821969
-0.27251741 -0.35175377 0.0582937
-0.27274022 -0.35178447 0.058273014
-0.27296105 -0.35181409 0.058258101
-0.27316326 -0.35183302 0.058304388
-0.27341613 -0.35188156 0.058180951
-0.27362353 -0.35190365 0.058208756
-0.27384308 -0.35193297 0.058195002
-0.27406991 -0.35196671 0.058155857
-0.27427116 -0.35199088 0.058162943
-0.27451897 -0.35203183 0.058090266
-0.27474895 -0.35206783 0.058037259
-0.27494216 -0.35208562 0.058083586
-0.27511397 -0.35209614 0.058163442
-0.27536178 -0.35213202 0.058127649
-0.2755836 -0.35216352 0.058100052
-0.27579895 -0.35219121 0.058094397
-0.27602941 -0.35222822 0.05803448
-0.27623749 -0.35225171 0.058053058
-0.2764706 -0.35229063 0.057981603
-0.27669081 -0.35232177 0.057955161
-0.27690029 -0.35234636 0.057966825
-0.27712232 -0.35237885 0.057932306
-0.27733234 -0.35240585 0.057926666
-0.2775529 -0.35243767 0.057895623
-0.27776358 -0.35246336 0.057900354
-0.27798992 -0.35249907 0.057846226
-0.27818388 -0.35251427 0.057912141
-0.27839717 -0.35254186 0.057905339
-0.27860266 -0.35256451 0.057927392
-0.27883476 -0.35260445 0.057847869
-0.27906191 -0.35264134 0.05778566
-0.27928126 -0.35267335 0.057752304
-0.27949649 -0.35270277 0.057733964
-0.2797035 -0.35272688 0.05774679
-0.27992511 -0.35276073 0.057701901
-0.28013325 -0.35278577 0.057708953
-0.28033978 -0.35281187 0.057706796
-0.2805694 -0.35285148 0.057627283
-0.28074369 -0.35286862 0.057661019
-0.2809163 -0.35289094 0.057655569
-0.28115439 -0.3529346 0.057554103
-0.28138766 -0.35296044 0.057578336
-0.28163606 -0.35299671 0.05754023
-0.28184116 -0.35302043 0.057554215
-0.28205591 -0.35305089 0.057527803
-0.28227544 -0.3530848 0.057480622
-0.28247541 -0.35310519 0.057514235
-0.28268629 -0.35313326 0.05750167
-0.28290486 -0.35316688 0.057455644
-0.28311941 -0.35319778 0.057425782
-0.28331056 -0.35321438 0.057479028
-0.28351834 -0.35324064 0.057476867
-0.28368261 -0.35326254 0.057466842
-0.28394145 -0.35330567 0.057388343
-0.28416708 -0.35333845 0.057354957
-0.28434452 -0.35334525 0.057467073
-0.28457803 -0.35339087 0.05734719
-0.2847853 -0.3534174 0.057342723
-0.28499553 -0.35344616 0.057324406
-0.28520629 -0.35347551 0.057302628
-0.28541917 -0.35350651 0.057270452
-0.28562427 -0.35353181 0.057272915
-0.28583774 -0.35356352 0.057236139
-0.28604874 -0.35359353 0.057209745
-0.28624719 -0.35361403 0.05724106
-0.28644559 -0.35363689 0.057255078
-0.28666025 -0.35367003 0.057209074
-0.28687006 -0.35369956 0.05718499
-0.28708667 -0.35373452 0.057127438
-0.28728867 -0.35375816 0.057139143
-0.28749296 -0.35378367 0.057139296
-0.28770065 -0.35381198 0.057122141
-0.28791144 -0.35384288 0.057088837
-0.28812709 -0.3538779 0.057030141
-0.28834042 -0.35391119 0.056981836
-0.28854847 -0.35394031 0.056958921
-0.2887404 -0.35395637 0.057016771
-0.28894067 -0.35398185 0.057013497
-0.28913304 -0.3540087 0.056992956
-0.28928956 -0.35401621 0.057080965
-0.2895481 -0.35406181 0.056984019
-0.28975371 -0.35408956 0.056969181
-0.28995591 -0.35411447 0.056971647
-0.29016709 -0.3541418 0.056964859
-0.29036981 -0.35417551 0.056903921
-0.29058364 -0.35420537 0.056880977
-0.29078725 -0.35422921 0.05689266
-0.29096928 -0.35424796 0.05692175
-0.29113919 -0.35427833 0.056855209
-0.29138392 -0.35430813 0.056860924
-0.29161519 -0.3543514 0.056756046
-0.29180819 -0.35436901 0.056803524
-0.29200968 -0.35439435 0.056802541
-0.2922205 -0.35442826 0.056747328
-0.29240483 -0.35443798 0.056844428
-0.2926099 -0.35446975 0.05679962
-0.29281625 -0.35450882 0.056702927
-0.29302591 -0.3545334 0.056714579
-0.29323417 -0.35456574 0.056668602
-0.29340929 -0.35457873 0.056733463
-0.29363143 -0.3546125 0.056689728
-0.29382867 -0.35463458 0.056708358
-0.2940194 -0.35465968 0.056699365
-0.29420599 -0.35468391 0.056692686
-0.29440588 -0.35470253 0.05673898
-0.29462469 -0.35475263 0.056573059
-0.29485235 -0.3547866 0.056532748
-0.29505536 -0.35481513 0.056509849
-0.2952545 -0.35483983 0.056511186
-0.29545394 -0.3548682 0.056486007
-0.29564556 -0.35488534 0.056535792
-0.29585427 -0.35492024 0.05647137
-0.29605401 -0.35494596 0.05646579
-0.29623368 -0.35496065 0.056522548
-0.2964634 -0.3550083 0.056384239
-0.29664886 -0.35502592 0.056424841
-0.29685801 -0.35505885 0.056375403
-0.29705408 -0.35508111 0.056391738
-0.29725361 -0.35510728 0.05638269
-0.2974351 -0.35512772 0.0563991
-0.29757985 -0.35513565 0.056473333
-0.29784313 -0.35519069 0.056311801
-0.29802763 -0.35520011 0.056411196
-0.29823923 -0.3552444 0.056281053
-0.2984117 -0.35527712 0.056199506
-0.29857185 -0.3552731 0.056375109
-0.29880318 -0.35533011 0.056169935
-0.29904872 -0.35535875 0.056184869
-0.29923981 -0.35537994 0.056204692
-0.29943436 -0.35540137 0.056225654
-0.29963726 -0.35543317 0.056178544
-0.29983187 -0.35545889 0.05616837
-0.30003217 -0.35548785 0.056139726
-0.30021086 -0.35550588 0.056171134
-0.30042866 -0.35554099 0.056113586
-0.30062661 -0.35557157 0.056071121
-0.30082527 -0.35559905 0.056051701
-0.30101669 -0.35562137 0.056063451
-0.30121502 -0.35564864 0.056045193
-0.30140558 -0.35566992 0.056063857
-0.30156946 -0.35568577 0.056097642
-0.30175462 -0.35571757 0.05603449
-0.30200228 -0.35575989 0.055951428
-0.30219436 -0.3557837 0.055952802
-0.30235979 -0.35579738 0.056003872
-0.30257675 -0.35582909 0.055970531
-0.30274823 -0.35586104 0.055893607
-0.30293235 -0.35587835 0.055935364
-0.30314612 -0.35590583 0.055929713
-0.30334407 -0.35594904 0.055795018
-0.3035098 -0.35597333 0.05576884
-0.30369645 -0.35597956 0.0558936
-0.30390283 -0.35600108 0.055924866
-0.30413154 -0.35604259 0.055830374
-0.30433032 -0.35605732 0.055904333
-0.30453014 -0.35609508 0.05581113
-0.30472079 -0.35612345 0.055777926
-0.30490583 -0.35614812 0.05576665
-0.30511457 -0.35617417 0.055766784
-0.30530673 -0.35620007 0.05575316
-0.30550233 -0.35622638 0.055739526
-0.30569249 -0.356249 0.055747822
-0.30588731 -0.35627413 0.055742256
-0.30607852 -0.35631096 0.055647947
-0.30627561 -0.3563346 0.055655055
-0.30644661 -0.35635263 0.05567959
-0.30665818 -0.35637242 0.055728126
-0.30685803 -0.35640812 0.055649906
-0.30705503 -0.35643855 0.055607446
-0.30724868 -0.35646918 0.055560395
-0.30743912 -0.35648665 0.055606723
-0.30762959 -0.35651106 0.055602338
-0.30782789 -0.3565453 0.05553335
-0.30801824 -0.35656986 0.055527817
-0.30820999 -0.35659015 0.05555455
-0.30839843 -0.35662568 0.05546717
-0.30858999 -0.35664579 0.055495054
-0.30875674 -0.35667023 0.055468872
-0.30895516 -0.35669088 0.055499032
-0.30916688 -0.35671955 0.055483021
-0.30936289 -0.35674259 0.055493589
-0.30955693 -0.35677773 0.055414248
-0.30972919 -0.35680017 0.055407643
-0.30990911 -0.35681629 0.055454034
-0.31012803 -0.35685676 0.055358429
-0.31032389 -0.3568801 0.055366702
-0.31050965 -0.35690343 0.055365797
-0.31066906 -0.35692838 0.055329274
-0.31087074 -0.35694927 0.055360578
-0.3110835 -0.35697317 0.055380292
-0.3112427 -0.35699806 0.055343773
-0.31143177 -0.35703304 0.055260997
-0.31162503 -0.35706016 0.055239305
-0.3118279 -0.35708568 0.055238318
-0.31203178 -0.35711506 0.055209655
-0.31221497 -0.35714331 0.055170722
-0.31239948 -0.35716397 0.055188265
-0.31260169 -0.35718763 0.055199966
-0.31278121 -0.3572301 0.055053823
-0.31298542 -0.35724863 0.055104703
-0.31315452 -0.35726136 0.055166133
-0.31334001 -0.35728687 0.055149086
-0.31353953 -0.3573148 0.055127364
-0.31374255 -0.35734361 0.05510217
-0.31391782 -0.35737023 0.055067878
-0.31409904 -0.3573927 0.055069305
-0.31428778 -0.35741907 0.055048782
-0.31448022 -0.35744801 0.055013262
-0.31467566 -0.35747492 0.054995015
-0.31487045 -0.35749766 0.055006742
-0.31505904 -0.35752517 0.054978155
-0.31526765 -0.35754901 0.054994434
-0.31544486 -0.35756811 0.055016629
-0.31564057 -0.35759997 0.054962639
-0.31582156 -0.35762286 0.054960608
-0.31598791 -0.35763556 0.05501974
-0.3162044 -0.35767207 0.054950666
-0.31639931 -0.35769847 0.054935884
-0.3165907 -0.3577241 0.054923426
-0.31679231 -0.35774785 0.054933969
-0.31696987 -0.35777694 0.054883525
-0.31715059 -0.35779807 0.054894168
-0.3173418 -0.35782447 0.054875944
-0.3175399 -0.35785586 0.054827712
-0.31772748 -0.35788321 0.054799132
-0.31790459 -0.35790405 0.054808643
-0.3181023 -0.35793883 0.05473505
-0.3182967 -0.35796198 0.05474332
-0.31848067 -0.35798433 0.054748192
-0.31867224 -0.3579956 0.054840639
-0.3188284 -0.35801712 0.054826044
-0.31901824 -0.35805675 0.054709829
-0.31921855 -0.35809332 0.05462585
-0.31944317 -0.35812926 0.054568268
-0.31961387 -0.35814172 0.054633148
-0.31980065 -0.35816914 0.054603413
-0.31999391 -0.35820052 0.054550596
-0.32017201 -0.35821199 0.054629274
-0.32035628 -0.35823107 0.05465835
-0.32055598 -0.35826546 0.054589357
-0.32077 -0.35829759 0.05455026
-0.32095966 -0.35832661 0.054511294
-0.32115057 -0.35834807 0.054528818
-0.32132724 -0.35837013 0.054529104
-0.32151118 -0.35839149 0.054540884
-0.32170403 -0.35842109 0.054500751
-0.32188728 -0.35844538 0.054490633
-0.32205799 -0.35846224 0.054523237
-0.32225654 -0.35849714 0.05444964
-0.32246843 -0.35852078 0.054470509
-0.32264805 -0.35855854 0.054358955
-0.32280022 -0.35859108 0.054260224
-0.32301819 -0.35860518 0.054356001
-0.32321441 -0.35863331 0.054329678
-0.3233991 -0.35865194 0.054362211
-0.32360038 -0.35867518 0.054376215
-0.3237744 -0.35869387 0.054398429
-0.32397801 -0.3587321 0.054305207
-0.324159 -0.35876179 0.054253597
-0.32433033 -0.35878792 0.054219328
-0.32455164 -0.35880578 0.054290876
-0.3247225 -0.35882345 0.054317713
-0.32489789 -0.35885781 0.054226939
-0.32508382 -0.35888323 0.054211039
-0.32528642 -0.35891232 0.054183543
-0.32546651 -0.35892546 0.054251835
-0.32563984 -0.35895482 0.054195657
-0.32583511 -0.35898378 0.05416242
-0.32604501 -0.35901251 0.054144103
-0.32622638 -0.35903957 0.054112095
-0.32640198 -0.35906324 0.054099701
-0.32661718 -0.35908079 0.054167826
-0.32680395 -0.35910425 0.054166913
-0.32697466 -0.35913044 0.0541315
-0.32716087 -0.35915494 0.054122526
-0.32736668 -0.35918429 0.054096155
-0.32756832 -0.35921437 0.054060586
-0.32773453 -0.35923478 0.054063238
-0.32792524 -0.35925779 0.054069225
-0.32810697 -0.35928363 0.05404643
-0.32829157 -0.35931078 0.054016709
-0.32848486 -0.35934201 0.053965043
-0.32866234 -0.35936841 0.053934202
-0.32883805 -0.35939759 0.053881466
-0.32904464 -0.35941899 0.053913895
-0.32924303 -0.3594417 0.053929061
-0.32942772 -0.35946837 0.053902805
-0.32959965 -0.35949156 0.053890433
-0.32979548 -0.35952944 0.053792641
-0.33000213 -0.35954562 0.053863101
-0.33019441 -0.35957199 0.053846031
-0.3303698 -0.3595956 0.053833645
-0.33055377 -0.35962299 0.053801622
-0.33073869 -0.35964385 0.053818014
-0.33093667 -0.35967267 0.05378823
-0.33113152 -0.35969558 0.053798806
-0.33131531 -0.35972309 0.053765625
-0.33151734 -0.35974658 0.053778477
-0.33170375 -0.35978517 0.053666897
-0.33188316 -0.35980836 0.053661406
-0.33205581 -0.35983053 0.053657103
-0.33224192 -0.35985026 0.053682718
-0.33243564 -0.35987476 0.053680621
-0.3326183 -0.35989884 0.053671658
-0.33282626 -0.3599202 0.05370523
-0.33300355 -0.35994613 0.053677849
-0.33319068 -0.35997391 0.053645808
-0.33339983 -0.36000288 0.053625189
-0.33357087 -0.36003131 0.053573627
-0.33376065 -0.36005184 0.053596914
-0.33396199 -0.36007255 0.053629369
-0.33414891 -0.36010459 0.053566203
-0.33432606 -0.36013046 0.053538822
-0.33451715 -0.36015797 0.053512521
-0.33471778 -0.36017969 0.053536914
-0.33490086 -0.36020744 0.053501427
-0.33508706 -0.3602359 0.053463638
-0.33527675 -0.36026084 0.053454638
-0.3354733 -0.3602792 0.053499788
-0.33564961 -0.36031336 0.05341132
-0.33583489 -0.36033887 0.053394273
-0.33602375 -0.36036465 0.05337837
-0.33620718 -0.36038452 0.053400524
-0.33640054 -0.36040631 0.053418037
-0.33659226 -0.36043322 0.05339634
-0.33676788 -0.36046746 0.053306714
-0.33695653 -0.36049703 0.053263143
-0.33715758 -0.3605226 0.053259857
-0.3373467 -0.36054131 0.053295828
-0.33752948 -0.36056221 0.053309921
-0.33773217 -0.36058325 0.05334121
-0.33792615 -0.36061507 0.053286079
-0.33812585 -0.3606354 0.053319693
-0.33829632 -0.36067328 0.053198963
-0.33848563 -0.36069563 0.053208418
-0.33866856 -0.36071673 0.05322136
-0.33882999 -0.36075819 0.05306609
-0.33903998 -0.36077699 0.053120404
-0.3392033 -0.36081031 0.053026229
-0.33940795 -0.36082718 0.053089794
-0.33961189 -0.36084172 0.053169496
-0.33980072 -0.36087099 0.053128224
-0.3399924 -0.36089808 0.053105388
-0.34018022 -0.36092198 0.053102165
-0.34037396 -0.36095059 0.053070094
-0.34054893 -0.36097795 0.05303004
-0.34074664 -0.36100075 0.053044062
-0.34095752 -0.36102298 0.053074159
-0.34113008 -0.3610521 0.053019132
-0.34132656 -0.3610673 0.053087346
-0.34152162 -0.36110079 0.053020686
-0.34170148 -0.36112767 0.052988682
-0.34188175 -0.36115143 0.052979738
-0.3420656 -0.36118117 0.052930422
-0.34223151 -0.36122555 0.052757841
-0.34240192 -0.36126119 0.052653246
-0.34256947 -0.36129582 0.052553281
-0.34275866 -0.36131361 0.05259617
-0.34296322 -0.36132699 0.052685097
-0.3431772 -0.36133727 0.0528051
-0.34338638 -0.36135092 0.052896313
-0.34359819 -0.36136314 0.053000182
-0.34380379 -0.3613795 0.053068351
-0.34402347 -0.36139777 0.053135302
-0.34419551 -0.36144009 0.05298344
-0.3443386 -0.36148682 0.052772924
-0.34453145 -0.36150602 0.05280887
-0.34469455 -0.36154801 0.052651294
-0.34492487 -0.36155024 0.052844997
-0.34513426 -0.36158001 0.052818619
-0.34529224 -0.36162469 0.052636847
-0.34547436 -0.36164787 0.052633651
-0.34569311 -0.36166984 0.052672938
-0.34587595 -0.36169517 0.052654754
-0.34606865 -0.36171988 0.052650359
-0.34625584 -0.36174765 0.05261831
-0.34645197 -0.36177531 0.052595451
-0.34663519 -0.36179817 0.052595712
-0.34684256 -0.3618198 0.052626975
-0.34703368 -0.36184791 0.052596077
-0.34721646 -0.36187118 0.052592881
-0.34740373 -0.36188525 0.052661136
-0.34758505 -0.36192319 0.052549571
-0.34778067 -0.36194903 0.052539404
-0.3479794 -0.36197558 0.052526899
-0.34816867 -0.36200476 0.052486785
-0.34835643 -0.36203244 0.052455895
-0.34854817 -0.36205149 0.052491844
-0.34875271 -0.36208192 0.052456263
-0.34894392 -0.36210579 0.052456491
-0.34913242 -0.36213106 0.052444037
-0.34930521 -0.36215749 0.052408613
-0.34949595 -0.36218604 0.052374247
-0.34969482 -0.36221498 0.05234446
-0.34988794 -0.36223388 0.052382711
-0.35006994 -0.36225817 0.05237145
-0.35028183 -0.36228955 0.052335832
-0.35047284 -0.36231181 0.052347578
-0.35064867 -0.36234322 0.052278701
-0.35084561 -0.36237112 0.052254692
-0.35102454 -0.36239487 0.052244592
-0.35123283 -0.36241773 0.05226779
-0.35143113 -0.36244106 0.052278347
-0.35160044 -0.36246723 0.05224178
-0.35180837 -0.36248848 0.052276511
-0.35201228 -0.36251962 0.052235164
-0.35219365 -0.36254856 0.05218932
-0.35236341 -0.36256865 0.05219771
-0.35256138 -0.36259842 0.052161012
-0.35274097 -0.36262619 0.052122094
-0.35292062 -0.36265004 0.052111991
-0.35310817 -0.36267644 0.052090328
-0.35334405 -0.36269629 0.052160647
-0.35353488 -0.36272532 0.052122824
-0.35371956 -0.36275879 0.052046996
-0.35390735 -0.36278334 0.052039154
-0.35408714 -0.36280546 0.052041739
-0.3542673 -0.36283505 0.051990144
-0.35446906 -0.36285976 0.051993769
-0.35466534 -0.36288109 0.052017022
-0.35486105 -0.36290649 0.052010298
-0.35503036 -0.3629404 0.051917247
-0.35523731 -0.36295962 0.051965807
-0.35543656 -0.36299112 0.051917568
-0.35561806 -0.36301297 0.051923599
-0.35581887 -0.36303663 0.051934157
-0.35599494 -0.36306792 0.051866427
-0.35614979 -0.36309811 0.05178728
-0.35638976 -0.36311626 0.051873721
-0.35657242 -0.36314332 0.051842865
-0.35679892 -0.36317384 0.051826768
-0.35699689 -0.36319715 0.051837329
-0.35716209 -0.36322358 0.051795021
-0.35737732 -0.36324778 0.051814724
-0.35755083 -0.36327654 0.051763151
-0.35772923 -0.36330006 0.051754214
-0.35789287 -0.36333057 0.051680788
-0.35809314 -0.36335164 0.051709782
-0.35831615 -0.36337 0.051779024
-0.35849839 -0.36340097 0.05171933
-0.35872301 -0.36342412 0.05175513
-0.35890868 -0.36346075 0.05165739
-0.35909873 -0.363484 0.051661074
-0.35928607 -0.36350989 0.051642865
-0.3594895 -0.36353546 0.051641874
-0.35969278 -0.36356446 0.051615518
-0.35987571 -0.3635903 0.051593874
-0.36006737 -0.36361659 0.051576801
-0.36026016 -0.36364257 0.051563174
-0.3604697 -0.36366478 0.051592134
-0.36066228 -0.36369419 0.051553149
-0.36081922 -0.3637253 0.051469382
-0.3610712 -0.36374715 0.051539622
-0.36123767 -0.36378008 0.051451199
-0.36144307 -0.36379752 0.051511295
-0.36162591 -0.36383012 0.051440082
-0.36182135 -0.36385563 0.051432215
-0.36201981 -0.36388025 0.051433548
-0.36221328 -0.36390647 0.05141877
-0.36240396 -0.36393356 0.051394783
-0.36261606 -0.36395738 0.051414497
-0.3627874 -0.36398572 0.051364094
-0.36298707 -0.36401647 0.051321611
-0.36319482 -0.36404023 0.05133789
-0.36336336 -0.36406788 0.051289812
-0.3635816 -0.36408865 0.051337168
-0.36379281 -0.36411929 0.051306162
-0.36397269 -0.3641468 0.051269542
-0.36418346 -0.36416698 0.051314626
-0.36435345 -0.36419892 0.051236562
-0.36457059 -0.36421892 0.05128853
-0.36478806 -0.36425257 0.051241361
-0.36496505 -0.36427957 0.051205903
-0.36514854 -0.36430624 0.0511785
-0.3653335 -0.36433107 0.051166065
-0.36553574 -0.36435711 0.05116047
-0.3657662 -0.36438289 0.0511824
-0.36596948 -0.36441177 0.051157199
-0.36614701 -0.36443439 0.051154025
-0.366319 -0.36446294 0.051102471
-0.36656067 -0.36449191 0.051111661
-0.36674985 -0.36451739 0.051098064
-0.36690855 -0.36454809 0.051018894
-0.36712375 -0.36457261 0.051036287
-0.36732444 -0.36459956 0.051022626
-0.36753929 -0.36462575 0.051027346
-0.36771244 -0.36464989 0.051009212
-0.36788869 -0.36468041 0.050947249
-0.368126 -0.36471245 0.050929949
-0.36832154 -0.36473384 0.050952047
-0.36851588 -0.36476412 0.05090845
-0.36870703 -0.36479098 0.050886765
-0.36890796 -0.36481684 0.05088117
-0.36913899 -0.36483955 0.050926164
-0.36932585 -0.36486906 0.050881445
-0.3695122 -0.36489311 0.050875917
-0.36970359 -0.36492014 0.050853085
-0.36992234 -0.36495033 0.050832421
-0.37014303 -0.36497459 0.050856702
-0.37030467 -0.36500201 0.050804038
-0.37051588 -0.36503139 0.05078226
-0.37074655 -0.36506304 0.050761536
-0.37092453 -0.36508399 0.050771043
-0.37112543 -0.36511049 0.050760835
-0.37132767 -0.36513811 0.05074371
-0.37151977 -0.36516541 0.050719723
-0.37173477 -0.36519289 0.050715216
-0.26672363 -0.35093689 0.058970384
-0.26694164 -0.35096082 0.058994681
-0.26716092 -0.35098711 0.059002828
-0.2673924 -0.35102156 0.058962494
-0.26763299 -0.35105938 0.05890597
-0.26787114 -0.35109767 0.058843698
-0.26808849 -0.351125 0.058842629
-0.26830602 -0.35115248 0.058840409
-0.26853156 -0.35118273 0.058825467
-0.26873994 -0.35120544 0.058849819
-0.26896769 -0.35123706 0.058826789
-0.26920247 -0.35127431 0.058769144
-0.26939365 -0.35128614 0.05885699
-0.2696119 -0.35131451 0.058848999
-0.2698555 -0.35135698 0.058761332
-0.27007946 -0.35138875 0.058733724
-0.27032444 -0.35143059 0.058651805
-0.27052799 -0.35145128 0.058686562
-0.27077556 -0.35149488 0.058594253
-0.2709958 -0.35152507 0.058574729
-0.27119955 -0.35154435 0.058619846
-0.27138236 -0.35155359 0.05871927
-0.27164835 -0.35160819 0.058563463
-0.27185667 -0.351632 0.058579732
-0.27206984 -0.35165688 0.058592528
-0.27230328 -0.35169521 0.058525659
-0.27252978 -0.35172793 0.05849342
-0.27273664 -0.35175124 0.058512013
-0.27294037 -0.351771 0.058553673
-0.27317992 -0.35181344 0.058462564
-0.27341157 -0.35184965 0.058409549
-0.27362525 -0.3518773 0.058402732
-0.27382666 -0.35189596 0.058450177
-0.27405497 -0.35193238 0.058392562
-0.27427098 -0.35195985 0.058389191
-0.27445972 -0.35197851 0.058425166
-0.27471092 -0.3520216 0.058339767
-0.27493438 -0.3520557 0.058294859
-0.27515385 -0.35208565 0.058276486
-0.27535501 -0.35210648 0.058307782
-0.27558032 -0.35214019 0.058267482
-0.27579492 -0.35216936 0.058250286
-0.27599016 -0.35218486 0.058315054
-0.27621382 -0.35221979 0.058264375
-0.27644491 -0.35225752 0.05819983
-0.2766715 -0.35229263 0.058150295
-0.27687582 -0.35231403 0.058180429
-0.27708948 -0.35234323 0.058162086
-0.27731121 -0.35237569 0.05812756
-0.27752942 -0.35240799 0.058090754
-0.27774096 -0.35243428 0.05809202
-0.27794012 -0.35245472 0.058124475
-0.27816343 -0.35248861 0.058080725
-0.27841216 -0.352539 0.057939988
-0.27863172 -0.35257083 0.057907782
-0.27883744 -0.3525959 0.057912547
-0.27905655 -0.35262769 0.057880335
-0.27923796 -0.35263705 0.057977457
-0.27945194 -0.35266569 0.057963729
-0.27966753 -0.35269547 0.057943068
-0.27986932 -0.35271624 0.057975519
-0.28008926 -0.35275114 0.057921402
-0.28030452 -0.35278103 0.057899594
-0.28050765 -0.35280499 0.057910129
-0.28072256 -0.35283482 0.057888322
-0.28093323 -0.35286194 0.057882678
-0.28115514 -0.35289678 0.057830859
-0.28136274 -0.35292411 0.057820622
-0.28157482 -0.35295251 0.057806894
-0.28177786 -0.35297692 0.057813972
-0.28198794 -0.3530041 0.057807181
-0.2822043 -0.35303792 0.057757687
-0.28241482 -0.35306564 0.057747435
-0.28262487 -0.35309315 0.057738334
-0.28285712 -0.35313639 0.057634581
-0.2830494 -0.35315377 0.057683222
-0.28325945 -0.35318157 0.057671815
-0.28346714 -0.35321003 0.057653502
-0.28367391 -0.35323572 0.057654791
-0.28388956 -0.35326785 0.057616845
-0.28408208 -0.35328335 0.057679322
-0.28427961 -0.35331386 0.057636838
-0.2845102 -0.35334823 0.057596512
-0.28472707 -0.35338178 0.057549324
-0.28492367 -0.3534005 0.05759218
-0.28513712 -0.35343412 0.057541549
-0.28527117 -0.3534247 0.057732303
-0.28548172 -0.35345858 0.057677072
-0.28574058 -0.35353157 0.057380632
-0.28596398 -0.35355681 0.057400294
-0.28617418 -0.35357437 0.057463832
-0.28635895 -0.3536036 0.05741911
-0.28660804 -0.35364404 0.057351016
-0.28680325 -0.35366225 0.057396185
-0.28697562 -0.35367239 0.057479508
-0.28721213 -0.35371569 0.05737919
-0.28741765 -0.35374215 0.057373572
-0.28763407 -0.35377741 0.05731371
-0.28782403 -0.35379162 0.057383116
-0.28803518 -0.35382545 0.05732904
-0.28824657 -0.35385704 0.057291105
-0.28846115 -0.35389143 0.057235867
-0.28864816 -0.35390341 0.05731912
-0.28885105 -0.35394391 0.05720859
-0.28908354 -0.35397804 0.05717171
-0.28928548 -0.35400513 0.057158034
-0.28947878 -0.35402247 0.057207819
-0.28969035 -0.35405523 0.057161819
-0.28989884 -0.35408553 0.057130817
-0.29010126 -0.35411081 0.057130981
-0.29031026 -0.3541418 0.057095367
-0.290512 -0.35416669 0.057097834
-0.29071364 -0.35419154 0.057100311
-0.29091087 -0.35421538 0.057106264
-0.29110408 -0.35424408 0.057073027
-0.29128319 -0.35425758 0.057137877
-0.29149184 -0.35430309 0.056996182
-0.29170889 -0.35431677 0.057094283
-0.29191196 -0.35436913 0.056897268
-0.29209897 -0.35439295 0.056894049
-0.29227373 -0.35439691 0.057024639
-0.29256123 -0.35445815 0.056839898
-0.29272696 -0.35447425 0.056873679
-0.29292282 -0.35448888 0.056945361
-0.29315534 -0.35452616 0.056885414
-0.29334617 -0.3545481 0.056899481
-0.29351354 -0.3545658 0.056922875
-0.29375437 -0.35460857 0.0568306
-0.2939505 -0.35462973 0.056855004
-0.2941615 -0.35466239 0.056809004
-0.29435554 -0.35469106 0.056776926
-0.29456958 -0.35472712 0.056708999
-0.29474807 -0.35474369 0.056750782
-0.29496497 -0.35477015 0.056755494
-0.29515734 -0.35479116 0.056777608
-0.29534504 -0.35481396 0.056782462
-0.29556867 -0.35485092 0.056716789
-0.2957353 -0.35486189 0.056788616
-0.2959421 -0.35490826 0.056638863
-0.29616547 -0.35492873 0.056693111
-0.29636872 -0.35495839 0.056662142
-0.29656604 -0.35498524 0.056646179
-0.29676864 -0.35501447 0.056617517
-0.29697108 -0.35504371 0.056588851
-0.29716951 -0.35506865 0.056587882
-0.29736099 -0.35508955 0.056610011
-0.29755846 -0.35511357 0.056614809
-0.29776433 -0.35514718 0.056557298
-0.29796126 -0.35517082 0.056564406
-0.29816177 -0.35520235 0.056517299
-0.2983655 -0.35523409 0.056471337
-0.29856163 -0.35525715 0.056481905
-0.29875627 -0.35527846 0.056504019
-0.29895684 -0.35531077 0.056451146
-0.29915538 -0.35533699 0.056440949
-0.29934534 -0.35535675 0.056470003
-0.29954931 -0.3553898 0.056414805
-0.29974917 -0.35542202 0.056361943
-0.29994738 -0.35544837 0.056350593
-0.30014551 -0.35547468 0.056339249
-0.30033857 -0.35549879 0.05633945
-0.30052283 -0.35550737 0.056444637
-0.30072272 -0.35554469 0.056354873
-0.3009313 -0.35558099 0.056280058
-0.30112326 -0.35559976 0.056318317
-0.3013199 -0.35562477 0.05631505
-0.30151594 -0.35565352 0.056284107
-0.30171287 -0.35567921 0.056276232
-0.30187657 -0.35570389 0.056245446
-0.30206585 -0.35574189 0.056140751
-0.30228114 -0.35575724 0.056225017
-0.30244994 -0.35578036 0.056210358
-0.30264392 -0.35581183 0.056157514
-0.30283654 -0.35582718 0.05622115
-0.30304354 -0.35587358 0.056071386
-0.30323949 -0.35589412 0.056100409
-0.30342737 -0.35591218 0.056139845
-0.30366397 -0.35595012 0.056078732
-0.30384737 -0.35597664 0.056052469
-0.30401707 -0.35599196 0.056095451
-0.30420041 -0.35601863 0.056068029
-0.30441096 -0.35604715 0.056052011
-0.30462959 -0.35607842 0.05602327
-0.30483755 -0.35610849 0.05599343
-0.30503047 -0.35612988 0.056013241
-0.30523625 -0.35615653 0.056006461
-0.3054274 -0.35618073 0.056004368
-0.30561897 -0.35621157 0.05595386
-0.30579802 -0.35623202 0.055967968
-0.30598611 -0.35625693 0.055957817
-0.30617696 -0.35628107 0.055955738
-0.30638382 -0.35631686 0.055883233
-0.30657253 -0.35634357 0.055860404
-0.30675557 -0.35637227 0.055817999
-0.30696639 -0.35640398 0.055778921
-0.3071804 -0.35642233 0.055840127
-0.30737087 -0.35644656 0.055836894
-0.30753759 -0.35646972 0.055819936
-0.30774269 -0.35651129 0.055703629
-0.30793464 -0.356525 0.05577879
-0.30814344 -0.35655361 0.055760473
-0.3083249 -0.35657325 0.055782638
-0.30849168 -0.35659736 0.055758763
-0.30872366 -0.35663408 0.05570228
-0.30891934 -0.35665616 0.055719767
-0.30911264 -0.3566806 0.055717677
-0.30929115 -0.35670984 0.055667222
-0.30948621 -0.35673055 0.055693939
-0.30968776 -0.35675952 0.055666428
-0.30986077 -0.35676593 0.055777423
-0.31001773 -0.35680127 0.055662509
-0.31023175 -0.35683766 0.055592276
-0.31046256 -0.35687488 0.055531189
-0.3106451 -0.35689893 0.055522226
-0.31083283 -0.35691839 0.055551287
-0.31103867 -0.35695249 0.055490322
-0.31121898 -0.35698068 0.05544908
-0.31140101 -0.35700387 0.055445887
-0.31159338 -0.35702804 0.055444937
-0.31176209 -0.35704023 0.055509835
-0.31198403 -0.35707363 0.055468395
-0.31215566 -0.35710895 0.055367243
-0.3123613 -0.35713306 0.055378914
-0.31256363 -0.35715738 0.055385996
-0.31272691 -0.35717443 0.055410568
-0.31291267 -0.35720044 0.055390052
-0.31311983 -0.35723153 0.05535214
-0.3133083 -0.35725522 0.05535122
-0.31349984 -0.35727739 0.055364124
-0.31367457 -0.35730061 0.055354036
-0.313885 -0.35733306 0.055309191
-0.31404811 -0.35734913 0.055340681
-0.31424811 -0.35738137 0.055287808
-0.3144429 -0.35740331 0.055305302
-0.31462884 -0.35743457 0.055246741
-0.31482184 -0.35746878 0.055173155
-0.3150301 -0.35748988 0.055209033
-0.31522828 -0.35751259 0.05522421
-0.31539264 -0.35753956 0.055177279
-0.3155871 -0.35755956 0.05520862
-0.31577137 -0.35758051 0.055223856
-0.31595558 -0.35760018 0.055248316
-0.31614369 -0.35762587 0.055232406
-0.31633952 -0.35766503 0.055125371
-0.31655541 -0.35769719 0.055087414
-0.31673947 -0.35771686 0.055111885
-0.31691 -0.3577435 0.055073004
-0.31712899 -0.35777321 0.055055782
-0.31732014 -0.35780025 0.055032942
-0.31749034 -0.35782322 0.055020578
-0.31768483 -0.35785064 0.05499772
-0.31786525 -0.35788375 0.054920733
-0.3180528 -0.35790053 0.0549694
-0.31822288 -0.35792157 0.054970868
-0.31842062 -0.35794896 0.054951455
-0.31861129 -0.3579767 0.054922849
-0.3187916 -0.35800079 0.054911584
-0.31898624 -0.35801986 0.054949839
-0.31919628 -0.3580665 0.054801222
-0.31937376 -0.35808057 0.054860309
-0.3195715 -0.35810447 0.054866254
-0.31976223 -0.35812795 0.054868784
-0.3199493 -0.35815272 0.054858647
-0.32011542 -0.35817581 0.054841682
-0.32032606 -0.35820812 0.054797996
-0.32051569 -0.35823843 0.054749794
-0.32072026 -0.35826287 0.054758012
-0.3208892 -0.35828871 0.054723747
-0.32107657 -0.35831019 0.054737817
-0.32126719 -0.3583335 0.054741494
-0.32144389 -0.35835537 0.054742943
-0.32163003 -0.35838303 0.054710902
-0.32181397 -0.3584041 0.054724988
-0.3220132 -0.35843641 0.054670971
-0.32218799 -0.35846597 0.054614775
-0.32238597 -0.35848781 0.054635711
-0.32256758 -0.35850403 0.054683246
-0.32275474 -0.35852674 0.054688089
-0.32293856 -0.35856155 0.05460187
-0.32313004 -0.35859382 0.054540977
-0.32332921 -0.35861188 0.054590732
-0.32349956 -0.35864213 0.054525331
-0.32368809 -0.35866013 0.054565914
-0.32387921 -0.35868147 0.054584585
-0.32406819 -0.35870934 0.05455368
-0.32425353 -0.3587473 0.054445531
-0.32443991 -0.35877168 0.054437708
-0.32463396 -0.35879481 0.054445978
-0.3248271 -0.35882032 0.054435812
-0.32502198 -0.35884151 0.054459073
-0.32521558 -0.35887498 0.05439125
-0.32538813 -0.35889745 0.054384641
-0.3255685 -0.35891855 0.054395288
-0.32576311 -0.35894063 0.05441162
-0.32594946 -0.35896498 0.054403797
-0.3261351 -0.35899085 0.05438444
-0.32632542 -0.35901445 0.054385811
-0.32650346 -0.35904077 0.054356117
-0.3266772 -0.35906827 0.054313749
-0.32686535 -0.3590962 0.054281697
-0.3270556 -0.35911977 0.054283079
-0.32725289 -0.35914409 0.054285567
-0.32743573 -0.35916787 0.05427891
-0.32762837 -0.35919398 0.054264128
-0.32781351 -0.35921359 0.054289743
-0.328008 -0.35924309 0.054251894
-0.32819328 -0.35926905 0.05423139
-0.32836282 -0.35929021 0.054231703
-0.32855418 -0.35931835 0.054200791
-0.32875234 -0.35934752 0.054168694
-0.32891995 -0.35937774 0.054100994
-0.32910559 -0.35940281 0.054087404
-0.32931292 -0.35941732 0.054170556
-0.32950628 -0.35944226 0.054164998
-0.32967791 -0.35947725 0.054066148
-0.3298586 -0.35949853 0.054075643
-0.33003983 -0.35951909 0.054090902
-0.33022335 -0.35954723 0.054053105
-0.33041725 -0.35957128 0.054054458
-0.33060625 -0.35959169 0.054077748
-0.33077353 -0.35964194 0.053863615
-0.33095694 -0.35967478 0.053791232
-0.33113271 -0.35971254 0.053676218
-0.33132651 -0.35972628 0.053752519
-0.33148822 -0.35978171 0.053495754
-0.33168787 -0.35979778 0.053560503
-0.3318893 -0.35980713 0.053675972
-0.33205441 -0.35984764 0.05353104
-0.33223554 -0.35986817 0.053546291
-0.33240709 -0.35990489 0.053434767
-0.33259979 -0.35992533 0.053461492
-0.3327933 -0.35994047 0.053527422
-0.33298084 -0.35996276 0.053535722
-0.33316109 -0.35998905 0.053508326
-0.33336043 -0.36000684 0.053560384
-0.33354163 -0.36003211 0.053541049
-0.33373439 -0.36005318 0.05356317
-0.33392406 -0.36007354 0.053587604
-0.33411571 -0.36009192 0.053628173
-0.33430389 -0.36011416 0.053637631
-0.33449596 -0.36013639 0.053650528
-0.33469462 -0.36015204 0.053717583
-0.33489072 -0.36017051 0.053761587
-0.33507526 -0.36019289 0.053766456
-0.33526891 -0.36021408 0.053788561
-0.33545491 -0.36024281 0.053748455
-0.33563232 -0.36027601 0.053668022
-0.33582905 -0.36029062 0.053740852
-0.33603442 -0.36030111 0.053851694
-0.3362262 -0.36032456 0.053855367
-0.33641908 -0.3603507 0.053840585
-0.33660096 -0.36038682 0.053742841
-0.33679506 -0.36040822 0.053763796
-0.33696663 -0.36044621 0.053643044
-0.33716503 -0.36046734 0.053669743
-0.33736002 -0.36049849 0.053620368
-0.33754328 -0.36052594 0.05358718
-0.33773404 -0.36054358 0.053632367
-0.33792999 -0.36056378 0.05366369
-0.33810821 -0.36059883 0.053570583
-0.33827052 -0.36063358 0.053464856
-0.33848941 -0.36064497 0.053581402
-0.33867219 -0.36067933 0.053497486
-0.33885491 -0.36071035 0.053437781
-0.33903697 -0.36073861 0.053397682
-0.33920404 -0.3607659 0.053350747
-0.33939323 -0.36078858 0.053357895
-0.33957079 -0.3608202 0.053288996
-0.3397654 -0.36083883 0.053330701
-0.33993295 -0.3608779 0.053198434
-0.34011394 -0.36089462 0.053241372
-0.34031269 -0.36091042 0.053307272
-0.34053129 -0.36092985 0.053365003
-0.34070453 -0.3609674 0.053248852
-0.34089795 -0.36098745 0.053279035
-0.3410902 -0.36101714 0.053237736
-0.34127077 -0.36104631 0.053189576
-0.34146619 -0.36106801 0.053209376
-0.34165084 -0.36109439 0.053185418
-0.34183553 -0.3611179 0.053182211
-0.3420282 -0.36114448 0.053163968
-0.34222075 -0.36116835 0.053165328
-0.34239712 -0.36119479 0.053133335
-0.34257779 -0.36122382 0.053086326
-0.34277254 -0.36124638 0.053099208
-0.34297293 -0.36126807 0.053123593
-0.34318128 -0.36129016 0.053152554
-0.34335834 -0.36131889 0.053104416
-0.34353232 -0.36134422 0.053078197
-0.34372595 -0.36137044 0.053063411
-0.3439042 -0.36139837 0.05302218
-0.34410313 -0.36141878 0.053054646
-0.34427342 -0.36145157 0.052970793
-0.34446314 -0.36147508 0.052972168
-0.34466633 -0.36149067 0.053043813
-0.34486073 -0.36151415 0.053049784
-0.34503037 -0.36154968 0.052945174
-0.34523663 -0.36156881 0.052993748
-0.34542236 -0.36159989 0.052936338
-0.34562016 -0.36161667 0.05299418
-0.34581712 -0.36163652 0.053028956
-0.34600118 -0.36166376 0.052998081
-0.34618893 -0.36168894 0.052985631
-0.34638917 -0.36171442 0.052982345
-0.34654629 -0.36175406 0.052836284
-0.34674275 -0.36177924 0.05283187
-0.34693649 -0.36180121 0.05284822
-0.34712511 -0.361826 0.052839223
-0.3473098 -0.36185065 0.052827939
-0.34749955 -0.36187953 0.052790109
-0.3476727 -0.36191252 0.052707404
-0.34787285 -0.36193371 0.052735247
-0.34805822 -0.36196032 0.052710123
-0.34824541 -0.36198607 0.052693069
-0.34841961 -0.36201838 0.052616112
-0.3486068 -0.36204633 0.052582916
-0.34880769 -0.36206526 0.052628048
-0.34901181 -0.3620871 0.052654721
-0.34919786 -0.36211792 0.052599616
-0.34936699 -0.36215261 0.052500788
-0.34956145 -0.36217925 0.052483685
-0.34977415 -0.36219507 0.052562207
-0.34997228 -0.36222011 0.05256008
-0.35014352 -0.36225793 0.052440479
-0.35034704 -0.36227417 0.05250752
-0.35054418 -0.362304 0.052469656
-0.35071623 -0.36233082 0.052430764
-0.35092342 -0.36235401 0.052450504
-0.35110971 -0.36237442 0.052471496
-0.3513073 -0.36240619 0.052419797
-0.35150257 -0.36242884 0.052432671
-0.35168442 -0.36245549 0.052404117
-0.3518942 -0.36248595 0.052373108
-0.35208744 -0.36251765 0.05231797
-0.35225204 -0.36253786 0.052320618
-0.35243326 -0.36256287 0.05230359
-0.35264936 -0.3625848 0.052340582
-0.3528381 -0.36260867 0.052338503
-0.35300872 -0.36263436 0.052306537
-0.35321572 -0.36266038 0.052305527
-0.35342571 -0.3626833 0.052329864
-0.35361391 -0.3627153 0.052267835
-0.35378385 -0.36274332 0.052218568
-0.353957 -0.36276805 0.052195814
-0.35416293 -0.36278903 0.052230556
-0.35434395 -0.36282018 0.052168552
-0.35451838 -0.36285013 0.052108899
-0.35474229 -0.3628642 0.05221042
-0.35493588 -0.36289787 0.052141447
-0.35511228 -0.36292523 0.052102525
-0.35531175 -0.36294919 0.052109621
-0.35550383 -0.36297792 0.052075248
-0.35568437 -0.36300376 0.052051298
-0.35590324 -0.36303142 0.052049074
-0.35610664 -0.36305413 0.052068833
-0.35628799 -0.36308339 0.052020673
-0.3564702 -0.36311057 0.051988646
-0.35667428 -0.36313322 0.052009553
-0.35687113 -0.36315683 0.052016661
-0.35705018 -0.36318171 0.051998496
-0.35723591 -0.36320773 0.051977981
-0.35743669 -0.36323184 0.05198507
-0.35762653 -0.36325997 0.05195301
-0.35781479 -0.36328867 0.051915187
-0.35799912 -0.36331359 0.051901605
-0.35820106 -0.36333755 0.051910985
-0.35839599 -0.36336914 0.051858149
-0.35860401 -0.36339623 0.051850211
-0.35879588 -0.36342382 0.051823907
-0.35898063 -0.3634437 0.051847216
-0.35918912 -0.36347416 0.051815063
-0.3593716 -0.3635017 0.05178073
-0.3595627 -0.36352634 0.05177518
-0.35975286 -0.36354801 0.051790398
-0.35993314 -0.36357966 0.051723789
-0.36011374 -0.36360788 0.051682547
-0.36034024 -0.36362609 0.051756389
-0.36053422 -0.36365661 0.051710464
-0.36071435 -0.36368021 0.051702671
-0.36093718 -0.36370805 0.051702734
-0.36112246 -0.36373496 0.051675305
-0.36131904 -0.36376157 0.0516605
-0.3615067 -0.36379099 0.051616929
-0.3617188 -0.36381921 0.05160436
-0.36190498 -0.36384121 0.051613819
-0.36212432 -0.36386892 0.051611591
-0.36232036 -0.36389908 0.051570281
-0.3625187 -0.36392385 0.051570456
-0.36268449 -0.36394593 0.051560424
-0.36288524 -0.3639732 0.05154445
-0.36305928 -0.36399603 0.051536679
-0.36322927 -0.36403099 0.051436692
-0.36345503 -0.36405098 0.051496696
-0.36364943 -0.36408031 0.051459994
-0.36385074 -0.3641015 0.051488992
-0.36408767 -0.36412778 0.051513195
-0.36427605 -0.36415747 0.051468458
-0.36445326 -0.3641873 0.051412247
-0.36460695 -0.36421627 0.051341161
-0.36482412 -0.36424387 0.051337793
-0.36499938 -0.36426827 0.051319636
-0.36521703 -0.36429435 0.051327795
-0.36542845 -0.36432076 0.051327914
-0.36561245 -0.36434734 0.051301651
-0.36583889 -0.36437422 0.05131207
-0.36601821 -0.36440954 0.051217798
-0.3662512 -0.36442888 0.05128929
-0.36643267 -0.36445925 0.051233061
-0.36664492 -0.3644785 0.051286213
-0.36682945 -0.36450958 0.051227659
-0.36698475 -0.36453968 0.051149648
-0.36721665 -0.36456126 0.051203854
-0.36743963 -0.36458957 0.051200457
-0.36761647 -0.36461845 0.051151168
-0.36782059 -0.36464173 0.051167458
-0.36801788 -0.36466399 0.051184937
-0.36819997 -0.36469445 0.051128704
-0.36841083 -0.36472189 0.051120751
-0.36860147 -0.36474743 0.05110829
-0.36880022 -0.36477098 0.051117696
-0.36901495 -0.36479905 0.051108573
-0.36921969 -0.36482826 0.051082205
-0.36940217 -0.36485183 0.051076699
-0.36958101 -0.36488187 0.051020473
-0.36980975 -0.36491093 0.05101705
-0.36999258 -0.36494008 0.050971188
-0.37016836 -0.36496818 0.050926514
-0.37034923 -0.36499643 0.050885268
-0.37060153 -0.36501738 0.050962444
-0.37081259 -0.36504138 0.05097986
-0.37096933 -0.36507544 0.050874162
-0.37118161 -0.36510196 0.050874278
-0.3714183 -0.36512429 0.050927311
-0.37163496 -0.36515671 0.050888203
-0.26667649 -0.35090867 0.059133369
-0.26684433 -0.35093373 0.059103705
-0.26713061 -0.35097253 0.059081532
-0.26733354 -0.35098854 0.05914972
-0.26755711 -0.35101885 0.059132468
-0.2677781 -0.3510479 0.05912216
-0.26800504 -0.35108021 0.059093356
-0.2682384 -0.35111442 0.059056446
-0.26845595 -0.35114193 0.059054215
-0.26867601 -0.35117084 0.059043895
-0.2689147 -0.35121 0.058975823
-0.26912239 -0.35123074 0.059014015
-0.26935524 -0.35126695 0.058962114
-0.26957804 -0.3512978 0.058940258
-0.26980612 -0.35133165 0.058901064
-0.27001098 -0.35135281 0.0589335
-0.27022645 -0.3513799 0.058932431
-0.27046806 -0.3514199 0.058860883
-0.27068007 -0.35144529 0.058869056
-0.27090937 -0.35148042 0.05882179
-0.27113223 -0.35151204 0.058794171
-0.27138001 -0.35155615 0.058698371
-0.27157786 -0.35157388 0.058749296
-0.2717796 -0.35159388 0.058787506
-0.2719951 -0.35162175 0.05878067
-0.27222037 -0.35165352 0.058754183
-0.27244741 -0.35168824 0.058708087
-0.27265558 -0.35171217 0.058723196
-0.27288589 -0.351749 0.058664389
-0.27309796 -0.35177362 0.058678344
-0.27331182 -0.35180113 0.058672674
-0.27348807 -0.35182294 0.058674105
-0.2737003 -0.35186416 0.058566943
-0.2739895 -0.35190368 0.058542456
-0.2741859 -0.35192123 0.058593377
-0.27440175 -0.35195041 0.058577314
-0.27461872 -0.35198036 0.058556635
-0.27484706 -0.35201538 0.058509372
-0.27506387 -0.35204548 0.058487546
-0.27528206 -0.35207462 0.058473781
-0.27549088 -0.35210007 0.058478512
-0.27569267 -0.35212132 0.058507502
-0.27590382 -0.35214832 0.058502994
-0.27612835 -0.35218176 0.058463819
-0.2763629 -0.3522234 0.058373857
-0.27656472 -0.35224497 0.058400542
-0.27677631 -0.35227266 0.058391422
-0.27699697 -0.35230419 0.058362652
-0.27720183 -0.35232788 0.058376625
-0.2774204 -0.35236025 0.058339797
-0.27763399 -0.3523896 0.058320284
-0.27784693 -0.35241669 0.05831692
-0.27806014 -0.35244599 0.058297418
-0.27827865 -0.35247883 0.058257122
-0.27849692 -0.35251164 0.058216836
-0.27870142 -0.3525337 0.058242351
-0.27891743 -0.35256526 0.05820898
-0.27911961 -0.35258594 0.058242582
-0.27932864 -0.35261315 0.058234628
-0.27955472 -0.35265169 0.058159698
-0.27976212 -0.35267806 0.058156371
-0.27997026 -0.35270295 0.058164559
-0.28017122 -0.35272521 0.058185481
-0.28039768 -0.35276455 0.058104783
-0.28060961 -0.35279435 0.058080673
-0.28083259 -0.35282964 0.058026511
-0.2810252 -0.35284656 0.058078617
-0.2812463 -0.35288084 0.058030233
-0.28143734 -0.35289678 0.058088109
-0.28164667 -0.3529253 0.058070924
-0.28187144 -0.35296461 0.057989083
-0.28209102 -0.35299838 0.057943016
-0.28230879 -0.35303316 0.05788774
-0.28251496 -0.35306001 0.057879798
-0.28272426 -0.35308915 0.057857998
-0.28291547 -0.3531056 0.057912409
-0.28312799 -0.35313499 0.057891756
-0.28334701 -0.35316917 0.057842232
-0.2835508 -0.35319477 0.057841226
-0.28374889 -0.35321635 0.057864461
-0.28396454 -0.35325071 0.057810344
-0.28417033 -0.35327578 0.05781509
-0.2843889 -0.35331258 0.057745967
-0.28459215 -0.35333827 0.057743806
-0.28479525 -0.35336396 0.057741649
-0.28500223 -0.35339028 0.057738319
-0.28520381 -0.35341498 0.057741936
-0.28541535 -0.35344723 0.057699375
-0.28562388 -0.35347739 0.057669502
-0.28582475 -0.35349947 0.057691574
-0.28602204 -0.35352126 0.057712514
-0.28623748 -0.35355702 0.057648022
-0.28644773 -0.353589 0.057606615
-0.2866537 -0.35361534 0.057602134
-0.28685749 -0.35364252 0.057589598
-0.2870681 -0.35367516 0.057543568
-0.28728127 -0.35371003 0.057483699
-0.28745338 -0.35372484 0.057532437
-0.2876544 -0.35373524 0.057639852
-0.28786063 -0.3537648 0.057612307
-0.28808653 -0.3538104 0.057485484
-0.28829569 -0.35384017 0.057459075
-0.28850552 -0.35387319 0.057409596
-0.28870603 -0.3538987 0.057406299
-0.28889829 -0.35391748 0.057444558
-0.28910553 -0.35394874 0.057405472
-0.28931013 -0.35397792 0.057379089
-0.28950858 -0.35400206 0.057383869
-0.28971526 -0.35403326 0.057344787
-0.28992432 -0.35406396 0.057311464
-0.29011998 -0.35408601 0.057328954
-0.29032117 -0.35411286 0.057316419
-0.2904689 -0.35412353 0.057373352
-0.29064766 -0.35415295 0.057321727
-0.29086986 -0.35419574 0.057212222
-0.29106972 -0.35421911 0.057223912
-0.29124516 -0.35422644 0.057330303
-0.29147935 -0.35428339 0.05712847
-0.29172793 -0.35430831 0.057173379
-0.29193491 -0.35433272 0.057183884
-0.29212996 -0.35435504 0.057199057
-0.29232973 -0.35439041 0.05712311
-0.29250678 -0.35440207 0.057199501
-0.29269075 -0.35443482 0.057128247
-0.29291186 -0.35446402 0.057116777
-0.29314223 -0.35450214 0.057048742
-0.29334506 -0.35453236 0.057013139
-0.29352558 -0.35453829 0.057134494
-0.2937333 -0.35457343 0.057067722
-0.29394561 -0.35461321 0.05697095
-0.29413593 -0.35463175 0.057009228
-0.29433692 -0.35466081 0.05698055
-0.29453117 -0.35468331 0.056993429
-0.29473364 -0.35471413 0.056953218
-0.29491889 -0.35474059 0.056929238
-0.29510081 -0.35476375 0.056926019
-0.29533076 -0.35479707 0.056892596
-0.29550642 -0.35481724 0.056905564
-0.29569373 -0.35483968 0.056912709
-0.29592013 -0.35486972 0.056900062
-0.29612386 -0.35490289 0.056843694
-0.29632065 -0.35492888 0.056833491
-0.2965183 -0.35495594 0.056816373
-0.29671204 -0.35497886 0.056825794
-0.29690588 -0.35500196 0.056834057
-0.29709202 -0.35503072 0.056793928
-0.29730844 -0.35506487 0.056742106
-0.29749545 -0.35508063 0.056797691
-0.29768494 -0.3551136 0.056729868
-0.29788959 -0.3551349 0.056761146
-0.29810071 -0.35517472 0.056663223
-0.29828545 -0.35518795 0.056734968
-0.29848266 -0.35521576 0.056712076
-0.298682 -0.35524619 0.056671884
-0.29888326 -0.35527906 0.056615528
-0.29907751 -0.35530376 0.056612264
-0.29925704 -0.35532632 0.056611367
-0.29946867 -0.35535672 0.056582641
-0.29964587 -0.35537663 0.056599069
-0.29984775 -0.35540721 0.056560013
-0.30004829 -0.35542813 0.056590155
-0.30024603 -0.35545376 0.056583412
-0.30044433 -0.35548437 0.056540914
-0.30063584 -0.35550639 0.056554954
-0.3008242 -0.35554129 0.056472145
-0.30101508 -0.35557127 0.056427374
-0.30119729 -0.35558549 0.0564899
-0.30138987 -0.35561362 0.056460112
-0.30156645 -0.35564229 0.056411952
-0.30179942 -0.35568184 0.056335844
-0.30199733 -0.35569993 0.056384455
-0.30217347 -0.35572854 0.056336299
-0.3023563 -0.35574836 0.056358457
-0.30257407 -0.35577634 0.056352772
-0.30278751 -0.35581249 0.056283671
-0.3029561 -0.35583067 0.056304753
-0.30314714 -0.35586306 0.056242675
-0.30336204 -0.35587743 0.05633387
-0.30355614 -0.35590482 0.056311004
-0.3037495 -0.35593116 0.056295048
-0.30392951 -0.35595727 0.056268793
-0.30414492 -0.3559984 0.056165077
-0.30431712 -0.35601228 0.056220736
-0.30452761 -0.35604602 0.056166641
-0.30471718 -0.356067 0.056186471
-0.30490777 -0.35608968 0.056194749
-0.30509654 -0.35610929 0.056223806
-0.30526826 -0.35613355 0.05620335
-0.30545563 -0.35616815 0.056121692
-0.30567622 -0.35620379 0.056062933
-0.30587441 -0.35622302 0.056103468
-0.3060672 -0.35625038 0.056079451
-0.30622706 -0.35627189 0.056068286
-0.30642545 -0.3563166 0.055923142
-0.30664518 -0.35633314 0.056002777
-0.30683476 -0.35635507 0.056015678
-0.30700082 -0.35636961 0.056060992
-0.3072108 -0.35641292 0.055936553
-0.30741498 -0.35643792 0.055940155
-0.30760363 -0.35645831 0.055963434
-0.30778953 -0.35647994 0.055975206
-0.30795157 -0.35650015 0.055975556
-0.30811614 -0.35651132 0.056043942
-0.30833605 -0.35655716 0.05591023
-0.30850089 -0.35657659 0.055918634
-0.30870101 -0.35660854 0.055868052
-0.30894899 -0.35664383 0.055836845
-0.30909729 -0.35666403 0.055824578
-0.30931509 -0.35668272 0.055886932
-0.309479 -0.35670015 0.055909179
-0.30966666 -0.35672721 0.055882879
-0.30984592 -0.35675889 0.055815104
-0.31004682 -0.35679537 0.05573222
-0.31027615 -0.35682765 0.055705719
-0.31047589 -0.35685229 0.055708192
-0.31065843 -0.35686588 0.055775333
-0.31084535 -0.35690266 0.055677526
-0.31102479 -0.35692742 0.055660501
-0.31120422 -0.35693067 0.055800304
-0.31142074 -0.35697764 0.05565507
-0.3116129 -0.35700038 0.055664502
-0.31179336 -0.35702953 0.055616323
-0.3119652 -0.35705239 0.05560625
-0.3121691 -0.35706884 0.055672128
-0.31237444 -0.35710368 0.055605378
-0.31254345 -0.35712934 0.055572249
-0.31271851 -0.35713822 0.055667102
-0.31290832 -0.35716584 0.055638492
-0.3131316 -0.35720718 0.055540506
-0.31333876 -0.35723811 0.055503733
-0.31351256 -0.357256 0.055531703
-0.31368455 -0.35728204 0.055498559
-0.31389499 -0.35731369 0.055459462
-0.31406057 -0.3573432 0.055395216
-0.31424707 -0.35735589 0.055472709
-0.31443128 -0.35737461 0.055504091
-0.31460983 -0.35740101 0.055474371
-0.31481469 -0.35744461 0.055343043
-0.31500313 -0.35747051 0.055325963
-0.31518707 -0.35748792 0.055366568
-0.31539962 -0.3575148 0.055364363
-0.31559488 -0.35754091 0.055351868
-0.31579673 -0.35756436 0.055364706
-0.3159571 -0.35758626 0.05535122
-0.31614602 -0.3576217 0.05526495
-0.31634074 -0.35764396 0.055280134
-0.31652844 -0.35766327 0.055310335
-0.31670612 -0.35768956 0.055280633
-0.31690446 -0.35771495 0.055276189
-0.31710276 -0.35774034 0.055271745
-0.3172873 -0.35777366 0.05519703
-0.31747848 -0.3577942 0.055221446
-0.31766969 -0.35782361 0.055181291
-0.31785735 -0.35784718 0.055180367
-0.31804848 -0.35787216 0.055172499
-0.31824249 -0.35791501 0.055036604
-0.31842652 -0.35793689 0.055044916
-0.3186177 -0.35795569 0.055082038
-0.31881234 -0.35797668 0.055106439
-0.31901023 -0.35800201 0.055102006
