# .PCD v0.7 - Point Cloud Data file format
VERSION 0.7
FIELDS x y z
SIZE 4 4 4
TYPE F F F
COUNT 1 1 1
WIDTH 1256
HEIGHT 1
VIEWPOINT 0 0 0 1 0 0 0
POINTS 1256
DATA ascii
-0.12710145 -0.28746122 0.058162756
-0.12726989 -0.28752333 0.058172673
-0.12745151 -0.28759241 0.058168713
-0.12762141 -0.28766683 0.058096707
-0.12780291 -0.28771579 0.058232345
-0.12797716 -0.2878046 0.058071494
-0.12816857 -0.28789574 0.05793944
-0.12835346 -0.28794718 0.058067001
-0.12852086 -0.28802991 0.057930395
-0.12876084 -0.28811291 0.05798281
-0.12892954 -0.28817293 0.058007721
-0.12911172 -0.28823808 0.058032595
-0.12927431 -0.28830776 0.057974465
-0.12944981 -0.28838378 0.057905905
-0.1296616 -0.28846207 0.057916865
-0.1298286 -0.28851536 0.057984471
-0.13000455 -0.28857663 0.05801975
-0.13019283 -0.28865865 0.057943076
-0.13037017 -0.28872728 0.057931051
-0.13054559 -0.28881273 0.057796732
-0.13074031 -0.2888743 0.057879265
-0.1309125 -0.28894627 0.057830341
-0.1311125 -0.28902525 0.057805557
-0.13129808 -0.2891016 0.057761203
-0.13148434 -0.28916615 0.057801064
-0.13165794 -0.28922406 0.057853658
-0.13181727 -0.28929797 0.057757456
-0.13202009 -0.28938779 0.057664607
-0.1322107 -0.28945148 0.057721764
-0.13238588 -0.28951496 0.057739735
-0.13256335 -0.28958213 0.057738088
-0.13273895 -0.28965321 0.057704151
-0.13292129 -0.28972653 0.057672497
-0.13309966 -0.2897917 0.057687003
-0.13327828 -0.28987208 0.05759652
-0.13347268 -0.28995243 0.057547525
-0.1336676 -0.29002404 0.057560824
-0.13384448 -0.29009181 0.057553422
-0.13401383 -0.29015127 0.057584099
-0.13419718 -0.29022199 0.057573207
-0.13438091 -0.29029897 0.057519633
-0.13455698 -0.29036793 0.057501841
-0.13473952 -0.29043302 0.057527874
-0.13493991 -0.29050934 0.057522707
-0.13511328 -0.29057595 0.05751415
-0.13531157 -0.29065546 0.057481289
-0.13547875 -0.29071873 0.05747968
-0.13565956 -0.29078668 0.057481483
-0.13584426 -0.29086122 0.057447523
-0.13603342 -0.29092932 0.057470068
-0.1361949 -0.29099458 0.057439629
-0.13637583 -0.29107401 0.057361826
-0.13656966 -0.29114735 0.057360142
-0.13674049 -0.29121697 0.057323899
-0.13694052 -0.29129896 0.05727835
-0.1371274 -0.29136452 0.057312451
-0.13729709 -0.29142991 0.057302754
-0.13750374 -0.29150364 0.05733218
-0.13767073 -0.2915723 0.057292491
-0.13783309 -0.29163593 0.057275884
-0.13801135 -0.29171184 0.057215407
-0.13820732 -0.29178268 0.057236783
-0.13838577 -0.29185319 0.057214368
-0.13855602 -0.29192278 0.057176977
-0.13876107 -0.29199854 0.057187952
-0.13894546 -0.29206267 0.057225518
-0.13911787 -0.29212993 0.057210036
-0.13928045 -0.29219314 0.0571969
-0.13944949 -0.29226375 0.057149123
-0.13963316 -0.29234716 0.057050556
-0.13984187 -0.29242396 0.057063822
-0.14001076 -0.29248989 0.057048358
-0.14018998 -0.29255489 0.057066325
-0.14037818 -0.29262909 0.05704388
-0.14055388 -0.29269743 0.057029549
-0.14072302 -0.29276308 0.057016395
-0.14088093 -0.29283449 0.056934036
-0.1410878 -0.29291308 0.056930009
-0.14126356 -0.29297712 0.056945674
-0.14146166 -0.29304278 0.057008587
-0.14162295 -0.29311097 0.056957372
-0.14180782 -0.29318374 0.0569361
-0.14198583 -0.29326206 0.056858305
-0.14219213 -0.29333729 0.056876194
-0.14236775 -0.29340559 0.056861863
-0.14253797 -0.29347035 0.056857936
-0.14273192 -0.29354373 0.056856245
-0.14291878 -0.29361495 0.056851111
-0.14309026 -0.29368633 0.056804489
-0.14326347 -0.29375634 0.056771707
-0.14345078 -0.29382724 0.056770034
-0.14365043 -0.29390392 0.056760259
-0.14382991 -0.29396954 0.056774762
-0.14399356 -0.29403895 0.056721229
-0.14416388 -0.29410374 0.056717303
-0.14436181 -0.29417464 0.056743294
-0.14453408 -0.29425213 0.056656286
-0.14471357 -0.2943179 0.056669638
-0.14489247 -0.29439089 0.056631066
-0.14507829 -0.29446289 0.056617867
-0.14526297 -0.29453558 0.056596585
-0.14543372 -0.29460022 0.05659496
-0.14562111 -0.2946713 0.056592137
-0.14580108 -0.29474354 0.056561638
-0.1459873 -0.29481533 0.056550741
-0.14615177 -0.29488373 0.056506447
-0.14634126 -0.29495046 0.056539379
-0.14653428 -0.29502797 0.056506544
-0.14671263 -0.29509795 0.056487598
-0.14689809 -0.29516715 0.056492846
-0.14708026 -0.2952351 0.056498114
-0.14726418 -0.29531133 0.056450307
-0.14746754 -0.29538941 0.05644051
-0.14766079 -0.29545775 0.056472287
-0.14782694 -0.2955251 0.056439523
-0.14798726 -0.29558945 0.056412537
-0.14817896 -0.29566464 0.056392394
-0.14834771 -0.29573068 0.056375783
-0.14852616 -0.2957949 0.056397207
-0.1487065 -0.29586697 0.056369018
-0.1488812 -0.29593307 0.056367386
-0.14906764 -0.29600513 0.056355327
-0.14924897 -0.29607955 0.056313295
-0.14942734 -0.2961469 0.056312803
-0.14960791 -0.29621607 0.056305379
-0.14979398 -0.2962994 0.056213725
-0.14996719 -0.29636627 0.056202859
-0.15014993 -0.29643726 0.056188509
-0.15032299 -0.29650426 0.056176499
-0.15050426 -0.29657319 0.056172531
-0.15068394 -0.29664284 0.056159347
-0.15086532 -0.2967118 0.05615538
-0.15105565 -0.29677987 0.056181394
-0.15124772 -0.29685253 0.056179702
-0.15143698 -0.29692119 0.056198802
-0.15163027 -0.29698837 0.056238644
-0.1517946 -0.297059 0.056178201
-0.15197359 -0.29713172 0.056141935
-0.15214749 -0.29721642 0.056008782
-0.15232237 -0.29729554 0.055917148
-0.15250911 -0.29735526 0.055991631
-0.1527112 -0.29742211 0.056056835
-0.15288968 -0.29749745 0.056000963
-0.15306365 -0.29756695 0.05597394
-0.15326162 -0.29764286 0.055965319
-0.15344226 -0.29771253 0.055954441
-0.15361805 -0.29778388 0.055919345
-0.15379706 -0.29785892 0.055866923
-0.15397435 -0.29792023 0.05590567
-0.15415217 -0.29798618 0.055913247
-0.15434922 -0.29806027 0.055915017
-0.15453655 -0.29814208 0.055837199
-0.15470487 -0.29820645 0.055830963
-0.15488286 -0.29828176 0.055773936
-0.1550616 -0.29835224 0.05575268
-0.15524019 -0.29842049 0.055746417
-0.15542138 -0.29848573 0.055767834
-0.15561847 -0.29856232 0.0557523
-0.15579301 -0.29863185 0.055726431
-0.15597674 -0.29870105 0.055727076
-0.15616563 -0.29876888 0.055750784
-0.15634727 -0.29884541 0.055694904
-0.15651724 -0.29891405 0.055663284
-0.15671958 -0.29899159 0.055654649
-0.15688905 -0.2990604 0.055620719
-0.15706611 -0.2991294 0.055605233
-0.15724792 -0.29919934 0.055595495
-0.15744326 -0.29926598 0.055644572
-0.1576193 -0.29934388 0.055564482
-0.15780905 -0.29941201 0.055588186
-0.15799643 -0.29948294 0.055586509
-0.15815818 -0.29955578 0.055504151
-0.15834576 -0.29962459 0.055517472
-0.15853795 -0.29969451 0.055535402
-0.1587289 -0.29976892 0.05551872
-0.15891328 -0.29983455 0.055545907
-0.15907693 -0.29991505 0.055415083
-0.1592489 -0.29998347 0.055390373
-0.15944821 -0.30005008 0.055449825
-0.15964453 -0.30012554 0.055440046
-0.15982781 -0.30019572 0.055432618
-0.1599818 -0.30026597 0.055347979
-0.16017373 -0.30033445 0.055375133
-0.16036545 -0.30040899 0.055359602
-0.16053508 -0.30048198 0.055296835
-0.16072984 -0.30055401 0.055306681
-0.16093087 -0.30062494 0.055340741
-0.16110231 -0.30069759 0.05528488
-0.16129434 -0.30077225 0.055269353
-0.16147228 -0.30084375 0.055238873
-0.16165739 -0.30091396 0.055236042
-0.16184589 -0.30098364 0.055245914
-0.16205633 -0.30105531 0.055299558
-0.16223854 -0.30113187 0.055244826
-0.16240683 -0.30120137 0.055202831
-0.16259822 -0.30127081 0.055221912
-0.16277361 -0.30134666 0.05515451
-0.16297922 -0.30141765 0.055200089
-0.16315301 -0.30149004 0.055152308
-0.16332868 -0.30156398 0.055098753
-0.16351904 -0.30163386 0.055112071
-0.16370323 -0.30171019 0.055064261
-0.16387302 -0.30177414 0.055064946
-0.16407323 -0.3018446 0.055100158
-0.16428314 -0.30192816 0.055069581
-0.16446 -0.30200022 0.055032171
-0.16461945 -0.30206755 0.054982118
-0.16479489 -0.30213627 0.05496433
-0.16499686 -0.30221567 0.054941848
-0.16520879 -0.30228853 0.05499088
-0.16536243 -0.30235666 0.054920077
-0.16556145 -0.30242783 0.054947216
-0.16573282 -0.30249897 0.054901741
-0.16592558 -0.30257621 0.054870062
-0.16612181 -0.30264965 0.054874141
-0.16630739 -0.30271921 0.05487708
-0.16648297 -0.30278483 0.054881215
-0.16666989 -0.30286801 0.054793008
-0.16685513 -0.30293941 0.054782122
-0.1670274 -0.30300215 0.054797795
-0.16723165 -0.30307844 0.054803003
-0.16741148 -0.3031556 0.054737892
-0.1675908 -0.30322444 0.05472932
-0.1677915 -0.3032946 0.054767992
-0.16797668 -0.30337462 0.054697104
-0.16815279 -0.30343896 0.054711618
-0.16833794 -0.30352226 0.054617658
-0.16852763 -0.30358875 0.0546529
-0.16869451 -0.30365407 0.054636285
-0.16890448 -0.30373037 0.054656476
-0.16907361 -0.30379722 0.05463523
-0.16928259 -0.30387211 0.054662343
-0.1694724 -0.30395669 0.05457183
-0.169653 -0.30402753 0.054552875
-0.16982754 -0.30409411 0.054547776
-0.17002469 -0.30416539 0.054569151
-0.17021051 -0.30424231 0.054521341
-0.17041375 -0.30431807 0.0545277
-0.17059949 -0.3043935 0.054490268
-0.17077602 -0.3044633 0.054467857
-0.17094928 -0.3045302 0.05445699
-0.17115915 -0.30460262 0.054503717
-0.17133556 -0.30468032 0.054425925
-0.17149624 -0.30474812 0.054375872
-0.17171559 -0.30482331 0.054428343
-0.17187661 -0.30489421 0.054357521
-0.17204833 -0.30496451 0.054318976
-0.17228098 -0.30503926 0.054409474
-0.17248021 -0.30512044 0.054367393
-0.17264782 -0.30518803 0.054336928
-0.17278975 -0.30525684 0.054230392
-0.17304811 -0.30533233 0.054383129
-0.17321856 -0.30541193 0.054276511
-0.17339475 -0.30547929 0.054270256
-0.17359245 -0.30555922 0.054232791
-0.17377399 -0.30562794 0.05423113
-0.17396477 -0.30570227 0.054214463
-0.17415777 -0.30577216 0.054234687
-0.1743228 -0.30584309 0.054174244
-0.1745297 -0.30592585 0.054141365
-0.17473869 -0.30600125 0.054165013
-0.1748952 -0.30606663 0.054120742
-0.1751202 -0.30614612 0.054158196
-0.17531246 -0.30622366 0.054123048
-0.17548883 -0.30629009 0.054123722
-0.17568611 -0.30636904 0.054092027
-0.17586562 -0.30644411 0.05404076
-0.17602107 -0.30651107 0.053982645
-0.17626156 -0.3065936 0.054039665
-0.17644374 -0.30666587 0.05401494
-0.17664316 -0.30674213 0.054007463
-0.17681074 -0.30681187 0.053962011
-0.17699404 -0.3068814 0.053959198
-0.17717005 -0.30694968 0.053946014
-0.17738408 -0.30702883 0.053956967
-0.17757227 -0.30711246 0.053868756
-0.17777376 -0.30718207 0.053913195
-0.17794627 -0.30725333 0.053870037
-0.17815477 -0.30733138 0.053874075
-0.17833906 -0.30740544 0.053842414
-0.17849465 -0.30747131 0.053792372
-0.17868784 -0.30753577 0.053850673
-0.1788975 -0.30761957 0.053817794
-0.17908894 -0.30770063 0.053756118
-0.17927487 -0.30777216 0.053746369
-0.17946261 -0.30784237 0.053750474
-0.17965712 -0.30791813 0.053733785
-0.17987899 -0.30800089 0.053740095
-0.180067 -0.30807534 0.053715341
-0.18019815 -0.30813447 0.053648062
-0.18042691 -0.30822018 0.053652044
-0.18058184 -0.30828497 0.053607777
-0.092729315 -0.2786634 0.02915477
-0.092922032 -0.2787509 0.02905155
-0.093102276 -0.27883038 0.02897143
-0.093282178 -0.27890807 0.028902857
-0.093456969 -0.27898285 0.028841216
-0.093635075 -0.27905753 0.028788798
-0.093811959 -0.27913293 0.028728303
-0.093985677 -0.27920383 0.028690891
-0.094153531 -0.27927101 0.028663874
-0.094322711 -0.27933785 0.028642623
-0.094489858 -0.27940461 0.028616767
-0.094652101 -0.27946854 0.028597843
-0.094816014 -0.2795324 0.028583534
-0.09498442 -0.27959895 0.028562285
-0.095147118 -0.27966186 0.028551439
-0.095306851 -0.27972201 0.028552137
-0.095468409 -0.27978402 0.028544754
-0.095621027 -0.27983916 0.02856162
-0.095784172 -0.27990109 0.028558843
-0.095940374 -0.27995807 0.028572239
-0.096094519 -0.2800113 0.028606407
-0.096246228 -0.28006393 0.028638272
-0.096396238 -0.2801131 0.028689757
-0.096544392 -0.28016406 0.028723944
-0.096699759 -0.28021678 0.028765026
-0.09684284 -0.28026086 0.028833829
-0.096987613 -0.28030476 0.028908394
-0.097136185 -0.28035057 0.028979491
-0.097272158 -0.28038734 0.029080618
-0.097419091 -0.28043139 0.029159795
-0.097558931 -0.28047192 0.029244764
-0.097699776 -0.2805115 0.029338958
-0.097837046 -0.28054926 0.02943662
-0.097975783 -0.28058457 0.029555045
-0.098110169 -0.28062105 0.029653864
-0.098247573 -0.2806567 0.029766524
-0.098381937 -0.28068906 0.029894188
-0.09851554 -0.28072044 0.030026462
-0.098646916 -0.28075132 0.030156445
-0.098776594 -0.28077826 0.030309498
-0.098903418 -0.28080195 0.030477565
-0.099020705 -0.28081527 0.03069295
-0.099137746 -0.28082797 0.030911796
-0.099257514 -0.28084537 0.031105258
-0.099372238 -0.28085706 0.031325258
-0.099494152 -0.28087407 0.031526793
-0.094989516 -0.2749719 0.060799316
-0.095212847 -0.27506995 0.060702931
-0.095411725 -0.27514622 0.060694285
-0.09561111 -0.27522314 0.06068217
-0.095757633 -0.27527332 0.060717523
-0.0959481 -0.27535701 0.06063506
-0.096195847 -0.27544773 0.06065397
-0.096393839 -0.27554616 0.06048844
-0.096615195 -0.27561235 0.060608931
-0.096818268 -0.27569151 0.060591049
-0.097004443 -0.27575964 0.060605511
-0.097220048 -0.275848 0.060556442
-0.097414866 -0.27592072 0.060561657
-0.097612217 -0.27599657 0.060551859
-0.097812265 -0.27607572 0.060525909
-0.098011903 -0.2761516 0.060521875
-0.098178655 -0.27621788 0.060498331
-0.098415099 -0.27631146 0.06046766
-0.098595962 -0.27636781 0.060550198
-0.098817311 -0.27647075 0.060414597
-0.099016443 -0.27654976 0.060387496
-0.0992167 -0.27663034 0.060352311
-0.099411063 -0.27670372 0.060351759
-0.099608332 -0.27677768 0.060354643
-0.09981294 -0.27686423 0.060289465
-0.099999443 -0.27692801 0.060335077
-0.10020703 -0.27701551 0.060271028
-0.10039796 -0.2770851 0.060287792
-0.10058773 -0.27715328 0.060311466
-0.10079181 -0.27723679 0.060265895
-0.10098995 -0.27731606 0.060234178
-0.10118295 -0.27738875 0.060234785
-0.10138029 -0.27746391 0.060229607
-0.10157722 -0.27754208 0.060202509
-0.10177433 -0.27762064 0.060173102
-0.10197158 -0.27769613 0.060165614
-0.10216597 -0.27777132 0.060152374
-0.10234972 -0.2778427 0.060138002
-0.10256007 -0.27792594 0.060110867
-0.10276112 -0.27801079 0.060047999
-0.10294721 -0.27807507 0.060088992
-0.10314186 -0.27814773 0.060094208
-0.10334377 -0.27823439 0.060020946
-0.10352013 -0.27829617 0.060053896
-0.10373225 -0.27838671 0.059980616
-0.10390063 -0.27844846 0.05999282
-0.10411918 -0.27853361 0.059973735
-0.10430221 -0.27859774 0.060007825
-0.10447466 -0.27866569 0.059987716
-0.10468911 -0.27874914 0.059969801
-0.10489237 -0.27883184 0.059927694
-0.10509279 -0.27891845 0.059850976
-0.10527907 -0.27898398 0.0598839
-0.10549179 -0.27908581 0.059733324
-0.10567411 -0.27914554 0.059796251
-0.10585368 -0.27920091 0.059882253
-0.10604971 -0.27928188 0.059833243
-0.10624211 -0.27936578 0.059754249
-0.10641353 -0.2794295 0.059760675
-0.10662408 -0.27950007 0.059822366
-0.10682949 -0.27959269 0.059716806
-0.10701622 -0.27965972 0.059740495
-0.10720397 -0.27972844 0.05975496
-0.10740604 -0.27981648 0.059672471
-0.10757603 -0.27987853 0.059686977
-0.1077473 -0.27993357 0.059753403
-0.10797569 -0.28003007 0.059681222
-0.10816512 -0.28010225 0.059676062
-0.10835934 -0.28018287 0.059624746
-0.10855696 -0.28026494 0.059572279
-0.108748 -0.28034055 0.059547506
-0.10893714 -0.28041294 0.059540041
-0.10913013 -0.28049242 0.059493348
-0.10931721 -0.28055644 0.059538957
-0.10950595 -0.28062853 0.05953265
-0.10970022 -0.28070587 0.059504401
-0.10988896 -0.28077826 0.059495784
-0.11007934 -0.28085396 0.059468705
-0.11026905 -0.28092858 0.0594474
-0.11046072 -0.28100178 0.059441082
-0.1106483 -0.28107259 0.059440546
-0.1108387 -0.28114912 0.059407704
-0.11102577 -0.28122488 0.059371404
-0.11120982 -0.28128907 0.059407793
-0.11140756 -0.28136969 0.059365697
-0.11158057 -0.28145224 0.059245236
-0.11175998 -0.28151897 0.05925164
-0.11197753 -0.28159431 0.059298314
-0.11216546 -0.28166726 0.059283931
-0.1123531 -0.28173977 0.059271857
-0.112542 -0.28181523 0.059242476
-0.11270896 -0.28188041 0.059226997
-0.11291151 -0.28196117 0.059196427
-0.1131148 -0.2820507 0.059107017
-0.1132769 -0.28210527 0.0591527
-0.11347976 -0.2821739 0.059207495
-0.1136723 -0.28225258 0.059165418
-0.11385769 -0.28232124 0.059174113
-0.11404359 -0.28239125 0.059174731
-0.11423551 -0.28246918 0.059136115
-0.11442306 -0.28254381 0.059109043
-0.11461049 -0.28261837 0.059081972
-0.11479858 -0.28269503 0.059042215
-0.11498888 -0.28277001 0.059019744
-0.11517456 -0.28284079 0.059014603
-0.11536171 -0.28290749 0.059041753
-0.11554965 -0.28298488 0.05899623
-0.11573519 -0.28305578 0.058989931
-0.11592162 -0.28312945 0.058966324
-0.1160987 -0.28319335 0.058986582
-0.11629468 -0.28326917 0.058973327
-0.11648491 -0.28334612 0.058937021
-0.1166707 -0.28341889 0.058918033
-0.11685576 -0.28348961 0.058911733
-0.11700246 -0.28354383 0.058919389
-0.11723256 -0.28364414 0.058825292
-0.11740003 -0.28370753 0.058823656
-0.11760089 -0.2837812 0.058838084
-0.11778827 -0.28385046 0.058847927
-0.11797795 -0.28392854 0.058802396
-0.11816306 -0.28400141 0.058781102
-0.11834319 -0.28406709 0.058796734
-0.11852076 -0.28413495 0.058790453
-0.11871982 -0.28421524 0.058754124
-0.11890832 -0.28429073 0.058723591
-0.11909553 -0.28436092 0.058726519
-0.11926782 -0.28443474 0.058664884
-0.11945873 -0.28450832 0.058653951
-0.11965285 -0.28458259 0.058646481
-0.1198397 -0.28465214 0.058652867
-0.12002394 -0.28472486 0.058630414
-0.1202077 -0.2847954 0.058621813
-0.12036797 -0.28485906 0.058599442
-0.12054499 -0.2849282 0.058582783
-0.12073647 -0.28500861 0.058525704
-0.12091415 -0.28508347 0.058470987
-0.12109739 -0.28515333 0.058465846
-0.12130041 -0.28522682 0.058487184
-0.12150098 -0.28530669 0.058457769
-0.12167064 -0.28537259 0.058444597
-0.12185688 -0.28544191 0.058450982
-0.12206324 -0.28551701 0.058470003
-0.12224673 -0.28559256 0.058425635
-0.12243329 -0.2856673 0.05839511
-0.12260241 -0.28572983 0.05840385
-0.12277456 -0.28578854 0.058447197
-0.12293725 -0.28585392 0.058419045
-0.12313431 -0.28594506 0.05830197
-0.123313 -0.28600228 0.058372982
-0.1235161 -0.28608641 0.058320485
-0.12371548 -0.2861625 0.058314148
-0.12387767 -0.28622654 0.058294076
-0.12406671 -0.28628483 0.058384672
-0.12424916 -0.28635952 0.058343768
-0.12445506 -0.28644687 0.058276277
-0.12464053 -0.28652501 0.058219217
-0.12479538 -0.28659508 0.05813802
-0.12498106 -0.28665772 0.058189392
-0.1251629 -0.28673151 0.058153123
-0.12534191 -0.28679246 0.05819875
-0.12554322 -0.28688353 0.058093198
-0.12571825 -0.28695112 0.058082309
-0.125901 -0.28700885 0.058160231
-0.12609261 -0.28708583 0.058127381
-0.12626912 -0.287173 0.057983831
-0.12645945 -0.2872265 0.058111336
-0.12662701 -0.28729638 0.058064714
-0.1268021 -0.28736165 0.058069982
-0.12697706 -0.28742787 0.058068328
-0.12716641 -0.28751677 0.057946652
-0.12737006 -0.2875804 0.058038358
-0.12754278 -0.28765935 0.057942118
-0.12775105 -0.2877385 0.057938062
-0.12793674 -0.28780362 0.057972133
-0.12811072 -0.28787345 0.0579428
-0.12829146 -0.28794533 0.057916909
-0.12845843 -0.28801319 0.057882972
-0.12866163 -0.28808162 0.057940066
-0.12885846 -0.28816205 0.057896823
-0.12904607 -0.28823471 0.057883602
-0.1292062 -0.28829947 0.057853147
-0.12937014 -0.28834963 0.057934579
-0.12954381 -0.28843224 0.057815265
-0.12974234 -0.2885178 0.05774086
-0.12992805 -0.2885831 0.057773788
-0.13013601 -0.28866148 0.057774346
-0.13030316 -0.28872639 0.057761177
-0.13046929 -0.28879425 0.057724938
-0.13066036 -0.2888664 0.057724394
-0.13083616 -0.28892797 0.057757344
-0.13100968 -0.28899595 0.057739541
-0.13119298 -0.28907856 0.057645582
-0.13138895 -0.28914762 0.057679631
-0.13157161 -0.2892212 0.057646804
-0.13175166 -0.2892915 0.05763014
-0.13192908 -0.28934953 0.057691921
-0.13211401 -0.2894356 0.057578344
-0.13230819 -0.28950891 0.057577781
-0.13247359 -0.28956789 0.05760153
-0.13267304 -0.28964683 0.057575587
-0.13285574 -0.28971928 0.05755084
-0.13304026 -0.28978795 0.057557233
-0.13320498 -0.28984848 0.057568297
-0.13336606 -0.28993928 0.057359032
-0.13360454 -0.29001176 0.057480626
-0.13377979 -0.29007512 0.057499744
-0.13395463 -0.29014659 0.057461169
-0.13411912 -0.29021466 0.057419173
-0.13430689 -0.29028454 0.057425555
-0.13448876 -0.29035753 0.057395041
-0.13466389 -0.29042116 0.057411846
-0.13483642 -0.29049575 0.057345595
-0.13503563 -0.29056716 0.057371564
-0.13521382 -0.29063261 0.057383738
-0.13537827 -0.29070628 0.057302512
-0.13556863 -0.29077849 0.057299659
-0.13574338 -0.2908428 0.057310697
-0.13594271 -0.29092038 0.057293974
-0.13611953 -0.29098782 0.057288859
-0.13630323 -0.2910575 0.057286024
-0.13647461 -0.29112071 0.057295922
-0.13665295 -0.29119185 0.057268873
-0.13683484 -0.29126948 0.057206057
-0.1370274 -0.29134431 0.057190511
-0.13720623 -0.29141995 0.05713347
-0.13738674 -0.29148266 0.057171028
-0.13756588 -0.29155242 0.05715552
-0.13774508 -0.29162207 0.057141159
-0.1379326 -0.29170266 0.057072565
-0.13811499 -0.29176852 0.057092801
-0.13830717 -0.29184356 0.057074945
-0.13848957 -0.29190466 0.057128645
-0.13865715 -0.29196244 0.057166237
-0.13884552 -0.29204649 0.057075717
-0.13899246 -0.29211175 0.057007231
-0.13919796 -0.29218701 0.057022795
-0.13937202 -0.29225239 0.057024606
-0.13955723 -0.29232049 0.057036765
-0.13972244 -0.29239464 0.056954384
-0.13988994 -0.29246187 0.056926221
-0.14009452 -0.29254705 0.056870259
-0.14027622 -0.29261398 0.056881279
-0.14045206 -0.29267773 0.056899231
-0.1406417 -0.29275051 0.056890611
-0.14082643 -0.29281494 0.056926996
-0.14098777 -0.29288745 0.056845788
-0.14117193 -0.29296079 0.056818727
-0.14136969 -0.29303893 0.056793928
-0.14155021 -0.2931152 0.056736894
-0.1417239 -0.29318094 0.056735247
-0.14187866 -0.29325014 0.056659814
-0.1420778 -0.29332301 0.056675393
-0.14225939 -0.29338643 0.056710638
-0.14244857 -0.2934595 0.056698561
-0.14258811 -0.29354003 0.056504361
-0.14273761 -0.29361254 0.056392029
-0.14298815 -0.2936846 0.056548204
-0.14315966 -0.29373711 0.056633078
-0.14333361 -0.29379913 0.056657955
-0.14349777 -0.29386821 0.05660788
-0.14370535 -0.29395008 0.056583066
-0.14387512 -0.29402229 0.05652605
-0.1440617 -0.29408297 0.056593575
-0.14424124 -0.29415208 0.056583833
-0.14443275 -0.29423416 0.056515232
-0.14460814 -0.29429904 0.056523956
-0.14479168 -0.29436901 0.056518812
-0.14496349 -0.29443288 0.056525238
-0.14514002 -0.29449722 0.056540892
-0.14530954 -0.29457596 0.056437731
-0.14549813 -0.29464948 0.056421038
-0.14568622 -0.2947233 0.056400895
-0.14585024 -0.29478541 0.056399271
-0.1460432 -0.29484996 0.056456394
-0.14622383 -0.29492182 0.0564305
-0.14639966 -0.29499003 0.056417309
-0.14658152 -0.29506117 0.056399483
-0.14676289 -0.29512632 0.056422032
-0.146943 -0.29519847 0.056392681
-0.1471349 -0.29527655 0.056352913
-0.14731503 -0.29535168 0.056302786
-0.14747415 -0.29541656 0.056268882
-0.14768595 -0.29548725 0.056332871
-0.14785445 -0.29555634 0.056294326
-0.14803098 -0.29562432 0.056284592
-0.14822693 -0.29570028 0.056270186
-0.14839357 -0.29577315 0.056200489
-0.14858013 -0.2958363 0.056250717
-0.14874713 -0.29590315 0.056223702
-0.14894919 -0.29597348 0.05626465
-0.14913169 -0.29604453 0.056249131
-0.14930782 -0.2961241 0.056157496
-0.14946459 -0.29619557 0.056071687
-0.14963028 -0.29626292 0.056037758
-0.14983939 -0.29632217 0.056174431
-0.15001318 -0.29639706 0.056109335
-0.15019119 -0.29647005 0.05606845
-0.15037137 -0.2965394 0.056058709
-0.1505543 -0.29660764 0.056063943
-0.15073583 -0.29667386 0.056079581
-0.15091111 -0.29674533 0.056042168
-0.15108496 -0.29680949 0.056052048
-0.15125114 -0.29687935 0.056001969
-0.15142888 -0.29695243 0.055959929
-0.15159906 -0.2970258 0.055895992
-0.1517601 -0.29710513 0.055766329
-0.15195994 -0.29716718 0.055859208
-0.152134 -0.29724151 0.055798717
-0.15230602 -0.29731902 0.05571055
-0.15250389 -0.29738465 0.055773426
-0.15268485 -0.29745394 0.05576599
-0.15286873 -0.29752719 0.05573893
-0.15307418 -0.29760277 0.055752184
-0.1532695 -0.29766971 0.055798929
-0.15344582 -0.29773596 0.055800725
-0.15363309 -0.29780582 0.055805959
-0.15381446 -0.29787531 0.055798523
-0.15399541 -0.29794493 0.055788778
-0.15416768 -0.29801032 0.055785973
-0.15435234 -0.29807886 0.055793516
-0.1545369 -0.29815453 0.055751465
-0.15470982 -0.29822907 0.055686362
-0.15490328 -0.29830658 0.055654667
-0.15506744 -0.29837221 0.055628818
-0.15526183 -0.29844263 0.05564902
-0.15542841 -0.29851893 0.055555109
-0.15561712 -0.29858655 0.055579945
-0.15580599 -0.2986587 0.055573639
-0.15597993 -0.29873282 0.055514302
-0.15616722 -0.29879656 0.055562221
-0.15635777 -0.29886618 0.055577822
-0.15653604 -0.29893696 0.055553086
-0.15671045 -0.29900879 0.055511054
-0.15690067 -0.29907429 0.055554353
-0.15710419 -0.29914734 0.055580303
-0.15727559 -0.29922 0.055524439
-0.15744114 -0.29929194 0.055458207
-0.15761927 -0.29936498 0.055417325
-0.15780674 -0.29943576 0.055416789
-0.15798345 -0.29950497 0.055398978
-0.15816595 -0.29957703 0.055376541
-0.15835752 -0.29964074 0.055435974
-0.15853144 -0.29971898 0.0553478
-0.15872096 -0.29978541 0.055383023
-0.15890738 -0.29985878 0.055361725
-0.15908597 -0.29993182 0.055321991
-0.1592629 -0.30000526 0.055275343
-0.15944619 -0.30007529 0.055269051
-0.15965021 -0.30014303 0.05533307
-0.15982133 -0.30022174 0.055234518
-0.15999913 -0.30028903 0.05523286
-0.16016613 -0.30036053 0.05517355
-0.16034576 -0.3004275 0.055178806
-0.16055046 -0.3004995 0.055215128
-0.16073599 -0.30057135 0.05520191
-0.16093035 -0.30064937 0.055169053
-0.16109049 -0.30071831 0.055109762
-0.16127507 -0.30078849 0.055105776
-0.16146916 -0.30086276 0.055098295
-0.16165945 -0.30093393 0.05510236
-0.16184537 -0.30100214 0.055115677
-0.16203049 -0.30107436 0.055098992
-0.16220868 -0.30114776 0.055055801
-0.16239014 -0.30121875 0.055037975
-0.16258457 -0.30128953 0.055055879
-0.16275506 -0.30136052 0.055009246
-0.16296138 -0.3014369 0.05501904
-0.1631338 -0.30150947 0.054966636
-0.16331056 -0.30158132 0.054930367
-0.16350901 -0.30165362 0.054948255
-0.16370225 -0.30172673 0.054946549
-0.16389018 -0.30180249 0.05491256
-0.16406374 -0.30187133 0.054888994
-0.16423488 -0.30193692 0.054881573
-0.16443235 -0.30200967 0.054893702
-0.16462043 -0.30208018 0.054896623
-0.16479886 -0.30215916 0.054815359
-0.16499396 -0.30222884 0.054842487
-0.16519833 -0.30230269 0.054864973
-0.16538034 -0.3023777 0.05482062
-0.1655508 -0.30245066 0.054760143
-0.16574362 -0.30251917 0.054789588
-0.16592273 -0.30259457 0.054734856
-0.1661244 -0.30266905 0.054745808
-0.16630445 -0.30273753 0.054741837
-0.16650042 -0.30281451 0.054720514
-0.16668093 -0.30288133 0.054729223
-0.16687626 -0.30295506 0.054728657
-0.16705453 -0.303029 0.054682005
-0.16724607 -0.30310827 0.05463301
-0.16740862 -0.30317545 0.05459217
-0.16758606 -0.3032378 0.054623965
-0.16778891 -0.30331936 0.054588776
-0.16799675 -0.30339551 0.054604322
-0.16817392 -0.30346307 0.054599207
-0.16834642 -0.30354095 0.054509889
-0.1685423 -0.30361506 0.054508172
-0.16874719 -0.30369011 0.054523736
-0.16891892 -0.3037599 0.05448864
-0.16911906 -0.30383548 0.054488063
-0.16929434 -0.30390829 0.054441418
-0.16948947 -0.30398113 0.05444663
-0.16968098 -0.3040559 0.054428779
-0.16985111 -0.30412281 0.054409835
-0.17002033 -0.30419612 0.054343589
-0.1702289 -0.30427453 0.054345299
-0.17041573 -0.30434507 0.054344766
-0.17061943 -0.30441767 0.054374181
-0.17080741 -0.30449611 0.054321725
-0.1710044 -0.30456617 0.054351158
-0.17118938 -0.30463552 0.05435409
-0.17137645 -0.30471408 0.054298177
-0.17155847 -0.3047868 0.054269969
-0.17174259 -0.30486095 0.054237142
-0.17193365 -0.3049286 0.054267742
-0.17209378 -0.30499801 0.054204993
-0.17231253 -0.30507198 0.054264352
-0.17249775 -0.30515385 0.054180767
-0.17266527 -0.30522141 0.054150291
-0.17289448 -0.30529666 0.054228082
-0.17310114 -0.30538514 0.054154806
-0.17325276 -0.30545199 0.054087471
-0.17342651 -0.30551493 0.054105431
-0.17366186 -0.30559334 0.054177433
-0.17384818 -0.30567083 0.054127291
-0.17400621 -0.30574489 0.054026484
-0.17421231 -0.30581874 0.054053575
-0.17439926 -0.3058933 0.054025356
-0.17459056 -0.30596337 0.054039806
-0.17479816 -0.30604324 0.054028828
-0.1749699 -0.30611256 0.053997193
-0.17518996 -0.30619365 0.054010399
-0.17539442 -0.30627233 0.053999428
-0.1755812 -0.30634287 0.053998895
-0.17577851 -0.30642182 0.053967189
-0.17595235 -0.30649558 0.053910162
-0.17615221 -0.30657169 0.053904973
-0.1763556 -0.30664781 0.053909007
-0.17653659 -0.30672294 0.053861197
-0.17673156 -0.30679506 0.053871021
-0.17692906 -0.30687144 0.053857759
-0.17710051 -0.30694678 0.053783443
-0.17728356 -0.3070164 0.05377946
-0.17746501 -0.30708605 0.053770863
-0.17767662 -0.3071681 0.053755257
-0.17785628 -0.30723512 0.053760514
-0.17808588 -0.30731997 0.053772554
-0.17826982 -0.30739126 0.053759329
-0.17845257 -0.30746672 0.053713813
-0.17862996 -0.3075408 0.053663705
-0.1788304 -0.30761084 0.053702347
-0.17896549 -0.30767807 0.053588916
-0.17914054 -0.30774814 0.05356073
-0.17938012 -0.30783215 0.053605035
-0.17958903 -0.30791199 0.053597514
-0.17980073 -0.30799061 0.053606134
-0.18000118 -0.30806381 0.05362286
-0.18018809 -0.30814365 0.053557727
-0.18038434 -0.30821559 0.053572167
-0.18059181 -0.3082931 0.053577337
-0.092395321 -0.27853787 0.029151656
-0.09258911 -0.27862775 0.029034615
-0.092774495 -0.27871019 0.028947592
-0.092962183 -0.27879164 0.028873239
-0.093139298 -0.2788668 0.028815063
-0.093317613 -0.27894157 0.028762653
-0.093493529 -0.2790176 0.028695252
-0.093667984 -0.27908909 0.028655538
-0.093835667 -0.27915603 0.028629681
-0.094009593 -0.27922899 0.028578442
-0.094178945 -0.27929607 0.02855604
-0.094348148 -0.27936146 0.028545165
-0.094510004 -0.27942505 0.028527401
-0.094678752 -0.2794919 0.028505003
-0.094840929 -0.27955431 0.028496467
-0.095003635 -0.27961555 0.028497148
-0.095160559 -0.2796748 0.028496698
-0.095326088 -0.27973896 0.028484683
-0.095484138 -0.27979946 0.028478459
-0.095639072 -0.27985349 0.028509155
-0.095796525 -0.27991176 0.028516769
-0.095943421 -0.2799598 0.028568245
-0.096100613 -0.28001434 0.028601237
-0.09624669 -0.28006154 0.028656172
-0.096396819 -0.28011093 0.02870648
-0.096548587 -0.28016376 0.028737176
-0.096694693 -0.28020915 0.0288048
-0.096838236 -0.2802501 0.028896647
-0.096979707 -0.28029257 0.02897235
-0.097123936 -0.28033593 0.029049208
-0.09726426 -0.28037715 0.029130686
-0.097406149 -0.28041616 0.029231755
-0.097542062 -0.28045273 0.029334011
-0.097677216 -0.28048655 0.029453555
-0.097817153 -0.28052515 0.029552329
-0.097953945 -0.2805604 0.029666111
-0.098088726 -0.28059539 0.029776437
-0.098225884 -0.28063077 0.029890209
-0.098359272 -0.28066409 0.030008607
-0.098498285 -0.28070116 0.030115463
-0.098637462 -0.28073829 0.030222319
-0.098792747 -0.28078237 0.030323353
-0.098914452 -0.28079668 0.030543275
-0.099011756 -0.28079483 0.030811703
-0.094613492 -0.27484292 0.060709946
-0.094776042 -0.27490544 0.0607014
-0.095024824 -0.27500767 0.060643025
-0.095230542 -0.27508897 0.060617063
-0.095423147 -0.27515838 0.060639568
-0.095613062 -0.27522478 0.060675919
-0.095786661 -0.27529761 0.060624681
-0.095989481 -0.27537054 0.060649462
-0.096206486 -0.2754851 0.060421649
-0.096443474 -0.27556115 0.060514376
-0.096634284 -0.27562907 0.060542658
-0.096839443 -0.27571663 0.060471714
-0.097040601 -0.27579108 0.060481511
-0.097244427 -0.27587169 0.060455561
-0.097447723 -0.27595472 0.060411148
-0.097639732 -0.2760216 0.060449805
-0.097800896 -0.27608708 0.060417049
-0.098055579 -0.27619666 0.060322899
-0.098243192 -0.27626747 0.060322352
-0.098440617 -0.27633524 0.060369074
-0.098640755 -0.27641544 0.060336199
-0.098844096 -0.27649668 0.060304478
-0.099043824 -0.27657673 0.060271606
-0.099240229 -0.27664971 0.060279116
-0.099434093 -0.27672276 0.060279705
-0.099634066 -0.27680039 0.060264137
-0.099806935 -0.27686301 0.060282089
-0.10003553 -0.27696124 0.060198396
-0.10023121 -0.27703711 0.060183994
-0.10043691 -0.27712274 0.060128041
-0.10060869 -0.27718112 0.060172521
-0.10079682 -0.27725413 0.060158134
-0.10100639 -0.27734205 0.060096413
-0.10118063 -0.27740717 0.060100522
-0.10137351 -0.27748016 0.060098812
-0.10158757 -0.27756447 0.060073979
-0.10181131 -0.27765507 0.060030665
-0.10198033 -0.27771705 0.060042858
-0.10217505 -0.27779305 0.060024999
-0.10239092 -0.27788052 0.059982851
-0.10258974 -0.27795541 0.05998344
-0.1027816 -0.27802438 0.060007095
-0.10297558 -0.27809992 0.059990399
-0.1031417 -0.27816564 0.059969157
-0.10335714 -0.27825344 0.059923563
-0.10353509 -0.27831781 0.059942648
-0.10376738 -0.2784189 0.059848569
-0.10396548 -0.27849752 0.059821472
-0.10415431 -0.27856666 0.059835922
-0.10435029 -0.27864248 0.059822664
-0.10453791 -0.27871001 0.059845187
-0.10473382 -0.27878594 0.059830781
-0.104932 -0.27886939 0.059770249
-0.10512288 -0.27894211 0.059765074
-0.10531291 -0.27901369 0.059765682
-0.10550826 -0.27908945 0.05975128
-0.10569766 -0.27916029 0.059755348
-0.10589798 -0.27924404 0.059698261
-0.10608755 -0.27931958 0.059670031
-0.10628245 -0.27939531 0.059654482
-0.10647667 -0.27947015 0.059643541
-0.10666592 -0.27954143 0.05964414
-0.10686525 -0.27962911 0.05955708
-0.10705427 -0.27969599 0.059587665
-0.10721391 -0.27975893 0.059568763
-0.107421 -0.279829 0.059624672
-0.10759712 -0.27990609 0.059550349
-0.10781458 -0.27998918 0.059542805
-0.10800846 -0.2800647 0.059526097
-0.10820283 -0.28014123 0.05950363
-0.108374 -0.28020141 0.059534274
-0.10858452 -0.28029215 0.059455238
-0.10877033 -0.28035897 0.059477773
-0.10896946 -0.28045452 0.059335344
-0.10915767 -0.28052112 0.059365943
-0.10934554 -0.28058708 0.0594
-0.10953345 -0.28065819 0.059398305
-0.10971949 -0.28072596 0.059415057
-0.10991542 -0.28081235 0.059327997
-0.11009432 -0.28087741 0.059344783
-0.11029063 -0.28094921 0.059360363
-0.11048096 -0.28102571 0.059327524
-0.11066513 -0.28110138 0.059284315
-0.11085235 -0.28117222 0.059282623
-0.11105241 -0.28125206 0.059252061
-0.11123662 -0.28131714 0.059282668
-0.11143042 -0.2814019 0.059201382
-0.11161518 -0.28146833 0.05922392
-0.11180155 -0.28153822 0.059226837
-0.11199274 -0.2816124 0.059212446
-0.11218259 -0.28169003 0.05917038
-0.11237401 -0.28177139 0.059106395
-0.1125626 -0.28184691 0.059075873
-0.11274157 -0.28192043 0.059033841
-0.11293504 -0.28198802 0.059071332
-0.11312094 -0.28205806 0.059071951
-0.11330535 -0.2821247 0.059092179
-0.11349441 -0.28219557 0.059095092
-0.11368316 -0.28227282 0.05905303
-0.11386526 -0.28233409 0.059104398
-0.11405356 -0.28241065 0.059065796
-0.11424093 -0.28248522 0.05903874
-0.11443051 -0.28256574 0.058975913
-0.11461541 -0.28263456 0.058982302
-0.11480413 -0.28271359 0.058927551
-0.1149913 -0.2827889 0.058894716
-0.11517441 -0.28285339 0.058926485
-0.11536324 -0.28292552 0.058920167
-0.11554889 -0.28299725 0.058908101
-0.11573044 -0.28306597 0.058906421
-0.11591575 -0.28313708 0.058897816
-0.11610235 -0.28321233 0.058863826
-0.11629187 -0.2832877 0.058836762
-0.11647652 -0.28335759 0.058835074
-0.1166624 -0.28343159 0.05880801
-0.11683858 -0.28349397 0.058836341
-0.11703532 -0.28357437 0.058793098
-0.11719994 -0.28363883 0.058776475
-0.11740089 -0.28372431 0.05870901
-0.11759265 -0.28379935 0.058690008
-0.11777839 -0.28387511 0.058650251
-0.11793537 -0.2839238 0.058723606
-0.11814435 -0.28400666 0.058695331
-0.1183233 -0.28408101 0.058647528
-0.11851178 -0.28415698 0.058613546
-0.11866302 -0.28420696 0.058662698
-0.11888535 -0.28429571 0.058628604
-0.1190695 -0.28436738 0.058613084
-0.11924765 -0.28444061 0.058571052
-0.11941189 -0.28450775 0.058534827
-0.11957844 -0.28457129 0.058529735
-0.1198061 -0.28465825 0.058522157
-0.11998917 -0.28472638 0.05852855
-0.1201772 -0.28480482 0.058476113
-0.12033705 -0.28486764 0.058458351
-0.12052342 -0.28493753 0.058461275
-0.12072684 -0.28501466 0.058458377
-0.12089626 -0.28507861 0.058457892
-0.12107565 -0.28514519 0.058465447
-0.12125055 -0.28522661 0.058357686
-0.1214605 -0.28530687 0.058350161
-0.12164647 -0.28537628 0.058355391
-0.12182306 -0.28544906 0.058312211
-0.12200026 -0.28549677 0.05844548
-0.12214588 -0.28555307 0.058435827
-0.12234424 -0.28565282 0.058262266
-0.12252228 -0.28570744 0.058349401
-0.12268925 -0.28578985 0.058213986
-0.12291525 -0.28587219 0.058234096
-0.12309751 -0.28594086 0.058234721
-0.12328306 -0.2860094 0.058244571
-0.12345491 -0.28606752 0.05829135
-0.12364753 -0.2861495 0.058226213
-0.12380946 -0.28621197 0.05821652
-0.12396792 -0.2862688 0.05823683
-0.12416353 -0.2863546 0.058153227
-0.12435897 -0.28642821 0.058153812
-0.12455094 -0.28650534 0.05812097
-0.12472596 -0.2865757 0.058090486
-0.12490757 -0.28665024 0.058048431
-0.12509957 -0.28671843 0.058077868
-0.12526464 -0.28677711 0.058102764
-0.12543885 -0.2868568 0.058005389
-0.1256272 -0.28692758 0.058007151
-0.12582998 -0.28699073 0.058099978
-0.12597843 -0.28704163 0.058135301
-0.12615865 -0.28712559 0.058024067
-0.12634827 -0.28721705 0.057885133
-0.12652659 -0.28728122 0.057906527
-0.12672611 -0.28734496 0.057986677
-0.12693335 -0.28743133 0.057929568
-0.12709771 -0.28749469 0.057919867
-0.12726969 -0.2875545 0.057955127
-0.12745203 -0.28763857 0.057848494
-0.12761566 -0.28770515 0.057814579
-0.12779982 -0.2877765 0.057801366
-0.12799545 -0.28784406 0.057844624
-0.12818027 -0.28791204 0.057856772
-0.12836161 -0.28797933 0.057864323
-0.12851341 -0.28804889 0.057778552
-0.12869816 -0.28813258 0.05768114
-0.12890814 -0.28820142 0.05775319
-0.12910117 -0.28827992 0.057713419
-0.12929162 -0.28835383 0.057699028
-0.12946337 -0.28841487 0.057725061
-0.12963301 -0.28848353 0.057692278
-0.12981451 -0.28856218 0.057621405
-0.1299945 -0.28862053 0.057687778
-0.13016027 -0.28867698 0.057729974
-0.13032848 -0.28876102 0.057586476
-0.1305415 -0.28884509 0.057560496
-0.13071701 -0.28890622 0.057595737
-0.13089123 -0.28897119 0.057600997
-0.13106193 -0.28904572 0.057530161
-0.13126133 -0.28912467 0.057504207
-0.13143669 -0.28918639 0.05753484
-0.13162804 -0.28925648 0.057549283
-0.1318014 -0.28933269 0.05747382
-0.13198158 -0.28939244 0.057530962
-0.13216266 -0.28946826 0.057478547
-0.13234539 -0.28954008 0.057458416
-0.13252532 -0.28960934 0.057448663
-0.13270929 -0.28967831 0.057451598
-0.13288634 -0.28975344 0.05739342
-0.13307041 -0.2898221 0.057398655
-0.13327068 -0.28989804 0.057395779
-0.13345331 -0.28996947 0.057377949
-0.13361014 -0.29002902 0.057375185
-0.13380052 -0.2901009 0.057374634
-0.13396949 -0.29016766 0.057353392
-0.13413616 -0.29023126 0.057348292
-0.13431969 -0.29031479 0.057248589
-0.13450398 -0.29038289 0.057258438
-0.13469504 -0.29045337 0.057269413
-0.13486922 -0.29051134 0.057323113
-0.13506156 -0.29059309 0.057259139
-0.13525254 -0.29066384 0.057267811
-0.13541533 -0.29072681 0.057256956
-0.13558893 -0.29079235 0.057256456
-0.13576856 -0.29086745 0.057205193
-0.13595353 -0.29094076 0.057180442
-0.13612308 -0.29100594 0.057171885
-0.13632025 -0.2910741 0.057215136
-0.13650809 -0.29115495 0.057145402
-0.13668977 -0.29122669 0.057122957
-0.13687152 -0.2912983 0.057101682
-0.13704038 -0.29136419 0.0570862
-0.13722205 -0.29143578 0.057064913
-0.13739358 -0.29150367 0.057042506
-0.13757381 -0.29157686 0.05700624
-0.13776349 -0.29164401 0.057036832
-0.13793364 -0.29171339 0.057000589
-0.13810439 -0.29178199 0.056971267
-0.13827229 -0.29184371 0.056982312
-0.13844933 -0.29191521 0.056949511
-0.13864218 -0.2919938 0.056908589
-0.13882723 -0.29206136 0.056924198
-0.13904233 -0.29214504 0.056906279
-0.13923685 -0.29220775 0.056980684
-0.13940649 -0.2922819 0.056909841
-0.13957393 -0.29233515 0.056978557
-0.13975956 -0.29242066 0.056870766
-0.13994247 -0.29249948 0.056802195
-0.14010783 -0.29255942 0.056819018
-0.1402854 -0.29263425 0.056764297
-0.14045706 -0.29269278 0.05680763
-0.14063238 -0.29276526 0.056763295
-0.14083639 -0.29283747 0.056796156
-0.14099415 -0.29290432 0.056744952
-0.14116998 -0.29297203 0.056735221
-0.14136206 -0.29305053 0.056693152
-0.14154473 -0.29312462 0.056656867
-0.14174025 -0.29320011 0.056644771
-0.14190754 -0.29326278 0.056647751
-0.14208134 -0.293336 0.0565942
-0.14227086 -0.29340839 0.056587882
-0.14246491 -0.29348114 0.056590788
-0.14263955 -0.29354975 0.056571834
-0.14280777 -0.29361558 0.056555204
-0.14300938 -0.29368657 0.056590363
-0.14319228 -0.29376024 0.056557547
-0.14336586 -0.29383323 0.056505151
-0.14352876 -0.29389557 0.056498911
-0.14371261 -0.29396847 0.056474172
-0.14388385 -0.29404289 0.056405634
-0.14405678 -0.29411247 0.056375142
-0.14423032 -0.29418164 0.05634927
-0.14440431 -0.294247 0.056351081
-0.1445788 -0.29431552 0.056332126
-0.14476869 -0.29437414 0.056422673
-0.14494851 -0.29444617 0.056393325
-0.14510894 -0.29452693 0.05625217
-0.14530739 -0.29459393 0.056306954
-0.14550017 -0.29466456 0.056321394
-0.14568134 -0.29472914 0.056347392
-0.14585447 -0.29479536 0.056341127
-0.14603424 -0.29486737 0.056311779
-0.14622337 -0.29493397 0.056344673
-0.14641091 -0.29500791 0.056322221
-0.14658785 -0.29508153 0.056274425
-0.14677007 -0.29515213 0.056261215
-0.14694494 -0.29522678 0.056200735
-0.14713311 -0.2953003 0.056182902
-0.14731477 -0.2953712 0.056166224
-0.14748824 -0.29543737 0.056161121
-0.14767641 -0.29550195 0.056205545
-0.14786227 -0.29557973 0.056151964
-0.14804235 -0.29564855 0.056145679
-0.14821446 -0.29571551 0.056131341
-0.14839777 -0.29578573 0.056123897
-0.14858842 -0.2958582 0.056119882
-0.14876525 -0.29592296 0.056133214
-0.14894499 -0.29599497 0.056103855
-0.14911939 -0.29606661 0.056062993
-0.14930543 -0.29613853 0.056050926
-0.14949068 -0.2962108 0.056034237
-0.14967342 -0.29628143 0.056022178
-0.14985241 -0.29635099 0.056007829
-0.15004432 -0.296415 0.056066092
-0.15020916 -0.29648802 0.055990651
-0.15039676 -0.29656744 0.055930138
-0.15056913 -0.2966398 0.055878904
-0.15073955 -0.29670498 0.055872645
-0.15092009 -0.29677397 0.055866349
-0.1511035 -0.29683924 0.055893499
-0.15128104 -0.29691473 0.055834174
-0.15144944 -0.2969808 0.055816393
-0.1516321 -0.29705423 0.055784725
-0.15181692 -0.29712683 0.055764586
-0.15199761 -0.29719338 0.055775594
-0.15218976 -0.29725832 0.055828094
-0.15238926 -0.2973232 0.055900168
-0.15258117 -0.29740345 0.055845421
-0.15273741 -0.2974765 0.055746935
-0.15293013 -0.29755142 0.05573139
-0.1531179 -0.29762563 0.055707779
-0.15329894 -0.29769 0.055734936
-0.15347098 -0.29775992 0.05569984
-0.15365697 -0.29783478 0.055667013
-0.15383148 -0.29790151 0.055660747
-0.1540132 -0.2979683 0.055672903
-0.15420493 -0.29803902 0.055683885
-0.15433741 -0.29813311 0.055376735
-0.1545089 -0.29818907 0.055437364
-0.15470958 -0.29825473 0.055507131
-0.15492399 -0.29833022 0.055544574
-0.15510465 -0.2983976 0.055549815
-0.15526898 -0.29846528 0.055510134
-0.15545546 -0.29853782 0.055494603
-0.15562829 -0.29860756 0.055462964
-0.15583016 -0.29868031 0.055486605
-0.15600574 -0.29874709 0.055482633
-0.15619226 -0.29882199 0.055450954
-0.15636572 -0.2988916 0.055421624
-0.15655597 -0.29895896 0.055452216
-0.156753 -0.29903552 0.055436648
-0.15692969 -0.29910007 0.05545114
-0.15709102 -0.2991772 0.055337645
-0.15727925 -0.29924959 0.055327881
-0.15746126 -0.2993193 0.055320434
-0.15764888 -0.29938981 0.055322208
-0.15782765 -0.2994583 0.055314764
-0.15801802 -0.29953036 0.055313062
-0.15820003 -0.29959607 0.055333301
-0.15837932 -0.29966873 0.055298183
-0.15855207 -0.29973876 0.055264235
-0.15873587 -0.29981247 0.055233724
-0.15891722 -0.29988062 0.055235505
-0.15907189 -0.2999526 0.055140495
-0.15927526 -0.3000221 0.055190649
-0.15946099 -0.30009949 0.05513937
-0.1596539 -0.30016735 0.055173412
-0.15984249 -0.30023822 0.055175178
-0.16001603 -0.30031219 0.055115856
-0.16019356 -0.30038336 0.055086516
-0.16037717 -0.30045336 0.055081371
-0.16056064 -0.30052146 0.055088915
-0.16075327 -0.30059567 0.055077977
-0.16091916 -0.30066526 0.055029061
-0.16111258 -0.30073166 0.055074632
-0.16129225 -0.30080646 0.055025678
-0.16145374 -0.30087689 0.054959476
-0.1616583 -0.30094913 0.054993488
-0.16184658 -0.30102056 0.054990631
-0.16202621 -0.30109352 0.054954365
-0.16221485 -0.30116308 0.054965355
-0.16239509 -0.3012341 0.054944072
-0.16256894 -0.30130619 0.054898594
-0.16274703 -0.30137575 0.054881934
-0.16294533 -0.30144399 0.054927491
-0.16313773 -0.3015188 0.054911949
-0.16331549 -0.30159038 0.054880295
-0.16349328 -0.30166563 0.054823276
-0.16367736 -0.30173448 0.054827347
-0.16387609 -0.30180669 0.054846384
-0.1640489 -0.30188087 0.054783605
-0.16424917 -0.30195117 0.05481993
-0.16441365 -0.30201942 0.054776788
-0.16458678 -0.30209357 0.054715171
-0.16478994 -0.30217075 0.054711126
-0.16496715 -0.30223733 0.054712918
-0.16514178 -0.30230954 0.054668583
-0.16533747 -0.30238262 0.054673787
-0.16550489 -0.30245227 0.054628335
-0.16569568 -0.30252084 0.054651994
-0.16587313 -0.30259278 0.054616883
-0.1660677 -0.30266792 0.054604791
-0.16628225 -0.30274594 0.05462493
-0.16646327 -0.30281758 0.054601349
-0.16662467 -0.30288467 0.05455821
-0.16680831 -0.30295947 0.054519624
-0.16699632 -0.30303043 0.054519076
-0.16720629 -0.30310592 0.054544996
-0.16737445 -0.30317405 0.054512218
-0.16753504 -0.30324626 0.054431032
-0.16773632 -0.30331448 0.05448465
-0.167934 -0.30338645 0.054502536
-0.16812195 -0.30346438 0.054453559
-0.16831107 -0.30353728 0.054442629
-0.16847774 -0.30360731 0.054392561
-0.16869771 -0.30368572 0.054424211
-0.16889358 -0.30376631 0.054377522
-0.16905776 -0.30383176 0.054352827
-0.16925323 -0.30390275 0.054371864
-0.16945022 -0.30398011 0.05435054
-0.16959852 -0.30404371 0.05429706
-0.1697894 -0.30411363 0.054311503
-0.16998 -0.30418843 0.054291353
-0.17018083 -0.30426091 0.054313838
-0.1703611 -0.3043381 0.054249883
-0.17054141 -0.304409 0.054229762
-0.17073192 -0.30447611 0.054262653
-0.17092685 -0.30454773 0.054275926
-0.17110737 -0.30462962 0.054179687
