# .PCD v0.7 - Point Cloud Data file format
VERSION 0.7
FIELDS x y z
SIZE 4 4 4
TYPE F F F
COUNT 1 1 1
WIDTH 1253
HEIGHT 1
VIEWPOINT 0 0 0 1 0 0 0
POINTS 1253
DATA ascii
-0.086098202 -0.40128154 0.05672976
-0.086250409 -0.40139532 0.056619432
-0.086402334 -0.40150395 0.056540255
-0.086542904 -0.40160465 0.056465738
-0.086721167 -0.40170813 0.056522526
-0.086891592 -0.40181068 0.056553975
-0.087061778 -0.40191588 0.056568116
-0.087222368 -0.40202036 0.056548871
-0.087397814 -0.40212721 0.056573376
-0.087568015 -0.40223259 0.05658637
-0.087731071 -0.40233681 0.056578636
-0.087877527 -0.40244845 0.056459121
-0.088033333 -0.40254176 0.056490637
-0.088208176 -0.40265137 0.05649554
-0.088371336 -0.40275565 0.056487806
-0.088529378 -0.40286535 0.056425896
-0.088690162 -0.40296996 0.056406647
-0.088844381 -0.40307081 0.056385122
-0.089004964 -0.40317547 0.056364723
-0.089170322 -0.40328187 0.056352362
-0.089336209 -0.4033882 0.056342319
-0.089491829 -0.40349123 0.056312706
-0.089644045 -0.40359688 0.056253135
-0.089818187 -0.40370014 0.056294944
-0.089987673 -0.40380174 0.056328706
-0.090158716 -0.40391672 0.05628518
-0.090296164 -0.40402156 0.056172624
-0.090466596 -0.40412542 0.056196004
-0.090620257 -0.40422645 0.056171022
-0.090816095 -0.4043327 0.056279618
-0.090971187 -0.40444684 0.056178506
-0.091128796 -0.40454981 0.056156963
-0.09128619 -0.4046593 0.056093894
-0.091457114 -0.40476996 0.056076907
-0.091622323 -0.40487459 0.056074936
-0.091778114 -0.40496922 0.056098375
-0.091939211 -0.40507418 0.056077976
-0.092107855 -0.40517879 0.056089826
-0.092261925 -0.40528211 0.056052152
-0.092433602 -0.40539083 0.056050148
-0.092584699 -0.4054943 0.055999801
-0.092776969 -0.40559182 0.056148779
-0.092924938 -0.40570793 0.056007348
-0.093096741 -0.4058086 0.056056086
-0.093278594 -0.40592134 0.056069024
-0.093406074 -0.40602764 0.055908073
-0.093556866 -0.40612704 0.055881951
-0.093746766 -0.40623361 0.0559652
-0.093891926 -0.40634128 0.055865295
-0.094059072 -0.40645048 0.055842556
-0.094244383 -0.40655541 0.055917758
-0.094420187 -0.4066686 0.055904195
-0.094558202 -0.40677029 0.055813547
-0.09472613 -0.40687367 0.05583002
-0.09489058 -0.40697911 0.055819973
-0.095044129 -0.40708655 0.055754624
-0.095220253 -0.40719402 0.055777974
-0.095393702 -0.40730351 0.055778265
-0.095549971 -0.4074071 0.055747509
-0.095702067 -0.40751067 0.055700615
-0.095872715 -0.40762022 0.055689387
-0.096039951 -0.40772593 0.055688556
-0.09621571 -0.40783188 0.055719979
-0.096376762 -0.40794516 0.055647675
-0.096508712 -0.40804449 0.055547833
-0.096701846 -0.40815106 0.055643756
-0.096886784 -0.40826318 0.055672824
-0.09703701 -0.40837425 0.055571735
-0.097197607 -0.40847448 0.055579014
-0.097370118 -0.40858078 0.055595454
-0.097541481 -0.40869078 0.055584233
-0.097694479 -0.40879452 0.055539645
-0.097846791 -0.40890005 0.055481222
-0.098032221 -0.40901083 0.055520669
-0.098191962 -0.40911496 0.055500265
-0.098348722 -0.40922257 0.055446438
-0.098538361 -0.4093284 0.055533148
-0.098675147 -0.4094367 0.055396378
-0.098820925 -0.4095383 0.05533684
-0.099010006 -0.4096497 0.055386644
-0.099190325 -0.4097589 0.055415735
-0.099332631 -0.40986386 0.055321604
-0.099514291 -0.40997148 0.055365689
-0.099687561 -0.41008216 0.055357907
-0.099848226 -0.41018668 0.055338658
-0.10002832 -0.41029793 0.055353913
-0.10018939 -0.41040605 0.055313893
-0.10036568 -0.41051197 0.055347625
-0.10052091 -0.41061622 0.055308796
-0.10069221 -0.41073042 0.055271037
-0.100844 -0.41083267 0.055231065
-0.10100269 -0.41093728 0.055203758
-0.10121776 -0.4110505 0.055344548
-0.1013217 -0.41115004 0.055132978
-0.1014875 -0.41125876 0.055107936
-0.10165126 -0.4113656 0.055086359
-0.10182413 -0.41147509 0.05508434
-0.10199117 -0.41158235 0.055073142
-0.10216111 -0.41169167 0.055060759
-0.10233643 -0.41179991 0.055076037
-0.10249737 -0.4119083 0.055033717
-0.10265483 -0.41201469 0.054990269
-0.10283078 -0.41212484 0.054996312
-0.1030098 -0.41223374 0.055021949
-0.10320077 -0.4123458 0.055075206
-0.10333763 -0.4124499 0.054964963
-0.10350403 -0.41255748 0.054949138
-0.10370174 -0.412669 0.055032358
-0.10388425 -0.41278198 0.055046439
-0.10400932 -0.41288453 0.05489935
-0.1041948 -0.41299477 0.054942254
-0.10435172 -0.41310138 0.054895349
-0.10450444 -0.41320902 0.054825384
-0.10468516 -0.41331884 0.054852173
-0.10486402 -0.41343006 0.054862812
-0.1050376 -0.41353908 0.054866571
-0.10519891 -0.41364956 0.054812714
-0.10536705 -0.41375789 0.054799199
-0.10555914 -0.41386971 0.054858219
-0.10570665 -0.41397518 0.054781362
-0.10586341 -0.41408354 0.054722916
-0.10604721 -0.41419438 0.054755449
-0.10621212 -0.41430402 0.054721184
-0.10639125 -0.41441429 0.054738749
-0.10655905 -0.41452444 0.054712549
-0.10670818 -0.4146302 0.054640301
-0.10688378 -0.41474009 0.05464635
-0.10704465 -0.41484773 0.054608643
-0.10721076 -0.41495773 0.05457668
-0.10739222 -0.41506875 0.054598846
-0.10756603 -0.41518012 0.05458875
-0.10774586 -0.41529104 0.054605167
-0.1079012 -0.41539943 0.054540958
-0.10808928 -0.41551188 0.05458039
-0.10824797 -0.41562235 0.054516166
-0.10843681 -0.4157351 0.054556757
-0.10860166 -0.41584671 0.0545098
-0.10874182 -0.41595104 0.054411072
-0.10893316 -0.41606441 0.054457419
-0.10910025 -0.41617358 0.054434668
-0.10928543 -0.41628751 0.054453358
-0.10945439 -0.41639709 0.054435216
-0.10964192 -0.41651309 0.054450437
-0.10979996 -0.41662076 0.054401215
-0.10996149 -0.4167262 0.054379653
-0.11014439 -0.41684294 0.054371826
-0.11030888 -0.41695192 0.054339871
-0.1104919 -0.41706449 0.054358568
-0.11063322 -0.41716623 0.054280594
-0.11082938 -0.41728434 0.054316524
-0.11097784 -0.41738892 0.054248892
-0.11114897 -0.41750082 0.054224975
-0.11133514 -0.41762 0.054214828
-0.11152837 -0.41773218 0.054276153
-0.11166562 -0.41783318 0.054186657
-0.11186513 -0.41795525 0.054211047
-0.11203896 -0.41806516 0.054210182
-0.11218648 -0.41816968 0.054139093
-0.11237774 -0.41828468 0.054175049
-0.11253344 -0.41839236 0.05411661
-0.11271828 -0.4185048 0.05414338
-0.11289258 -0.41861925 0.054115988
-0.11303543 -0.41872564 0.054014936
-0.11323643 -0.41884312 0.054073911
-0.11341669 -0.41895485 0.054086857
-0.11360748 -0.41907308 0.054100908
-0.028447922 -0.36795965 0.03752134
-0.028609909 -0.3680639 0.037509043
-0.028771196 -0.36816734 0.037499052
-0.02894 -0.36828089 0.037455585
-0.029101163 -0.36838445 0.037444443
-0.029259834 -0.36848271 0.037456382
-0.029421974 -0.36858782 0.037439466
-0.029584453 -0.3686935 0.03742025
-0.029747929 -0.36880276 0.037382569
-0.02991103 -0.36890957 0.037358738
-0.030072909 -0.36901486 0.037339523
-0.030234586 -0.36912003 0.037320301
-0.030395586 -0.3692244 0.037303399
-0.03055875 -0.36933401 0.037262261
-0.030718014 -0.36943415 0.037264969
-0.030880049 -0.36953601 0.037267663
-0.031038903 -0.36964014 0.037243851
-0.031197276 -0.36974156 0.037235025
-0.031360615 -0.36985001 0.037201963
-0.031519853 -0.36995289 0.037187371
-0.031677239 -0.37005553 0.037167028
-0.031836633 -0.37015668 0.037163965
-0.031997479 -0.37026444 0.037125148
-0.03215554 -0.37036622 0.037112873
-0.032313034 -0.37046504 0.037116736
-0.032472432 -0.37056896 0.037096385
-0.032628912 -0.37067342 0.037061047
-0.032789189 -0.37077659 0.037048761
-0.032949299 -0.37087968 0.037036464
-0.033102602 -0.3709777 0.037028819
-0.033260524 -0.37108251 0.036996935
-0.0334181 -0.37118232 0.036995038
-0.033579573 -0.37128791 0.03697237
-0.033737339 -0.37139061 0.036953166
-0.03389449 -0.37149256 0.036936283
-0.03405147 -0.37159437 0.036919393
-0.034208942 -0.37169707 0.036899049
-0.034365136 -0.37180045 0.036869474
-0.034525491 -0.37190774 0.036831819
-0.034674708 -0.37199855 0.036853023
-0.03483364 -0.37210402 0.036821134
-0.034994576 -0.3722102 0.036792696
-0.035148695 -0.37230873 0.036785048
-0.035302058 -0.37240624 0.03678086
-0.03545592 -0.37250462 0.036773212
-0.035610657 -0.37260449 0.036759794
-0.035772171 -0.37271231 0.036723282
-0.035924584 -0.37281144 0.036705267
-0.036082264 -0.37291372 0.03668838
-0.036235571 -0.37301192 0.036679577
-0.036389146 -0.37311068 0.036668472
-0.036543716 -0.37321377 0.036634304
-0.036701411 -0.37331399 0.036630102
-0.036852904 -0.37341255 0.036612086
-0.03700868 -0.37351269 0.03660097
-0.037161712 -0.37361127 0.036588706
-0.037315555 -0.37371132 0.036570683
-0.037467584 -0.3738113 0.036545746
-0.037622966 -0.37391138 0.036533482
-0.037773918 -0.3740072 0.036530461
-0.03792531 -0.37410381 0.036523975
-0.038081557 -0.37420851 0.036486339
-0.038231745 -0.37430346 0.036485631
-0.038384378 -0.37440252 0.036468759
-0.038536668 -0.37450123 0.036453053
-0.038690962 -0.37460339 0.036423486
-0.038845025 -0.37470245 0.036412388
-0.038993582 -0.37479821 0.036400147
-0.039147031 -0.3748965 0.036391355
-0.039295673 -0.3749927 0.036376812
-0.039450899 -0.3750973 0.036335714
-0.039602563 -0.375193 0.036336146
-0.039751858 -0.37528774 0.036333144
-0.039902657 -0.37538826 0.036300134
-0.040054291 -0.37548429 0.036298268
-0.040203236 -0.37557882 0.036295254
-0.040358253 -0.37568107 0.036267992
-0.040507283 -0.37577918 0.03624307
-0.040660352 -0.37588149 0.03620775
-0.040811688 -0.37597772 0.036203578
-0.040961273 -0.37607414 0.036191341
-0.041111827 -0.37617245 0.036171023
-0.041259911 -0.37626645 0.036168013
-0.041408546 -0.37636483 0.036139634
-0.041559599 -0.37646458 0.036112405
-0.041708238 -0.37655669 0.036123231
-0.041858271 -0.37665489 0.036101762
-0.042005144 -0.37675068 0.036082614
-0.042154454 -0.37684786 0.03606461
-0.042306494 -0.37694693 0.036045443
-0.042458396 -0.37704593 0.036026277
-0.04260502 -0.37714195 0.036004826
-0.042755228 -0.37723801 0.035997197
-0.042903125 -0.37733686 0.035963051
-0.043053299 -0.37743679 0.035931207
-0.043202117 -0.37753791 0.035886679
-0.043348949 -0.37763166 0.035880227
-0.043497294 -0.37773228 0.035836849
-0.043643087 -0.37782428 0.035837311
-0.043787517 -0.37790984 0.035872377
-0.043937042 -0.37800583 0.03586245
-0.044081047 -0.37809446 0.035876758
-0.044226788 -0.37818679 0.035874911
-0.044373721 -0.37828171 0.035861529
-0.044522602 -0.37837696 0.035853907
-0.044669058 -0.3784712 0.035842836
-0.044817731 -0.37856629 0.035835214
-0.044963848 -0.37866014 0.035825297
-0.045110106 -0.37875447 0.035813078
-0.045256138 -0.37884843 0.035802007
-0.045400649 -0.37893924 0.035804775
-0.045543581 -0.37903088 0.035796031
-0.045688391 -0.37912264 0.035794191
-0.045833353 -0.37921482 0.035790045
-0.045978222 -0.37930697 0.035785902
-0.046117894 -0.37939176 0.035807151
-0.04626321 -0.37948066 0.035824914
-0.046404302 -0.37956432 0.035858843
-0.046545826 -0.37964898 0.035888154
-0.046685144 -0.37972373 0.035970517
-0.046820965 -0.37979463 0.036063276
-0.046960216 -0.37986878 0.036149099
-0.047099181 -0.37994203 0.036239542
-0.047235016 -0.38001218 0.036336921
-0.04737059 -0.38007644 0.036470041
-0.047503728 -0.38013917 0.036603179
-0.047636501 -0.38019538 0.036775514
-0.047769193 -0.38025597 0.036920182
-0.047903527 -0.38031501 0.037080992
-0.048037697 -0.380373 0.037247561
-0.0481693 -0.38042903 0.037416443
-0.048302032 -0.38047633 0.03764414
-0.048431337 -0.38052461 0.03785225
-0.048563484 -0.38057411 0.038063794
-0.048826508 -0.38066682 0.038521502
-0.049442329 -0.37840194 0.055071898
-0.049737945 -0.37852484 0.055469487
-0.04987637 -0.37859091 0.055602588
-0.050031092 -0.37867838 0.055666439
-0.050193824 -0.37877625 0.055696793
-0.050359793 -0.37887675 0.055723686
-0.050516985 -0.3789728 0.055743702
-0.051815521 -0.38236654 0.039691627
-0.051951163 -0.38244471 0.039738264
-0.052098572 -0.38252419 0.039822899
-0.052234925 -0.38259542 0.039915655
-0.052372783 -0.3826724 0.03997843
-0.053719923 -0.38217691 0.048373822
-0.054852717 -0.38108197 0.059663452
-0.055031147 -0.38123307 0.059423909
-0.055216104 -0.38134685 0.059442632
-0.055390701 -0.38144502 0.059517913
-0.055547327 -0.38153571 0.059569068
-0.055702303 -0.3816385 0.05953835
-0.055858996 -0.3817296 0.059587188
-0.056019541 -0.38183072 0.059588742
-0.056180559 -0.38193825 0.05955223
-0.056364596 -0.38208029 0.059391074
-0.056533821 -0.38218376 0.059412181
-0.056709673 -0.38229883 0.059387129
-0.05688205 -0.3824065 0.059394389
-0.05703909 -0.38250631 0.059390187
-0.057226706 -0.38262197 0.059407745
-0.057393271 -0.38273874 0.059335463
-0.057559401 -0.38284671 0.059316229
-0.057722323 -0.38295028 0.059311997
-0.057875834 -0.38303772 0.059371233
-0.05804491 -0.38315031 0.059334688
-0.058201581 -0.38326249 0.059252076
-0.058355086 -0.38335493 0.059280179
-0.058505513 -0.38344762 0.059294455
-0.058664903 -0.3835589 0.059227966
-0.058852114 -0.38367209 0.059259377
-0.059032843 -0.38379225 0.05922161
-0.05918894 -0.3838965 0.059186287
-0.059375606 -0.38401911 0.059156574
-0.059544336 -0.38412043 0.059189208
-0.059688084 -0.38421425 0.059170082
-0.059856653 -0.38431805 0.059186582
-0.060006022 -0.38442081 0.05913398
-0.060182158 -0.38454804 0.059033979
-0.060350806 -0.38464874 0.059070084
-0.060491677 -0.38473505 0.05908671
-0.060674563 -0.38485563 0.059054714
-0.060830541 -0.38495278 0.059063192
-0.060991567 -0.38506216 0.059015159
-0.061183374 -0.38518783 0.058986567
-0.061347991 -0.38529339 0.058976568
-0.061500099 -0.38539287 0.058955096
-0.061670113 -0.38550591 0.058919691
-0.061835773 -0.38560396 0.058960423
-0.06199405 -0.38570589 0.058948144
-0.062160347 -0.38581935 0.058895461
-0.062327925 -0.38592529 0.058894668
-0.062495425 -0.38603154 0.058891572
-0.062646165 -0.38613516 0.058838967
-0.062808819 -0.38624704 0.058781695
-0.062974691 -0.3863593 0.058734782
-0.063155435 -0.38646728 0.05877313
-0.063310005 -0.38656759 0.058756251
-0.063474499 -0.38667026 0.058763552
-0.06363865 -0.38677424 0.058761615
-0.063787133 -0.38687015 0.058748234
-0.063953951 -0.38697708 0.058738217
-0.064126521 -0.38708878 0.058721259
-0.064294375 -0.38719192 0.05873891
-0.064447351 -0.38728455 0.058763556
-0.064602815 -0.38740355 0.058633663
-0.064770542 -0.38751772 0.058582135
-0.064932324 -0.38761649 0.058603279
-0.065094128 -0.3877258 0.058558695
-0.065269075 -0.38782936 0.058601692
-0.065424725 -0.38793463 0.058558278
-0.06558308 -0.3880325 0.058571368
-0.065750897 -0.38813525 0.058591329
-0.065914907 -0.38824746 0.058537513
-0.066072673 -0.38835588 0.058482572
-0.066247962 -0.38845894 0.058530174
-0.066414453 -0.38857344 0.058471721
-0.066569678 -0.38867801 0.058430631
-0.066728279 -0.38878345 0.058397595
-0.066887267 -0.38888785 0.058372624
-0.067053556 -0.38899335 0.058369529
-0.067211881 -0.38909087 0.058384925
-0.067377225 -0.38919815 0.058366843
-0.067533448 -0.38929969 0.058348808
-0.067702025 -0.38940072 0.058382604
-0.067865483 -0.38951126 0.058336854
-0.068033181 -0.38961396 0.058356822
-0.068190448 -0.38971338 0.058356076
-0.068329051 -0.38983762 0.058127098
-0.06850183 -0.38993832 0.058179323
-0.068663709 -0.39002976 0.058246598
-0.068823971 -0.39012405 0.058289655
-0.068981223 -0.39024323 0.058165524
-0.069151387 -0.39035508 0.058138199
-0.069332451 -0.39042461 0.058417547
-0.069482975 -0.39053401 0.058328047
-0.069634162 -0.39066711 0.058093242
-0.069802292 -0.39076287 0.058158174
-0.069966994 -0.39085755 0.058216207
-0.070143342 -0.39097273 0.058192313
-0.070311517 -0.39107499 0.058216885
-0.070464611 -0.39117363 0.058204621
-0.070623673 -0.39129341 0.058083944
-0.070783056 -0.39138955 0.058112025
-0.070943102 -0.39150181 0.058042079
-0.071106821 -0.39160937 0.058015935
-0.071273446 -0.39171344 0.058023214
-0.071459621 -0.39182189 0.058079991
-0.071618252 -0.39191383 0.058131125
-0.071760997 -0.39202368 0.058008224
-0.07194341 -0.39214176 0.057990063
-0.072105289 -0.39225096 0.05794663
-0.072256677 -0.39235073 0.057920538
-0.072417945 -0.39245525 0.057903636
-0.072577618 -0.3925564 0.057901733
-0.072731055 -0.39266375 0.057836421
-0.072891623 -0.39276877 0.057813756
-0.073056802 -0.39286929 0.057837188
-0.073218778 -0.39296821 0.057858329
-0.073403828 -0.39307871 0.057897817
-0.073567644 -0.39318079 0.05790627
-0.073717222 -0.39328182 0.057865199
-0.073889546 -0.39339465 0.057840161
-0.074045479 -0.39349452 0.057831358
-0.074201144 -0.39359459 0.057820242
-0.074373752 -0.39370704 0.057798665
-0.07452181 -0.39381766 0.05769188
-0.074681811 -0.39392269 0.057666905
-0.074840568 -0.39402008 0.0576846
-0.075002655 -0.39411923 0.05770459
-0.075175487 -0.39423126 0.057686474
-0.075316221 -0.39432153 0.057677738
-0.075474389 -0.39442781 0.057637788
-0.075630046 -0.39453989 0.057551712
-0.075810313 -0.39463833 0.05764772
-0.07596954 -0.39473972 0.057642359
-0.076119646 -0.39484736 0.057562079
-0.076269597 -0.39495492 0.057481799
-0.076439261 -0.39505312 0.057537511
-0.076606445 -0.39516085 0.057524029
-0.076769054 -0.39526382 0.057522107
-0.076930434 -0.39537141 0.05748675
-0.077103958 -0.39547518 0.057522833
-0.077261545 -0.39558128 0.057481721
-0.077422842 -0.39568511 0.057469428
-0.077584252 -0.39579251 0.057435218
-0.077740192 -0.39589572 0.057405651
-0.077899732 -0.39600044 0.05738068
-0.07806579 -0.39610153 0.057404112
-0.078226112 -0.39620584 0.057384904
-0.078389741 -0.39631188 0.05736798
-0.078556404 -0.39641634 0.057372961
-0.078711726 -0.39652321 0.057318032
-0.078882225 -0.39662915 0.057328753
-0.079052269 -0.39674219 0.057293352
-0.079207726 -0.3968488 0.057240721
-0.07937853 -0.39694455 0.057316024
-0.079529598 -0.39704654 0.057274953
-0.079703361 -0.39714122 0.057368688
-0.079860397 -0.39724049 0.057367947
-0.080025777 -0.39735892 0.057280675
-0.080184072 -0.39747378 0.057187673
-0.080354244 -0.39757693 0.057214543
-0.080517732 -0.39767343 0.057256434
-0.080656156 -0.39778683 0.057094339
-0.080799416 -0.39788848 0.057024471
-0.080969304 -0.39799184 0.057049036
-0.081148706 -0.39810079 0.057075858
-0.081330627 -0.39821506 0.057079617
-0.081492908 -0.39832154 0.057054631
-0.081666216 -0.39841482 0.057155289
-0.081806891 -0.39850822 0.057126947
-0.081969395 -0.39862666 0.057028159
-0.082112044 -0.39872515 0.056975592
-0.082278445 -0.39883018 0.056975961
-0.082448825 -0.39891919 0.057091624
-0.082605988 -0.39903039 0.057017077
-0.082764506 -0.39913523 0.056987498
-0.082904913 -0.3992458 0.056850761
-0.08307521 -0.3993468 0.056891471
-0.08324191 -0.39944905 0.056910276
-0.083425201 -0.39956048 0.056937084
-0.083586112 -0.39966738 0.056904037
-0.083753213 -0.39976692 0.056941301
-0.08391133 -0.39986911 0.056926712
-0.084072083 -0.39997333 0.056909814
-0.084235288 -0.40009055 0.056821402
-0.084397569 -0.40019703 0.056796417
-0.084553204 -0.40029171 0.056818739
-0.08471249 -0.40039629 0.056793779
-0.084871471 -0.40049827 0.056783795
-0.08503633 -0.40060416 0.056772634
-0.085220054 -0.40071088 0.056830578
-0.08537595 -0.40082681 0.056721441
-0.085520759 -0.40092686 0.056667715
-0.085681304 -0.40102854 0.056665804
-0.085863225 -0.40113339 0.056728363
-0.086011767 -0.40123007 0.056710362
-0.086167626 -0.40133542 0.056666963
-0.08631774 -0.40144697 0.056562461
-0.086467639 -0.40155339 0.056489103
-0.086625263 -0.40165323 0.056487206
-0.086796008 -0.40175563 0.056520995
-0.086972423 -0.40185955 0.056567442
-0.087137982 -0.40196311 0.056573566
-0.087302618 -0.40207422 0.056528971
-0.08748313 -0.40218019 0.05657886
-0.087652586 -0.40228087 0.056618411
-0.087807506 -0.40239599 0.056510441
-0.087957844 -0.40249732 0.056470525
-0.088119723 -0.40259689 0.056487046
-0.088296346 -0.40269911 0.056545019
-0.088451244 -0.40281165 0.056453191
-0.088618331 -0.40292004 0.056435108
-0.088771708 -0.4030233 0.056395169
-0.088927239 -0.40312624 0.056365609
-0.089096934 -0.40323204 0.056374032
-0.089258984 -0.40333652 0.056360576
-0.089423485 -0.40344533 0.05632982
-0.089577824 -0.40354845 0.056294493
-0.089742497 -0.40365493 0.056278728
-0.089907624 -0.40375692 0.056292932
-0.090080678 -0.40386042 0.056329016
-0.090247132 -0.40397581 0.056264807
-0.090369701 -0.40407529 0.056126997
-0.09055236 -0.40418023 0.056191862
-0.090718061 -0.40428239 0.056207225
-0.090909824 -0.40439126 0.056283571
-0.091053993 -0.404504 0.056147978
-0.091227867 -0.40461007 0.056171373
-0.091374382 -0.40471599 0.05608765
-0.091550708 -0.4048284 0.056081053
-0.091709644 -0.40492702 0.05609183
-0.091866404 -0.40502796 0.056079559
-0.092031471 -0.40513268 0.056076467
-0.092190698 -0.40523779 0.056048036
-0.092358589 -0.40534246 0.05605647
-0.092520759 -0.40545163 0.056014188
-0.092679903 -0.4055526 0.056011125
-0.092864431 -0.40565464 0.056101348
-0.093020447 -0.40576622 0.056019887
-0.09319894 -0.40586668 0.056096312
-0.093364149 -0.40598202 0.056027487
-0.093494013 -0.40608817 0.055876963
-0.093660772 -0.40618914 0.055903852
-0.09384422 -0.40629792 0.055947952
-0.093986772 -0.40640357 0.055850424
-0.094156742 -0.40651268 0.055839241
-0.094343476 -0.40661964 0.055907544
-0.094513208 -0.40673286 0.055869833
-0.094651617 -0.40683052 0.055805758
-0.094825253 -0.40693584 0.05583261
-0.09497977 -0.40704131 0.055783447
-0.095141597 -0.40714675 0.055763081
-0.095317304 -0.40725616 0.055772625
-0.095487371 -0.40736368 0.05577182
-0.09564051 -0.40746528 0.055741109
-0.09579578 -0.40757269 0.055682722
-0.095963009 -0.40768027 0.055670403
-0.096139558 -0.40778616 0.055705309
-0.096305691 -0.4078919 0.055699915
-0.096462049 -0.40800315 0.055621915
-0.096602157 -0.40810263 0.055553209
-0.096791074 -0.40820912 0.055633042
-0.096975423 -0.40832308 0.055648316
-0.0971274 -0.40843043 0.055577256
-0.09728428 -0.40853053 0.055570744
-0.097465828 -0.40864086 0.055597559
-0.097626582 -0.40874675 0.055570271
-0.097783595 -0.40885246 0.05552917
-0.097938076 -0.40895808 0.055478856
-0.098116547 -0.4090685 0.055492997
-0.098280467 -0.40917102 0.05549914
-0.098436959 -0.40927678 0.055455737
-0.098629043 -0.4093864 0.055528626
-0.098756179 -0.40949228 0.055368893
-0.098909669 -0.4095943 0.055337034
-0.099101067 -0.40970588 0.055394936
-0.099273898 -0.4098146 0.055397574
-0.099413827 -0.40991932 0.055295438
-0.099603742 -0.41002753 0.055368338
-0.099773377 -0.41013792 0.055347934
-0.099936008 -0.41024259 0.055335637
-0.10011366 -0.41035193 0.055353239
-0.10026988 -0.41045791 0.055307526
-0.10045169 -0.410566 0.055349339
-0.10060532 -0.41067183 0.055294409
-0.10077234 -0.41078222 0.055263638
-0.10092623 -0.41088635 0.055220246
-0.10109243 -0.41099161 0.055218302
-0.10129626 -0.41110381 0.05532112
-0.10139455 -0.41120276 0.055091176
-0.10156997 -0.41131234 0.055098422
-0.10174274 -0.41142011 0.055106834
-0.10190031 -0.41152802 0.055054195
-0.10207327 -0.41163421 0.055072982
-0.1022432 -0.41174349 0.055060636
-0.10241465 -0.41185135 0.055063292
-0.10257308 -0.41195944 0.055012949
-0.10273193 -0.41206595 0.054974154
-0.10291073 -0.4121764 0.054989442
-0.10309154 -0.41228554 0.05502088
-0.10328255 -0.41239759 0.055074178
-0.10341719 -0.41250139 0.054957066
-0.10358538 -0.41260919 0.054947048
-0.10378461 -0.41272092 0.055034891
-0.10396057 -0.41283306 0.055028297
-0.10408444 -0.41293544 0.054877803
-0.10427116 -0.41304421 0.05493458
-0.10443065 -0.41315114 0.054895766
-0.1045811 -0.41325846 0.054818943
-0.10477001 -0.41336939 0.05487109
-0.10494144 -0.4134796 0.054858752
-0.10511354 -0.4135884 0.054857936
-0.10527519 -0.41369891 0.054805283
-0.10544068 -0.41380686 0.054783743
-0.10564014 -0.41392133 0.054855444
-0.10579105 -0.41402724 0.054788999
-0.10594589 -0.41413531 0.054724846
-0.10613048 -0.41424626 0.054759722
-0.10628988 -0.41435352 0.054718606
-0.10647096 -0.41446412 0.054741964
-0.10663177 -0.41457316 0.054695077
-0.10678747 -0.41467991 0.054642446
-0.10696121 -0.41479105 0.05463355
-0.10712873 -0.41489974 0.05461546
-0.10729162 -0.41500768 0.054583561
-0.10747114 -0.4151184 0.054600008
-0.10764178 -0.41522923 0.054580752
-0.10782758 -0.41534117 0.054614466
-0.10798173 -0.41544932 0.054546855
-0.10817465 -0.4155626 0.054600138
-0.1083249 -0.41567165 0.054511782
-0.10851498 -0.4157846 0.054555863
-0.1086798 -0.41589618 0.054508954
-0.10882603 -0.41600156 0.054427546
-0.10900967 -0.41611362 0.054452039
-0.10918163 -0.41622508 0.054433927
-0.1093619 -0.41633812 0.054438841
-0.10953868 -0.41644913 0.054442622
-0.10971549 -0.41656315 0.054427944
-0.10988469 -0.41667289 0.054409843
-0.1100475 -0.41677856 0.054391775
-0.11022424 -0.41689271 0.054375947
-0.11039901 -0.41700652 0.054354362
-0.11056799 -0.41711354 0.05435241
-0.11072393 -0.41721952 0.054305546
-0.110921 -0.41733781 0.054343827
-0.11106268 -0.41744107 0.054257818
-0.11124007 -0.4175556 0.054241985
-0.11141774 -0.41767311 0.054208856
-0.11161788 -0.41778669 0.054288637
-0.11174305 -0.41788524 0.054166961
-0.11194931 -0.41801009 0.054200575
-0.11212012 -0.41811934 0.054191697
-0.11227865 -0.41822475 0.054158662
-0.11246737 -0.41833925 0.054187752
-0.11261979 -0.41844761 0.054112069
-0.11281279 -0.41856316 0.054151516
-0.11298425 -0.41867563 0.054125335
-0.113124 -0.41878134 0.054016277
-0.11332855 -0.41890234 0.054067198
-0.11352949 -0.41901994 0.054125056
-0.02840269 -0.36792979 0.037529401
-0.028563034 -0.36803374 0.037512515
-0.028724544 -0.36813733 0.03750255
-0.02889042 -0.36824477 0.037485644
-0.029052295 -0.36835322 0.037446842
-0.029218659 -0.36845744 0.037451852
-0.029379699 -0.36856091 0.037440732
-0.029537905 -0.36866277 0.037428476
-0.02970697 -0.36877519 0.037393097
-0.029873997 -0.36888504 0.037365809
-0.030033432 -0.36898899 0.037345476
-0.030198 -0.36909577 0.037327416
-0.030359469 -0.36920062 0.037309386
-0.030524518 -0.36931053 0.037274025
-0.030685086 -0.36941442 0.037258297
-0.030845579 -0.36951402 0.037269097
-0.031003907 -0.36961725 0.037248772
-0.031161804 -0.36972004 0.037229594
-0.031328708 -0.36982888 0.037208065
-0.031488404 -0.36993223 0.037192341
-0.031647678 -0.37003735 0.037163932
-0.031809442 -0.37013942 0.037164345
-0.031970762 -0.37024549 0.037138235
-0.032127809 -0.37034792 0.037117913
-0.032289807 -0.37045068 0.037114866
-0.032449931 -0.3705532 0.037106059
-0.032609269 -0.37065929 0.03707188
-0.032765616 -0.37076128 0.037051562
-0.032928571 -0.37086594 0.037040431
-0.033082969 -0.37096539 0.037028193
-0.033241227 -0.37106821 0.037010163
-0.033395767 -0.37116814 0.036995627
-0.033560071 -0.37127534 0.03697411
-0.033717133 -0.37137684 0.036959548
-0.033878449 -0.37148231 0.036936894
-0.034035616 -0.37158427 0.036920033
-0.034192402 -0.37168577 0.036904324
-0.034349442 -0.37179023 0.036871314
-0.034508467 -0.37189537 0.036841754
-0.034663074 -0.37199163 0.036850274
-0.034820478 -0.37209466 0.036827639
-0.03497941 -0.37220013 0.036795773
-0.035137184 -0.37230152 0.036784668
-0.035290934 -0.37239945 0.036779348
-0.035444133 -0.37249666 0.036776345
-0.035598651 -0.37259603 0.036765255
-0.035761166 -0.37270522 0.036724139
-0.035917386 -0.3728075 0.036701515
-0.036072228 -0.37290779 0.036685813
-0.036226112 -0.37300673 0.036674727
-0.036381464 -0.3731055 0.036670562
-0.036536809 -0.37320963 0.03663294
-0.036694482 -0.37330967 0.036629915
-0.036846343 -0.37340862 0.036610767
-0.037000269 -0.37350833 0.036595073
-0.037156649 -0.37360939 0.036580514
-0.037312694 -0.37371007 0.036567107
-0.037461713 -0.37380779 0.036544517
-0.03761632 -0.37390646 0.036538046
-0.037771933 -0.37400687 0.036524639
-0.037923303 -0.37410331 0.036519334
-0.038076542 -0.37420571 0.036484033
-0.038230602 -0.37430403 0.036477566
-0.038385451 -0.37440377 0.036465324
-0.038537718 -0.37450224 0.036450788
-0.038688872 -0.37460187 0.036424715
-0.038846582 -0.37470397 0.036409002
-0.038995303 -0.37479985 0.03639679
-0.039149597 -0.37489942 0.036383402
-0.039299786 -0.37499508 0.036378093
-0.039457768 -0.37510124 0.036338158
-0.039604411 -0.37519413 0.036336336
-0.039757982 -0.37529305 0.036324102
-0.039909251 -0.37539423 0.036288809
-0.040063627 -0.37549183 0.036288101
-0.040212557 -0.37558615 0.036286265
-0.040367883 -0.37568879 0.036257874
-0.040516578 -0.37578613 0.036236435
-0.040670116 -0.37588909 0.036198825
-0.04082112 -0.37598455 0.036198139
-0.040973909 -0.37608334 0.036183599
-0.041123986 -0.37618062 0.03616792
-0.041273311 -0.3762767 0.036156856
-0.041423742 -0.37637493 0.036136556
-0.041577373 -0.37647593 0.036111634
-0.041724641 -0.37656868 0.03611327
-0.041876607 -0.37667027 0.036077973
-0.042024836 -0.3767651 0.036070373
-0.042176567 -0.37686324 0.036055837
-0.042329334 -0.3769635 0.036032077
-0.04248108 -0.37706202 0.036015231
-0.042629831 -0.37715846 0.035999563
-0.042780608 -0.37725544 0.035988491
-0.042929482 -0.37735602 0.035947442
-0.043081518 -0.37745583 0.035923686
-0.043230042 -0.37755617 0.035882637
-0.043380536 -0.37765336 0.035869256
-0.04352928 -0.3777546 0.035823599
-0.043676689 -0.37784594 0.035834461
-0.043824371 -0.37793413 0.035866071
-0.04397364 -0.37802941 0.035859626
-0.044118296 -0.37811917 0.035869341
-0.044267129 -0.37821382 0.035865199
-0.044414427 -0.37830934 0.035849527
-0.044564053 -0.37840596 0.03583616
-0.044712454 -0.37850016 0.035833169
-0.044861492 -0.37859583 0.035823263
-0.045007493 -0.37868926 0.035815679
-0.045154471 -0.37878492 0.035797704
-0.04530026 -0.37887821 0.035790116
-0.045450263 -0.37897247 0.035792887
-0.04559353 -0.37906471 0.035781853
-0.045740917 -0.37915769 0.035782326
-0.045884214 -0.37925032 0.035768982
-0.046032872 -0.37934208 0.035782147
-0.046172451 -0.37942642 0.035805717
-0.046317477 -0.3795144 0.035828121
-0.046460327 -0.37960196 0.035844762
-0.046601452 -0.37968081 0.035908699
-0.046742018 -0.37975818 0.035979558
-0.046882957 -0.37983158 0.036076933
-0.047022395 -0.37990585 0.036162794
-0.047158167 -0.37997577 0.036261342
-0.047295775 -0.38004503 0.036371432
-0.047434568 -0.38011187 0.036501113
-0.047566958 -0.38017225 0.036645815
-0.047703452 -0.38023227 0.036808953
-0.04783535 -0.38029033 0.036966331
-0.047972817 -0.38035172 0.037124857
-0.048106711 -0.38040844 0.037298385
-0.04823697 -0.38046026 0.037488069
-0.048373096 -0.38051045 0.037711173
-0.048503514 -0.38056108 0.037908938
-0.048633911 -0.38060504 0.038148217
-0.048763782 -0.3806524 0.038364429
-0.048903413 -0.38070256 0.038601354
-0.049039841 -0.38074851 0.038852144
-0.049179219 -0.38080186 0.039068311
-0.049692325 -0.37850988 0.055383246
-0.049829055 -0.37857005 0.055546373
-0.049979795 -0.37865204 0.055628724
-0.050141968 -0.37874752 0.0556718
-0.050304614 -0.37884462 0.055706806
-0.050470691 -0.37894496 0.055734873
-0.051778145 -0.38234642 0.039669923
-0.051921591 -0.38242802 0.039725777
-0.052054651 -0.38250437 0.039773606
-0.052203879 -0.38258114 0.039882477
-0.052339189 -0.38265669 0.039944135
-0.05248481 -0.38273656 0.040019579
-0.053848155 -0.38225704 0.048378978
-0.053991638 -0.38233203 0.04847635
-0.054837856 -0.38107184 0.059668191
-0.054999001 -0.38119683 0.059523296
-0.055183962 -0.38133243 0.059405971
-0.055374056 -0.38143948 0.059486978
-0.05553069 -0.38152906 0.05954507
-0.055694271 -0.3816295 0.059562773
-0.055846058 -0.38172841 0.059543625
-0.056005899 -0.38182002 0.059601713
-0.056163367 -0.38191772 0.059612527
-0.056335904 -0.38205951 0.059407599
-0.056521267 -0.38218039 0.05938369
-0.056702822 -0.38228926 0.059419766
-0.056869779 -0.38240275 0.059369408
-0.057026625 -0.38249561 0.059407905
-0.05721451 -0.38261235 0.059419721
-0.057384361 -0.38273138 0.059346288
-0.057550699 -0.38283986 0.059324764
-0.057716943 -0.38294864 0.05930094
-0.05786448 -0.38303435 0.059347548
-0.05804294 -0.38315234 0.059314445
-0.058193609 -0.38325331 0.059277996
-0.058347262 -0.38335285 0.059262302
-0.058500979 -0.38344133 0.059315801
-0.058663711 -0.38355085 0.059273541
-0.05884172 -0.38366765 0.059246205
-0.05902566 -0.38379112 0.059200369
-0.059185218 -0.38389161 0.059201956
-0.059359755 -0.38400826 0.059161942
-0.059537798 -0.38411674 0.059186496
-0.059688009 -0.38421169 0.059185803
-0.059850238 -0.3843174 0.059165459
-0.060009487 -0.38441917 0.059157804
-0.060182787 -0.38454443 0.059058994
-0.060351331 -0.38464859 0.059073213
-0.060495317 -0.38473794 0.059082933
-0.060672153 -0.38485584 0.059044056
-0.060828619 -0.38495031 0.059071027
-0.06099043 -0.38505501 0.059055291
-0.061172787 -0.38517895 0.059000254
-0.061343566 -0.38528952 0.058983322
-0.061496966 -0.38538167 0.059012603
-0.06166951 -0.38550165 0.058943771
-0.061828587 -0.3856 0.058956876
-0.06199117 -0.38569778 0.058987275
-0.062160131 -0.38581663 0.05891154
-0.06232769 -0.38592383 0.058902696
-0.062491886 -0.38603041 0.058884643
-0.062646627 -0.3861323 0.058858566
-0.062812738 -0.38624525 0.058808211
-0.062964477 -0.38634413 0.058789067
-0.063139752 -0.38646162 0.05874674
-0.063304938 -0.38656232 0.058769055
-0.063472331 -0.38666832 0.058767129
-0.063634217 -0.38676825 0.058781382
-0.063788794 -0.38686875 0.058763374
-0.063949235 -0.38697371 0.058740728
-0.064116366 -0.38708007 0.058735345
-0.064283088 -0.38718769 0.058720745
-0.064447366 -0.38727972 0.058793798
-0.064595059 -0.38738954 0.058690481
-0.064761102 -0.38750967 0.058595158
-0.064926222 -0.38761017 0.05861862
-0.065087676 -0.38772109 0.058562525
-0.06526275 -0.38782495 0.058604389
-0.065423414 -0.38792744 0.058597889
-0.06558083 -0.38802841 0.058587946
-0.065744057 -0.3881242 0.058633327
-0.0659099 -0.38824201 0.05855184
-0.066068277 -0.3883495 0.058504976
-0.06623894 -0.388455 0.058519185
-0.066404864 -0.38856247 0.058502279
-0.06656006 -0.38867629 0.058403544
-0.066718951 -0.38877305 0.058425881
-0.066881321 -0.38887921 0.058403224
-0.067043692 -0.38898519 0.058381729
-0.067204162 -0.38908681 0.058379836
-0.067368016 -0.38918963 0.058383703
-0.067524783 -0.3892906 0.05837144
-0.067688607 -0.38939342 0.058375306
-0.067857064 -0.38950267 0.058357239
-0.068024255 -0.38961411 0.05832072
-0.06818857 -0.38970873 0.058377624
-0.068322971 -0.38982642 0.058172885
-0.068489432 -0.38993129 0.058174435
-0.06865152 -0.39001581 0.058285557
-0.068814032 -0.39011374 0.058314793
-0.068973504 -0.39022991 0.058218345
-0.06913276 -0.39034593 0.058121894
-0.0693193 -0.39042687 0.058351692
-0.069474228 -0.39051723 0.058398265
-0.069618851 -0.39064786 0.058153108
-0.069787338 -0.39076212 0.058103897
-0.0699559 -0.39083946 0.058285348
-0.070124298 -0.39095998 0.058196917
-0.070297569 -0.39106765 0.058207665
-0.070451863 -0.39116502 0.058208104
-0.070607111 -0.39127851 0.058111683
-0.070769593 -0.39138252 0.058102861
-0.070929371 -0.3914898 0.058062918
-0.071086541 -0.39159453 0.05802875
-0.071254887 -0.39169687 0.058053352
-0.071437255 -0.39181012 0.058065202
-0.071608737 -0.39190909 0.058123231
-0.071745872 -0.39200968 0.058036104
-0.071924441 -0.39213234 0.057974163
-0.072088324 -0.39223963 0.057950351
-0.072242901 -0.39234143 0.057924271
-0.072394624 -0.39244103 0.057900507
-0.072563633 -0.39254788 0.057899736
-0.072715178 -0.39264756 0.057874821
-0.072876111 -0.39275745 0.057823345
-0.073036358 -0.39285818 0.057826068
-0.073204562 -0.3929562 0.057877194
-0.073375121 -0.39306161 0.057891402
-0.073551781 -0.39317089 0.057905585
-0.07370057 -0.39326826 0.057884142
-0.07386665 -0.39338231 0.057826873
-0.07403174 -0.39348355 0.057845727
-0.074182071 -0.39358392 0.057811592
-0.07434506 -0.39368698 0.057810839
-0.074498869 -0.39379752 0.057727102
-0.074663505 -0.39391214 0.057660617
-0.074817054 -0.39400956 0.057657603
-0.074976526 -0.39410242 0.05770646
-0.075153761 -0.39421558 0.05769873
-0.075297669 -0.39430785 0.057690002
-0.075447381 -0.39440823 0.057653561
-0.075602829 -0.39452073 0.057564054
-0.075780928 -0.39462498 0.057615131
-0.075947464 -0.39472547 0.057644352
-0.07609269 -0.39482874 0.057572182
-0.076245278 -0.39493868 0.057487302
-0.076409534 -0.39503679 0.057522297
-0.076576166 -0.39514121 0.057527296
-0.076741084 -0.39524674 0.057518467
-0.076902501 -0.39535454 0.057481978
-0.077076033 -0.39545849 0.057516929
-0.07723406 -0.3955608 0.057501212
-0.077391617 -0.39566335 0.057482041
-0.077552915 -0.39577106 0.057445548
-0.077714473 -0.39587855 0.057411369
-0.077868305 -0.39597949 0.057387594
-0.078033961 -0.39608458 0.057384528
-0.078198195 -0.39618692 0.057393
-0.078360595 -0.39629385 0.057365734
-0.07852567 -0.3963958 0.057379968
-0.07868053 -0.39650312 0.057320446
-0.078839496 -0.39660823 0.057290886
-0.079024144 -0.39671755 0.057336174
-0.079181798 -0.39683351 0.057233959
-0.079342715 -0.39692745 0.057281662
-0.079497084 -0.39702466 0.05728326
-0.079669133 -0.39712363 0.057343587
-0.07982786 -0.397219 0.057374001
-0.079994574 -0.39733049 0.057335176
-0.080149874 -0.39745343 0.057179928
-0.080317244 -0.39755794 0.057187237
-0.080479652 -0.39764544 0.057281066
-0.080626465 -0.39776191 0.057132769
-0.080762133 -0.3978669 0.057012212
-0.080931097 -0.39797077 0.057029888
-0.081101581 -0.39807412 0.057056788
-0.081292234 -0.3981913 0.05707667
-0.081450753 -0.39829633 0.057045963
-0.081630751 -0.39839938 0.057112023
-0.081773944 -0.39848289 0.057155192
-0.08193031 -0.39860076 0.057035692
-0.082081623 -0.39870235 0.056998093
-0.08223138 -0.39880738 0.056932822
-0.082408421 -0.39890596 0.057015043
-0.08257281 -0.39899731 0.057092715
-0.082727551 -0.39911234 0.056984752
-0.082879841 -0.39922506 0.056881417
-0.083030194 -0.39932677 0.056839209
-0.083198607 -0.39942288 0.056903012
-0.083378777 -0.39952976 0.056946013
-0.083544567 -0.39964381 0.056887593
-0.083706573 -0.39974493 0.056894928
-0.0838743 -0.39984724 0.05691722
-0.084031768 -0.39994976 0.056898046
-0.084192976 -0.4000622 0.056831568
-0.084357858 -0.40017086 0.056803141
-0.084517345 -0.40027279 0.056795489
-0.084670916 -0.40037358 0.056771725
-0.084830657 -0.40047547 0.056765217
-0.08498989 -0.40058023 0.056739118
-0.085170597 -0.40069038 0.056763668
-0.085348807 -0.40079859 0.056790527
-0.085487664 -0.40090543 0.056671105
-0.085638419 -0.40100425 0.056648497
-0.085811757 -0.40110844 0.056681149
-0.085972205 -0.40120527 0.056709245
-0.086134642 -0.40130684 0.056715418
-0.086284861 -0.40141603 0.056625925
-0.086439081 -0.40152684 0.056542188
-0.086580098 -0.40163004 0.056453902
-0.086761549 -0.40173551 0.056510732
-0.086927496 -0.40183651 0.056534182
-0.087098941 -0.40194157 0.056554157
-0.087260805 -0.40204594 0.056540735
-0.087436214 -0.40215534 0.05654915
-0.087604187 -0.40225875 0.05656568
-0.087772943 -0.40235969 0.05660066
-0.087921172 -0.40247595 0.056459285
-0.088076405 -0.40256947 0.056487404
-0.088244319 -0.40267783 0.056472793
-0.088416666 -0.40278086 0.05650891
-0.088569999 -0.40289372 0.056409024
-0.088736363 -0.403 0.05640135
-0.08888451 -0.40309936 0.056364913
-0.089046054 -0.40320629 0.05633419
-0.089217037 -0.40331438 0.056333408
-0.089378908 -0.40341672 0.056332663
-0.089536235 -0.4035219 0.056296192
-0.089687541 -0.40362772 0.056232065
-0.08986333 -0.4037309 0.056280855
-0.090033755 -0.40383476 0.056304295
-0.090202093 -0.4039456 0.056275837
-0.090356186 -0.4040578 0.056182873
-0.090510197 -0.40415666 0.056172945
-0.090666771 -0.40425971 0.056146856
-0.090855874 -0.40436223 0.056252085
-0.091022179 -0.40447772 0.056186743
-0.09117341 -0.40458128 0.056136455
-0.091338173 -0.40469244 0.056091879
-0.091507666 -0.40480331 0.056068037
-0.091670208 -0.40490603 0.056067299
-0.091829747 -0.40500265 0.056093089
-0.091988564 -0.40510786 0.056062371
-0.092164449 -0.40521425 0.056091554
-0.09230829 -0.40531608 0.056022853
-0.092478566 -0.40542075 0.056040522
-0.092633195 -0.40552831 0.055978689
-0.092822626 -0.40562606 0.056115061
-0.092971444 -0.40574011 0.055989824
-0.093139 -0.40584308 0.056007516
-0.093328156 -0.40595156 0.056075841
-0.093466677 -0.40606371 0.055921823
-0.093606658 -0.40616348 0.05585083
-0.093792498 -0.40626821 0.05592956
-0.0939513 -0.40637764 0.055872314
-0.094117761 -0.40648696 0.055846188
-0.094291583 -0.40659016 0.055886898
-0.0944691 -0.40669945 0.055904545
-0.094616696 -0.406809 0.055802379
-0.094775885 -0.40691057 0.055795886
-0.094942123 -0.40701213 0.055817034
-0.095083639 -0.40711769 0.055716049
-0.095263995 -0.40722522 0.055755589
-0.095437586 -0.40733477 0.055755943
-0.095603421 -0.40744239 0.05573789
-0.095751248 -0.40754214 0.055697996
-0.095916659 -0.40765169 0.055666104
-0.096080095 -0.4077574 0.055650361
-0.096262634 -0.40786356 0.05570719
-0.096422762 -0.40797311 0.055654559
-0.096562266 -0.40807647 0.055559352
-0.096736819 -0.40817887 0.055608138
-0.096918136 -0.4082872 0.05564652
-0.09707962 -0.40840238 0.055563897
-0.097237557 -0.40850261 0.055560868
-0.097403049 -0.40860686 0.055562414
-0.09758611 -0.40871739 0.055593871
-0.097731106 -0.40881905 0.055530932
-0.097887285 -0.40892667 0.055474862
-0.098058142 -0.40903133 0.055494837
-0.098219827 -0.40913743 0.055469874
-0.09837845 -0.40924159 0.055444926
-0.098566458 -0.40935102 0.055502888
-0.098720528 -0.40945858 0.055438746
-0.098850816 -0.4095611 0.055312447
-0.099020384 -0.40966421 0.055337042
-0.09921208 -0.40977597 0.055394981
-0.099371389 -0.40988389 0.055349272
-0.099526413 -0.40998799 0.055310503
-0.099712178 -0.41009784 0.055356935
-0.099873289 -0.41020247 0.055338897
-0.10004907 -0.41031173 0.055349629
-0.10021482 -0.41041857 0.055336174
-0.10038099 -0.41052544 0.055323888
-0.10054591 -0.41062713 0.055339277
-0.10070712 -0.41073883 0.055277407
-0.10086125 -0.41084477 0.055223655
-0.10101481 -0.41094553 0.055199891
-0.10121453 -0.41105571 0.055299301
-0.10135885 -0.4111608 0.055212148
-0.10148507 -0.41126242 0.055075493
-0.10164405 -0.41136885 0.055037852
-0.10183892 -0.41147891 0.055118848
-0.10198377 -0.41158396 0.055033993
-0.10216257 -0.41169256 0.055060849
-0.10233413 -0.41180044 0.055063527
-0.10249805 -0.41190758 0.055040862
-0.10265245 -0.41201371 0.05498711
-0.10281895 -0.41212118 0.0549725
-0.10299949 -0.41223031 0.055002809
-0.10317913 -0.41233945 0.055029664
-0.1033496 -0.41244757 0.055026576
-0.1034941 -0.4125526 0.054940574
-0.10367642 -0.41266063 0.054984722
-0.10386529 -0.41277283 0.05502883
-0.10401255 -0.41287664 0.05496126
-0.10415792 -0.4129802 0.054887943
-0.1043326 -0.41308913 0.054896373
-0.10450357 -0.41319925 0.054882903
-0.10464896 -0.41330281 0.054809574
-0.10484558 -0.4134149 0.054884791
-0.10500433 -0.41352192 0.054842543
-0.10517419 -0.41363207 0.054824471
-0.10534433 -0.41374072 0.054816775
-0.1055042 -0.41384643 0.0547872
-0.10568647 -0.41395849 0.054805972
-0.10584895 -0.4140662 0.054774098
-0.10600751 -0.41417181 0.054739922
-0.10618559 -0.41428345 0.054744873
-0.10634556 -0.41439086 0.054704931
-0.10653497 -0.41450283 0.054752495
-0.10667989 -0.41460648 0.054676868
-0.10684044 -0.41471407 0.054638073
-0.10700415 -0.41482216 0.054608494
-0.10717185 -0.41493097 0.05459043
-0.10734672 -0.41504097 0.05459309
-0.10752332 -0.4151513 0.054600351
-0.10769215 -0.41526043 0.054584581
-0.10786825 -0.41537082 0.054589543
-0.10802132 -0.4154774 0.054527719
-0.10821409 -0.41559222 0.054570656
-0.10836728 -0.41569886 0.054508839
-0.10856405 -0.41581458 0.054562137
-0.10870804 -0.41591966 0.054473825
-0.10887555 -0.41602886 0.054452304
-0.10903828 -0.41613433 0.054435417
-0.1092284 -0.41625065 0.05445876
-0.10939455 -0.41636121 0.054423396
-0.10957816 -0.41647211 0.054454848
-0.10974121 -0.4165822 0.054410283
-0.10991931 -0.41669369 0.054416385
-0.11007391 -0.41679937 0.054366082
-0.11025134 -0.41691226 0.054360658
-0.11042798 -0.41702652 0.0543437
-0.11058263 -0.417128 0.054319926
-0.11075044 -0.41723776 0.054296091
-0.11094287 -0.41735238 0.054339029
-0.11108501 -0.41745722 0.054244969
-0.11126275 -0.4175705 0.054238386
-0.11144874 -0.41768974 0.054227155
-0.11163784 -0.41779837 0.05429434
-0.11177321 -0.41790187 0.054181844
-0.11196312 -0.41801786 0.054206349
-0.11213203 -0.41812965 0.054174442
-0.112299 -0.41823685 0.054163288
-0.11247963 -0.41834974 0.054170541
-0.11262827 -0.41845462 0.054101817
-0.11281751 -0.41856945 0.054130934
-0.11298783 -0.41867897 0.054118618
-0.11313944 -0.41878867 0.054031432
-0.11332476 -0.41890287 0.054049026
-0.11353362 -0.41902363 0.054118425
-0.02831563 -0.36787626 0.037520465
-0.02848037 -0.36798373 0.037498947
-0.028645977 -0.36809045 0.037485503
-0.028808177 -0.36819485 0.037473228
-0.028970171 -0.36830112 0.037448272
-0.029136479 -0.36841124 0.037416369
-0.029297177 -0.36850989 0.037434086
-0.029459704 -0.36861521 0.037417196
-0.029622823 -0.36872146 0.037396848
-0.029784102 -0.36882749 0.037370734
-0.029954623 -0.36894193 0.037328433
-0.030116096 -0.36904642 0.037312698
-0.03027866 -0.36915252 0.037291192
-0.030440524 -0.36925781 0.037271999
-0.03060054 -0.36936283 0.037247051
-0.030764855 -0.36946747 0.037241682
-0.030926101 -0.36957014 0.037236329
-0.03108773 -0.36967564 0.037214827
-0.031245738 -0.36977625 0.0372095
-0.031409916 -0.36988559 0.037174147
-0.031566858 -0.36998722 0.037158437
-0.031730644 -0.37009186 0.037150759
-0.031887501 -0.3701936 0.037133899
-0.032051861 -0.37030157 0.037107773
-0.032215837 -0.3704069 0.037096649
-0.03237386 -0.37050846 0.037085541
-0.032536492 -0.37061441 0.037065193
-0.0326933 -0.37071908 0.037029877
-0.032850921 -0.37081817 0.037032612
-0.033014152 -0.37092543 0.03700649
-0.033168919 -0.37102529 0.036993098
-0.033328075 -0.37113163 0.036956608
-0.033486165 -0.37122953 0.036968581
-0.033648875 -0.37133667 0.036941301
-0.033805672 -0.37144002 0.036914062
-0.033965997 -0.37154397 0.036897175
-0.034127042 -0.3716467 0.036890674
-0.03428572 -0.37175089 0.036865734
-0.03444615 -0.37185785 0.036830399
-0.034603801 -0.37196085 0.036808915
-0.034761399 -0.37205899 0.03681742
-0.034921277 -0.37216562 0.036782086
-0.035078201 -0.37226796 0.036761764
-0.035238743 -0.37237093 0.036751807
-0.035391178 -0.37246674 0.036754567
-0.035550248 -0.37257025 0.036735386
-0.03570674 -0.3726725 0.036713906
-0.035867713 -0.37277925 0.036682028
-0.036026068 -0.37288213 0.036664009
-0.036182646 -0.37298241 0.036655221
-0.036335658 -0.3730799 0.036649909
-0.036493305 -0.37318471 0.036616884
-0.036650416 -0.37328625 0.036602333
-0.036807176 -0.3733874 0.036588922
-0.036961369 -0.37348726 0.036573224
-0.037118413 -0.37358913 0.036556363
-0.037275232 -0.37368807 0.036556803
-0.037432015 -0.37379256 0.036522634
-0.037585601 -0.37389204 0.03650694
-0.037740521 -0.3739911 0.036499307
-0.037894372 -0.37408853 0.036497448
-0.038051963 -0.37419501 0.036454059
-0.038210381 -0.37429458 0.03645679
-0.038363591 -0.37439421 0.036438797
-0.038518369 -0.37449372 0.036427706
-0.038674958 -0.37459642 0.036403917
-0.038831025 -0.3746984 0.036382452
-0.038984999 -0.37479705 0.036373664
-0.039136603 -0.37489471 0.036361437
-0.039289966 -0.37499261 0.036354974
-0.03944613 -0.37509537 0.036328886
-0.039600752 -0.37519571 0.036312029
