# .PCD v0.7 - Point Cloud Data file format
VERSION 0.7
FIELDS x y z
SIZE 4 4 4
TYPE F F F
COUNT 1 1 1
WIDTH 867
HEIGHT 1
VIEWPOINT 0 0 0 1 0 0 0
POINTS 867
DATA ascii
-0.1528836 -0.34356511 0.0615706
-0.15309596 -0.34362352 0.061557002
-0.15328901 -0.34366626 0.06161844
-0.15349343 -0.34372222 0.061607175
-0.15369885 -0.34378284 0.061564781
-0.15390895 -0.34384584 0.061514288
-0.1541232 -0.34391397 0.061434954
-0.15432359 -0.34396583 0.061445624
-0.15452246 -0.34401935 0.061441302
-0.15472798 -0.34407756 0.061416201
-0.15492673 -0.34412766 0.061436106
-0.1551231 -0.34417841 0.06144679
-0.15533119 -0.34424022 0.061400924
-0.15554601 -0.34432146 0.06122933
-0.15574281 -0.34435874 0.061336882
-0.15591446 -0.34439692 0.06139034
-0.15613502 -0.34445688 0.061381318
-0.15634745 -0.34452519 0.061297379
-0.15655753 -0.34459075 0.061228428
-0.15676282 -0.34465036 0.061192952
-0.15695029 -0.3446905 0.061262488
-0.15715535 -0.34475005 0.061227009
-0.15735902 -0.34480792 0.061200768
-0.15756476 -0.34486878 0.061157212
-0.15776031 -0.34491995 0.061163291
-0.15796511 -0.34497994 0.061124347
-0.15816915 -0.34503904 0.061090022
-0.15837115 -0.34509552 0.061070703
-0.15856031 -0.34513819 0.061125249
-0.15876101 -0.345193 0.061115161
-0.15896463 -0.34525216 0.061079688
-0.15915236 -0.34530562 0.061054666
-0.15936773 -0.3453694 0.061008759
-0.15957189 -0.34542999 0.060964059
-0.15976618 -0.34547615 0.061003584
-0.15996833 -0.34553412 0.06097389
-0.16016556 -0.34558931 0.060954589
-0.16036627 -0.34564543 0.060935266
-0.16055383 -0.34568137 0.061034791
-0.16074656 -0.34572515 0.06108816
-0.1609524 -0.34579429 0.060985789
-0.16114736 -0.34584177 0.061017245
-0.16134678 -0.34589642 0.061006006
-0.16154419 -0.34594792 0.061013229
-0.16174087 -0.34600329 0.060991623
-0.16194727 -0.34606999 0.060907707
-0.16213641 -0.34612337 0.060886133
-0.16229105 -0.34616458 0.060885459
-0.16252658 -0.34623533 0.060827952
-0.16273025 -0.34629339 0.060800552
-0.16294083 -0.34635311 0.060774274
-0.16313319 -0.34640232 0.060788438
-0.16329312 -0.34644821 0.060764678
-0.16351135 -0.34651127 0.060729146
-0.16370341 -0.34656587 0.060704105
-0.16389295 -0.34662178 0.060665235
-0.16410431 -0.34667847 0.06066202
-0.16431795 -0.34672785 0.060715299
-0.16452135 -0.34679326 0.060634855
-0.16469443 -0.34684202 0.060615659
-0.1649083 -0.3469044 0.060576677
-0.16509655 -0.34695914 0.060543582
-0.16529119 -0.34700814 0.060563501
-0.16550508 -0.34706485 0.060564883
-0.16569291 -0.34711933 0.060532942
-0.16589803 -0.34717095 0.060553968
-0.16608518 -0.34721068 0.060625814
-0.16624917 -0.34726137 0.060575515
-0.16647138 -0.34733745 0.060454633
-0.16666684 -0.34738183 0.060509149
-0.16687889 -0.34744275 0.060477093
-0.16707437 -0.34749457 0.060478553
-0.16725744 -0.34754711 0.060451247
-0.16746348 -0.34760967 0.060396165
-0.16766383 -0.34766635 0.060372233
-0.16785575 -0.34770992 0.060425606
-0.16801086 -0.34775695 0.060384575
-0.16821176 -0.34780732 0.060406778
-0.16843551 -0.34787622 0.06034008
-0.16862635 -0.3479344 0.060287371
-0.16879496 -0.34797564 0.060313173
-0.16901405 -0.34803262 0.060322598
-0.16920461 -0.34810042 0.060200695
-0.16941838 -0.34815177 0.060240135
-0.16957395 -0.34819293 0.060241781
-0.16978127 -0.34824419 0.060269713
-0.16995601 -0.348295 0.060238976
-0.17015603 -0.34835452 0.060194291
-0.17033938 -0.34840211 0.060202733
-0.17054193 -0.34845984 0.060175337
-0.17073542 -0.34852067 0.06010877
-0.17092466 -0.34859073 0.059968427
-0.17115498 -0.34863129 0.06011619
-0.17135932 -0.34869775 0.060029976
-0.17155415 -0.34874001 0.060098328
-0.17172027 -0.34878594 0.060086079
-0.17193544 -0.34884396 0.060080543
-0.17212428 -0.34890324 0.060016304
-0.17229035 -0.34894997 0.059998289
-0.17248553 -0.34900913 0.059946708
-0.17266789 -0.34905487 0.059966683
-0.17286913 -0.34911209 0.05994045
-0.17307195 -0.34916005 0.059983395
-0.17326151 -0.3492085 0.059997566
-0.17344768 -0.34925684 0.060005989
-0.17364377 -0.34932566 0.059887528
-0.17383769 -0.34938189 0.059854399
-0.17402649 -0.3494266 0.059893947
-0.17421526 -0.34947047 0.059939265
-0.17440926 -0.3495287 0.059892301
-0.17461331 -0.34958684 0.059864905
-0.17479627 -0.34963983 0.05983413
-0.17498921 -0.34969112 0.059834454
-0.17516755 -0.3497327 0.059876345
-0.17536128 -0.34979391 0.059807479
-0.17557555 -0.34985706 0.059763886
-0.17575097 -0.34990707 0.059740074
-0.17592238 -0.34994793 0.059773929
-0.17612365 -0.35003641 0.059525128
-0.17631584 -0.35008314 0.059556596
-0.17652561 -0.35013586 0.059578747
-0.17671423 -0.35017127 0.059684027
-0.17689972 -0.35022238 0.059671696
-0.17708866 -0.35027033 0.059688184
-0.17727412 -0.35031736 0.059704684
-0.17748024 -0.3503882 0.059590787
-0.17766899 -0.35043934 0.0595842
-0.17785393 -0.35049659 0.059526909
-0.17805685 -0.35054424 0.059572157
-0.17825919 -0.35060373 0.059532084
-0.1784334 -0.35065699 0.059482895
-0.17862891 -0.35070911 0.059482053
-0.17880818 -0.35074222 0.059586227
-0.17900604 -0.35080841 0.059489656
-0.17920192 -0.35085678 0.05951649
-0.17939278 -0.35091773 0.059444167
-0.17957272 -0.35097817 0.059354603
-0.1797723 -0.35102475 0.059401017
-0.17995055 -0.35106954 0.059419855
-0.1801381 -0.35112491 0.059380997
-0.18033093 -0.3511917 0.059270617
-0.18052708 -0.35123757 0.05931589
-0.18071517 -0.35128805 0.059312776
-0.1808963 -0.35133669 0.059309691
-0.18108353 -0.35139132 0.059275441
-0.18128051 -0.35145146 0.059220396
-0.18146105 -0.35150203 0.059202321
-0.18167068 -0.35155436 0.059226796
-0.18186523 -0.35160804 0.059213266
-0.18205126 -0.35165119 0.059258595
-0.18224937 -0.35170549 0.05924736
-0.18241642 -0.35173661 0.059342355
-0.18260615 -0.35179433 0.059290797
-0.18280241 -0.35186738 0.059142347
-0.18298636 -0.35191789 0.059131183
-0.18317701 -0.3519592 0.059198394
-0.18335576 -0.35201415 0.059145726
-0.18355088 -0.35207638 0.059072245
-0.18376282 -0.35213339 0.059067868
-0.18395057 -0.35218349 0.059067063
-0.18412203 -0.35222596 0.059089385
-0.1843168 -0.3522878 0.059018202
-0.18450274 -0.35233253 0.059051994
-0.18468352 -0.35238075 0.059051223
-0.18485925 -0.35243183 0.059020482
-0.18506396 -0.35248739 0.059012685
-0.18524577 -0.35254201 0.058968082
-0.18541689 -0.35259414 0.058921214
-0.18561697 -0.35264248 0.058956094
-0.18581277 -0.3526918 0.058976009
-0.1859867 -0.35276213 0.058804594
-0.18619506 -0.35280961 0.05886136
-0.1863768 -0.35284773 0.058934379
-0.18656179 -0.35291049 0.058837868
-0.18675844 -0.35295826 0.058870465
-0.1869401 -0.35298988 0.058989614
-0.18713579 -0.35305437 0.058901131
-0.1873146 -0.35309881 0.058923416
-0.18749633 -0.35316607 0.058788873
-0.18768063 -0.35323513 0.058646239
-0.18788038 -0.35327789 0.058720328
-0.18806261 -0.35332325 0.058742613
-0.18824923 -0.35336816 0.058776405
-0.18846013 -0.35342619 0.058762804
-0.18863277 -0.3534928 0.058615614
-0.18882528 -0.35352278 0.058766998
-0.18900105 -0.35357207 0.058748946
-0.18919179 -0.3536354 0.058659337
-0.18937199 -0.35369578 0.058570914
-0.18956262 -0.35373545 0.058649659
-0.18974763 -0.3537775 0.058700763
-0.18993933 -0.35383883 0.058627285
-0.19011147 -0.35389817 0.05853083
-0.19030006 -0.3539412 0.058581915
-0.19077317 -0.35402918 0.058852024
-0.19098765 -0.35404658 0.059134774
-0.19139822 -0.35411158 0.059450135
-0.1916045 -0.35414135 0.059629142
-0.19181341 -0.35416874 0.059830047
-0.19202407 -0.35419986 0.060007878
-0.1922317 -0.35423014 0.06018573
-0.19244072 -0.35426438 0.060338192
-0.19264725 -0.3542971 0.060496449
-0.19286051 -0.35432324 0.060714625
-0.12864065 -0.33681753 0.06368275
-0.12888226 -0.3368881 0.063637875
-0.12913206 -0.33696654 0.063552581
-0.12936011 -0.33703142 0.063522756
-0.12952584 -0.33704972 0.063706577
-0.129765 -0.33712274 0.06363979
-0.1300057 -0.33719522 0.06357991
-0.13094138 -0.33747065 0.063391283
-0.13116381 -0.3375324 0.063373022
-0.13134891 -0.33756867 0.06346564
-0.13157135 -0.33764386 0.063351631
-0.13181989 -0.33770627 0.06337823
-0.1320594 -0.33778116 0.063298747
-0.13227412 -0.33783585 0.063316278
-0.13248637 -0.33789065 0.063328035
-0.13271552 -0.33795631 0.063294746
-0.13293107 -0.3380138 0.0632938
-0.13313353 -0.33805954 0.06335175
-0.13337973 -0.33814043 0.063242249
-0.13361043 -0.33820778 0.063199714
-0.13381985 -0.33826107 0.06321726
-0.13402179 -0.33830667 0.063275203
-0.13423584 -0.33836359 0.063275419
-0.13449578 -0.33845395 0.063124344
-0.13470095 -0.33850431 0.063154593
-0.13492018 -0.33856359 0.063147873
-0.13513461 -0.33862129 0.063143477
-0.13534588 -0.33867455 0.063164465
-0.13557187 -0.33874145 0.063116193
-0.13580677 -0.33881351 0.063048273
-0.13601631 -0.33886775 0.06305889
-0.13623331 -0.33892596 0.063055642
-0.13644898 -0.33898526 0.063042015
-0.1366885 -0.33906162 0.062952153
-0.1369015 -0.33911908 0.062946618
-0.13710949 -0.33917052 0.062974535
-0.13732909 -0.33923134 0.062957436
-0.13755772 -0.33929962 0.062904529
-0.13774589 -0.33933732 0.062992528
-0.13799977 -0.3394264 0.062839165
-0.13821186 -0.3394838 0.062832475
-0.13841072 -0.33952826 0.062892742
-0.13861816 -0.33958197 0.062903374
-0.13885306 -0.33965626 0.062819302
-0.1390627 -0.33971202 0.062819533
-0.13928463 -0.33977589 0.062785126
-0.13949504 -0.33983251 0.062780745
-0.13970971 -0.33989057 0.06277404
-0.13992427 -0.33995089 0.062751189
-0.14014721 -0.34001616 0.062708698
-0.14035267 -0.34006676 0.062737793
-0.14057598 -0.34013262 0.06269183
-0.14079323 -0.34019575 0.062653974
-0.14098208 -0.3402369 0.062718898
-0.14113237 -0.34026775 0.062783986
-0.14141849 -0.34035847 0.062680088
-0.14164484 -0.34043002 0.06259951
-0.14186104 -0.34049058 0.062577814
-0.14206789 -0.34054545 0.062579215
-0.14228635 -0.34060824 0.062545963
-0.14247715 -0.3406491 0.062616646
-0.14269994 -0.34071594 0.062562615
-0.1429183 -0.34077907 0.062527068
-0.14313436 -0.34084025 0.062500745
-0.14334203 -0.34089887 0.062476777
-0.14358355 -0.34098092 0.06234999
-0.14377441 -0.34103686 0.062313408
-0.14395593 -0.34108931 0.06228378
-0.14411043 -0.34110236 0.062483802
-0.14437276 -0.34119192 0.062343098
-0.14459564 -0.34125039 0.062349044
-0.14478734 -0.34130767 0.062304374
-0.1450157 -0.34135124 0.062426798
-0.14524953 -0.34142786 0.062324278
-0.1454636 -0.34149128 0.06227836
-0.14566836 -0.34154347 0.062294766
-0.14587891 -0.34160122 0.062282316
-0.14609331 -0.34166279 0.062250242
-0.14629994 -0.34171969 0.062236652
-0.14652738 -0.3417941 0.062137619
-0.14672035 -0.34184071 0.062171385
-0.14688975 -0.34188038 0.062209852
-0.14710234 -0.3419489 0.062124729
-0.14735395 -0.34201828 0.062107492
-0.14756241 -0.34207776 0.062078901
-0.14776622 -0.34213001 0.062093001
-0.14796838 -0.34218344 0.062095582
-0.14816688 -0.34223607 0.062097024
-0.14838067 -0.34229586 0.062076487
-0.14858922 -0.34235325 0.062062889
-0.14879976 -0.3424128 0.062037744
-0.14901522 -0.34247756 0.0619849
-0.14919765 -0.34251133 0.062090226
-0.14941174 -0.34257489 0.062043153
-0.14962664 -0.34264243 0.061969548
-0.14983732 -0.34270281 0.061938643
-0.15003413 -0.34275466 0.061942399
-0.15024938 -0.34281725 0.06190455
-0.15044014 -0.34285986 0.061962537
-0.15064211 -0.34291148 0.061977804
-0.15083334 -0.34298173 0.061839722
-0.15108125 -0.34305611 0.061779812
-0.15125243 -0.3431021 0.061776757
-0.15147778 -0.3431583 0.061803456
-0.15168655 -0.34322113 0.061751798
-0.15188441 -0.34326887 0.061786689
-0.15208557 -0.3433235 0.061778892
-0.15227862 -0.34336591 0.061842643
-0.15248877 -0.34343088 0.061778285
-0.15269643 -0.34348997 0.061750855
-0.15290737 -0.34355628 0.061678424
-0.1531239 -0.34362602 0.061592128
-0.15332101 -0.34367681 0.061603963
-0.15352748 -0.34373528 0.061578833
-0.15373045 -0.34379312 0.061551422
-0.15393341 -0.34384775 0.061547078
-0.15410787 -0.34389234 0.061560154
-0.15432431 -0.34394619 0.061586887
-0.15448759 -0.34398082 0.061649621
-0.15467359 -0.34403253 0.061633818
-0.15493222 -0.34411705 0.061521962
-0.1551338 -0.34417066 0.061522238
-0.1553404 -0.3442342 0.061461352
-0.15554418 -0.34429079 0.061444312
-0.15574528 -0.34434783 0.061419219
-0.15593928 -0.34439602 0.061443754
-0.15614508 -0.34445933 0.061382871
-0.15634115 -0.34450659 0.061417773
-0.15653434 -0.34455392 0.061446924
-0.156738 -0.34461117 0.061425269
-0.15694076 -0.34467122 0.061381713
-0.15714332 -0.34473124 0.061338153
-0.15734133 -0.34478533 0.061328061
-0.15752365 -0.34483024 0.061353799
-0.15768439 -0.34487766 0.0613208
-0.15792197 -0.34494621 0.061282858
-0.15813825 -0.34500179 0.061296906
-0.15833618 -0.3450523 0.061312195
-0.15853336 -0.34510604 0.061303254
-0.15871859 -0.34515122 0.061332442
-0.15892802 -0.34521422 0.061280772
-0.15913332 -0.34527576 0.061231434
-0.15933356 -0.3453345 0.061192505
-0.15952624 -0.34537798 0.061248183
-0.159729 -0.3454408 0.061185014
-0.15992998 -0.34550118 0.061135687
-0.16011842 -0.34554288 0.061196003
-0.16032258 -0.34560397 0.061147816
-0.16051775 -0.34565601 0.061146967
-0.16071543 -0.34570745 0.06115533
-0.16091613 -0.34576842 0.061101399
-0.16111417 -0.34582546 0.06107055
-0.16130541 -0.34587178 0.061103158
-0.16150898 -0.34593317 0.061051525
-0.16170929 -0.34599453 0.060994137
-0.16191301 -0.34605682 0.060936734
-0.16210784 -0.34610957 0.060930111
-0.16230598 -0.3461681 0.060888875
-0.16248576 -0.34622139 0.060850032
-0.1626986 -0.34627426 0.060876787
-0.16288532 -0.34632409 0.060875975
-0.16308007 -0.3463828 0.060826682
-0.16327207 -0.34643695 0.060805079
-0.1634879 -0.34649563 0.060796067
-0.1636809 -0.34654629 0.060800992
-0.16387722 -0.34659752 0.060808208
-0.16407022 -0.34664837 0.060811982
-0.16426373 -0.34670028 0.06080883
-0.16444451 -0.34675756 0.060743451
-0.16464411 -0.34680969 0.060750652
-0.16481937 -0.34685659 0.060748741
-0.16504136 -0.34692276 0.06069817
-0.16523713 -0.34697384 0.060705397
-0.16544582 -0.34703889 0.060637586
-0.16562775 -0.34708077 0.060684085
-0.16582993 -0.34713924 0.060650907
-0.16602042 -0.34718615 0.060677752
-0.16622144 -0.34725627 0.060559232
-0.16640183 -0.34731606 0.060475398
-0.16657864 -0.34735382 0.060541529
-0.16676916 -0.34740123 0.060564917
-0.16696779 -0.34745291 0.06057328
-0.16715847 -0.34751591 0.060485944
-0.16734424 -0.34755978 0.060525507
-0.16753449 -0.34760681 0.060551204
-0.16774274 -0.34766722 0.060515683
-0.16796924 -0.34773394 0.060469721
-0.16814898 -0.34778723 0.060430873
-0.16835856 -0.34785235 0.060364217
-0.16854686 -0.34789479 0.060418751
-0.16874129 -0.34794518 0.060428284
-0.16893397 -0.34800905 0.060338631
-0.16909775 -0.34805501 0.060321774
-0.16931407 -0.34811366 0.06031391
-0.16950943 -0.34815785 0.060369577
-0.1696649 -0.34818846 0.06044618
-0.16983746 -0.34822136 0.060538851
-0.17007762 -0.34831539 0.060324423
-0.17024229 -0.34835461 0.060357153
-0.17043498 -0.3484115 0.060317092
-0.17063066 -0.34846789 0.060286254
-0.17081967 -0.3485243 0.060242761
-0.17100741 -0.34857649 0.06022694
-0.17123252 -0.3486464 0.0601556
-0.17141789 -0.34869 0.060196314
-0.17162773 -0.34875262 0.060148112
-0.17181335 -0.34879726 0.060181905
-0.17199451 -0.34885123 0.060140744
-0.17217566 -0.34890571 0.060096122
-0.17236687 -0.34896123 0.060062997
-0.17257622 -0.34900835 0.060124367
-0.172775 -0.34906912 0.060068134
-0.17297637 -0.34912688 0.060038425
-0.17315233 -0.34917414 0.060035352
-0.17337231 -0.34922373 0.060098991
-0.17355585 -0.34927642 0.060071655
-0.17373438 -0.34934103 0.059949767
-0.17392868 -0.34940013 0.059897013
-0.17412159 -0.34945014 0.059906553
-0.17431009 -0.34951887 0.05977425
-0.17449643 -0.34954363 0.059951052
-0.17467861 -0.34958899 0.059973329
-0.17489311 -0.34964961 0.059948176
-0.17506582 -0.34970343 0.059892055
-0.17525536 -0.34975544 0.059880845
-0.17544137 -0.34980717 0.059865046
-0.17563067 -0.34985733 0.059866525
-0.17583062 -0.34991309 0.059848353
-0.17603429 -0.3499755 0.059789792
-0.17620556 -0.3500126 0.059850179
-0.17639838 -0.35006791 0.05982165
-0.17659806 -0.35012296 0.05980809
-0.17679785 -0.35019243 0.059691884
-0.17697626 -0.35023743 0.059709564
-0.17717217 -0.35029113 0.059698332
-0.177347 -0.35034084 0.059675649
-0.17753583 -0.35039201 0.059669062
-0.17773508 -0.35044661 0.059657816
-0.17793457 -0.35049349 0.059701927
-0.17814346 -0.35056654 0.059577603
-0.17832141 -0.35061723 0.05955375
-0.17851375 -0.3506645 0.059581749
-0.17869546 -0.35071164 0.059590183
-0.17887698 -0.35076088 0.05958363
-0.17906882 -0.35081431 0.059566643
-0.17925307 -0.35087091 0.059512783
-0.17946197 -0.35093066 0.059483036
-0.17966408 -0.35098651 0.059468318
-0.17984638 -0.35102817 0.059517112
-0.18004812 -0.3510862 0.059486248
-0.18023199 -0.35114172 0.059439305
-0.18042007 -0.35119316 0.059429266
-0.18062241 -0.35124618 0.059435297
-0.18081367 -0.35129994 0.059414856
-0.18098341 -0.35135069 0.059374899
-0.18116285 -0.35140747 0.059310682
-0.18137795 -0.3514519 0.059402011
-0.18154165 -0.35149586 0.059398994
-0.18173191 -0.35155278 0.059354331
-0.1819526 -0.35162118 0.05928532
-0.18215057 -0.35167593 0.059270617
-0.18232369 -0.3517119 0.059342533
-0.18249673 -0.35176226 0.059311785
-0.18269561 -0.35182664 0.059230179
-0.18287624 -0.35187596 0.05922132
-0.18306993 -0.35191953 0.059278138
-0.1832661 -0.35196763 0.059307281
-0.18344346 -0.35201558 0.05930189
-0.18363239 -0.35208508 0.059164971
-0.18382215 -0.35214037 0.059130687
-0.18401046 -0.35218897 0.059141397
-0.18420184 -0.3522397 0.05914288
-0.18440466 -0.35229057 0.059165061
-0.18459037 -0.35234591 0.059122719
-0.18477094 -0.35239473 0.059117317
-0.18496051 -0.35244966 0.059085354
-0.18515645 -0.35249868 0.059107572
-0.18533294 -0.35254785 0.059091799
-0.18553963 -0.3526077 0.059057459
-0.18572192 -0.35265258 0.05908319
-0.18591073 -0.35270861 0.059041996
-0.18609643 -0.35277075 0.058951221
-0.18628928 -0.35281816 0.058979213
-0.18647121 -0.35286391 0.05899803
-0.18666337 -0.3529129 0.059013344
-0.18684958 -0.35298052 0.058884494
-0.18703347 -0.35302991 0.058881387
-0.1872275 -0.35308263 0.058873624
-0.18741722 -0.35313582 0.058854345
-0.18760365 -0.35318086 0.058886975
-0.18779862 -0.35323206 0.058891892
-0.18798561 -0.35328305 0.058883004
-0.18817472 -0.3533437 0.058809519
-0.18835945 -0.35339814 0.058771797
-0.18854418 -0.35344613 0.058780223
-0.18873045 -0.35350421 0.058719441
-0.18892092 -0.35355583 0.058712833
-0.18911645 -0.35359406 0.058811173
-0.18931033 -0.35365871 0.058718055
-0.18949254 -0.35371038 0.058695354
-0.1897018 -0.35375324 0.058786705
-0.18988293 -0.35381776 0.05867058
-0.19006838 -0.35386494 0.058685921
-0.19024374 -0.35392547 0.058587112
-0.19044693 -0.35397676 0.058606986
-0.19063184 -0.35400876 0.058729596
-0.19082104 -0.35407266 0.058633037
-0.19100426 -0.35413319 0.058549188
-0.19118978 -0.35418558 0.058527619
-0.19138318 -0.35423359 0.058552157
-0.19156675 -0.35427332 0.0586171
-0.19173972 -0.35435006 0.058398347
-0.19192597 -0.35439649 0.058420606
-0.19212005 -0.35444388 0.058450904
-0.19232139 -0.35448352 0.058550373
-0.19302449 -0.35458347 0.0591713
-0.19366051 -0.35467768 0.059706025
-0.19386803 -0.35471037 0.059866592
-0.19406618 -0.35474396 0.060002983
-0.19428231 -0.35478234 0.060139298
-0.19449957 -0.35481164 0.060342506
-0.19471686 -0.35484159 0.060541101
-0.12864669 -0.33679929 0.063824125
-0.12886949 -0.33685824 0.063826598
-0.12910822 -0.33693048 0.063764423
-0.12932757 -0.33698899 0.063763447
-0.12952989 -0.33703536 0.063816778
-0.12977129 -0.33710992 0.063743047
-0.13000059 -0.33717594 0.063707441
-0.13023454 -0.33724546 0.063655652
-0.13043869 -0.33729345 0.063700892
-0.13069947 -0.33738098 0.063571721
-0.13093482 -0.33745199 0.063511863
-0.13113043 -0.33749396 0.063583657
-0.13135938 -0.33756053 0.063543431
-0.13156031 -0.33760652 0.06359677
-0.13174698 -0.3376534 0.0636167
-0.13200578 -0.337731 0.063554436
-0.13223304 -0.33779681 0.06351652
-0.13245162 -0.33785817 0.063493639
-0.13267228 -0.33791929 0.063476525
-0.13289106 -0.33797911 0.063465185
-0.13311027 -0.33803937 0.063451529
-0.13334276 -0.33810979 0.063390531
-0.13356441 -0.33817214 0.06336648
-0.1337845 -0.33823344 0.063347064
-0.1340144 -0.33830237 0.06329184
-0.13423485 -0.33836618 0.063255116
-0.1344336 -0.33841142 0.063309602
-0.13468188 -0.33849496 0.063185096
-0.13488287 -0.3385421 0.063230351
-0.13508886 -0.33859316 0.063257121
-0.1352935 -0.33864319 0.063288517
-0.13551809 -0.33870894 0.063246004
-0.13569626 -0.33873832 0.0633744
-0.13595068 -0.33882982 0.063204892
-0.13617909 -0.33889899 0.063145064
-0.13638507 -0.33895054 0.063168369
-0.13659337 -0.33900398 0.063182458
-0.13680641 -0.33906129 0.063178055
-0.13704252 -0.33913723 0.063084744
-0.13723223 -0.33917812 0.06315311
-0.13745815 -0.33924612 0.063096754
-0.13766384 -0.33929792 0.063117765
-0.13791583 -0.33938748 0.062957488
-0.13813193 -0.33944803 0.06293577
-0.13832323 -0.33948836 0.063011058
-0.13854152 -0.33955306 0.062963963
-0.13875127 -0.33960867 0.062965341
-0.13895971 -0.3396633 0.062971346
-0.13919118 -0.33973718 0.062883824
-0.13939218 -0.33978805 0.062902547
-0.13959582 -0.33983895 0.062925868
-0.13982528 -0.33991167 0.062842965
-0.14002188 -0.33995682 0.062894002
-0.14022875 -0.3400107 0.062902324
-0.14043854 -0.34006712 0.062897936
-0.1406575 -0.34013605 0.062822007
-0.14087334 -0.34020481 0.062741466
-0.14108875 -0.3402642 0.062726676
-0.14132601 -0.34033799 0.062650658
-0.1415247 -0.3403855 0.062688999
-0.14172417 -0.34043366 0.062723882
-0.14193913 -0.34049779 0.062674485
-0.14213613 -0.34054631 0.062702455
-0.14235052 -0.34060785 0.062670365
-0.14256385 -0.3406662 0.062659048
-0.14278457 -0.34073365 0.062596954
-0.14299181 -0.34078926 0.062593736
-0.1431738 -0.34082469 0.062686361
-0.14340152 -0.34089887 0.062589623
-0.14361794 -0.34096307 0.062542535
-0.14382502 -0.34101894 0.062537007
-0.14402872 -0.34107181 0.062546492
-0.14423527 -0.3411274 0.062542126
-0.14443806 -0.34118956 0.062483564
-0.14463736 -0.34123868 0.062511519
-0.14485949 -0.3413015 0.062485166
-0.14507532 -0.34136617 0.062433466
-0.14528003 -0.34142062 0.062433712
-0.14549012 -0.34148023 0.062407412
-0.1457043 -0.34154382 0.062360343
-0.14589527 -0.34158552 0.062425245
-0.14611422 -0.34165654 0.062334314
-0.14634007 -0.34173185 0.062226053
-0.14651218 -0.34177402 0.062251821
-0.14667302 -0.34181061 0.062296093
-0.14689973 -0.3418473 0.062464651
-0.14714728 -0.3419418 0.062260557
-0.14734839 -0.34201002 0.062155873
-0.1475164 -0.34203216 0.062316611
-0.14774732 -0.34209749 0.062289059
-0.14793225 -0.34214455 0.062304392
-0.14815821 -0.34222731 0.06214308
-0.1483772 -0.34228393 0.062154807
-0.14856392 -0.34233874 0.062118229
-0.1487954 -0.3424055 0.062081449
-0.14899468 -0.34245366 0.062116325
-0.14919804 -0.34251744 0.062047377
-0.1493815 -0.34255797 0.062106553
-0.14960831 -0.34262621 0.06205019
-0.14980973 -0.34267977 0.062050458
-0.15001948 -0.3427422 0.062003396
-0.1502253 -0.34280065 0.061977111
-0.15042627 -0.34285411 0.061977383
-0.15063438 -0.34291527 0.061936103
-0.1508297 -0.34296283 0.061967537
-0.15105215 -0.34304288 0.061818913
-0.15124224 -0.34308502 0.061879214
-0.15144332 -0.34313911 0.061874874
-0.15164948 -0.34319896 0.061839361
-0.15185063 -0.34325343 0.061832711
-0.1520671 -0.34332508 0.061732557
-0.15225655 -0.34336671 0.061795168
-0.15245056 -0.34341344 0.061830066
-0.15265457 -0.34347159 0.061802641
-0.15285639 -0.34352735 0.061787911
-0.15305163 -0.34357893 0.061790518
-0.15325299 -0.34363443 0.061776936
-0.15344848 -0.34368318 0.061800294
-0.15364017 -0.3437275 0.061847895
-0.15385096 -0.34379441 0.061770849
-0.15406531 -0.34386581 0.061668407
-0.15423667 -0.34391347 0.061653808
-0.15445451 -0.34397238 0.061647087
-0.15465562 -0.34402505 0.061653115
-0.15485711 -0.34407476 0.061681062
-0.15505058 -0.34412521 0.061688289
-0.15525079 -0.34418055 0.06167357
-0.15545271 -0.34423459 0.061671525
-0.15565152 -0.34428841 0.061664887
-0.15586218 -0.3443574 0.061572835
-0.1560661 -0.34441811 0.061526954
-0.15627411 -0.34448424 0.061449911
-0.15646169 -0.34453931 0.061413333
-0.15666398 -0.34458339 0.061482802
-0.15686871 -0.34464592 0.061425384
-0.1570636 -0.34469953 0.061412994
-0.15726049 -0.34475592 0.061384439
-0.15746291 -0.34480813 0.061396241
-0.1576605 -0.34486181 0.061388448
-0.15785769 -0.34491503 0.061382964
-0.15804735 -0.34496611 0.061378673
-0.15825841 -0.34502661 0.061347753
-0.15844613 -0.34507525 0.061357304
-0.15864778 -0.34512693 0.061371416
-0.15884697 -0.34518361 0.06134516
-0.15904658 -0.34524104 0.0613143
-0.15925021 -0.34530461 0.061247654
-0.15944204 -0.34535107 0.061280258
-0.15964198 -0.34540957 0.061242472
-0.15984477 -0.34547257 0.061178144
-0.16004029 -0.34552488 0.061176129
-0.16023727 -0.34557498 0.061192557
-0.1604308 -0.34562904 0.061174408
-0.1606303 -0.34568322 0.061166614
-0.16082869 -0.3457405 0.061134599
-0.16102554 -0.34580028 0.061081819
-0.1611995 -0.34584296 0.061107591
-0.16137791 -0.34588796 0.06112526
-0.16159512 -0.34595203 0.061080474
-0.16181026 -0.34601298 0.061054152
-0.16200651 -0.34607294 0.060999081
-0.16220368 -0.34611937 0.061042041
-0.16240042 -0.3461754 0.0610158
-0.16260682 -0.34624308 0.060924925
-0.16279697 -0.34628814 0.060964458
-0.16299222 -0.34634218 0.060949758
-0.16319247 -0.3464053 0.06087967
-0.16336702 -0.34647208 0.060734719
-0.16358095 -0.34651068 0.060865276
-0.16369875 -0.34651297 0.061072364
-0.16394447 -0.34660441 0.060886741
-0.16415146 -0.34665832 0.060895052
-0.16433693 -0.34671247 0.06086079
-0.16455287 -0.34678417 0.060759496
-0.16473857 -0.34680876 0.060936302
-0.16493851 -0.34688622 0.060763568
-0.16513595 -0.34693417 0.060796142
-0.16533777 -0.34699756 0.060727209
-0.16552666 -0.3470408 0.060777124
-0.16571456 -0.34709513 0.060746308
-0.1659013 -0.34714723 0.060729332
-0.16608551 -0.34719393 0.060745832
-0.16630095 -0.34726125 0.060674518
-0.16648315 -0.34730369 0.060717549
-0.16664261 -0.34734446 0.060729533
-0.16688421 -0.34742233 0.060632739
-0.16708125 -0.34747764 0.060612261
-0.1672696 -0.34751979 0.060669109
-0.16745304 -0.34757307 0.060637154
-0.16764106 -0.34763017 0.060586736
-0.16784027 -0.34769189 0.060524721
-0.16802472 -0.34774888 0.060468547
-0.16821182 -0.34778792 0.060545005
-0.16841 -0.34783933 0.060554512
-0.16858236 -0.34789905 0.06045571
-0.1688039 -0.34794438 0.060552776
-0.16900812 -0.34800419 0.060513817
-0.1692024 -0.34806362 0.060458753
-0.16939178 -0.34811851 0.060426772
-0.16956787 -0.34816271 0.06044561
-0.16975918 -0.34822428 0.060369797
-0.16995324 -0.34827441 0.060380474
-0.17014328 -0.34832203 0.060401551
-0.17032154 -0.34837395 0.060369618
-0.17052066 -0.34841928 0.060424112
-0.17070085 -0.3484785 0.060343735
-0.17088653 -0.34853467 0.060295627
-0.17109105 -0.34858808 0.060302798
-0.1712752 -0.34863913 0.060288154
-0.17145242 -0.34868917 0.060267761
-0.17166083 -0.34875932 0.060163043
-0.1718711 -0.34881037 0.060197871
-0.17205667 -0.34885454 0.060235117
-0.17223261 -0.34890002 0.060244717
-0.17240876 -0.34894651 0.060247406
-0.17260627 -0.34901652 0.060123123
-0.17279969 -0.34908429 0.060006931
-0.17299435 -0.34912422 0.060091428
-0.1732046 -0.3491756 0.06012395
-0.17338823 -0.34922832 0.06009661
-0.17356442 -0.34927726 0.060081992
-0.17377935 -0.34933734 0.06006144
-0.17394873 -0.34938687 0.060029551
-0.1741415 -0.34943455 0.06005523
-0.17434715 -0.34950367 0.059952822
-0.17455146 -0.34956384 0.059911564
-0.17472604 -0.34960246 0.059967306
-0.17491229 -0.34965423 0.059951492
-0.17510858 -0.34970418 0.059967928
-0.17531255 -0.3497639 0.059928969
-0.17548521 -0.34982049 0.059853233
-0.17567335 -0.34985319 0.05997698
-0.17585294 -0.34991321 0.059889689
-0.17605633 -0.34996957 0.05987379
-0.17623509 -0.35001823 0.059866089
-0.1764348 -0.35007134 0.059866365
-0.17662394 -0.35012063 0.059873603
-0.17680968 -0.35017779 0.059818573
-0.17701977 -0.35024145 0.059763446
-0.17719476 -0.35028422 0.059790347
-0.17738724 -0.35033622 0.059784893
-0.17755166 -0.35038137 0.059774943
-0.17775473 -0.350431 0.059806347
-0.17794713 -0.35048297 0.059800882
-0.17812143 -0.35054159 0.059713613
-0.1783274 -0.35060155 0.059676945
-0.17850207 -0.35064894 0.059670411
-0.17868736 -0.35069722 0.059677672
-0.17888612 -0.35075495 0.059643343
-0.17907171 -0.35079959 0.059677128
-0.17925951 -0.35085776 0.059618637
-0.17945221 -0.35090348 0.059658155
-0.1796335 -0.35095444 0.059638906
-0.17981938 -0.35099787 0.059681915
-0.18002024 -0.35106343 0.059595674
-0.18020788 -0.35111898 0.059555635
-0.18037353 -0.35117465 0.059473012
-0.18057686 -0.3512224 0.059518255
-0.18076774 -0.35127866 0.059479352
-0.18095054 -0.35133827 0.059401266
-0.18113911 -0.35138646 0.059415434
-0.18133117 -0.35143572 0.059428427
-0.18152022 -0.35148212 0.059456438
-0.18171908 -0.35153434 0.059461325
-0.18190387 -0.35159835 0.05935555
-0.18211104 -0.35164666 0.059404239
-0.18228394 -0.35169795 0.059366569
-0.1824687 -0.35174659 0.059370369
-0.18266866 -0.35179457 0.059407547
-0.18283561 -0.35184008 0.059399895
-0.18302208 -0.35189548 0.059358701
-0.18321538 -0.35195285 0.05931633
-0.18339838 -0.35200667 0.059279766
-0.18359071 -0.35205507 0.059299685
-0.18377359 -0.35210887 0.059263125
-0.18396226 -0.35216746 0.059203468
-0.18415381 -0.35221788 0.059207238
-0.18434575 -0.3522673 0.059219081
-0.18454255 -0.35232401 0.059188228
-0.18472831 -0.3523792 0.059147038
-0.18490309 -0.35241419 0.059229322
-0.18508661 -0.35247445 0.059147771
-0.18527775 -0.35252577 0.059144624
-0.18545915 -0.35259002 0.059030786
-0.1856472 -0.3526392 0.059036877
-0.18584917 -0.3526921 0.059042912
-0.18604264 -0.35273835 0.059080124
-0.18621716 -0.35279122 0.05903437
-0.1864021 -0.35284668 0.058989733
-0.18658447 -0.35289922 0.058961242
-0.18676394 -0.35295713 0.058888946
-0.18696573 -0.35300285 0.058945723
-0.18716013 -0.35305503 0.058942564
-0.18731892 -0.35312766 0.058726173
-0.18752199 -0.35316435 0.058849856
-0.18769835 -0.35322642 0.058741815
-0.18790095 -0.3532646 0.058853954
-0.18810719 -0.35331056 0.058917638
-0.18828145 -0.35336253 0.058877654
-0.18847401 -0.35340482 0.058941398
-0.18866998 -0.35344851 0.059001662
-0.18885429 -0.35350996 0.05891319
-0.18903209 -0.35356855 0.058832824
-0.18922947 -0.35362235 0.058823884
-0.1894279 -0.35366878 0.05886915
-0.18960515 -0.35372189 0.058826845
-0.18978666 -0.3537747 0.058794897
-0.18996948 -0.3538312 0.058738735
-0.19016115 -0.35388136 0.058744811
-0.1903505 -0.35393462 0.058724366
-0.19053465 -0.35398909 0.058685493
-0.19071969 -0.35404232 0.058656998
-0.19090641 -0.3540934 0.058646951
-0.19109364 -0.35414901 0.058605753
-0.19129209 -0.35419109 0.058682159
-0.19147731 -0.35423905 0.058691725
-0.19167097 -0.35430205 0.058610141
-0.19186892 -0.35435015 0.058642715
-0.1920604 -0.35441044 0.058576122
-0.19223873 -0.35446125 0.058552269
-0.19241416 -0.35451046 0.058534205
-0.19260028 -0.35455751 0.058551833
-0.19279031 -0.35460514 0.058572911
-0.19297858 -0.3546547 0.058576696
-0.19315252 -0.35470998 0.058512501
-0.19332734 -0.35477313 0.058394082
-0.1935188 -0.35481933 0.05842784
-0.19371891 -0.35486591 0.058475398
-0.19390428 -0.35491407 0.058483817
-0.19408751 -0.35497281 0.058412649
-0.19427368 -0.3550244 0.05839799
-0.19474754 -0.35511711 0.058635816
-0.19496591 -0.35514024 0.058885135
-0.19538414 -0.35520098 0.059245471
-0.19560511 -0.35523579 0.059416361
-0.19581796 -0.35526633 0.059602268
-0.19604099 -0.3552928 0.059836589
-0.1962567 -0.35532218 0.060036331
-0.19646631 -0.35536093 0.060157664
-0.19668454 -0.35538936 0.060368929
-0.19690049 -0.35542396 0.060531773
