# .PCD v0.7 - Point Cloud Data file format
VERSION 0.7
FIELDS x y z
SIZE 4 4 4
TYPE F F F
COUNT 1 1 1
WIDTH 1282
HEIGHT 1
VIEWPOINT 0 0 0 1 0 0 0
POINTS 1282
DATA ascii
-0.31855893 -0.10412546 0.056479603
-0.31873304 -0.10406105 0.056392666
-0.31891018 -0.10398564 0.056371428
-0.31908575 -0.1039133 0.056334049
-0.31927896 -0.10381724 0.056404989
-0.31944773 -0.10375773 0.05630077
-0.31962672 -0.1036837 0.056264542
-0.3198086 -0.10359977 0.056287095
-0.31999612 -0.10350572 0.056361519
-0.32017955 -0.10343752 0.056272242
-0.32034782 -0.10337382 0.056198001
-0.32053885 -0.10327856 0.056270096
-0.32072589 -0.10319065 0.056304168
-0.32090101 -0.10312799 0.05620224
-0.32106826 -0.10307015 0.056091107
-0.32125822 -0.10297316 0.056178197
-0.32145071 -0.10288063 0.056227237
-0.32163131 -0.10280844 0.056173716
-0.32181668 -0.10272821 0.056160524
-0.32199931 -0.10264851 0.056151945
-0.32217991 -0.10256818 0.056153759
-0.32235909 -0.10249832 0.056088701
-0.32252982 -0.10242625 0.056064025
-0.32270408 -0.10236024 0.055987459
-0.32289156 -0.10227299 0.05601576
-0.32306787 -0.10219981 0.055981841
-0.32325613 -0.1021078 0.056040119
-0.32344455 -0.10202335 0.056046519
-0.32362604 -0.101946 0.05602527
-0.32379538 -0.10188016 0.055962551
-0.32397598 -0.10180423 0.055934377
-0.32414332 -0.10174128 0.05585783
-0.3243407 -0.10164355 0.055927619
-0.32453036 -0.10155058 0.055988193
-0.3247104 -0.10147931 0.055930052
-0.32488418 -0.1014103 0.055875387
-0.32506496 -0.10133785 0.055823013
-0.32525745 -0.10123789 0.055922784
-0.32541391 -0.10119075 0.055771329
-0.32560223 -0.10110397 0.05579387
-0.32576105 -0.10105309 0.055660851
-0.32595018 -0.10096528 0.055688001
-0.32613385 -0.10088207 0.055700179
-0.32632589 -0.10079042 0.055744614
-0.32649881 -0.10072263 0.055684187
-0.32670051 -0.10061773 0.055789694
-0.3268632 -0.1005643 0.055662435
-0.32703969 -0.10049155 0.055625055
-0.32722571 -0.10040882 0.055626854
-0.32741597 -0.10031728 0.055675898
-0.32759687 -0.10023869 0.055665024
-0.32778275 -0.10015655 0.055663355
-0.32795689 -0.1000872 0.055609852
-0.32814401 -0.10000348 0.055615094
-0.32832199 -0.099929065 0.055584639
-0.32851201 -0.099841692 0.055606015
-0.32869321 -0.09976314 0.055593982
-0.32886794 -0.09969607 0.055523183
-0.32906556 -0.099599078 0.055587195
-0.3292399 -0.099529654 0.055533689
-0.32941779 -0.099455602 0.055500913
-0.32959431 -0.09938623 0.055440485
-0.32979083 -0.099288374 0.055513725
-0.32997334 -0.099211432 0.055486705
-0.33015075 -0.099140972 0.055430882
-0.33032829 -0.099067599 0.055394657
-0.33052292 -0.098975472 0.055434465
-0.33071065 -0.09888947 0.055453554
-0.33087933 -0.09882728 0.055367775
-0.331056 -0.098757833 0.055307336
-0.33125037 -0.098663792 0.055360988
-0.33142453 -0.098597489 0.055286735
-0.33160931 -0.098515496 0.055287376
-0.33181465 -0.098411188 0.055377882
-0.33199254 -0.098337822 0.055340499
-0.33216158 -0.098280385 0.055221297
-0.33234876 -0.098195791 0.055232309
-0.33254009 -0.098114103 0.05521103
-0.33275041 -0.098004721 0.055321127
-0.33290383 -0.097963162 0.055140853
-0.33311209 -0.097856551 0.055238277
-0.33329239 -0.097783133 0.055193972
-0.33347824 -0.097705737 0.055160027
-0.33365923 -0.097624049 0.055169903
-0.33383933 -0.097553425 0.055107154
-0.33404106 -0.097460188 0.055133112
-0.33421937 -0.097386815 0.055094577
-0.33439472 -0.097309478 0.055091787
-0.33457634 -0.097234808 0.055052094
-0.33475301 -0.097160965 0.055021632
-0.33494198 -0.097077943 0.055016506
-0.33511049 -0.097018205 0.054914586
-0.33528972 -0.0969368 0.05492793
-0.33549857 -0.096833982 0.054997675
-0.3356629 -0.096774235 0.054908454
-0.33588058 -0.096657187 0.055048503
-0.3360551 -0.096595466 0.05494196
-0.33625057 -0.096510418 0.054931048
-0.33643347 -0.09643247 0.054909796
-0.33661953 -0.09635108 0.054902367
-0.33680633 -0.096271224 0.054882251
-0.33699307 -0.096193768 0.054845996
-0.3371819 -0.096111834 0.054833949
-0.33736998 -0.096028537 0.054833435
-0.33754694 -0.095950671 0.054829489
-0.33773962 -0.09586703 0.054817427
-0.3379249 -0.095793605 0.05475812
-0.33811271 -0.095704339 0.05479911
-0.33829707 -0.095629796 0.054750182
-0.33845204 -0.095573522 0.054665595
-0.33865875 -0.095479608 0.054681171
-0.33886826 -0.095372088 0.054780889
-0.3390395 -0.095309451 0.054690499
-0.33924752 -0.095216647 0.054694537
-0.33942121 -0.09514717 0.054643333
-0.33961365 -0.095060244 0.054654326
-0.33981383 -0.094963312 0.054710262
-0.3399854 -0.094900347 0.05462103
-0.34018272 -0.094810769 0.054635473
-0.3403466 -0.094749518 0.054557774
-0.34053814 -0.094668075 0.054534189
-0.34072739 -0.094584942 0.054529063
-0.34091681 -0.09450376 0.054510091
-0.34111398 -0.094412714 0.054534916
-0.34128773 -0.094343543 0.054481402
-0.34148195 -0.094257697 0.054479722
-0.34167907 -0.094167024 0.05450223
-0.34186786 -0.094088815 0.054464817
-0.34205896 -0.094006389 0.054449305
-0.34223822 -0.093931913 0.054415379
-0.3424347 -0.093844213 0.05441945
-0.34260666 -0.093779057 0.054344039
-0.34279475 -0.093695924 0.054342374
-0.34300235 -0.093599416 0.054372929
-0.34317833 -0.093532309 0.054298658
-0.34340301 -0.093430772 0.054311875
-0.34359333 -0.093351558 0.054276768
-0.3437742 -0.093273997 0.05425898
-0.34397954 -0.09317831 0.05429069
-0.34415102 -0.093106262 0.0542637
-0.34432217 -0.093043998 0.054171011
-0.34453547 -0.092940904 0.054229207
-0.34472769 -0.092854589 0.054236759
-0.34491459 -0.092773512 0.054224707
-0.34509081 -0.092708327 0.054136612
-0.24664132 -0.13562883 0.059042711
-0.2468698 -0.13553762 0.058974043
-0.24710235 -0.13544631 0.058893837
-0.24733318 -0.13535525 0.058817096
-0.24755964 -0.13526461 0.058750756
-0.24778794 -0.13517399 0.058678631
-0.2480561 -0.13507842 0.058519922
-0.24827826 -0.13499136 0.058442056
-0.24848053 -0.13490264 0.058435723
-0.24868691 -0.13481377 0.058417853
-0.24890643 -0.13472433 0.058364205
-0.24912909 -0.13463487 0.05830133
-0.24933982 -0.13454612 0.058269612
-0.24955754 -0.13445714 0.058218267
-0.24977836 -0.13436815 0.058157697
-0.25000817 -0.13427889 0.058071744
-0.25023586 -0.1341899 0.057990395
-0.2504434 -0.13410188 0.057963304
-0.250662 -0.13401353 0.057905041
-0.25088236 -0.13392524 0.057841014
-0.25110322 -0.13383707 0.057774674
-0.25132456 -0.13374904 0.057706036
-0.25153771 -0.1336614 0.057659321
-0.25175714 -0.13357371 0.057594147
-0.2519778 -0.13348462 0.057534728
-0.25220552 -0.13339695 0.057444159
-0.25242391 -0.13330972 0.057378978
-0.2526395 -0.1332227 0.057320733
-0.2528657 -0.13313556 0.057231318
-0.25306815 -0.1330491 0.057208851
-0.25328282 -0.1329625 0.05715061
-0.25349236 -0.13287613 0.057106212
-0.25371477 -0.13278964 0.057023726
-0.25392175 -0.13270357 0.056985106
-0.25413558 -0.13261598 0.056936078
-0.25435302 -0.13253 0.056865141
-0.25455913 -0.13244429 0.056826524
-0.25476813 -0.13235869 0.056778669
-0.25497723 -0.13227318 0.056729659
-0.2551899 -0.1321878 0.056669109
-0.2553992 -0.13210255 0.056617796
-0.25560588 -0.13201745 0.05657341
-0.25581279 -0.13193089 0.056538247
-0.25601858 -0.13184601 0.056495007
-0.25622866 -0.13176127 0.056437925
-0.25643578 -0.13167664 0.056388929
-0.25664243 -0.13159055 0.056351457
-0.25684676 -0.13150615 0.056309383
-0.25705346 -0.13142188 0.05625923
-0.25725392 -0.13133767 0.056227542
-0.25745767 -0.13125199 0.056195848
-0.25766137 -0.13116805 0.056152612
-0.25790319 -0.13107517 0.056055091
-0.25803837 -0.13099179 0.056214992
-0.25843877 -0.13083257 0.056090504
-0.25874102 -0.13074507 0.055773735
-0.25910828 -0.13057448 0.055826902
-0.25926712 -0.13049838 0.055865668
-0.25947219 -0.13041551 0.055810906
-0.25967476 -0.13033104 0.055774596
-0.25987154 -0.13024813 0.055745229
-0.26007229 -0.13016547 0.055702008
-0.26028427 -0.13007836 0.055655304
-0.26046544 -0.13000016 0.055640966
-0.26066342 -0.12991773 0.055604666
-0.26086742 -0.129834 0.055559136
-0.26105669 -0.12975135 0.055550538
-0.26125094 -0.12966904 0.055524636
-0.261446 -0.12958688 0.055495262
-0.26164991 -0.12950014 0.055470482
-0.26183766 -0.12942122 0.055441141
-0.26202777 -0.12933905 0.055426773
-0.26222274 -0.12925728 0.055395104
-0.26241282 -0.12917529 0.055379588
-0.26260108 -0.12909327 0.055369843
-0.26278424 -0.12901098 0.055377398
-0.26296744 -0.12892696 0.055396497
-0.26313552 -0.12884542 0.055444453
-0.26330295 -0.12876026 0.05551894
-0.26343995 -0.12867269 0.055701897
-0.26200151 -0.12813526 0.063707948
-0.26227349 -0.12805982 0.063400492
-0.26240551 -0.1279621 0.063667633
-0.26259008 -0.12787494 0.063704014
-0.26279554 -0.12778987 0.063663095
-0.26304996 -0.12760189 0.064175487
-0.26351896 -0.12732446 0.064649232
-0.26375923 -0.12724529 0.06446293
-0.26526847 -0.12710811 0.060839362
-0.26545131 -0.12702122 0.060879208
-0.26566616 -0.12692641 0.06087631
-0.26589093 -0.12683499 0.060820337
-0.2660642 -0.12675706 0.060827926
-0.26626223 -0.12667038 0.060820464
-0.26645753 -0.12658134 0.060837224
-0.26666239 -0.12650602 0.060731724
-0.2668184 -0.12643202 0.06076473
-0.26706162 -0.12633377 0.060699485
-0.26725239 -0.12625268 0.060675897
-0.26744118 -0.12616721 0.060688056
-0.26762033 -0.12608024 0.060739439
-0.26779896 -0.12599741 0.06076432
-0.26797199 -0.12592214 0.060754608
-0.26821828 -0.12584217 0.060555607
-0.26838836 -0.12577091 0.060527466
-0.26859114 -0.12566689 0.060623754
-0.2687766 -0.12558341 0.06063246
-0.26894554 -0.12551214 0.060607776
-0.26917472 -0.12541723 0.060562178
-0.26936281 -0.12533446 0.0605582
-0.26953587 -0.12526424 0.060513895
-0.26972103 -0.12517884 0.060536444
-0.26993454 -0.12509021 0.0604955
-0.27010754 -0.1250114 0.060510006
-0.27033356 -0.12492332 0.060427509
-0.27051556 -0.12484203 0.060431622
-0.27067819 -0.12476799 0.060445007
-0.27089271 -0.12467788 0.060410973
-0.27105901 -0.12460475 0.060407057
-0.27122843 -0.12452548 0.060435407
-0.27146235 -0.12444235 0.060295247
-0.2716178 -0.12436929 0.060323641
-0.27180481 -0.12427801 0.060380772
-0.27202699 -0.1241857 0.060338646
-0.27217275 -0.12411505 0.060379751
-0.27239347 -0.1240344 0.060262684
-0.27256116 -0.12395268 0.060312949
-0.2727665 -0.12386851 0.060266268
-0.27294165 -0.12378874 0.06028077
-0.27312711 -0.12370203 0.060311377
-0.27332234 -0.12362522 0.060245119
-0.27348486 -0.12354462 0.060303472
-0.27371234 -0.12346706 0.060144871
-0.27392274 -0.12337524 0.060135067
-0.27408236 -0.12329641 0.060189977
-0.27425385 -0.12321845 0.060203329
-0.27445734 -0.12313983 0.060124364
-0.27465093 -0.12305595 0.060111139
-0.27483326 -0.12297639 0.06010256
-0.27503228 -0.1228918 0.060077794
-0.27520946 -0.12281079 0.060094602
-0.2754057 -0.12273066 0.060047932
-0.27559227 -0.12265277 0.060015135
-0.27579296 -0.12256914 0.059978839
-0.27594054 -0.12249701 0.060024545
-0.27612343 -0.12241025 0.060063243
-0.2763367 -0.12233645 0.05992198
-0.27651542 -0.12225374 0.059945699
-0.27670181 -0.12216832 0.059964783
-0.27689746 -0.12209436 0.059877761
-0.27706942 -0.12201753 0.059881896
-0.27726969 -0.12192918 0.059879035
-0.27744514 -0.12187026 0.059750557
-0.2776331 -0.12177754 0.059814617
-0.27783725 -0.12168815 0.059807125
-0.27798572 -0.1216053 0.059923168
-0.27818525 -0.12152828 0.059845366
-0.27834252 -0.12144593 0.059931405
-0.27855927 -0.12137616 0.059752084
-0.27874267 -0.12129883 0.059725054
-0.2789304 -0.1212118 0.059751056
-0.27911299 -0.12112553 0.059787448
-0.27929488 -0.12105072 0.059747737
-0.27947387 -0.12097179 0.059744935
-0.27968851 -0.12089384 0.059627879
-0.27985772 -0.12082278 0.059600893
-0.28004134 -0.12073723 0.059629209
-0.28023484 -0.12065931 0.059575632
-0.28041634 -0.12057284 0.05961664
-0.28059039 -0.12049205 0.059641525
-0.28075194 -0.12041456 0.05968143
-0.28095454 -0.12034464 0.059545964
-0.28115052 -0.12025598 0.059558101
-0.28131929 -0.12017905 0.059572622
-0.28150058 -0.12010857 0.059505243
-0.28170884 -0.12002327 0.059457392
-0.28190428 -0.11994113 0.059426866
-0.28209126 -0.11985459 0.059451722
-0.28227261 -0.11977157 0.05946967
-0.28247336 -0.11969265 0.059401087
-0.28262442 -0.11961628 0.05946523
-0.28279966 -0.11954001 0.059455525
-0.28299582 -0.11946228 0.059392713
-0.28318828 -0.1193757 0.0594014
-0.28336424 -0.11930708 0.059337497
-0.28353348 -0.1192311 0.059343949
-0.28371954 -0.11914431 0.059373412
-0.28390053 -0.11906144 0.059391357
-0.28410581 -0.11898322 0.059304312
-0.28428784 -0.11889753 0.059338398
-0.2844975 -0.11882261 0.059215598
-0.28465322 -0.11876381 0.05914598
-0.28484029 -0.11866319 0.05926653
-0.28502864 -0.1185857 0.059225649
-0.28520054 -0.11851583 0.05918251
-0.2853424 -0.1184288 0.059346996
-0.28555408 -0.11834504 0.059278384
-0.28573081 -0.11827895 0.059194878
-0.28590754 -0.11820526 0.059163254
-0.28609326 -0.11812656 0.059138525
-0.28627458 -0.11804863 0.059121884
-0.28646022 -0.11796607 0.059123673
-0.28664723 -0.11788461 0.059113923
-0.28682286 -0.11781478 0.059059247
-0.28699636 -0.11773507 0.059078369
-0.28719747 -0.11764448 0.059088193
-0.28736883 -0.11756723 0.05909694
-0.28753906 -0.11749759 0.059057269
-0.2877202 -0.11742024 0.059037156
-0.28790182 -0.11734337 0.059012443
-0.28809905 -0.11726736 0.05893464
-0.28826964 -0.11718081 0.059009112
-0.2884616 -0.11710478 0.058947474
-0.28862628 -0.11703539 0.058922797
-0.28879145 -0.11695734 0.058955781
-0.28899002 -0.1168836 0.05885838
-0.28918749 -0.1167997 0.058833614
-0.28936368 -0.11671846 0.058855034
-0.28953069 -0.11663264 0.058935277
-0.28970566 -0.11656464 0.058870226
-0.28987786 -0.11649396 0.058831699
-0.29006982 -0.1164147 0.058791958
-0.290254 -0.11635242 0.058660001
-0.29043278 -0.11626411 0.058721773
-0.2906113 -0.11618573 0.058716666
-0.29077283 -0.11608779 0.058896095
-0.29094595 -0.11601349 0.058879472
-0.29114932 -0.11596471 0.058597572
-0.29132512 -0.11587247 0.058695085
-0.29150185 -0.11579217 0.058708433
-0.29168135 -0.11572097 0.058651432
-0.29187128 -0.11565784 0.058507934
-0.29202962 -0.1155537 0.058739249
-0.29221666 -0.11547542 0.058707599
-0.29240569 -0.11540001 0.058650583
-0.29258245 -0.11531986 0.058662772
-0.29276174 -0.11524943 0.058601167
-0.29294673 -0.11518139 0.058506101
-0.29313725 -0.11509667 0.058507875
-0.29330432 -0.1150215 0.058515482
-0.29347482 -0.11493854 0.058565754
-0.29365844 -0.11486281 0.058527187
-0.29383257 -0.11478551 0.058527857
-0.29400149 -0.11470648 0.05855621
-0.29419255 -0.11465063 0.058359671
-0.2943832 -0.11457382 0.058307249
-0.29454854 -0.11447452 0.058484361
-0.29471686 -0.11440168 0.058472361
-0.29491305 -0.11433526 0.058332305
-0.2950846 -0.11423848 0.05847365
-0.29525709 -0.11417393 0.058392465
-0.2954509 -0.1141123 0.05822704
-0.29562035 -0.11401034 0.058409907
-0.29581293 -0.11393893 0.058314819
-0.29598784 -0.11386418 0.058295891
-0.2961674 -0.11379109 0.058251575
-0.2963495 -0.11370637 0.058278743
-0.29651579 -0.11362106 0.058357842
-0.29668969 -0.11355335 0.058293939
-0.29687053 -0.11348408 0.058219645
-0.29705018 -0.11340266 0.058231827
-0.29722714 -0.11332413 0.05823249
-0.29740328 -0.11324342 0.05825045
-0.29757965 -0.1131736 0.05819346
-0.29775414 -0.11309902 0.058174528
-0.29793617 -0.1130245 0.058132514
-0.29811752 -0.11294825 0.05810434
-0.29828823 -0.1128625 0.058173053
-0.29847106 -0.11279117 0.058106817
-0.29864639 -0.11270776 0.058145538
-0.29883823 -0.11262991 0.058096573
-0.29900688 -0.11256166 0.05805229
-0.29918632 -0.11247964 0.058069088
-0.29934976 -0.11240591 0.058077864
-0.29952282 -0.11234162 0.057993207
-0.29970551 -0.11225784 0.058012307
-0.29987636 -0.11218522 0.057991076
-0.3000676 -0.11210746 0.057943273
-0.30025786 -0.11202557 0.057926595
-0.30042365 -0.11194638 0.057965346
-0.30059531 -0.11187849 0.057909526
-0.30077252 -0.11180322 0.057887122
-0.30095926 -0.11172204 0.057876229
-0.30112183 -0.11164344 0.057920747
-0.30129912 -0.11156882 0.057893731
-0.30147609 -0.11149231 0.057880558
-0.30164701 -0.11142253 0.057839729
-0.30183053 -0.11134379 0.057821922
-0.30200735 -0.11126684 0.05781221
-0.30218747 -0.11118877 0.057800181
-0.30236757 -0.11111086 0.057787001
-0.3025409 -0.11103309 0.057793431
-0.30272087 -0.11095388 0.057789478
-0.30288449 -0.11088143 0.05778902
-0.3030687 -0.11081474 0.057687048
-0.30324909 -0.11074433 0.057621971
-0.30341491 -0.11065125 0.057755269
-0.30359223 -0.11058813 0.057649843
-0.30376902 -0.11051509 0.057613615
-0.30394557 -0.11043487 0.057626966
-0.30412212 -0.11035007 0.057671443
-0.30429885 -0.11027654 0.05763866
-0.30447552 -0.11020812 0.057571292
-0.30465537 -0.11013202 0.057546578
-0.3048287 -0.11005627 0.057539187
-0.30500886 -0.10996751 0.057599798
-0.30518878 -0.10989055 0.057580851
-0.30536503 -0.10982366 0.057504259
-0.30553705 -0.1097737 0.057325065
-0.30572075 -0.10968101 0.057401806
-0.30589473 -0.10959414 0.057468198
-0.3060613 -0.10952495 0.057436608
-0.30625102 -0.10944142 0.057432625
-0.3064377 -0.10935723 0.057442479
-0.30660817 -0.10927919 0.057459302
-0.30677792 -0.10920858 0.057427701
-0.30695191 -0.10912763 0.05745374
-0.30713338 -0.10906285 0.05734716
-0.30731183 -0.10897112 0.05743314
-0.30748257 -0.10891581 0.057294302
-0.30767167 -0.10883697 0.057260338
-0.30783927 -0.10875851 0.057288695
-0.30801934 -0.10867893 0.057287041
-0.30820456 -0.10860519 0.057230037
-0.3083787 -0.10852486 0.057251461
-0.30855516 -0.10844891 0.057235982
-0.30874124 -0.10836972 0.05721356
-0.30890733 -0.10830089 0.057180807
-0.30908421 -0.10822274 0.05717916
-0.30925646 -0.10813816 0.057235185
-0.30943894 -0.10806207 0.057202399
-0.30962732 -0.1079861 0.057151143
-0.30978391 -0.1079198 0.057129949
-0.30996427 -0.10783975 0.057130605
-0.31013626 -0.10777035 0.057084002
-0.31030974 -0.10769472 0.057075448
-0.31049192 -0.1076076 0.057118759
-0.31066492 -0.10753402 0.057097524
-0.31084046 -0.10746186 0.05705899
-0.31101069 -0.10739849 0.056976657
-0.31119645 -0.10732011 0.056949619
-0.31135985 -0.10724978 0.056935325
-0.31154627 -0.10715909 0.056990162
-0.31171104 -0.10710373 0.056869783
-0.31189021 -0.10701861 0.056908488
-0.31207472 -0.1069259 0.056982931
-0.31226528 -0.10683255 0.057043511
-0.31243941 -0.10677336 0.056920808
-0.31262234 -0.10669523 0.056900691
-0.31281447 -0.10658103 0.057098489
-0.31298891 -0.10652865 0.056928504
-0.31315431 -0.10646115 0.056888849
-0.31333178 -0.10639085 0.056831852
-0.3135013 -0.10631154 0.056860205
-0.31367061 -0.10624842 0.056779027
-0.31385952 -0.10616153 0.056800406
-0.31404221 -0.1060769 0.056825265
-0.31421614 -0.10600833 0.056767132
-0.31439307 -0.10593183 0.056753963
-0.31456006 -0.10585991 0.056739658
-0.3147327 -0.10578752 0.05671151
-0.31492069 -0.10570374 0.056714449
-0.31510177 -0.10562389 0.056711644
-0.31526953 -0.10555688 0.056661595
-0.31544465 -0.10547847 0.056666873
-0.31562448 -0.10540815 0.056602955
-0.31580815 -0.1053224 0.056632429
-0.31597322 -0.10526131 0.0565501
-0.31615961 -0.10517572 0.056570336
-0.31633684 -0.10509299 0.056598678
-0.31651238 -0.10502017 0.056564752
-0.3166945 -0.10494442 0.056530803
-0.31687555 -0.10486525 0.056523383
-0.31705713 -0.10477941 0.056559779
-0.31723458 -0.10470811 0.056509711
-0.31740957 -0.10463094 0.056506913
-0.31758443 -0.1045596 0.056464918
-0.31776163 -0.10448332 0.056449439
-0.31795222 -0.10439045 0.056506559
-0.31813365 -0.10431111 0.056499146
-0.31829503 -0.1042564 0.056384541
-0.31848875 -0.10415792 0.056470484
-0.31866425 -0.10409035 0.056400809
-0.31883714 -0.10401785 0.056372657
-0.31901252 -0.10394542 0.056336433
-0.31920159 -0.10385186 0.056402784
-0.31936926 -0.10379402 0.056290474
-0.3195489 -0.10371835 0.056263462
-0.31972864 -0.1036379 0.056268722
-0.31991681 -0.10354679 0.056321245
-0.3201023 -0.10346532 0.056316115
-0.32026348 -0.10341408 0.056178454
-0.32044938 -0.10332294 0.056237899
-0.32063949 -0.1032291 0.056303095
-0.32081813 -0.10315997 0.056234565
-0.32098615 -0.10310486 0.056102663
-0.32116675 -0.1030193 0.056140207
-0.32136381 -0.10291848 0.056231897
-0.32153955 -0.10284996 0.056168001
-0.3217268 -0.10277024 0.056145567
-0.3219066 -0.10269079 0.056143913
-0.32208216 -0.10261439 0.056134205
-0.32226795 -0.10254125 0.056071434
-0.32244253 -0.10246258 0.05608017
-0.32260853 -0.10240175 0.055993233
-0.32279322 -0.10231861 0.056001939
-0.32297289 -0.10223971 0.055996828
-0.32315701 -0.10215766 0.055999782
-0.32335162 -0.10206301 0.056056894
-0.32353118 -0.1019884 0.056022953
-0.3237077 -0.10191479 0.055991333
-0.32387227 -0.10185223 0.055920541
-0.32405046 -0.1017833 0.055852022
-0.32424408 -0.10168722 0.055921819
-0.32442814 -0.10159878 0.055968583
-0.32461089 -0.10152309 0.055932328
-0.32479081 -0.10144815 0.055899546
-0.32496452 -0.10138237 0.055822961
-0.32516047 -0.10128037 0.055926189
-0.32532358 -0.10123012 0.055775847
-0.32550552 -0.1011455 0.055803016
-0.32567185 -0.10109027 0.055676874
-0.32584387 -0.10102002 0.055636037
-0.32604647 -0.10091269 0.055755392
-0.32622331 -0.10084233 0.055700708
-0.32640672 -0.10075941 0.055711731
-0.32658884 -0.10067841 0.055713527
-0.32678384 -0.10058596 0.055754505
-0.32693705 -0.10054536 0.055568434
-0.32713854 -0.10044088 0.055671655
-0.3273156 -0.10036722 0.055638872
-0.32750684 -0.10027727 0.055674091
-0.32768732 -0.10019903 0.055662062
-0.32786697 -0.10012505 0.055623505
-0.32804233 -0.10005382 0.055579215
-0.32823297 -0.099965163 0.055607505
-0.32841581 -0.099887073 0.055587392
-0.32860696 -0.099798024 0.055616848
-0.32877088 -0.09974201 0.055503394
-0.32896885 -0.099644177 0.055572029
-0.32914561 -0.099571303 0.055534642
-0.32932582 -0.099496916 0.055497244
-0.32950422 -0.099424846 0.055449471
-0.32969528 -0.099336505 0.055474307
-0.32988477 -0.099247515 0.055508371
-0.33006191 -0.099177182 0.055452541
-0.3302373 -0.099106282 0.05540593
-0.33042777 -0.099021927 0.055405404
-0.33061841 -0.098931909 0.055442926
-0.33080322 -0.098852091 0.055428572
-0.33097246 -0.098791689 0.055328943
-0.33114544 -0.098723896 0.055268504
-0.33134255 -0.098628975 0.055319849
-0.33152482 -0.098552488 0.055290513
-0.3317222 -0.098454915 0.055359147
-0.33192441 -0.098354362 0.055433542
-0.33207676 -0.098317012 0.055227872
-0.33226946 -0.098228119 0.055251554
-0.33245692 -0.098150857 0.055211823
-0.33264875 -0.098060653 0.055247042
-0.33283636 -0.097983316 0.055207312
-0.33301371 -0.097905457 0.055202208
-0.33320785 -0.097820491 0.055194758
-0.33338991 -0.09774477 0.055160813
-0.33357221 -0.097661331 0.055178754
-0.33375794 -0.097581439 0.055162102
-0.3339529 -0.097498313 0.055139653
-0.33413607 -0.097423956 0.05509302
-0.33431876 -0.097342879 0.055093668
-0.33449113 -0.097271279 0.055060901
-0.3346715 -0.097197838 0.055016585
-0.33485469 -0.097116366 0.055018391
-0.33504152 -0.097038023 0.054987893
-0.33519763 -0.096984968 0.054877922
-0.33541694 -0.096862957 0.055046804
-0.33558071 -0.096810743 0.054907985
-0.33577797 -0.096713901 0.054972015
-0.33597809 -0.096621044 0.055000283
-0.33615986 -0.096551046 0.054928295
-0.33635432 -0.096466944 0.054913916
-0.33653748 -0.096388534 0.054894954
-0.33671492 -0.096314177 0.054865636
-0.33691326 -0.096223809 0.054882385
-0.33709714 -0.09614931 0.054834601
-0.33728999 -0.096065082 0.054825995
-0.33746237 -0.095989764 0.054818593
-0.33764684 -0.095905863 0.054833069
-0.33784279 -0.095825166 0.054791018
-0.3380152 -0.0957544 0.054752491
-0.33822241 -0.095655188 0.054802652
-0.33837625 -0.095604315 0.05468462
-0.33856481 -0.095520809 0.054684091
-0.3387571 -0.095433459 0.054698549
-0.33895332 -0.095344186 0.054714143
-0.33914241 -0.095264666 0.054684795
-0.33933076 -0.095185995 0.054651991
-0.33950457 -0.095114097 0.054616921
-0.33971736 -0.095010042 0.054683208
-0.33990377 -0.094927326 0.054683834
-0.34007904 -0.09486036 0.054610714
-0.34025472 -0.094788812 0.054567561
-0.34043831 -0.094711237 0.054541688
-0.34061906 -0.094636597 0.054504286
-0.34081802 -0.094547465 0.054510657
-0.34101892 -0.094454437 0.054537766
-0.34120032 -0.094375283 0.054529201
-0.34137174 -0.094308332 0.054467604
-0.34157228 -0.094215967 0.054491263
-0.3417688 -0.094129778 0.054484956
-0.34194273 -0.094062395 0.05441875
-0.34213868 -0.093974948 0.054422818
-0.34232557 -0.093892686 0.054418847
-0.34251204 -0.093814828 0.054386038
-0.34268799 -0.09374553 0.05432675
-0.34288529 -0.093655117 0.054346949
-0.34307784 -0.09356951 0.05434873
-0.34326905 -0.093491092 0.054305531
-0.34347779 -0.093399316 0.054300342
-0.34366176 -0.093324274 0.054256015
-0.3438468 -0.093242489 0.054254349
-0.34404066 -0.093154103 0.054271109
-0.34422514 -0.093074933 0.054253299
-0.34439471 -0.093014047 0.054155976
-0.34460488 -0.092912003 0.054216504
-0.34479785 -0.092826709 0.054214813
-0.34498221 -0.092744216 0.054220065
-0.34515747 -0.092679799 0.054129642
-0.24669336 -0.13560829 0.059025541
-0.24691743 -0.13551599 0.058977626
-0.24715784 -0.13542424 0.058876611
-0.24738851 -0.13533327 0.058799841
-0.24761704 -0.13524255 0.058727697
-0.247848 -0.13515042 0.05865784
-0.24810766 -0.13505539 0.058521017
-0.24833995 -0.1349664 0.058425792
-0.24853946 -0.13487789 0.058426384
-0.24875288 -0.13478726 0.058399249
-0.24897355 -0.13469782 0.058342118
-0.24919114 -0.13460723 0.058302291
-0.24941312 -0.13451654 0.058249764
-0.24963564 -0.13442594 0.058194935
-0.24985626 -0.13433704 0.058134332
-0.25008234 -0.13424656 0.058067963
-0.25031662 -0.13415736 0.057968114
-0.25052473 -0.13406792 0.05794907
-0.25074482 -0.13397957 0.057886172
-0.25096533 -0.13388988 0.057831351
-0.25118434 -0.13380186 0.057769604
-0.25141123 -0.13371222 0.057695158
-0.25162831 -0.13362454 0.057636872
-0.25184831 -0.1335354 0.057579733
-0.2520709 -0.13344783 0.057504147
-0.25229305 -0.13335893 0.057438936
-0.25252098 -0.13327001 0.057356406
-0.25274241 -0.13318141 0.057291195
-0.25296596 -0.13309443 0.05720868
-0.25316942 -0.13300653 0.057193115
-0.25338548 -0.13291998 0.057130221
-0.25360003 -0.13283207 0.057081182
-0.25382224 -0.13274416 0.057009045
-0.25403497 -0.13265656 0.05696347
-0.25424621 -0.13257062 0.056910969
-0.25446463 -0.1324832 0.05684692
-0.25467134 -0.13239758 0.056805968
-0.25488526 -0.13231046 0.056753475
-0.25509298 -0.13222507 0.056707904
-0.25530243 -0.13213824 0.056666948
-0.25552431 -0.13205148 0.05658789
-0.25572935 -0.13196491 0.056558482
-0.25593519 -0.13188002 0.056515235
-0.2561447 -0.13179366 0.056470808
-0.25635833 -0.13170904 0.056402162
-0.25656196 -0.13162291 0.056373905
-0.25676674 -0.1315385 0.056330662
-0.25697514 -0.13145263 0.056286249
-0.25717604 -0.1313684 0.056253381
-0.2573854 -0.13128279 0.056204356
-0.25759044 -0.13119724 0.05616802
-0.25781015 -0.13111043 0.056095898
-0.25801349 -0.131017 0.056118391
-0.25836557 -0.13085514 0.056157757
-0.25856593 -0.13076997 0.056132965
-0.25908971 -0.13060673 0.055663254
-0.25920123 -0.13051772 0.055932809
-0.25941962 -0.13043693 0.055823788
-0.25962052 -0.13035405 0.055781692
-0.25981969 -0.13026956 0.055755757
-0.26001695 -0.13018678 0.055724058
-0.26021746 -0.13010255 0.055692352
-0.26042923 -0.13001722 0.055634096
-0.26061749 -0.12993605 0.055618566
-0.26081663 -0.12985209 0.055589169
-0.26102731 -0.12976539 0.055543602
-0.26120913 -0.12968588 0.055536166
-0.26140833 -0.12960224 0.055504464
-0.2616196 -0.12951764 0.055442739
-0.26179996 -0.12943658 0.055450302
-0.26198736 -0.12935427 0.055445157
-0.26218808 -0.12927112 0.055405375
-0.26238728 -0.129188 0.055370212
-0.26257926 -0.1291045 0.055359289
-0.26275906 -0.12902199 0.055378389
-0.26294568 -0.12894002 0.055373248
-0.26312464 -0.12885754 0.055394657
-0.26328903 -0.12877223 0.055479527
-0.26344311 -0.12868604 0.055601344
-0.26357105 -0.12859586 0.055829331
-0.26194191 -0.12813452 0.063893013
-0.26245952 -0.12797758 0.063399099
-0.26256794 -0.12787946 0.063740164
-0.26278466 -0.12779939 0.06363114
-0.26306933 -0.12761271 0.064043202
-0.26316258 -0.12751184 0.064448893
-0.26344255 -0.12732099 0.064903647
-0.26524338 -0.12711421 0.060873628
-0.26546004 -0.12702756 0.060809575
-0.26563928 -0.12693229 0.060917482
-0.26588577 -0.12683767 0.060817596
-0.26606864 -0.12675703 0.060814776
-0.26625347 -0.12667264 0.060831551
-0.26645598 -0.12658465 0.060819447
-0.26665154 -0.12650599 0.060764685
-0.26682281 -0.12643217 0.060750358
-0.26703641 -0.12634197 0.060719781
-0.26723918 -0.12626064 0.060661539
-0.26742831 -0.12617317 0.060686372
-0.26762113 -0.12608422 0.060710046
-0.2678026 -0.12599979 0.060737208
-0.26795992 -0.12592623 0.060763292
-0.26821038 -0.12583849 0.060604583
-0.26839161 -0.12577127 0.060515262
-0.26856273 -0.12568109 0.060612813
-0.26877218 -0.12558681 0.060622603
-0.26894584 -0.12551211 0.060607113
-0.26917127 -0.1254209 0.060547657
-0.26935658 -0.12533766 0.060555205
-0.26953357 -0.12526603 0.060508572
-0.26970243 -0.12518634 0.06054154
-0.2699329 -0.12509224 0.060486682
-0.27009416 -0.12501778 0.060506981
-0.27031913 -0.12492727 0.060444072
-0.27051178 -0.12484822 0.060400859
-0.27068183 -0.12476903 0.060426902
-0.27087298 -0.12468758 0.06040445
-0.27105775 -0.12460712 0.060394697
-0.27122378 -0.12452714 0.060438059
-0.27143261 -0.1244499 0.060333669
-0.27161196 -0.12437538 0.060299709
-0.2717917 -0.12428479 0.060374167
-0.27201381 -0.12419251 0.060332026
-0.27216318 -0.12412043 0.060371965
-0.27237824 -0.12404314 0.060249113
-0.27255687 -0.12395708 0.060295887
-0.27274674 -0.12387622 0.060273439
-0.27292988 -0.12379613 0.060265996
-0.273105 -0.12371401 0.06029664
-0.27330756 -0.12363191 0.060244169
-0.27346873 -0.12355343 0.060292155
-0.27368295 -0.12347718 0.060164683
-0.27390578 -0.1233839 0.060127147
-0.27406701 -0.12330557 0.060173973
-0.2742345 -0.12322902 0.060189649
-0.27443865 -0.12315063 0.060107194
-0.27462921 -0.12306844 0.060091656
-0.27481034 -0.12298856 0.060088836
-0.27501136 -0.12290207 0.060070965
-0.27519235 -0.12281973 0.060085449
-0.27538216 -0.12274277 0.060036473
-0.2755748 -0.12266169 0.060007095
-0.27576905 -0.12258124 0.059968486
-0.27591702 -0.12250929 0.060011894
-0.27609769 -0.12242183 0.060062125
-0.27631113 -0.12234811 0.05991967
-0.2764909 -0.1222658 0.059937611
-0.27667359 -0.12218185 0.059957858
-0.27687195 -0.12210619 0.059874259
-0.27704132 -0.12203117 0.059873775
-0.27724683 -0.12193932 0.059878957
-0.27741617 -0.12188091 0.059765462
-0.27760381 -0.12179087 0.059812218
-0.27780852 -0.12170175 0.059801258
-0.27795494 -0.12162098 0.059909251
-0.27815598 -0.12154177 0.059841786
-0.27830881 -0.12146055 0.059933618
-0.27852896 -0.12138928 0.059754241
-0.27871072 -0.12131421 0.059716817
-0.27889699 -0.12122663 0.059750892
-0.27907869 -0.12114295 0.059772294
-0.27926373 -0.12106659 0.059733711
-0.27944282 -0.12098779 0.05972974
-0.27965254 -0.12091066 0.059621893
-0.27982411 -0.12083771 0.059600651
-0.28000322 -0.12075619 0.059615135
-0.2801967 -0.1206783 0.059561532
-0.28038353 -0.12058828 0.059610598
-0.28055188 -0.12051101 0.059628569
-0.2807132 -0.12043347 0.059669636
-0.2809127 -0.12036205 0.059553742
-0.28110516 -0.120278 0.059545126
-0.28127596 -0.12019898 0.059567705
-0.28145897 -0.12012622 0.059510678
-0.28166544 -0.12004324 0.059452429
-0.28185996 -0.11996066 0.059427664
-0.28204477 -0.11987627 0.059444442
-0.28222656 -0.11979356 0.059458911
-0.28242761 -0.11971486 0.059387989
-0.28257927 -0.11963888 0.059447527
-0.2827538 -0.11956228 0.059442431
-0.28294507 -0.11948518 0.05938999
-0.28313944 -0.11939977 0.05938483
-0.28331324 -0.11932991 0.059335902
-0.28348261 -0.11925406 0.059341185
-0.28366306 -0.11917093 0.05936259
-0.283847 -0.11908642 0.059382826
-0.28404877 -0.11900959 0.059296906
-0.28423101 -0.11892414 0.059328683
-0.28443784 -0.11885101 0.059202388
-0.28459847 -0.11878815 0.059145425
-0.28477743 -0.11869332 0.059251018
-0.28497151 -0.11861229 0.059217028
-0.28514335 -0.11854244 0.059173867
-0.2852841 -0.11845473 0.05934646
-0.28549474 -0.11837413 0.05925937
-0.28567031 -0.11830722 0.059185065
-0.28584754 -0.11823396 0.059148811
-0.28603625 -0.11815361 0.059126362
-0.28622127 -0.11807456 0.059106234
-0.28639606 -0.11799579 0.05911497
-0.28658617 -0.11791278 0.05910635
-0.28675944 -0.11784519 0.059043586
-0.28693551 -0.1177635 0.059068456
-0.28713363 -0.11767474 0.059074819
-0.28730136 -0.11759876 0.059085876
-0.28747803 -0.11752611 0.059047319
-0.28765863 -0.11744833 0.059031822
-0.28784043 -0.11737171 0.059004784
-0.28803346 -0.11729638 0.058935031
-0.28820926 -0.11721022 0.058991045
-0.28840181 -0.11713477 0.058923617
-0.28856546 -0.11706451 0.05890815
-0.28872907 -0.1169851 0.058954969
-0.28893301 -0.11691188 0.05883792
-0.28912711 -0.11682947 0.058813151
-0.28930557 -0.11674587 0.058843784
-0.28946978 -0.11666214 0.058918282
-0.28964388 -0.11659333 0.058861278
-0.28981844 -0.11652026 0.058831953
-0.29001161 -0.11644232 0.058779508
-0.29019228 -0.11638129 0.058649823
-0.2903716 -0.11629374 0.058704678
-0.29055142 -0.11621173 0.05872032
-0.29071507 -0.11611641 0.058875538
-0.29088482 -0.1160436 0.058858924
-0.29109111 -0.11599286 0.058581546
-0.29126865 -0.11589748 0.058695219
-0.29143935 -0.11582087 0.058701657
-0.29162231 -0.11574848 0.05864232
-0.29181466 -0.11568276 0.058509152
-0.29197401 -0.1155802 0.058726668
-0.2921612 -0.11550221 0.058692686
-0.29234979 -0.1154263 0.058640264
-0.2925263 -0.11534593 0.058654752
-0.29270527 -0.11527514 0.058596585
-0.29288411 -0.11521066 0.058495738
-0.29307839 -0.1151253 0.058490574
-0.29324737 -0.11504674 0.058515474
-0.29342183 -0.11496355 0.058555346
-0.2936056 -0.11488809 0.058514457
-0.29377967 -0.11481084 0.05851512
-0.29394874 -0.11473224 0.058540016
-0.29413906 -0.11467519 0.058353804
-0.29432991 -0.11459881 0.058297902
-0.29449421 -0.11449794 0.058488876
-0.29466683 -0.11442556 0.058460705
-0.29486328 -0.11435971 0.058316
-0.29503486 -0.11426325 0.058455057
-0.29521409 -0.11419623 0.058370363
-0.29540083 -0.11413655 0.058212988
-0.29557306 -0.11403251 0.058401633
-0.29576242 -0.11396271 0.058305375
-0.2959376 -0.11388868 0.058280665
-0.29611695 -0.11381534 0.05823864
-0.29630214 -0.11372893 0.0582681
-0.29646873 -0.11364465 0.05833913
-0.296646 -0.1135758 0.058272891
-0.29682633 -0.11350542 0.058207795
-0.29701281 -0.11342199 0.058213029
-0.29718572 -0.11334322 0.058227539
-0.29736605 -0.11326369 0.058224726
-0.2975418 -0.11319245 0.058179244
-0.2977193 -0.11311588 0.058164902
-0.29789785 -0.11304239 0.058126338
-0.2980819 -0.11296324 0.058109671
-0.29825357 -0.11288062 0.058154166
-0.29843912 -0.11280624 0.058100596
-0.29861447 -0.11272317 0.058136992
-0.29880354 -0.11264875 0.058073033
-0.29897153 -0.11257857 0.058043726
-0.29915404 -0.11249454 0.058065124
-0.29931763 -0.11242175 0.058066964
-0.29949367 -0.11235496 0.057990354
-0.2996763 -0.11227137 0.058008283
-0.29985344 -0.11219496 0.057993945
-0.30004212 -0.11212206 0.057920758
-0.30023199 -0.11203882 0.057914451
-0.30039465 -0.11196205 0.05794628
-0.30056912 -0.11189087 0.057904266
-0.3007496 -0.11181433 0.057880692
-0.30093619 -0.11173271 0.057873242
-0.30109853 -0.11165304 0.057925832
-0.30127597 -0.1115797 0.057889581
-0.30145285 -0.11150322 0.057876393
-0.30162716 -0.11143314 0.057827465
-0.30181035 -0.11135252 0.057823483
-0.30199054 -0.11127543 0.057804525
-0.30217054 -0.11119706 0.057794787
-0.30235067 -0.11111999 0.057775829
-0.30252385 -0.11104144 0.057788018
-0.30270711 -0.11096147 0.057779428
-0.30287704 -0.11088417 0.057792787
-0.30305812 -0.1108221 0.057668872
-0.30323827 -0.11074858 0.057625696
-0.30340746 -0.11065707 0.057738233
-0.30358475 -0.11059531 0.057623558
-0.30376139 -0.11052063 0.05759884
-0.3039411 -0.11043665 0.057628315
-0.30411759 -0.11035307 0.057664722
-0.30429754 -0.11027998 0.05761924
-0.30447412 -0.1102104 0.057559922
-0.30465719 -0.11013187 0.057542097
-0.30482721 -0.11005742 0.05753585
-0.30501062 -0.10996519 0.057610296
-0.30519363 -0.1098904 0.057567112
-0.30536976 -0.10982442 0.057484724
-0.30554515 -0.10976994 0.057326231
-0.30572888 -0.10967571 0.057413358
-0.30590594 -0.10959036 0.05746014
-0.30607241 -0.1095212 0.057428539
-0.30626193 -0.10943964 0.057411857
-0.30644864 -0.1093539 0.057432082
-0.3066256 -0.10927299 0.057448879
-0.30679226 -0.10920156 0.05743226
-0.30696923 -0.1091215 0.057443298
-0.30715081 -0.10905497 0.05734821
-0.30732891 -0.10896576 0.057418063
-0.30750272 -0.10890977 0.057274558
-0.30769521 -0.10882825 0.057248637
-0.3078599 -0.10874855 0.057294305
-0.308043 -0.10866863 0.057285719
-0.30822819 -0.10859475 0.057229832
-0.30840224 -0.1085148 0.057248946
-0.30858502 -0.1084369 0.057227675
-0.30876783 -0.10835882 0.057207551
-0.30893388 -0.10828984 0.057175938
-0.30910739 -0.10821334 0.057173144
-0.30928269 -0.10812826 0.057223391
-0.3094691 -0.1080474 0.057211332
-0.30965987 -0.10797375 0.057136983
-0.30981934 -0.10790753 0.057106547
-0.30999678 -0.10782708 0.057118721
-0.3101722 -0.10775532 0.05707787
-0.31034893 -0.10767807 0.057070449
-0.31052765 -0.10759299 0.057110298
-0.31070095 -0.10751811 0.05709713
-0.31087917 -0.10744663 0.057045881
-0.31105295 -0.10738049 0.056971576
-0.31123355 -0.10731017 0.056905329
-0.31140292 -0.10722856 0.056949824
-0.31158626 -0.10714856 0.056941234
-0.31175238 -0.10708819 0.05685081
-0.3119328 -0.1069988 0.056914885
-0.31212014 -0.10690602 0.056981243
-0.3123126 -0.10681555 0.057016447
-0.31248024 -0.10675873 0.056897189
-0.31266943 -0.10666987 0.056931242
-0.31285915 -0.10656299 0.057086404
-0.31303191 -0.10651526 0.056889858
-0.31320202 -0.10644195 0.056875534
-0.3133797 -0.10637088 0.056823142
-0.31354842 -0.1062938 0.05683881
-0.3137241 -0.10622039 0.056808323
-0.31391048 -0.10614039 0.056790497
-0.31409705 -0.1060527 0.056824569
-0.31426623 -0.10598928 0.056745667
-0.31444052 -0.10591244 0.056742862
-0.31461218 -0.10583539 0.056749295
-0.3147898 -0.10576401 0.056699201
-0.31497118 -0.10568317 0.056702152
-0.31515473 -0.10560375 0.056688942
-0.31532109 -0.10553347 0.056665406
-0.3154988 -0.10545527 0.056661449
-0.31567788 -0.10538645 0.05658944
-0.31586137 -0.10530113 0.056616593
-0.31602699 -0.10523862 0.056542322
-0.316214 -0.10515158 0.056570616
-0.31639102 -0.10506928 0.056596648
-0.31656533 -0.10499902 0.056548871
-0.31674775 -0.10492246 0.056519523
-0.31692976 -0.10484119 0.056523617
-0.31711012 -0.10475792 0.056546174
-0.31728491 -0.1046866 0.05650416
-0.31746152 -0.10460602 0.056519799
-0.31763569 -0.104536 0.056470875
-0.31781554 -0.10445956 0.056448448
-0.31800592 -0.10436713 0.056503274
-0.31818271 -0.10429189 0.056482006
-0.31834748 -0.10423533 0.05636967
-0.3185423 -0.10413466 0.056467153
-0.31871581 -0.10407086 0.056377858
-0.31888908 -0.10399751 0.056354299
-0.31906557 -0.1039229 0.056329586
-0.3192544 -0.1038298 0.056393631
-0.31941855 -0.10377369 0.056280151
-0.31959778 -0.10369872 0.05624966
-0.31977797 -0.1036174 0.05625952
-0.31996843 -0.10352205 0.056333944
-0.32015041 -0.10344686 0.056296531
-0.32031411 -0.10339095 0.05618304
-0.32049966 -0.1033005 0.056239028
-0.32068503 -0.10321061 0.056291554
-0.32086241 -0.10314357 0.056212634
-0.32102764 -0.10308885 0.056086455
-0.32120979 -0.10300056 0.056137841
-0.32140309 -0.10290191 0.056226093
-0.32158306 -0.10283034 0.056170221
-0.32176849 -0.10275363 0.056132797
-0.32194519 -0.10267521 0.056133453
-0.32212836 -0.10259427 0.05613178
-0.32230699 -0.1025248 0.056065537
-0.32248238 -0.10244477 0.05608118
-0.32264876 -0.10238326 0.055997681
-0.32282716 -0.10230629 0.055983335
-0.32301158 -0.1022236 0.055989727
-0.32319129 -0.1021447 0.055984605
-0.32338446 -0.10204847 0.056056723
-0.32356274 -0.10197578 0.056013543
-0.32374012 -0.10190079 0.055988826
-0.32390434 -0.10183872 0.055915698
-0.32408169 -0.10177101 0.05584139
-0.32426763 -0.10167581 0.055928513
-0.32445323 -0.10158853 0.055962589
-0.32463673 -0.10151166 0.055932079
-0.32481545 -0.10143844 0.055891205
-0.32499042 -0.10137077 0.055823825
-0.32518673 -0.10127164 0.055906307
-0.3253482 -0.10121689 0.055791676
-0.32552475 -0.10113668 0.055805013
-0.32569155 -0.10108075 0.05568229
-0.32586145 -0.10101346 0.055627607
-0.32606575 -0.1009037 0.055758499
-0.32623622 -0.10083903 0.055684213
-0.32642376 -0.10075022 0.055722892
-0.32659754 -0.10067765 0.055692416
-0.32679889 -0.1005763 0.055774875
-0.32694793 -0.10054145 0.05556225
-0.32714656 -0.10043774 0.05566895
-0.32731935 -0.10036985 0.05560964
-0.32751137 -0.10027567 0.055671375
-0.32769087 -0.10019871 0.055653568
-0.32787213 -0.1001225 0.055625375
-0.32804555 -0.10005382 0.055569522
-0.32823351 -0.099965669 0.055602442
-0.32840964 -0.099893421 0.055562727
-0.32860321 -0.099801101 0.055607162
-0.32876956 -0.099741809 0.055508658
-0.32896101 -0.099649586 0.05555886
-0.32914007 -0.099573672 0.05553529
-0.32932198 -0.099497005 0.055508252
-0.32949695 -0.099426456 0.055460472
-0.32967573 -0.099351004 0.055434592
-0.32987016 -0.099255592 0.055497471
-0.33005092 -0.099180616 0.05546236
-0.33022624 -0.099109739 0.055415727
-0.33040974 -0.099031359 0.055395603
-0.33060452 -0.098938823 0.055437729
-0.33078736 -0.098858707 0.05543144
-0.33095229 -0.09880089 0.055327184
-0.33112371 -0.098732263 0.055277105
-0.33132741 -0.098629184 0.055364177
-0.33149761 -0.098564804 0.055288732
-0.33168513 -0.098479219 0.0553055
-0.331891 -0.098371468 0.055417947
-0.33204955 -0.098323926 0.055262957
-0.33222839 -0.09824913 0.055232458
-0.3324132 -0.098172359 0.05519734
-0.33259803 -0.098093048 0.055179518
-0.33280823 -0.097980998 0.055308092
-0.33296743 -0.097934864 0.055141568
-0.33316052 -0.09784089 0.055198684
-0.33334208 -0.097765729 0.055162422
-0.33352742 -0.097683653 0.055161893
-0.33371061 -0.097601667 0.055167146
-0.33388531 -0.097534627 0.055096298
-0.33408639 -0.0974444 0.055103801
-0.3342559 -0.09737356 0.055074491
-0.33443585 -0.097293198 0.055078592
-0.33461294 -0.097221032 0.055035427
-0.33479416 -0.097144157 0.055011839
-0.33497542 -0.09706489 0.055004414
-0.33514163 -0.097007543 0.054893225
-0.33532324 -0.09692084 0.054935381
-0.33552855 -0.096824169 0.054974016
-0.3356891 -0.09676373 0.0549009
-0.33590221 -0.096651584 0.05502139
-0.33607784 -0.096588358 0.054921709
-0.33627346 -0.096502908 0.054913089
-0.33645332 -0.096425802 0.054895282
-0.33664149 -0.096344158 0.054883212
-0.3368215 -0.09626697 0.054865405
-0.33701101 -0.096186265 0.054842953
-0.33719575 -0.096106313 0.05482975
-0.33737868 -0.096026137 0.054823462
-0.33755428 -0.09594956 0.054814894
-0.33774287 -0.095870107 0.054786675
-0.3379299 -0.095792353 0.054751549
-0.3381128 -0.095708147 0.054772947
-0.33829868 -0.095629536 0.054747049
-0.33845028 -0.09557882 0.05463475
-0.33865371 -0.095483817 0.054667618
-0.33885527 -0.095382378 0.054750085
-0.33902776 -0.095318168 0.05466656
-0.33923465 -0.095224172 0.054682124
-0.3394084 -0.095152304 0.054647032
-0.3395943 -0.095072001 0.054632667
-0.33979663 -0.094972581 0.054698981
-0.33997005 -0.094905436 0.054632753
-0.34016508 -0.094820082 0.054625284
-0.34032428 -0.094763443 0.054530267
-0.34051797 -0.094675481 0.05454471
-0.3407031 -0.094598398 0.054510735
-0.34089035 -0.094517156 0.054498676
-0.34108686 -0.094426587 0.054522336
-0.34126234 -0.094353437 0.054490708
-0.34144673 -0.094275333 0.054465964
-0.34164464 -0.094183624 0.054493077
-0.34183636 -0.094102271 0.054468323
-0.34201446 -0.094030671 0.054418225
-0.34219503 -0.093956627 0.054377347
-0.3423973 -0.093860954 0.054418292
-0.34257644 -0.093790427 0.054357816
-0.34274691 -0.093720682 0.054318126
-0.34295765 -0.093618892 0.054375194
-0.34313083 -0.093550503 0.05431819
-0.34335789 -0.093446381 0.054341767
-0.34354451 -0.093372539 0.054281272
-0.34371671 -0.093301356 0.054246183
-0.34390879 -0.093214594 0.054257169
-0.34409463 -0.093132123 0.054257803
-0.34427717 -0.093054846 0.054233059
-0.34446964 -0.092977397 0.054179464
-0.34466037 -0.092886657 0.0542216
-0.3448498 -0.092806667 0.054194532
-0.34503084 -0.092727333 0.054188259
-0.2467133 -0.13560072 0.059016898
-0.2469327 -0.13551015 0.058971286
-0.24716836 -0.1354173 0.05889219
-0.24740697 -0.13532585 0.058794629
-0.24763916 -0.13523351 0.058722463
-0.24787009 -0.1351414 0.058652598
-0.2481297 -0.13504641 0.058515765
-0.24836192 -0.13495743 0.058420531
-0.2485664 -0.13486722 0.058417641
-0.24877477 -0.13477834 0.058393966
-0.24899866 -0.1346873 0.058337964
-0.24921335 -0.13459831 0.058295839
-0.24943402 -0.13450772 0.058246762
-0.24965282 -0.13441877 0.058191933
-0.24987708 -0.13432825 0.058131315
-0.25009987 -0.13423941 0.05806379
-0.25032777 -0.13415049 0.057981253
-0.25054017 -0.13406235 0.057940274
-0.25076306 -0.13397245 0.05787966
-0.25097987 -0.13388439 0.057824839
-0.25120166 -0.1337948 0.057765387
-0.25142527 -0.13370678 0.057689786
-0.25164515 -0.13361752 0.057633795
-0.25186145 -0.13353002 0.057576656
-0.25208279 -0.13344251 0.05750452
-0.25230294 -0.13335517 0.057434697
-0.25253123 -0.13326626 0.057351008
-0.25274783 -0.13317931 0.057289258
-0.25297576 -0.13309072 0.05720441
-0.25317198 -0.1330045 0.057199232
-0.25339362 -0.13291633 0.057130553
-0.25360537 -0.13283001 0.057079203
-0.25382552 -0.13274367 0.057002455
-0.25403425 -0.13265768 0.056958031
-0.25424746 -0.13257019 0.056910135
-0.25446427 -0.13248433 0.056840312
-0.25467375 -0.13239715 0.056801654
-0.25488368 -0.13231161 0.056750309
-0.25509179 -0.13222623 0.056703575
-0.25529805 -0.13214098 0.056661468
-0.25551838 -0.13205424 0.056587026
-0.25572178 -0.13196924 0.056551844
-0.25592923 -0.13188279 0.056514341
-0.25613672 -0.13179801 0.056465313
-0.25634351 -0.13171336 0.056417435
-0.25655043 -0.13162884 0.056368396
-0.25675797 -0.13154285 0.056327436
-0.25696209 -0.13145855 0.056285333
-0.25716799 -0.13137278 0.056247834
-0.2573694 -0.13128868 0.056212656
-0.25757423 -0.13120472 0.056165945
-0.25778398 -0.13112098 0.056103066
-0.25800902 -0.1310247 0.056079347
-0.25834113 -0.13086408 0.056170657
-0.2585502 -0.13077912 0.056118153
-0.25906828 -0.1306157 0.055666897
-0.25918227 -0.13052678 0.055928361
-0.25939226 -0.13044903 0.055823959
-0.25959387 -0.13036616 0.055779558
-0.2597903 -0.13028324 0.05575132
-0.25999174 -0.13019894 0.055717289
-0.26018703 -0.13011618 0.055691354
-0.26040092 -0.13003093 0.055626165
-0.26058745 -0.12994969 0.055616397
-0.26078314 -0.12986726 0.055587005
-0.26099452 -0.12978059 0.055539116
-0.26117566 -0.12970105 0.055533979
-0.26137245 -0.12961897 0.055498816
-0.26158136 -0.12953423 0.055445164
-0.26176444 -0.12945333 0.055443481
-0.26195151 -0.129371 0.055439491
-0.26214883 -0.12928937 0.055399716
-0.26234803 -0.12920623 0.055364542
-0.26253378 -0.12912582 0.055351317
-0.26272112 -0.12904032 0.055368077
-0.26290137 -0.12895966 0.05537333
-0.26308331 -0.12887739 0.055384338
-0.2632452 -0.12879367 0.055465754
-0.26340723 -0.12870635 0.055571392
-0.26353082 -0.12861945 0.055790156
-0.26242706 -0.12800533 0.063308008
-0.26251844 -0.12790376 0.063724071
-0.26273111 -0.12782329 0.063630044
-0.26312372 -0.1275394 0.06437853
