# .PCD v0.7 - Point Cloud Data file format
VERSION 0.7
FIELDS x y z
SIZE 4 4 4
TYPE F F F
COUNT 1 1 1
WIDTH 1218
HEIGHT 1
VIEWPOINT 0 0 0 1 0 0 0
POINTS 1218
DATA ascii
-0.080508359 -0.28265446 0.029257353
-0.080692783 -0.28274837 0.029156566
-0.080872722 -0.28283966 0.029060397
-0.081049554 -0.28292623 0.028987315
-0.081225038 -0.28300989 0.028930372
-0.081400931 -0.2830959 0.028858442
-0.081566885 -0.28317359 0.028814211
-0.081736356 -0.28325328 0.028766517
-0.081905454 -0.28333098 0.028731497
-0.082070306 -0.2834062 0.028701119
-0.082233302 -0.28347957 0.028677654
-0.082392588 -0.28354919 0.028669199
-0.082554683 -0.28362185 0.028648047
-0.082713917 -0.28369161 0.02863843
-0.082877763 -0.28376451 0.028620735
-0.083036944 -0.28383443 0.028609969
-0.083193064 -0.283903 0.02859921
-0.083347723 -0.28397012 0.028594226
-0.083496541 -0.28402916 0.02862731
-0.083653405 -0.28409502 0.028637309
-0.083809339 -0.28416184 0.028638089
-0.083953366 -0.28421578 0.028691955
-0.084105045 -0.28427809 0.028711192
-0.084248297 -0.2843312 0.02876851
-0.084400758 -0.28439248 0.028796975
-0.084549785 -0.28445196 0.02882776
-0.084691077 -0.28450286 0.028894311
-0.084830597 -0.28454983 0.028982783
-0.084973611 -0.28459862 0.029068943
-0.085112423 -0.28464663 0.029148189
-0.085254177 -0.28469387 0.029241273
-0.0853903 -0.28473869 0.029334363
-0.085527748 -0.28478289 0.029435527
-0.085666507 -0.28483054 0.029517082
-0.085798509 -0.28487039 0.029632099
-0.085934281 -0.28491238 0.029743645
-0.086071394 -0.28495577 0.029849431
-0.08619976 -0.28499103 0.029985216
-0.0863377 -0.2850351 0.030088689
-0.086474419 -0.28507766 0.030199083
-0.086611114 -0.28511363 0.030354461
-0.086715236 -0.28512615 0.030574497
-0.086844407 -0.28516144 0.030712588
-0.086966917 -0.28518859 0.030886449
-0.087092437 -0.2852169 0.031061465
-0.087214962 -0.28524357 0.031238787
-0.083174288 -0.27917126 0.060922544
-0.083378404 -0.27926755 0.060863227
-0.083571404 -0.2793501 0.060865067
-0.083714992 -0.27939731 0.060963906
-0.083969675 -0.27952811 0.060816817
-0.084164008 -0.27960974 0.060829032
-0.084361613 -0.27969867 0.060800873
-0.084563583 -0.27979034 0.060766939
-0.084762365 -0.27988112 0.060729552
-0.084955096 -0.27996424 0.060726773
-0.085130088 -0.28003368 0.060765564
-0.085345075 -0.28013363 0.06071315
-0.085524201 -0.28021497 0.060682733
-0.085732609 -0.28030029 0.060711056
-0.085883588 -0.28035721 0.060764905
-0.08612147 -0.2804724 0.060675517
-0.086313777 -0.28055903 0.060647368
-0.086459629 -0.280619 0.060665473
-0.086719573 -0.28074852 0.060542583
-0.086907618 -0.2808266 0.060560584
-0.087102525 -0.28091422 0.060533587
-0.087301135 -0.28100374 0.060504273
-0.087494627 -0.28108972 0.060484204
-0.087684825 -0.28117126 0.060484894
-0.087876648 -0.28125519 0.060474049
-0.088074408 -0.28134421 0.06044589
-0.088268287 -0.28143135 0.060418896
-0.088462323 -0.28151539 0.060413808
-0.088646881 -0.28159299 0.060424902
-0.088842124 -0.28168258 0.060385212
-0.089024425 -0.28176072 0.06038592
-0.089227989 -0.28184834 0.060384274
-0.089424148 -0.28193986 0.060334206
-0.089597337 -0.28201225 0.060347628
-0.089806974 -0.28210938 0.060298681
-0.089996964 -0.28218848 0.06031552
-0.0901822 -0.28227562 0.060263172
-0.090384483 -0.28236607 0.060238462
-0.090571873 -0.28244537 0.060246088
-0.090762049 -0.28252909 0.06023179
-0.090950586 -0.28261042 0.060229026
-0.091146201 -0.28269902 0.060197406
-0.091337316 -0.28279275 0.060117364
-0.091519177 -0.282868 0.060136534
-0.091703735 -0.28294763 0.060133778
-0.091879666 -0.28302169 0.060143732
-0.092062317 -0.28309426 0.060183667
-0.092294939 -0.28321525 0.060038924
-0.092479005 -0.28329045 0.060065005
-0.092661627 -0.28335893 0.060132615
-0.09283223 -0.28342885 0.060155272
-0.09300866 -0.28351745 0.060067192
-0.09321405 -0.28360721 0.060056314
-0.093422025 -0.2837016 0.060021207
-0.093598843 -0.28378278 0.05998503
-0.093788818 -0.28386441 0.059984572
-0.093991064 -0.28395399 0.059965622
-0.094180599 -0.2840398 0.059935175
-0.094353236 -0.28413317 0.059803277
-0.094562955 -0.28421801 0.059838526
-0.094731279 -0.28428984 0.059841573
-0.094929308 -0.28437272 0.059856091
-0.095118493 -0.28445399 0.059855632
-0.095280044 -0.28451833 0.059889842
-0.095462687 -0.28459746 0.059884794
-0.095669627 -0.28468752 0.059876218
-0.095867828 -0.28478161 0.059814602
-0.096055187 -0.28486529 0.059792247
-0.096245244 -0.28495452 0.059739888
-0.096431762 -0.28503701 0.059723288
-0.096609659 -0.2851077 0.059762072
-0.096804842 -0.28519711 0.059723534
-0.096994221 -0.28528607 0.059671175
-0.097170308 -0.28536457 0.059651144
-0.097363979 -0.2854459 0.059663363
-0.097553469 -0.2855359 0.059604082
-0.097738057 -0.28561571 0.059600178
-0.097921327 -0.28569275 0.059611265
-0.098102003 -0.28576413 0.059653502
-0.098284416 -0.28584552 0.059632294
-0.09844818 -0.28592244 0.05958692
-0.098636575 -0.285999 0.059616454
-0.09884692 -0.2861008 0.059537519
-0.099029496 -0.28617707 0.059552066
-0.099206753 -0.28624731 0.059592016
-0.099364795 -0.28632513 0.059523582
-0.099547304 -0.28640842 0.05948969
-0.099774212 -0.28651163 0.059449926
-0.099961162 -0.2865997 0.059396423
-0.10014373 -0.28667694 0.05940406
-0.10032627 -0.28675419 0.05941169
-0.1005089 -0.2868318 0.059417009
-0.10069654 -0.28692302 0.059343893
-0.10088117 -0.28700656 0.059314616
-0.10105936 -0.28707248 0.059386842
-0.1012494 -0.28716356 0.059321791
-0.10143508 -0.28725091 0.059269443
-0.10161605 -0.28732494 0.059294384
-0.10179637 -0.287397 0.059330855
-0.10198239 -0.28748637 0.059265815
-0.10216312 -0.2875689 0.059231937
-0.10235494 -0.2876592 0.059177257
-0.10253693 -0.28773722 0.05917798
-0.10271662 -0.28780782 0.059222519
-0.10289183 -0.28789288 0.0591552
-0.10306239 -0.28796262 0.059179008
-0.10324598 -0.28804687 0.059141658
-0.10344393 -0.28814068 0.059081212
-0.10362536 -0.28820714 0.059159197
-0.10381658 -0.2882989 0.059092999
-0.10399935 -0.28838179 0.059062559
-0.10418399 -0.28847259 0.058983687
-0.10436243 -0.28853896 0.059053607
-0.10454112 -0.28860593 0.059120078
-0.10472152 -0.28869286 0.059055053
-0.1048806 -0.28876677 0.0590166
-0.10508555 -0.28885633 0.059005722
-0.10526129 -0.2889379 0.058963776
-0.10542072 -0.289015 0.05890457
-0.1056218 -0.2891022 0.058898322
-0.10580838 -0.28917813 0.058926702
-0.10599577 -0.28925848 0.058927402
-0.10618414 -0.28934446 0.058892354
-0.10636127 -0.28941986 0.058896534
-0.10654598 -0.28950375 0.058864944
-0.1067099 -0.28957501 0.058858786
-0.10689788 -0.28966117 0.058821425
-0.10707152 -0.28973559 0.058822148
-0.10727223 -0.28982452 0.058803216
-0.1074327 -0.2898953 0.058790147
-0.1076166 -0.28997734 0.058768936
-0.10779401 -0.29005894 0.058731593
-0.10796747 -0.29013431 0.058725409
-0.10815773 -0.29021874 0.0587065
-0.1083442 -0.29029748 0.058715276
-0.10853091 -0.29037955 0.058702141
-0.10870762 -0.29045814 0.058683258
-0.10890069 -0.29054058 0.058686249
-0.10907701 -0.29061466 0.058697354
-0.10922396 -0.29068756 0.058630109
-0.10943373 -0.2907829 0.058593843
-0.10961317 -0.29085746 0.058610708
-0.10978944 -0.29093602 0.05859068
-0.10996573 -0.29102105 0.058526814
-0.11015169 -0.29109585 0.058560971
-0.11033105 -0.29117745 0.058529392
-0.11052362 -0.29126102 0.058523156
-0.11070278 -0.29134306 0.058488123
-0.11084533 -0.29141018 0.058447413
-0.11104123 -0.29148775 0.058491923
-0.11121737 -0.29155502 0.058549162
-0.11138668 -0.29162607 0.058560297
-0.111559 -0.29170361 0.058535658
-0.11173695 -0.29179776 0.058414117
-0.11191893 -0.29187965 0.058388304
-0.11211986 -0.29197961 0.058294401
-0.11231603 -0.29205394 0.05836197
-0.1124914 -0.29213047 0.058353469
-0.11266042 -0.29220122 0.058365755
-0.11282897 -0.29227582 0.058350343
-0.11302689 -0.29236588 0.05831527
-0.11319529 -0.29244059 0.058298718
-0.1133901 -0.29252663 0.0582821
-0.11355208 -0.2925964 0.058280554
-0.113746 -0.29268694 0.058230489
-0.11391571 -0.29275277 0.058278516
-0.1140863 -0.29283348 0.05822736
-0.11428125 -0.29291704 0.058228046
-0.11444663 -0.29298708 0.058234561
-0.11461429 -0.29306316 0.058206476
-0.11479701 -0.29315242 0.058132216
-0.11499416 -0.29324117 0.058104061
-0.11514935 -0.29330733 0.058107145
-0.1153477 -0.29339084 0.058118202
-0.11551592 -0.29346329 0.058116637
-0.11568638 -0.29354089 0.058086243
-0.11587791 -0.29360935 0.058180355
-0.11603614 -0.29369047 0.058090005
-0.11620223 -0.2937817 0.05795351
-0.1164102 -0.29386953 0.05796339
-0.11658365 -0.29393664 0.058013715
-0.11673993 -0.29402128 0.057893388
-0.11693419 -0.29408315 0.058040552
-0.11713581 -0.29417837 0.057981238
-0.11730586 -0.29425529 0.057954296
-0.11748621 -0.29433513 0.057937715
-0.11766248 -0.29441541 0.057906158
-0.1178566 -0.29449913 0.057903375
-0.11802897 -0.29456982 0.057926029
-0.11819193 -0.29464436 0.057894487
-0.11836732 -0.29471719 0.057911362
-0.11852794 -0.29479665 0.057839472
-0.11871596 -0.29488465 0.057789415
-0.11890152 -0.29495257 0.057869703
-0.11907079 -0.29502982 0.057838157
-0.11924428 -0.29511449 0.057768531
-0.11943329 -0.29519972 0.057740398
-0.1196129 -0.29526439 0.057825312
-0.11977851 -0.29534802 0.057739563
-0.11994959 -0.29542857 0.05769071
-0.12012929 -0.2955009 0.057723723
-0.12031997 -0.29558989 0.057674818
-0.12049976 -0.29566914 0.057660546
-0.12067465 -0.29574275 0.057670504
-0.12085245 -0.29581845 0.057674687
-0.12102142 -0.29589492 0.05764775
-0.12119 -0.2959719 0.0576162
-0.1213605 -0.29605222 0.057567351
-0.12154605 -0.29612249 0.057631493
-0.12173901 -0.2962133 0.057576813
-0.1219145 -0.29629222 0.057552166
-0.1220882 -0.29636753 0.057547141
-0.12226004 -0.2964454 0.057519041
-0.12242367 -0.29651669 0.057511725
-0.12261609 -0.29660171 0.05749511
-0.12279758 -0.29667816 0.057505053
-0.12296529 -0.29675543 0.057468899
-0.12314449 -0.29683477 0.05745231
-0.12330836 -0.29690567 0.057448458
-0.12350064 -0.29699603 0.057394929
-0.12367645 -0.29706329 0.057451032
-0.12385105 -0.2971479 0.057384863
-0.12402631 -0.29723668 0.057292167
-0.12421034 -0.29730511 0.057364382
-0.1243666 -0.29737425 0.057350162
-0.12454905 -0.29745972 0.057301283
-0.12472831 -0.2975288 0.057355061
-0.12491058 -0.29761434 0.057305019
-0.12507477 -0.29768962 0.057272334
-0.12526529 -0.29777128 0.057273023
-0.12543999 -0.2978453 0.057279523
-0.12562235 -0.29793039 0.05723295
-0.12578198 -0.2979961 0.057252169
-0.12595135 -0.29807526 0.057207931
-0.12614004 -0.29814976 0.057252456
-0.12633224 -0.29824767 0.057147037
-0.1265032 -0.29831639 0.057178915
-0.12668999 -0.29839712 0.057175003
-0.12685513 -0.29847109 0.057153843
-0.12702379 -0.29854202 0.057163816
-0.12722693 -0.29862577 0.05718755
-0.12738238 -0.29870367 0.057111055
-0.12754525 -0.29877532 0.057099119
-0.12771045 -0.29884914 0.057079118
-0.12789394 -0.29893252 0.057047531
-0.12808079 -0.29900926 0.057071306
-0.12824151 -0.29907861 0.057068601
-0.12842254 -0.29916382 0.057017416
-0.12859166 -0.29924235 0.056976646
-0.12877673 -0.29932439 0.056958891
-0.12895113 -0.29939899 0.056960776
-0.12912753 -0.29947594 0.056952283
-0.12928644 -0.29953542 0.057011865
-0.12947927 -0.29963428 0.056901835
-0.1296359 -0.29970646 0.056868009
-0.12981795 -0.29977959 0.056902166
-0.12998167 -0.2998614 0.056823339
-0.13016428 -0.2999343 0.056860961
-0.13033441 -0.30001885 0.056782119
-0.13052736 -0.30009228 0.05684625
-0.13069229 -0.30016261 0.056849308
-0.13086805 -0.30024353 0.056811973
-0.13103816 -0.30032098 0.056781579
-0.13120642 -0.30040288 0.056715429
-0.13137443 -0.30048144 0.056671195
-0.13155752 -0.3005645 0.056640759
-0.13174801 -0.3006433 0.056661062
-0.13191308 -0.30071688 0.056642212
-0.13207597 -0.30079815 0.056564536
-0.13225532 -0.30087671 0.056553729
-0.13242498 -0.30095094 0.056544084
-0.13260368 -0.30102989 0.056528665
-0.13277644 -0.30109939 0.056560539
-0.13295048 -0.30117148 0.056578577
-0.13313678 -0.30124357 0.056632325
-0.133316 -0.30131939 0.056639977
-0.13349605 -0.30140096 0.056610707
-0.13367096 -0.30147591 0.056611437
-0.13383755 -0.30155793 0.056539521
-0.13403219 -0.30163547 0.056580573
-0.13420251 -0.30171859 0.056512106
-0.1343741 -0.30179515 0.056492086
-0.13455305 -0.30187422 0.05647666
-0.13474147 -0.30195484 0.056478515
-0.13490865 -0.30203339 0.056431971
-0.13508138 -0.30211231 0.056399263
-0.13525501 -0.30218235 0.056429982
-0.13543932 -0.30226204 0.056426078
-0.1356183 -0.30234399 0.056391042
-0.13580035 -0.30242741 0.056354851
-0.13596088 -0.30250025 0.056327932
-0.13613836 -0.30257177 0.056359801
-0.13633136 -0.30265906 0.056329347
-0.13649233 -0.30273175 0.056304738
-0.13666864 -0.30280125 0.05634699
-0.1368465 -0.30288896 0.056269273
-0.13700099 -0.30296138 0.056227386
-0.13718271 -0.30303961 0.056225788
-0.13736011 -0.30311683 0.056218445
-0.13753106 -0.30318859 0.056229562
-0.13771844 -0.30326757 0.056239486
-0.13789305 -0.30335101 0.056181397
-0.13804877 -0.30342042 0.056163721
-0.13824512 -0.30350158 0.056185164
-0.13842343 -0.30358374 0.05614667
-0.13857968 -0.30366552 0.056045946
-0.1387541 -0.30373642 0.056073204
-0.13894513 -0.30381694 0.056083128
-0.13912614 -0.30389825 0.056058466
-0.13929616 -0.30396825 0.056078818
-0.13947335 -0.30404589 0.056068014
-0.13965081 -0.30412346 0.056058358
-0.13982441 -0.30420461 0.056012951
-0.13994259 -0.3042874 0.055793528
-0.14012456 -0.30435649 0.055855367
-0.14035876 -0.3044205 0.056105081
-0.1405704 -0.30450299 0.056162242
-0.14069425 -0.30459312 0.055909351
-0.14087549 -0.30467215 0.055900842
-0.14105064 -0.30475515 0.055847362
-0.14122881 -0.30482814 0.055871151
-0.14140932 -0.30490065 0.05590532
-0.14159155 -0.30498415 0.055869129
-0.14174247 -0.30505961 0.055796094
-0.14192191 -0.30513701 0.055793352
-0.14211492 -0.30521792 0.055806734
-0.14228378 -0.30529347 0.055785559
-0.142465 -0.30537504 0.05575975
-0.14265774 -0.30544958 0.055815794
-0.14283319 -0.30552596 0.055808451
-0.14301458 -0.30560759 0.055782638
-0.14319675 -0.30569124 0.055745296
-0.14333983 -0.30576602 0.055653825
-0.14352775 -0.30583984 0.055700667
-0.14372414 -0.30591628 0.055754397
-0.14389652 -0.30599776 0.055703234
-0.14407088 -0.30607671 0.05567513
-0.14421254 -0.30615997 0.055521384
-0.14440247 -0.30623582 0.055560149
-0.14458442 -0.30630708 0.055606991
-0.14477199 -0.30638361 0.055634223
-0.14496312 -0.30646369 0.055647597
-0.14515017 -0.30654255 0.055657525
-0.14531571 -0.3066273 0.055563707
-0.14549591 -0.30670944 0.055530977
-0.14565313 -0.30678743 0.055459086
-0.14582607 -0.30686271 0.055451743
-0.14602281 -0.30693814 0.055513553
-0.14623687 -0.30702284 0.05556263
-0.14638631 -0.30710405 0.055445779
-0.14656003 -0.30717549 0.05546727
-0.14673577 -0.30725452 0.055442631
-0.14689568 -0.30733401 0.055368423
-0.14709088 -0.30741212 0.055407163
-0.14726557 -0.30749139 0.055377908
-0.14746103 -0.3075735 0.055390123
-0.14763375 -0.30765307 0.055352803
-0.14781938 -0.30773282 0.055352345
-0.14799379 -0.30780843 0.05534732
-0.14817734 -0.30789235 0.055312272
-0.14836173 -0.3079724 0.055306055
-0.14853062 -0.30805066 0.05526644
-0.14871913 -0.30813217 0.055262525
-0.14888468 -0.308209 0.055222906
-0.14906348 -0.30828801 0.05520748
-0.1492368 -0.30836582 0.055183996
-0.14943689 -0.3084425 0.055246942
-0.1496093 -0.30852601 0.055181935
-0.14980102 -0.30861107 0.055163026
-0.14997506 -0.30869257 0.055116467
-0.15014978 -0.30876678 0.055121817
-0.15031408 -0.30884209 0.05508912
-0.1505091 -0.30891982 0.055130169
-0.15068057 -0.30900341 0.055061709
-0.15086247 -0.30908072 0.055067029
-0.15105714 -0.30916047 0.055093095
-0.15122847 -0.30924585 0.055011936
-0.15139408 -0.30931768 0.055006921
-0.15157026 -0.30940261 0.054943059
-0.15175821 -0.30947965 0.054967981
-0.15194145 -0.3095589 0.05496408
-0.15214236 -0.3096489 0.054938223
-0.15231395 -0.30972564 0.054917045
-0.1524899 -0.30980039 0.054922383
-0.1526619 -0.30987546 0.054913901
-0.1528655 -0.30996376 0.054907635
-0.15303844 -0.31004563 0.054855321
-0.15322131 -0.31012183 0.054871026
-0.15339366 -0.31020042 0.054839469
-0.15357189 -0.31028035 0.054815963
-0.15375465 -0.31036174 0.054795917
-0.15394029 -0.31044301 0.054785091
-0.15410984 -0.31051853 0.05476623
-0.15429157 -0.31059676 0.054764628
-0.15448692 -0.31067935 0.054773383
-0.15466669 -0.31075943 0.054753345
-0.15485956 -0.31083083 0.054831304
-0.15502325 -0.31091985 0.054702885
-0.15521601 -0.31100115 0.054712806
-0.15539725 -0.31108457 0.054674305
-0.15556978 -0.31116188 0.054651976
-0.1557582 -0.3112435 0.054646902
-0.15593651 -0.31132549 0.054609567
-0.15610564 -0.31139982 0.054597624
-0.15633062 -0.31147894 0.054717034
-0.15648356 -0.31156337 0.054588631
-0.15667699 -0.31164983 0.054565094
-0.15684539 -0.31172436 0.054549698
-0.15700231 -0.31180543 0.054455902
-0.15723185 -0.31188345 0.054596052
-0.15742885 -0.31197163 0.054571357
-0.15760522 -0.31205398 0.054525949
-0.15777883 -0.31213328 0.054493241
-0.15795441 -0.31221256 0.054466281
-0.15815049 -0.31229782 0.054458886
-0.15832707 -0.31238177 0.0544031
-0.15848851 -0.31245211 0.054395791
-0.15869614 -0.31253895 0.054411441
-0.15889852 -0.31262892 0.054390188
-0.15909797 -0.31271294 0.054401241
-0.1592626 -0.312785 0.054391611
-0.15944928 -0.31287211 0.054343868
-0.15959966 -0.31294867 0.054261617
-0.15979339 -0.31302986 0.054274995
-0.15998517 -0.31310669 0.054312594
-0.1601911 -0.31319112 0.054339778
-0.16036837 -0.31328124 0.054243617
-0.16056213 -0.31336567 0.054235078
-0.16073547 -0.31343964 0.054238111
-0.16091977 -0.31352401 0.054201912
-0.16112736 -0.31360883 0.054231398
-0.16128813 -0.31368563 0.054177955
-0.16150713 -0.31377804 0.054188959
-0.16167007 -0.31385493 0.054141276
-0.16187301 -0.31393993 0.054155782
-0.16205953 -0.31401888 0.054163408
-0.1622339 -0.31410187 0.054107618
-0.16241382 -0.31417933 0.054106034
-0.16259536 -0.3142654 0.054050229
-0.16278274 -0.31434742 0.054039396
-0.16299379 -0.31442881 0.054102328
-0.16315381 -0.31451288 0.053996976
-0.16334683 -0.31459242 0.054019585
-0.16354075 -0.31467488 0.054024883
-0.16372836 -0.31476137 0.053984053
-0.16392797 -0.31484696 0.053984728
-0.16410649 -0.31493041 0.053938158
-0.16427678 -0.31500658 0.053916994
-0.16447301 -0.31508666 0.053945351
-0.16468237 -0.31517982 0.053922933
-0.16484889 -0.31526145 0.053853326
-0.16504078 -0.31534019 0.05387824
-0.16523655 -0.31542325 0.053884681
-0.1654281 -0.31550759 0.05387038
-0.16558678 -0.31558484 0.053807713
-0.16578937 -0.31568062 0.053747248
-0.16591489 -0.31575477 0.053608544
-0.16617012 -0.31584001 0.053775162
-0.16636008 -0.31592447 0.053755093
-0.16654703 -0.31600747 0.053736188
-0.0804829 -0.28265512 0.029178124
-0.080662712 -0.28274602 0.029084224
-0.080844611 -0.28283581 0.02900416
-0.081023201 -0.28292415 0.028924115
-0.081199028 -0.28300813 0.028865982
-0.081372753 -0.28309184 0.028803244
-0.081538767 -0.28316957 0.028758988
-0.081707455 -0.28324845 0.02871472
-0.081875786 -0.28332531 0.028683145
-0.082039595 -0.2833994 0.028657349
-0.082205579 -0.28347409 0.028633855
-0.082364723 -0.28354532 0.028613843
-0.08253032 -0.28361982 0.028590351
-0.08268851 -0.28368846 0.028585339
-0.082849741 -0.28375858 0.028579157
-0.083003685 -0.28382471 0.028578764
-0.083162785 -0.28389457 0.028567977
-0.08331883 -0.28396311 0.028557202
-0.083471879 -0.28402668 0.028571809
-0.083625913 -0.28408948 0.02859449
-0.083772086 -0.28414571 0.028639112
-0.083923645 -0.28420779 0.028659491
-0.084071562 -0.28426594 0.028696038
-0.084221825 -0.28432477 0.028734878
-0.08436805 -0.28437912 0.028792188
-0.084514044 -0.28443325 0.028850656
-0.084653705 -0.2844823 0.028925288
-0.084799692 -0.28453439 0.028997594
-0.08493796 -0.28457981 0.029092988
-0.085076645 -0.28462759 0.029173393
-0.085218519 -0.28467488 0.029266477
-0.085356668 -0.28472191 0.029350342
-0.08549422 -0.28476617 0.029451508
-0.085626885 -0.28480682 0.029563073
-0.085766688 -0.28485137 0.029668849
-0.085899934 -0.28489241 0.029779265
-0.086035073 -0.28493345 0.029895432
-0.08616668 -0.28497025 0.030030079
-0.086304054 -0.28501359 0.030137012
-0.086444862 -0.28505656 0.030256635
-0.086565927 -0.28507838 0.030462828
-0.08668673 -0.28511038 0.030598652
-0.086816862 -0.28514454 0.030747138
-0.086939037 -0.28517124 0.030923329
-0.082980335 -0.27910429 0.060811065
-0.083174929 -0.27918571 0.060825568
-0.083372228 -0.27927351 0.0608043
-0.083561793 -0.27935764 0.060785368
-0.083766788 -0.27946728 0.060637183
-0.083968386 -0.2795372 0.060750879
-0.084166974 -0.27962723 0.060718074
-0.084370106 -0.27972025 0.060678333
-0.084564336 -0.27980199 0.060689382
-0.084753878 -0.27988392 0.060685433
-0.084955141 -0.2799719 0.060674544
-0.085154623 -0.2800608 0.060652122
-0.085346915 -0.28014359 0.060650475
-0.085534632 -0.28022674 0.060632695
-0.085743338 -0.28032199 0.060594104
-0.085942283 -0.28041083 0.060570523
-0.086105473 -0.28047451 0.060613945
-0.086259872 -0.28053612 0.060645856
-0.086531207 -0.28067088 0.060520578
-0.086711988 -0.28073895 0.060585871
-0.086917892 -0.28083801 0.060512669
-0.087120987 -0.28093353 0.060455624
-0.087313056 -0.28101739 0.060445912
-0.087505728 -0.28109881 0.060454652
-0.087700322 -0.28118646 0.060426477
-0.087893434 -0.28126875 0.060430594
-0.088089414 -0.28135869 0.060390878
-0.088289365 -0.28145099 0.060346529
-0.088478714 -0.28152826 0.060373738
-0.088677973 -0.28161994 0.060331706
-0.088875324 -0.28171265 0.060276985
-0.089068502 -0.28179953 0.060249962
-0.089247964 -0.28187004 0.060294494
-0.089446917 -0.28195468 0.060299762
-0.089637324 -0.28203782 0.06029005
-0.089836143 -0.28212997 0.060243391
-0.090029895 -0.28221473 0.060232524
-0.090222731 -0.28229824 0.060227416
-0.090410747 -0.28237835 0.060231559
-0.090615042 -0.28247976 0.0601376
-0.090804696 -0.28256276 0.060126729
-0.090987161 -0.28263068 0.060197793
-0.091181718 -0.28272557 0.060120001
-0.091368832 -0.28280494 0.060126446
-0.09155526 -0.2828874 0.060109831
-0.09172985 -0.28296325 0.060103625
-0.091906033 -0.28304181 0.060083561
-0.092101701 -0.28313142 0.060044993
-0.092330344 -0.28322914 0.060047872
-0.092472412 -0.28327718 0.060136341
-0.092719257 -0.28340548 0.059983432
-0.092916936 -0.2835125 0.059831813
-0.09309601 -0.28357527 0.059928261
-0.093298726 -0.28366503 0.059909292
-0.093480989 -0.2837376 0.059948049
-0.093668625 -0.28381503 0.059969489
-0.09385772 -0.28389964 0.059945934
-0.09405563 -0.28399545 0.059871607
-0.094233781 -0.28407499 0.059850391
-0.094430521 -0.28415513 0.059879888
-0.094597749 -0.28421989 0.059927911
-0.094803818 -0.2843172 0.059867401
-0.094982095 -0.28440255 0.059806962
-0.095192395 -0.28449357 0.059801817
-0.095379546 -0.28457615 0.05978635
-0.095567383 -0.28465515 0.059797399
-0.095742732 -0.28472561 0.059830416
-0.095949002 -0.28483024 0.0597203
-0.096134976 -0.2849113 0.059711751
-0.096317403 -0.28498545 0.059740126
-0.096513599 -0.2850765 0.059693478
-0.096686222 -0.28514189 0.059753038
-0.096889406 -0.28524217 0.059663683
-0.097077876 -0.28532362 0.059659749
-0.097242832 -0.28539583 0.059650097
-0.097453713 -0.28549048 0.059621878
-0.097636022 -0.28556511 0.0596468
-0.097799659 -0.28563488 0.059649844
-0.098011136 -0.28573146 0.059610084
-0.098195076 -0.28580999 0.059613079
-0.098390102 -0.28590742 0.059519142
-0.098580822 -0.2859956 0.059475973
-0.098732412 -0.28606409 0.059452511
-0.09895663 -0.28615975 0.059456557
-0.099144608 -0.28624892 0.059398405
-0.099310055 -0.2863313 0.059320692
-0.09950538 -0.28640509 0.059389416
-0.099663742 -0.28647751 0.059359014
-0.099858649 -0.28654304 0.059483111
-0.10007069 -0.28664458 0.059411045
-0.10025699 -0.28673136 0.059364431
-0.10044221 -0.28681564 0.059331663
-0.1006282 -0.28688711 0.059388872
-0.10081846 -0.2869778 0.059327245
-0.10099875 -0.28704935 0.059367161
-0.10119004 -0.28714365 0.059283622
-0.10137262 -0.28722194 0.059284311
-0.10155404 -0.28728858 0.059361145
-0.10174463 -0.28739068 0.059222221
-0.10193026 -0.28747007 0.059224062
-0.10211316 -0.28755018 0.059213214
-0.10229737 -0.28762543 0.059239276
-0.10244079 -0.28767306 0.059334666
-0.10265616 -0.28779238 0.059150696
-0.10284798 -0.28787395 0.059155971
-0.1030346 -0.287958 0.059128966
-0.10321862 -0.28804362 0.059083506
-0.10340475 -0.2881268 0.059061125
-0.10356576 -0.28819445 0.059071086
-0.10374948 -0.28828028 0.059023336
-0.103953 -0.28836247 0.059058569
-0.10412681 -0.28843379 0.059081212
-0.10431958 -0.28852099 0.059050728
-0.10448259 -0.28858513 0.059090689
-0.10468767 -0.28868687 0.058996722
-0.10486995 -0.28876939 0.058967415
-0.10505215 -0.28885204 0.058936961
-0.10523615 -0.2889294 0.058948033
-0.10540703 -0.28900248 0.058949903
-0.10559944 -0.28909156 0.058905579
-0.10575127 -0.28916201 0.058869436
-0.10594571 -0.28924689 0.058859713
-0.10614508 -0.28932512 0.05890996
-0.10632717 -0.28941074 0.058858741
-0.10650764 -0.28948745 0.058864057
-0.10668873 -0.28956828 0.058842834
-0.10687053 -0.28965446 0.058786996
-0.10705007 -0.28972587 0.058825754
-0.10723473 -0.28981161 0.05878146
-0.10740221 -0.28988743 0.058754493
-0.10759576 -0.28997025 0.058756314
-0.10775621 -0.29004154 0.058739755
-0.10792976 -0.29011676 0.0587347
-0.10809561 -0.29017925 0.058794264
-0.1082932 -0.29027238 0.058737241
-0.10849401 -0.29036793 0.058673285
-0.10868033 -0.29044461 0.058695883
-0.10885796 -0.29053658 0.05858814
-0.10903446 -0.2906141 0.058576159
-0.10920423 -0.29068872 0.058564194
-0.1094003 -0.29076838 0.058594845
-0.10958325 -0.290847 0.058594376
-0.10976317 -0.29093608 0.058513165
-0.10994249 -0.2910057 0.058563475
-0.11012203 -0.29108757 0.058530718
-0.11029482 -0.29116955 0.058477215
-0.11048082 -0.29124439 0.058511347
-0.11066338 -0.29132804 0.058475122
-0.11083937 -0.29140145 0.058489665
-0.11098893 -0.29145998 0.05852852
-0.11114456 -0.29153779 0.058453135
-0.11133326 -0.29162747 0.058393817
-0.11152165 -0.29171953 0.058317207
-0.11168773 -0.29178429 0.058361772
-0.11190651 -0.2918776 0.058365837
-0.11207208 -0.29195008 0.058356181
-0.11222135 -0.29201218 0.058369651
-0.11241942 -0.29210451 0.058319546
-0.11259829 -0.29218069 0.058323704
-0.11277712 -0.29225719 0.058325551
-0.11296144 -0.29234514 0.058265097
-0.11314092 -0.29241601 0.058307331
-0.1133388 -0.29250589 0.058273375
-0.11350693 -0.29258201 0.058246411
-0.11368172 -0.2926603 0.058224052
-0.11387348 -0.29274267 0.058223568
-0.11403523 -0.29281351 0.058213923
-0.11421065 -0.29288751 0.058222711
-0.11437667 -0.29297251 0.058128841
-0.11458147 -0.2930603 0.058129475
-0.11474377 -0.29312769 0.058145214
-0.11494281 -0.29320896 0.058173552
-0.11510424 -0.29328018 0.058160454
-0.11527427 -0.29336062 0.058109269
-0.11544029 -0.29341376 0.058233432
-0.11561357 -0.2935091 0.058089942
-0.11578263 -0.29361796 0.057841487
-0.11599124 -0.29367825 0.058041684
-0.11615615 -0.2937614 0.057957053
-0.1163509 -0.29384407 0.057963479
-0.11654066 -0.293919 0.058007993
-0.1167054 -0.29397899 0.058081411
-0.1168853 -0.29407212 0.057972506
-0.11707656 -0.29415396 0.057974331
-0.11725897 -0.29423904 0.057927717
-0.11743218 -0.29431769 0.057898439
-0.11758148 -0.29437861 0.057919983
-0.11776478 -0.29446074 0.057896446
-0.11793539 -0.29453588 0.057883322
-0.1181125 -0.29462311 0.057806738
-0.11831649 -0.2947109 0.057805061
-0.11848181 -0.29477113 0.057878472
-0.11865035 -0.29485905 0.057771917
-0.11884012 -0.29494327 0.057752971
-0.11901189 -0.29500711 0.0578206
-0.11918414 -0.29507843 0.057838626
-0.11934784 -0.29516661 0.057715923
-0.11952715 -0.29524735 0.057690088
-0.11972853 -0.29533201 0.057702266
-0.11990245 -0.2953853 0.057848334
-0.12006772 -0.29548398 0.057658724
-0.12025868 -0.29555824 0.057711311
-0.12043517 -0.29563642 0.057694711
-0.12059005 -0.29570919 0.057651632
-0.12076644 -0.29578733 0.057635032
-0.12094537 -0.29587466 0.057563052
-0.12112676 -0.29595125 0.057571825
-0.12131112 -0.29602978 0.057575967
-0.12147503 -0.29609463 0.057613622
-0.12165308 -0.29618257 0.057534728
-0.12184589 -0.2962735 0.05747886
-0.12203273 -0.29635444 0.057473779
-0.122214 -0.29642522 0.057521764
-0.1223659 -0.29648912 0.057530615
-0.12255285 -0.29657584 0.057486299
-0.12273169 -0.29665589 0.057463922
-0.12288848 -0.29672477 0.057453144
-0.12307572 -0.29681075 0.057414599
-0.12324927 -0.29688618 0.057408392
-0.12343504 -0.29696834 0.057391766
-0.12361129 -0.29704049 0.057415549
-0.12377992 -0.2971217 0.057355136
-0.12395772 -0.29720771 0.057288922
-0.12414592 -0.29728687 0.057299983
-0.12431883 -0.2973679 0.057253398
-0.12449239 -0.29743809 0.057282954
-0.12465329 -0.2975072 0.057282545
-0.12484168 -0.29759118 0.057261303
-0.12504072 -0.29767853 0.057248108
-0.12519304 -0.2977421 0.057260409
-0.12535478 -0.29781514 0.057235777
-0.12554729 -0.29790425 0.05719145
-0.12572789 -0.29798639 0.057159841
-0.12590931 -0.29806313 0.057167463
-0.12609154 -0.29814816 0.057120852
-0.12626958 -0.29822364 0.057127319
-0.12643109 -0.29829219 0.057132676
-0.12661786 -0.29837731 0.05709875
-0.12678887 -0.29845902 0.05704179
-0.12696128 -0.29853091 0.057056345
-0.12713294 -0.29860768 0.057035148
-0.12729841 -0.29866883 0.057102792
-0.12746765 -0.29874355 0.05708852
-0.12767014 -0.29883206 0.05707762
-0.12783909 -0.29891104 0.057033353
-0.12802255 -0.29899848 0.056974061
-0.1281925 -0.2990804 0.056912482
-0.12837967 -0.29915693 0.056938536
-0.12855677 -0.29923725 0.056909256
-0.1287241 -0.29930171 0.056959588
-0.12891465 -0.29938745 0.056932572
-0.12907785 -0.29946262 0.056897551
-0.12926117 -0.29954222 0.056891307
-0.12946765 -0.29962787 0.05691155
-0.12963733 -0.29969859 0.056926124
-0.12979871 -0.29977128 0.056902647
-0.12995812 -0.29984885 0.056839935
-0.13014872 -0.29993799 0.056789853
-0.13035007 -0.30002365 0.056795113
-0.13050503 -0.30009681 0.056749724
-0.1306919 -0.30017421 0.056768857
-0.1308628 -0.30024779 0.05676727
-0.13103375 -0.30032477 0.056742616
-0.13120584 -0.30040106 0.056726024
-0.13137226 -0.30048403 0.056647163
-0.13155538 -0.3005605 0.056661688
-0.13172969 -0.30063218 0.056683168
-0.13194945 -0.30073065 0.056654923
-0.13209867 -0.30079693 0.056639545
-0.1322808 -0.30087417 0.056646004
-0.13246246 -0.30095172 0.056649007
-0.13263004 -0.30103043 0.056602433
-0.13281521 -0.30110931 0.056606583
-0.13298218 -0.30118829 0.056556556
-0.13315524 -0.30126721 0.056524966
-0.1333387 -0.30135006 0.056496818
-0.13351297 -0.30142224 0.056514826
-0.1336759 -0.301503 0.056440581
-0.13385396 -0.30158541 0.056399751
-0.13401212 -0.3016623 0.056338217
-0.13419232 -0.30173767 0.056351602
-0.13436905 -0.30180886 0.05638345
-0.13454555 -0.30188319 0.056393385
-0.13473977 -0.30196121 0.056429807
-0.13493179 -0.30203176 0.056511231
-0.1351088 -0.30211183 0.05648309
-0.13529374 -0.30219701 0.056443401
-0.13546872 -0.30227792 0.056403734
-0.13566159 -0.30235976 0.056410167
-0.13583496 -0.30243576 0.056399345
-0.13599114 -0.3025187 0.056290511
-0.13619332 -0.30260235 0.056311917
-0.13637146 -0.30267924 0.056309156
-0.1365414 -0.30275121 0.056315638
-0.13670035 -0.30282742 0.056261025
-0.13688162 -0.30290851 0.05623864
-0.13708082 -0.30298564 0.056295816
-0.13723965 -0.30306974 0.056186978
-0.13739628 -0.30314142 0.056156583
-0.13758186 -0.30321321 0.056210335
-0.13777183 -0.30329651 0.056198318
-0.13794321 -0.30338109 0.056122899
-0.13812147 -0.30345818 0.05611898
-0.1383011 -0.30353484 0.05612199
-0.13848853 -0.30361655 0.056113437
-0.13866822 -0.30369827 0.056081831
-0.13884652 -0.30377302 0.056094069
-0.13902859 -0.30385157 0.056091301
-0.13921463 -0.30393875 0.056041218
-0.13938235 -0.30401197 0.056032721
-0.13955413 -0.30409372 0.055978067
-0.13972545 -0.30416831 0.05597071
-0.13990343 -0.3042458 0.055963334
-0.14008051 -0.3043212 0.055967495
-0.14024772 -0.30440414 0.05589094
-0.1403822 -0.30448908 0.055704858
-0.1405903 -0.3045606 0.055826623
-0.1407934 -0.30464768 0.055827256
-0.14097688 -0.30472615 0.055829104
-0.14116794 -0.30479813 0.055897828
-0.14133824 -0.30487788 0.055852409
-0.14152531 -0.3049579 0.055854246
-0.14168322 -0.30503619 0.055782314
-0.14186028 -0.30510971 0.055799168
-0.14204262 -0.30518654 0.055809096
-0.14220861 -0.30526727 0.055744071
-0.14240336 -0.30534792 0.055764336
-0.14258903 -0.30543071 0.055743098
-0.14273901 -0.30551064 0.055636585
-0.14293405 -0.30558264 0.05571685
-0.14313716 -0.30566821 0.055727869
-0.14330567 -0.30574834 0.055674378
-0.14348218 -0.30582249 0.055685461
-0.14365938 -0.30590722 0.055626176
-0.14382805 -0.30598307 0.055602677
-0.14401333 -0.30606401 0.05559298
-0.14419186 -0.30614001 0.055597141
-0.14436625 -0.30621898 0.055569008
-0.14454357 -0.30629534 0.055567414
-0.14473473 -0.30637947 0.055553079
-0.14490259 -0.30645767 0.055511128
-0.14508668 -0.30653083 0.055551037
-0.14528498 -0.30661383 0.055565521
-0.14547393 -0.30669451 0.055568505
-0.14565147 -0.30677316 0.055551909
-0.14583799 -0.30686036 0.055502977
-0.1460029 -0.30693913 0.055448346
-0.14618132 -0.30701965 0.05542136
-0.14637059 -0.30709252 0.055478562
-0.14655989 -0.30716947 0.05550807
-0.14671728 -0.30725139 0.055409614
-0.14689431 -0.30733421 0.055363026
-0.14708318 -0.30741331 0.055376388
-0.14725778 -0.30749455 0.055333253
-0.14744729 -0.30757177 0.055361621
-0.1476385 -0.30765459 0.055356517
-0.14782166 -0.30773664 0.055332981
-0.14799002 -0.30781689 0.055278338
-0.14817369 -0.30789512 0.055282485
-0.148366 -0.30797419 0.055306222
-0.1485378 -0.30805594 0.055251561
-0.14873163 -0.30814055 0.055241842
-0.14891295 -0.30821928 0.055235617
-0.14907706 -0.30830193 0.055152141
-0.14926651 -0.30837977 0.055175886
-0.14944677 -0.30845872 0.055165045
-0.14962186 -0.30853647 0.055147298
-0.14982295 -0.30862421 0.05513756
-0.15002446 -0.30871195 0.055128969
-0.15017124 -0.30878547 0.055057067
-0.15035206 -0.30886096 0.055071611
-0.1505549 -0.30894691 0.055079173
-0.15072262 -0.30902201 0.05505798
-0.15090656 -0.30909917 0.055070203
-0.15107149 -0.30917811 0.055014409
-0.15126473 -0.3092581 0.055034686
-0.15145001 -0.30934411 0.054990377
-0.15164058 -0.30942968 0.05496452
-0.15181126 -0.3095099 0.054916788
-0.15200397 -0.30959019 0.0549336
-0.1522021 -0.30967531 0.054933097
-0.15237132 -0.30974883 0.054926902
-0.15254843 -0.30983555 0.054853771
-0.15273382 -0.30991486 0.054855611
-0.15290806 -0.30999157 0.054842476
-0.15310493 -0.31006855 0.054893889
-0.15329108 -0.31015307 0.054862276
-0.15346421 -0.31023332 0.054821458
-0.15364152 -0.3103134 0.054794475
-0.1538516 -0.31040332 0.054796241
-0.15402371 -0.31047708 0.05479696
-0.15420341 -0.31055546 0.054788429
-0.15436432 -0.31063318 0.054729186
-0.15455361 -0.31071281 0.054740246
-0.15472424 -0.31079337 0.054690208
-0.15489157 -0.31087083 0.054651715
-0.15511426 -0.31096059 0.05469152
-0.15527008 -0.31104016 0.054604605
-0.15545157 -0.31111392 0.054632984
-0.15565813 -0.31119809 0.054663613
-0.15583396 -0.31128022 0.054618169
-0.15603828 -0.31136781 0.054618813
-0.15618129 -0.31144461 0.054513462
-0.15634903 -0.31151429 0.05452919
-0.15656511 -0.31160173 0.054565556
-0.15675817 -0.31168669 0.054551229
-0.15693918 -0.31176883 0.054520771
-0.15712026 -0.31185102 0.05449032
-0.15728149 -0.31192738 0.054441452
-0.15750203 -0.31201047 0.054520499
-0.15766847 -0.31208989 0.05446586
-0.15785146 -0.31217372 0.054429624
-0.15806706 -0.3122603 0.05447061
-0.15822357 -0.31233376 0.054427527
-0.15842462 -0.31242672 0.054382034
-0.15857768 -0.31250173 0.054318193
-0.15880683 -0.31257793 0.054469895
-0.15896934 -0.31266358 0.054361034
-0.15916997 -0.31275517 0.054323614
-0.15933886 -0.31283176 0.054295495
-0.15951642 -0.3129099 0.05428236
-0.15970844 -0.31299561 0.054259948
-0.15988907 -0.31307235 0.054265261
-0.1600554 -0.31315055 0.054218695
-0.16026795 -0.31323951 0.054234311
-0.16046736 -0.313324 0.054241873
-0.16066188 -0.31341144 0.054214846
-0.16083957 -0.31348845 0.05420978
-0.16103974 -0.31357023 0.054238118
-0.16124858 -0.31366533 0.054200672
-0.16140176 -0.31373772 0.05415529
-0.16159804 -0.3138153 0.054200936
-0.16175646 -0.31389937 0.054090939
-0.16191079 -0.31397325 0.054038633
-0.16213372 -0.31406313 0.054078449
-0.16235253 -0.31415731 0.054076739
-0.16252774 -0.3142361 0.054052062
-0.16269992 -0.31431344 0.054028556
-0.16289726 -0.31440008 0.054015368
-0.16307257 -0.31447336 0.054028764
-0.16326593 -0.31455576 0.054032896
-0.16346543 -0.31464687 0.053995468
-0.16364251 -0.3147302 0.053945407
-0.16379422 -0.314807 0.053865425
-0.16403091 -0.31489822 0.053936347
-0.16420178 -0.31497586 0.053907074
-0.16436473 -0.31505039 0.053875521
-0.16456504 -0.31513071 0.053914227
-0.16478597 -0.31522444 0.053921744
-0.16495237 -0.31531027 0.05382327
-0.16515653 -0.31539512 0.053842362
-0.16532576 -0.31547153 0.053816549
-0.16552222 -0.31555203 0.053842589
-0.16571687 -0.31564477 0.053779796
-0.16592181 -0.31573263 0.053780429
-0.16610181 -0.31581116 0.053771894
-0.16627027 -0.3158837 0.053770311
-0.16647165 -0.31597289 0.053751346
-0.16665965 -0.31605738 0.053725496
-0.080375798 -0.28261265 0.029154114
-0.080559909 -0.28270608 0.029055538
-0.080739886 -0.28279555 0.028971968
-0.08092045 -0.28288409 0.028896485
-0.081091389 -0.28296646 0.028834857
-0.081263669 -0.2830469 0.028790541
-0.081435576 -0.28312883 0.028734691
-0.081603423 -0.283205 0.028706536
-0.081768408 -0.2832801 0.028677236
-0.081933185 -0.28335512 0.02864795
-0.082100853 -0.28342968 0.028630173
-0.082265228 -0.28350452 0.028600877
-0.08242505 -0.2835747 0.028590061
-0.082587361 -0.28364578 0.028580375
-0.0827474 -0.28371638 0.028567249
-0.082904339 -0.28378382 0.028566819
-0.083063826 -0.28385401 0.028554842
-0.083218388 -0.28392091 0.028550956
-0.083372325 -0.28398353 0.028574761
-0.083520174 -0.28404146 0.028612427
-0.083674014 -0.28410402 0.028636232
-0.083820507 -0.28416055 0.028679673
-0.083971083 -0.28422153 0.028704634
-0.08412008 -0.28428084 0.028736539
-0.084268741 -0.28433594 0.028796121
-0.08441519 -0.28439245 0.02883956
-0.084556758 -0.28444165 0.028918777
-0.084697336 -0.28448769 0.029016465
-0.084833749 -0.28453299 0.029107235
-0.08497753 -0.28458247 0.029191066
-0.085114181 -0.28462785 0.029281832
-0.085252367 -0.28467289 0.029379528
-0.085389748 -0.2847169 0.029481832
-0.085529409 -0.28476343 0.029573742
-0.085662544 -0.28480241 0.029697984
-0.085796848 -0.28484258 0.029817604
-0.085928448 -0.28488156 0.029937234
-0.086061746 -0.28492031 0.030063784
-0.086191416 -0.28495678 0.030194955
-0.086329192 -0.28499827 0.030315716
-0.086473644 -0.28504953 0.030389156
-0.086628944 -0.28510058 0.030496033
-0.086745076 -0.28512484 0.030671082
-0.082851768 -0.27904305 0.060852535
-0.083056539 -0.27913693 0.060811579
-0.083256021 -0.27922738 0.060778733
-0.083454981 -0.27931437 0.0607678
-0.083651423 -0.27940127 0.060749955
-0.083856329 -0.27949607 0.060703244
-0.0840469 -0.27957287 0.060737327
-0.084256604 -0.27967411 0.060660608
-0.084442988 -0.2797488 0.060697012
-0.084643528 -0.27983865 0.060671076
-0.084832199 -0.27992257 0.060650945
-0.085037664 -0.28001609 0.060614608
-0.085235327 -0.2801027 0.060602531
-0.085432813 -0.28018922 0.060590446
-0.085615665 -0.28026289 0.060623407
-0.085823856 -0.28037342 0.060478613
-0.085964069 -0.28040969 0.060642064
-0.086222768 -0.28054968 0.060444057
-0.086413428 -0.28062132 0.060513906
-0.086609982 -0.28070745 0.060501829
-0.086809158 -0.28080061 0.060449366
-0.087009117 -0.28089175 0.060413044
-0.087197348 -0.28097025 0.060428686
-0.087386392 -0.28104657 0.060461625
-0.08758916 -0.28114548 0.060380302
-0.08777938 -0.28122368 0.06040401
-0.087954156 -0.28130433 0.060365446
-0.088170767 -0.28139925 0.060352169
-0.088360719 -0.28148085 0.06035164
-0.088564441 -0.28157884 0.060279548
-0.088748291 -0.28165191 0.060319424
-0.088941067 -0.28173441 0.060321197
-0.089133307 -0.28181988 0.060301058
-0.089335352 -0.28191629 0.060234733
-0.089536496 -0.28201535 0.060147651
-0.089718491 -0.28208241 0.0602233
-0.089909934 -0.28216738 0.060204305
-0.090109378 -0.28226081 0.06015069
-0.09030094 -0.28234631 0.060128242
-0.090486698 -0.28242308 0.0601485
-0.090679199 -0.28251034 0.06011682
-0.090871274 -0.28259319 0.060113985
-0.091062263 -0.28267846 0.060091536
-0.091247976 -0.28275555 0.060109485
-0.091447413 -0.2828505 0.060045481
-0.091620654 -0.28291196 0.060133837
-0.091837063 -0.28303054 0.059957877
-0.092027739 -0.28311214 0.059959657
-0.092210114 -0.28318441 0.060000692
-0.092400879 -0.28327903 0.059913635
-0.092582569 -0.28335035 0.059959285
-0.092769951 -0.28341821 0.060045302
-0.092918292 -0.28348109 0.060050666
-0.093100697 -0.28355795 0.060060542
-0.093343787 -0.28367671 0.059961803
-0.093539931 -0.28376874 0.059908189
-0.093728811 -0.28385293 0.059886903
-0.093918569 -0.28393883 0.059856392
-0.094102785 -0.28401512 0.059875496
-0.094297335 -0.28410527 0.059829962
-0.094486028 -0.28418988 0.059805207
-0.094674759 -0.28426996 0.059811611
-0.094839007 -0.28434879 0.059754632
-0.095045581 -0.2844328 0.059786372
-0.095238656 -0.28451642 0.059781224
-0.095432669 -0.28460705 0.059731074
-0.095620669 -0.28469151 0.059705168
-0.095812313 -0.2847833 0.059640039
-0.095982261 -0.28485394 0.059655719
-0.096169651 -0.28493261 0.059667893
-0.096345305 -0.28500402 0.05969511
-0.096508935 -0.28507838 0.059666965
-0.096698828 -0.28516787 0.059612215
-0.096886523 -0.28524768 0.059617467
-0.097093768 -0.28534564 0.059555743
-0.097304672 -0.28543457 0.059566706
-0.097488515 -0.28550664 0.059613504
-0.097669296 -0.28560153 0.059495322
-0.097839266 -0.28566745 0.059543319
-0.098011352 -0.28571981 0.05969052
-0.098211557 -0.28581595 0.059620745
-0.098407999 -0.28591651 0.059509445
-0.098609008 -0.28600287 0.05950889
-0.098799765 -0.28609782 0.059419531
-0.098977625 -0.28616953 0.059451334
-0.099170104 -0.28625607 0.059424274
-0.099359885 -0.28634319 0.059385683
-0.099540703 -0.2864224 0.059374802
-0.099730022 -0.28650895 0.05933851
-0.099910878 -0.28658161 0.059372626
-0.10009666 -0.28666681 0.059335195
-0.10028352 -0.28675517 0.059279304
-0.10047489 -0.28684095 0.059254542
-0.10065155 -0.28691044 0.059297904
-0.1008396 -0.28699526 0.059269696
-0.10102361 -0.28707719 0.059249572
-0.10121428 -0.28717008 0.059174053
-0.10138586 -0.28724176 0.059187427
-0.10152504 -0.28730309 0.059176661
-0.1017068 -0.28737089 0.05924654
-0.10193462 -0.28748125 0.059160534
-0.10213098 -0.28756711 0.059149608
-0.10231724 -0.28764901 0.059136409
-0.10249805 -0.28772298 0.059161291
-0.10268731 -0.28781506 0.059086934
-0.10286897 -0.28789228 0.059092198
-0.10304697 -0.28797719 0.05903402
-0.10323151 -0.28805462 0.059046201
-0.10341492 -0.28813863 0.059009939
-0.10360276 -0.28821766 0.059020951
-0.10378985 -0.2883051 0.058971986
-0.10395023 -0.28837082 0.058993462
-0.10410407 -0.28842258 0.059091106
-0.1043355 -0.28853229 0.059020095
-0.10452288 -0.28863522 0.058866128
-0.10466713 -0.28869718 0.058865733
-0.10483651 -0.2887634 0.058910262
-0.10505124 -0.28885597 0.058907367
-0.10525358 -0.28894797 0.058872201
-0.1054321 -0.2890287 0.058844015
-0.10560535 -0.28909892 0.058872383
-0.10580052 -0.28918716 0.058841847
-0.10598478 -0.289267 0.058836721
-0.10615981 -0.28934744 0.058800478
-0.10633437 -0.28942579 0.058776923
-0.10651442 -0.2895003 0.058796041
-0.10669921 -0.28958508 0.058758609
-0.10687697 -0.28966549 0.058730438
-0.10706763 -0.28974926 0.058717214
-0.10725794 -0.28983086 0.058717847
-0.10744105 -0.28990582 0.058742724
-0.10760177 -0.28997874 0.058715746
-0.10777905 -0.29005861 0.058689874
-0.10796659 -0.29014611 0.05864206
-0.10812643 -0.29021311 0.058653146
-0.10831697 -0.2903007 0.058613405
-0.10853075 -0.29039928 0.05856666
-0.10871045 -0.29047495 0.058576554
-0.10888992 -0.29054734 0.058608361
-0.10905994 -0.29062426 0.058581352
-0.10925652 -0.29071328 0.058549665
-0.10941295 -0.29078218 0.058537692
-0.10960247 -0.29086208 0.058547556
-0.1097888 -0.29094619 0.05851936
-0.10996846 -0.29103315 0.058451939
-0.11016114 -0.29111525 0.05845603
-0.11033054 -0.29119614 0.058400184
-0.11049994 -0.29125541 0.058492016
-0.1106561 -0.29131898 0.058515813
-0.11083142 -0.29142499 0.058305345
-0.11102396 -0.29150128 0.058348663
-0.11122603 -0.29159367 0.058310028
-0.11142839 -0.29167759 0.058330242
-0.11160386 -0.29175666 0.058304377
-0.11175936 -0.2918272 0.058278576
-0.11194523 -0.29190233 0.05831036
-0.11212056 -0.29198068 0.058289111
-0.11230318 -0.29205409 0.058323219
-0.11248476 -0.29213816 0.058281187
-0.11266956 -0.2922233 0.058241449
-0.11286201 -0.29230177 0.058269769
-0.11303987 -0.2923851 0.058221966
-0.11320234 -0.29245219 0.058239989
-0.1133768 -0.2925334 0.058196817
-0.11355856 -0.29261231 0.058190551
-0.1137337 -0.29268825 0.058185451
