# .PCD v0.7 - Point Cloud Data file format
VERSION 0.7
FIELDS x y z
SIZE 4 4 4
TYPE F F F
COUNT 1 1 1
WIDTH 1184
HEIGHT 1
VIEWPOINT 0 0 0 1 0 0 0
POINTS 1184
DATA ascii
-0.1031872 -0.39912617 0.057697657
-0.10336704 -0.39922559 0.05773025
-0.10352286 -0.3993246 0.057676449
-0.10369168 -0.39943081 0.057624899
-0.1038698 -0.39952597 0.057678256
-0.10403574 -0.39962327 0.057672851
-0.10421555 -0.39973009 0.057658162
-0.10436419 -0.39983016 0.057570949
-0.10453507 -0.39992908 0.05757359
-0.1047181 -0.40002856 0.057617698
-0.10487173 -0.40013009 0.057539694
-0.10504435 -0.40023345 0.057520419
-0.10522632 -0.40034008 0.057514936
-0.10540196 -0.40043631 0.057552159
-0.10555916 -0.40053505 0.057505284
-0.10573398 -0.40063822 0.057495218
-0.10589328 -0.40073889 0.057443708
-0.10606082 -0.40083858 0.057429079
-0.10622236 -0.40093675 0.057401776
-0.10639913 -0.40103766 0.057413619
-0.10657077 -0.40114135 0.057388581
-0.10673582 -0.40124354 0.057348583
-0.10689268 -0.40134224 0.057300549
-0.10707423 -0.40144286 0.057331972
-0.1072487 -0.40154421 0.0573323
-0.10742434 -0.40164551 0.057337224
-0.10759453 -0.40174314 0.057345647
-0.10775384 -0.40184382 0.057294142
-0.10792192 -0.40194795 0.057252973
-0.10809918 -0.4020493 0.057263661
-0.10826328 -0.40215585 0.057192523
-0.10844722 -0.40225476 0.057243545
-0.10861976 -0.40235662 0.057233501
-0.10878328 -0.40245703 0.05719927
-0.10893883 -0.40255588 0.057145473
-0.10912208 -0.40266126 0.057152674
-0.1092779 -0.40276009 0.057100035
-0.10945778 -0.40286171 0.057118781
-0.1096214 -0.40296218 0.05708456
-0.10979918 -0.40306601 0.057081398
-0.10996488 -0.40316641 0.057055235
-0.11015332 -0.40326795 0.057106245
-0.11030924 -0.40336683 0.057053596
-0.110461 -0.40346584 0.056984827
-0.11064355 -0.40356973 0.056998953
-0.1108197 -0.40367389 0.056987729
-0.11102106 -0.40377551 0.057085961
-0.11116861 -0.40387657 0.056988377
-0.11132806 -0.40397733 0.056936868
-0.11150973 -0.40407962 0.056957915
-0.11166267 -0.40417859 0.056893751
-0.11183935 -0.40428105 0.056895215
-0.11200939 -0.40438363 0.056871343
-0.11218335 -0.40448433 0.05687397
-0.11235145 -0.40458885 0.056830499
-0.11252391 -0.40468779 0.0568389
-0.11269542 -0.40479049 0.056819633
-0.11286213 -0.40488949 0.056806155
-0.11303098 -0.4049941 0.056764979
-0.11321555 -0.40509519 0.056804471
-0.11338543 -0.40519804 0.056778282
-0.11355855 -0.40530097 0.056763612
-0.1137266 -0.40540382 0.056730524
-0.1139082 -0.40550518 0.056757338
-0.11407411 -0.40560809 0.056716178
-0.11424331 -0.40570927 0.056698069
-0.11438872 -0.40581161 0.056584347
-0.11457945 -0.40591702 0.056619201
-0.11475773 -0.4060168 0.056643721
-0.11492981 -0.40611821 0.056634828
-0.11509104 -0.40621927 0.056587923
-0.11526527 -0.40632087 0.056585938
-0.11543938 -0.40642598 0.056560889
-0.11560291 -0.40652895 0.056510519
-0.11577804 -0.40663067 0.05651084
-0.11594041 -0.40673187 0.056467388
-0.11611998 -0.40683565 0.056471147
-0.11627901 -0.40693671 0.056416184
-0.11646973 -0.40704119 0.056456793
-0.11663832 -0.40714112 0.056444459
-0.11680555 -0.40724441 0.0564056
-0.11698738 -0.40734863 0.056415107
-0.11717273 -0.40745142 0.056446526
-0.11733493 -0.40755451 0.056390386
-0.11752628 -0.40765953 0.056429844
-0.11766246 -0.40776086 0.056288488
-0.11785332 -0.40786597 0.056325641
-0.11802407 -0.40796804 0.056307524
-0.11818524 -0.40806946 0.056258321
-0.11837795 -0.40817329 0.056310449
-0.11855189 -0.40827742 0.056291167
-0.11871651 -0.40838081 0.056241944
-0.11886807 -0.40848151 0.056161642
-0.11907089 -0.40858653 0.056243718
-0.11922833 -0.40868938 0.056171451
-0.11940264 -0.40879208 0.056162558
-0.11959948 -0.4088985 0.05621352
-0.11977924 -0.40900186 0.056220736
-0.11994648 -0.40910569 0.056178421
-0.12010412 -0.40920705 0.056116533
-0.12030654 -0.40931433 0.056182466
-0.12045079 -0.40941441 0.056079127
-0.12062985 -0.40951952 0.056072511
-0.1208012 -0.40962231 0.056052081
-0.12099036 -0.40972862 0.056075402
-0.12114631 -0.40982985 0.056007765
-0.12132718 -0.40993693 0.055995367
-0.12150709 -0.41003931 0.056009505
-0.12167914 -0.41014394 0.055979855
-0.12187602 -0.41025147 0.056023896
-0.12203702 -0.41035494 0.055960853
-0.1222064 -0.41045785 0.055932365
-0.12237974 -0.41056126 0.055915385
-0.12255045 -0.41066441 0.055890352
-0.12273125 -0.41077039 0.055884875
-0.1228962 -0.41087288 0.055842571
-0.12309547 -0.41098127 0.055890061
-0.12326872 -0.41109094 0.055832729
-0.12342964 -0.41119003 0.055797353
-0.12362094 -0.41129613 0.05582989
-0.12379 -0.41140085 0.055788718
-0.1239663 -0.41150507 0.055777505
-0.12413298 -0.41160807 0.055738643
-0.12431754 -0.41171202 0.055759683
-0.1244874 -0.41181847 0.055710427
-0.12466331 -0.41192284 0.055696905
-0.12487442 -0.41203523 0.055762798
-0.12504658 -0.41214067 0.055728525
-0.12520263 -0.41224235 0.055658579
-0.1253524 -0.41234308 0.055571362
-0.1255476 -0.41245198 0.055600423
-0.12571919 -0.41255745 0.055563845
-0.12591182 -0.412669 0.055566393
-0.12607265 -0.41276857 0.055527568
-0.12625471 -0.41287002 0.05555553
-0.12644404 -0.41297984 0.055556934
-0.12662086 -0.41308492 0.05554226
-0.12681863 -0.41319624 0.055565529
-0.126991 -0.41330072 0.055538185
-0.12715143 -0.4134033 0.055478595
-0.12733395 -0.41350809 0.055486962
-0.1275177 -0.41361737 0.055471081
-0.12768255 -0.41372219 0.05541379
-0.12785572 -0.41382837 0.055378355
-0.1280238 -0.41393235 0.055338345
-0.12821713 -0.41403925 0.055373177
-0.12839575 -0.41414791 0.055342346
-0.12858982 -0.41426069 0.055342562
-0.12877342 -0.4143717 0.05531517
-0.1289176 -0.4144634 0.055264883
-0.12912098 -0.41457108 0.05533196
-0.12929799 -0.41467971 0.055295371
-0.041606933 -0.36631176 0.038706798
-0.041771453 -0.36640552 0.038718697
-0.041938949 -0.366505 0.038705196
-0.042104032 -0.36660162 0.038700946
-0.04226286 -0.36669061 0.038722102
-0.042424902 -0.36678168 0.03874208
-0.042586543 -0.36687431 0.038750522
-0.042745031 -0.36696509 0.038758993
-0.042898338 -0.36704546 0.038814776
-0.043053798 -0.36712849 0.038861323
-0.043202974 -0.36720574 0.038921747
-0.04335358 -0.36728272 0.038989086
-0.04350543 -0.3673633 0.039037958
-0.043652769 -0.3674382 0.039106473
-0.043792944 -0.36750188 0.039220002
-0.043932837 -0.36756718 0.039321993
-0.04407353 -0.36763135 0.03943437
-0.044215392 -0.36769688 0.039542124
-0.044349447 -0.36775228 0.039685685
-0.044481419 -0.36780486 0.039839629
-0.04461389 -0.36785787 0.039992418
-0.044744346 -0.3679103 0.040141769
-0.044874318 -0.36795753 0.040322255
-0.044999804 -0.36800307 0.040496994
-0.045122128 -0.3680442 0.040687907
-0.045241904 -0.36807954 0.040906519
-0.045364164 -0.3681156 0.041129734
-0.045485992 -0.36814851 0.041371401
-0.045724131 -0.36821273 0.041844394
-0.045829415 -0.3682293 0.04212882
-0.044470042 -0.36558872 0.053926505
-0.051172849 -0.36815673 0.062392868
-0.051352374 -0.36825415 0.06243699
-0.051523272 -0.36834076 0.062518075
-0.05171565 -0.36846375 0.062446781
-0.051899068 -0.36856797 0.062462047
-0.052087307 -0.36868441 0.062417295
-0.05227517 -0.36880043 0.062373713
-0.052459367 -0.36891037 0.062355511
-0.052648179 -0.3690246 0.062326923
-0.052805781 -0.36911976 0.062304236
-0.053013798 -0.36924046 0.062305544
-0.053194802 -0.36934543 0.062306978
-0.053376161 -0.36945117 0.062304951
-0.053558592 -0.36955899 0.062293686
-0.053749822 -0.36967877 0.062238537
-0.053929307 -0.36978161 0.062248059
-0.054094486 -0.36987087 0.062291101
-0.054275542 -0.36998945 0.062206015
-0.054488346 -0.37012905 0.06210462
-0.054664772 -0.37022683 0.062134914
-0.054843936 -0.37032986 0.062142123
-0.055027001 -0.37044036 0.062115859
-0.055203989 -0.37053505 0.062168073
-0.055397853 -0.37066671 0.062047161
-0.055578139 -0.37077254 0.06204053
-0.055756867 -0.37087548 0.062046587
-0.055934452 -0.3709763 0.06206188
-0.056116756 -0.37108654 0.062034473
-0.056292634 -0.3711842 0.062063616
-0.056473035 -0.37129101 0.062051203
-0.056655064 -0.37140128 0.062022645
-0.056835316 -0.37150818 0.062009085
-0.057024129 -0.37163293 0.061913572
-0.057209115 -0.37175018 0.061851539
-0.05738429 -0.37184724 0.061881844
-0.057561804 -0.37194929 0.061889064
-0.057738915 -0.37204549 0.06193205
-0.057928227 -0.37217304 0.061820388
-0.058105528 -0.37227514 0.061826456
-0.058287151 -0.37238681 0.061787505
-0.058465138 -0.37249076 0.061784342
-0.058641165 -0.37259051 0.061800793
-0.058818065 -0.37270322 0.061737649
-0.058994807 -0.3727994 0.061779477
-0.059175178 -0.37290382 0.06178207
-0.059348509 -0.37299782 0.061825074
-0.059542842 -0.37314078 0.061633781
-0.059715722 -0.37323418 0.061679095
-0.059891045 -0.37333331 0.061696712
-0.060061563 -0.3734329 0.061693579
-0.060254395 -0.37356269 0.061580747
-0.060437232 -0.37368086 0.061504878
-0.060580701 -0.37375766 0.06154687
-0.060784478 -0.37387246 0.061570108
-0.060969219 -0.37399012 0.061504617
-0.061141372 -0.37408885 0.061513022
-0.061321601 -0.37419558 0.061500609
-0.061494648 -0.37429032 0.061537839
-0.061673909 -0.37440151 0.061493143
-0.061845675 -0.37449297 0.061546542
-0.062021717 -0.37460992 0.061453402
-0.062179986 -0.37469968 0.061467629
-0.062361166 -0.37481037 0.061433308
-0.062518157 -0.3749041 0.061417546
-0.062731117 -0.37502494 0.061436135
-0.062905379 -0.37512404 0.061450288
-0.063084349 -0.37523705 0.061392896
-0.06325227 -0.37534094 0.061352871
-0.063420549 -0.37544629 0.061304763
-0.063612767 -0.3755531 0.061336122
-0.063768454 -0.37563628 0.061382681
-0.063966215 -0.37576061 0.061322894
-0.064142212 -0.37587517 0.061244752
-0.064300865 -0.3759684 0.061238211
-0.064467043 -0.3760691 0.061212029
-0.064657681 -0.37618059 0.061207645
-0.064840578 -0.37628415 0.061225228
-0.065015793 -0.37639862 0.06114478
-0.065182045 -0.3764818 0.061230503
-0.065345168 -0.37658271 0.061191641
-0.065524861 -0.37668511 0.06120462
-0.065721802 -0.37681168 0.061127529
-0.065900669 -0.37693262 0.061019376
-0.066068217 -0.37703156 0.061009347
-0.066231683 -0.37713647 0.060946263
-0.066423252 -0.37724435 0.060968414
-0.066579357 -0.37733105 0.060994189
-0.066734552 -0.3774257 0.060965762
-0.066911034 -0.37752879 0.060962595
-0.067076586 -0.37762061 0.060990635
-0.067236632 -0.37771285 0.060995638
-0.067439742 -0.37784952 0.06087698
-0.067602254 -0.37792727 0.060983486
-0.067769974 -0.37805855 0.060768105
-0.067945927 -0.37814701 0.060856082
-0.068102583 -0.3782382 0.060855329
-0.068273135 -0.37834305 0.060818747
-0.068448544 -0.37844369 0.060827125
-0.068650603 -0.37858284 0.060688868
-0.068796441 -0.3786279 0.060941961
-0.068968654 -0.37876305 0.060718477
-0.069154114 -0.37889326 0.060575694
-0.06931296 -0.37896362 0.060715668
-0.069502495 -0.37908405 0.060650151
-0.069660284 -0.37916631 0.060710534
-0.069831528 -0.3792609 0.060742009
-0.070017874 -0.37938219 0.0606592
-0.070181891 -0.37946627 0.060731091
-0.070370771 -0.37958613 0.060666725
-0.070538141 -0.37967306 0.060732834
-0.070723124 -0.37978613 0.060697332
-0.070885465 -0.37988314 0.060680397
-0.071054004 -0.37998307 0.060668044
-0.071257472 -0.38010401 0.060650911
-0.071442604 -0.38022587 0.06056004
-0.071597487 -0.38030767 0.060612358
-0.071782477 -0.38043308 0.060498409
-0.071947113 -0.38052583 0.060517225
-0.072127864 -0.38063446 0.060494445
-0.072302073 -0.3807362 0.060491286
-0.072441116 -0.38080701 0.06055522
-0.072628319 -0.38093278 0.06044703
-0.072811738 -0.38103229 0.060492296
-0.072992131 -0.38114434 0.060446426
-0.073159754 -0.38123739 0.060474459
-0.073324054 -0.38134784 0.060379077
-0.07348194 -0.38144606 0.060337938
-0.073668286 -0.38155398 0.060340501
-0.073816642 -0.38164175 0.060330555
-0.073990256 -0.38174298 0.060328558
-0.074147299 -0.3818514 0.060219362
-0.074312001 -0.38193241 0.060313169
-0.07448253 -0.3820284 0.060333107
-0.074668489 -0.38213861 0.060319521
-0.074863635 -0.3822569 0.060288578
-0.075029291 -0.38237032 0.060179345
-0.075194441 -0.38245052 0.06028007
-0.075388998 -0.3825717 0.06022837
-0.075545207 -0.3826744 0.060152635
-0.075699434 -0.38276377 0.060154192
-0.075889334 -0.38286471 0.060214426
-0.076064065 -0.38297817 0.060138591
-0.07622125 -0.38307002 0.060135525
-0.076371863 -0.38315985 0.060120955
-0.076536536 -0.38326889 0.060035948
-0.076716319 -0.38336864 0.060066231
-0.076897763 -0.38347876 0.060036518
-0.077054732 -0.38357028 0.060034603
-0.077219158 -0.38367721 0.059962288
-0.077397436 -0.38378406 0.059941813
-0.077561907 -0.38387254 0.059987161
-0.077736229 -0.38396493 0.060044006
-0.077912234 -0.3840813 0.059954327
-0.078070961 -0.38417929 0.0599178
-0.078242838 -0.38428167 0.059901968
-0.078426607 -0.38439351 0.059869934
-0.078619301 -0.38449878 0.059912845
-0.078796566 -0.38460737 0.059877381
-0.078944705 -0.38468981 0.059900895
-0.079117596 -0.3848002 0.059837766
-0.079303667 -0.38490325 0.059870325
-0.079454668 -0.38498843 0.059886895
-0.079618089 -0.38509256 0.05982843
-0.079763614 -0.38519374 0.059722744
-0.07993643 -0.38529143 0.059740372
-0.080113791 -0.38538703 0.059787966
-0.080299057 -0.38550264 0.059737466
-0.080480017 -0.38560906 0.059729673
-0.080630161 -0.38569608 0.059731252
-0.080800578 -0.38579977 0.059701599
-0.080982529 -0.38590351 0.059714556
-0.081158966 -0.38602012 0.059624881
-0.081340633 -0.38612422 0.05963438
-0.081493251 -0.38621414 0.059626728
-0.081636794 -0.38629785 0.059624881
-0.081804238 -0.38639838 0.059604462
-0.081998989 -0.38650846 0.059624285
-0.082141161 -0.38660297 0.059548613
-0.082316153 -0.38670409 0.059552386
-0.08247859 -0.38680589 0.059505463
-0.082678638 -0.38693643 0.05941451
-0.082861334 -0.38703063 0.059490923
-0.083013192 -0.38712117 0.059476346
-0.083174214 -0.38721743 0.059459418
-0.08335086 -0.38732257 0.059443571
-0.083513752 -0.38740852 0.059499312
-0.083656654 -0.38752046 0.059315197
-0.08386717 -0.38763213 0.059383396
-0.084034964 -0.38773069 0.059376821
-0.084199525 -0.38782102 0.059410639
-0.084362455 -0.38792691 0.059339479
-0.084530018 -0.38803202 0.059290223
-0.084710136 -0.38813776 0.059283581
-0.084875114 -0.38822761 0.059322003
-0.085053764 -0.38833538 0.059296921
-0.085215785 -0.38844144 0.059221156
-0.085392922 -0.38853315 0.059292976
-0.085554592 -0.38862181 0.059326805
-0.085704044 -0.38872615 0.059215337
-0.085895099 -0.38882938 0.059265174
-0.086050555 -0.38893145 0.059190586
-0.086199865 -0.38902396 0.059154108
-0.086349748 -0.38912115 0.059089936
-0.086542226 -0.38923371 0.059085548
-0.086715996 -0.38931945 0.059182771
-0.086885862 -0.38942572 0.059134651
-0.087059177 -0.38953331 0.059091125
-0.087235346 -0.38963765 0.059078746
-0.0873923 -0.38973171 0.059060685
-0.087568872 -0.38983557 0.059052907
-0.087732598 -0.38993755 0.059009429
-0.087884709 -0.39002642 0.059006393
-0.088042945 -0.39011419 0.059033319
-0.088207357 -0.39021531 0.058997914
-0.088376321 -0.390331 0.058886349
-0.088552594 -0.39043015 0.058907423
-0.088708155 -0.3905158 0.058937825
-0.08887656 -0.39061761 0.058912776
-0.089051493 -0.39071363 0.058948852
-0.089234211 -0.39082107 0.058941051
-0.089402646 -0.39092726 0.058888324
-0.08955396 -0.39101675 0.058878366
-0.089724831 -0.39112073 0.058848701
-0.089883476 -0.3912172 0.058821402
-0.090038739 -0.39132062 0.058737591
-0.090233192 -0.3914271 0.058779337
-0.090384014 -0.39151686 0.058765925
-0.090525605 -0.39161354 0.058674097
-0.090724871 -0.39171252 0.058781579
-0.090888903 -0.39181304 0.058748484
-0.091053121 -0.39190936 0.058743078
-0.091222025 -0.39201435 0.058699585
-0.091389894 -0.39211205 0.05869877
-0.091564439 -0.39221308 0.058701396
-0.091720559 -0.39231479 0.058631424
-0.091892652 -0.39240971 0.058664046
-0.092054978 -0.39251107 0.058619425
-0.092231303 -0.39261478 0.05861165
-0.092398055 -0.39270946 0.058625847
-0.092574887 -0.39281294 0.058621533
-0.092738532 -0.39290962 0.058611508
-0.092895217 -0.39300677 0.058572691
-0.09306258 -0.39311576 0.058498047
-0.093240611 -0.39321849 0.058502957
-0.093413629 -0.39331338 0.05853904
-0.093581095 -0.393415 0.058511689
-0.093731597 -0.39351183 0.058452141
-0.09390492 -0.39360672 0.058489371
-0.094083145 -0.393713 0.058472361
-0.094248541 -0.39381903 0.058409266
-0.094393753 -0.39390805 0.058379725
-0.094580323 -0.3940067 0.058442272
-0.094735131 -0.3941111 0.058350392
-0.094896182 -0.39420897 0.058323085
-0.095059216 -0.39430261 0.058330372
-0.095251359 -0.39440882 0.058365207
-0.09543322 -0.3945134 0.058372404
-0.095597811 -0.39460972 0.058368146
-0.095774405 -0.39471993 0.058319997
-0.095924139 -0.39482588 0.058199294
-0.096071199 -0.39491075 0.058203198
-0.096248642 -0.39500788 0.058241576
-0.096412554 -0.39510763 0.058213092
-0.096585043 -0.39521307 0.05817996
-0.096772999 -0.39531541 0.058224045
-0.096930631 -0.39541456 0.058175985
-0.09710829 -0.39551198 0.058213197
-0.097262397 -0.39561543 0.058124781
-0.097412266 -0.39570248 0.058125213
-0.097584255 -0.39580509 0.058108229
-0.097758479 -0.39590108 0.058141999
-0.097938746 -0.39600959 0.05811806
-0.098100267 -0.39610723 0.058094207
-0.098242618 -0.39619985 0.058031224
-0.098424733 -0.39629915 0.058073025
-0.098589048 -0.39640439 0.058011096
-0.098757185 -0.39650548 0.057989512
-0.098924398 -0.39660406 0.057980634
-0.099081352 -0.39670029 0.057948723
-0.099255294 -0.39679411 0.057995185
-0.099415809 -0.39689207 0.057965569
-0.099596687 -0.39699498 0.057979699
-0.099758893 -0.39709517 0.057941996
-0.099934064 -0.3971917 0.057975762
-0.10009079 -0.39729339 0.057908103
-0.10024115 -0.39739141 0.057840459
-0.10042117 -0.39749473 0.057848826
-0.10060234 -0.39759782 0.057862945
-0.10076091 -0.39769626 0.057822961
-0.1009251 -0.39779326 0.057812937
-0.10110324 -0.39789206 0.057843227
-0.10126618 -0.39799973 0.057760529
-0.10143108 -0.39809409 0.057770118
-0.10160545 -0.39819393 0.057779659
-0.10175881 -0.39829603 0.057697013
-0.10192154 -0.39839345 0.057678927
-0.10209642 -0.39849579 0.05767462
-0.10226389 -0.39859724 0.057648432
-0.10244209 -0.39869153 0.057707559
-0.1026109 -0.39879033 0.05770329
-0.10276838 -0.39889139 0.057642534
-0.10293266 -0.39899352 0.057600211
-0.10310985 -0.39910045 0.057575136
-0.1032848 -0.39920297 0.057569679
-0.1034489 -0.39929795 0.057572342
-0.10361169 -0.39939794 0.057538107
-0.10377179 -0.39949366 0.057521179
-0.10394111 -0.39959726 0.057488061
-0.10411824 -0.39969492 0.05752182
-0.10427815 -0.39979541 0.057473749
-0.10443236 -0.39989674 0.057399169
-0.10461971 -0.39999765 0.057450175
-0.10478497 -0.40009272 0.057456303
-0.1049546 -0.40019181 0.057453178
-0.10513275 -0.4002966 0.057445399
-0.10530125 -0.40039593 0.057436511
-0.10546838 -0.4004977 0.057406865
-0.10563755 -0.40059924 0.057386436
-0.10580847 -0.40069836 0.057387918
-0.10598483 -0.40079468 0.057427447
-0.10614879 -0.40089914 0.057368968
-0.1063129 -0.40100133 0.057325497
-0.10645968 -0.40110323 0.057219811
-0.1066379 -0.40120605 0.057224713
-0.10681969 -0.40130642 0.057258449
-0.10698142 -0.40140671 0.057218447
-0.10715621 -0.40150788 0.057221062
-0.10732301 -0.40160987 0.057189114
-0.10749809 -0.40170687 0.057219412
-0.10766307 -0.40180904 0.057179399
-0.10783532 -0.40191272 0.057156645
-0.1079978 -0.40201092 0.057132788
-0.108149 -0.40210995 0.057061695
-0.10832784 -0.40220699 0.057105821
-0.1085171 -0.40230754 0.057166047
-0.10867813 -0.40241212 0.057096053
-0.10884033 -0.40251249 0.057057202
-0.10901023 -0.40261444 0.057036769
-0.10917784 -0.40271452 0.057019807
-0.10935524 -0.40281615 0.057029337
-0.10951868 -0.40291652 0.056995086
-0.10967261 -0.40301931 0.056910135
-0.10985684 -0.40311876 0.056958854
-0.11003429 -0.40322056 0.056967232
-0.11019547 -0.40332308 0.056911077
-0.11036445 -0.40342921 0.056860656
-0.11055459 -0.40352684 0.056942802
-0.11072391 -0.40362719 0.056930441
-0.11090392 -0.40372923 0.056946877
-0.1110682 -0.40383172 0.056902245
-0.11121437 -0.40393072 0.056812719
-0.11139604 -0.40402904 0.056859139
-0.11154579 -0.40413174 0.056759208
-0.11172815 -0.4042359 0.05677101
-0.1118744 -0.40433478 0.056682631
-0.11206952 -0.40443891 0.056741677
-0.11223879 -0.4045414 0.056715481
-0.11242054 -0.40464392 0.056735378
-0.11259975 -0.40474281 0.056769114
-0.11275441 -0.40484169 0.056711841
-0.11291672 -0.4049443 0.056659147
-0.11309609 -0.40504888 0.056657132
-0.11326118 -0.40514785 0.056637872
-0.11342286 -0.40524864 0.056594413
-0.1136063 -0.40535343 0.056606211
-0.11378346 -0.40545633 0.056606516
-0.11393236 -0.40555513 0.056528501
-0.11410706 -0.40565625 0.056531124
-0.11429386 -0.40576136 0.056553297
-0.1144633 -0.40586069 0.056547865
-0.11463075 -0.40596357 0.056512445
-0.1147805 -0.40606412 0.05642635
-0.11497773 -0.40616804 0.056494616
-0.11512657 -0.40626681 0.056416612
-0.11531538 -0.40637234 0.056443386
-0.11549737 -0.40647247 0.056479428
-0.11565404 -0.40657505 0.056405988
-0.11582904 -0.40667671 0.056406297
-0.11599382 -0.40677968 0.056360517
-0.11615332 -0.40688065 0.05630783
-0.11633007 -0.40698424 0.056302361
-0.11648892 -0.40708521 0.056247376
-0.11667258 -0.40718755 0.056275334
-0.11684673 -0.40728948 0.056271031
-0.11701205 -0.40739256 0.056226395
-0.1171951 -0.40749511 0.056250893
-0.11736465 -0.40759686 0.056230463
-0.11753812 -0.40769893 0.056222703
-0.11770155 -0.40780199 0.056171156
-0.11790533 -0.40790629 0.056261308
-0.11805385 -0.40800503 0.056182146
-0.11821879 -0.40810663 0.056145594
-0.11839563 -0.40821081 0.056136657
-0.1185693 -0.40831318 0.056127746
-0.11874418 -0.40841731 0.056111909
-0.11892895 -0.40852067 0.056137551
-0.11910954 -0.40862378 0.056149364
-0.11926539 -0.40872481 0.056082856
-0.11943182 -0.40882838 0.056039374
-0.11962415 -0.40893272 0.056086898
-0.11977302 -0.40903309 0.055998504
-0.11996008 -0.4091371 0.056028746
-0.12012349 -0.40923887 0.055985279
-0.12029552 -0.40934154 0.055968296
-0.1204916 -0.40944824 0.05601465
-0.12065107 -0.40954971 0.055958502
-0.12082263 -0.40965247 0.055939212
-0.12100038 -0.40975592 0.055938363
-0.1211575 -0.40985876 0.05586493
-0.12134767 -0.40996367 0.055900924
-0.12151501 -0.4100661 0.055867817
-0.12169589 -0.41017014 0.055875018
-0.12187424 -0.41027701 0.055854548
-0.12202936 -0.41037813 0.055784583
-0.12222641 -0.41048267 0.055848233
-0.12238494 -0.41058579 0.05577825
-0.12257116 -0.41069075 0.055799268
-0.12272722 -0.41079205 0.055731609
-0.12291704 -0.4108991 0.055752616
-0.12309182 -0.41100281 0.055739079
-0.12325728 -0.41110688 0.055688675
-0.12345265 -0.41121337 0.055733874
-0.12364747 -0.41131988 0.055776775
-0.12382733 -0.41142601 0.055766672
-0.12399001 -0.41153136 0.055697832
-0.12416794 -0.41163582 0.055691205
-0.12432928 -0.41173804 0.055637356
-0.12449214 -0.41183752 0.055606581
-0.12467659 -0.41194451 0.055607997
-0.12486164 -0.41205311 0.055601329
-0.12503147 -0.41215667 0.05557052
-0.12520882 -0.41226134 0.055560432
-0.12534842 -0.41235906 0.055454791
-0.12557149 -0.41247493 0.05554254
-0.12575091 -0.4125801 0.05553706
-0.12591115 -0.41268095 0.05548783
-0.12607054 -0.41278312 0.055427074
-0.12625918 -0.41288984 0.055445779
-0.12642461 -0.41299298 0.055401139
-0.12658751 -0.4130972 0.055340368
-0.12679791 -0.41320899 0.055407412
-0.12698111 -0.41331795 0.055391539
-0.12713239 -0.41341615 0.055326201
-0.12728395 -0.41351718 0.055243567
-0.1274645 -0.41362301 0.055238083
-0.1276411 -0.41373101 0.055203769
-0.12782411 -0.41383734 0.055204045
-0.12799549 -0.4139362 0.055208981
-0.12820596 -0.41404873 0.055271417
-0.12835486 -0.41415223 0.055163417
-0.12852654 -0.41425684 0.05513259
-0.12871501 -0.4143658 0.055136297
-0.12891816 -0.41448295 0.055142231
-0.12911317 -0.41459048 0.055179365
-0.12928386 -0.41469651 0.055135854
-0.04163507 -0.36636281 0.038485594
-0.041803088 -0.36646494 0.038457084
-0.041975833 -0.3665691 0.038433179
-0.042138081 -0.36666244 0.038439311
-0.042303488 -0.36675781 0.038444266
-0.042467397 -0.36685339 0.038442321
-0.042637996 -0.3669554 0.038424186
-0.042803198 -0.36705279 0.038415305
-0.042969853 -0.36715215 0.038399499
-0.043135248 -0.36725006 0.038388308
-0.043305017 -0.36735356 0.038357489
-0.043470908 -0.3674503 0.038355522
-0.043633901 -0.36754552 0.038352422
-0.04379452 -0.3676399 0.038345873
-0.043958098 -0.36773401 0.038351998
-0.044121686 -0.36783031 0.038344283
-0.044281214 -0.36792153 0.038353886
-0.044437263 -0.36800838 0.038378503
-0.044590242 -0.36809343 0.038403135
-0.044745047 -0.36817664 0.038446218
-0.044895366 -0.36825833 0.038482409
-0.04504307 -0.36833453 0.038543981
-0.045192789 -0.36841336 0.038596313
-0.045339767 -0.36848858 0.038661361
-0.045483798 -0.36855775 0.038754102
-0.045623992 -0.3686218 0.038865324
-0.045766223 -0.36869064 0.038953457
-0.045903441 -0.36875278 0.039065838
-0.046041604 -0.36881381 0.039188609
-0.04617488 -0.36886823 0.039335612
-0.046306595 -0.36892262 0.039476868
-0.046437722 -0.36897379 0.039636582
-0.046565332 -0.36902002 0.039814774
-0.046691027 -0.36906803 0.039974514
-0.046816904 -0.36911142 0.040164251
-0.046942905 -0.36915708 0.040340137
-0.047063224 -0.36919472 0.040546045
-0.047182124 -0.36922538 0.040791187
-0.047297385 -0.36925301 0.041042112
-0.047420822 -0.36929154 0.041253775
-0.047545329 -0.36933127 0.041461974
-0.047663871 -0.36935991 0.041718654
-0.047179922 -0.36597413 0.061511304
-0.047353283 -0.36606491 0.061575055
-0.047521386 -0.36614773 0.061669994
-0.053116191 -0.36932197 0.062165331
-0.053299263 -0.369443 0.06207215
-0.05345827 -0.3695415 0.062033303
-0.053668566 -0.36965504 0.06208881
-0.053849667 -0.36976099 0.062084459
-0.054031231 -0.36986792 0.062075503
-0.054214973 -0.36997902 0.062048078
-0.054408498 -0.37010849 0.061939847
-0.054569252 -0.37020293 0.061933294
-0.05476125 -0.37030438 0.061998118
-0.054953068 -0.37042722 0.061925661
-0.055108994 -0.37054369 0.061761085
-0.055304445 -0.3706522 0.061793588
-0.055495016 -0.37074682 0.061896488
-0.055676118 -0.37085456 0.061880603
-0.055824094 -0.37093419 0.061921418
-0.056037277 -0.37106857 0.061854627
-0.056214508 -0.37116918 0.061869908
-0.056396775 -0.37127525 0.061869025
-0.056581154 -0.37139052 0.06181737
-0.05673968 -0.37148714 0.061788902
-0.056942791 -0.37161711 0.061712928
-0.057124607 -0.37171823 0.061742038
-0.057306532 -0.37182954 0.06170655
-0.057492524 -0.37194467 0.061661806
-0.057664078 -0.37203455 0.061724417
-0.057844531 -0.37214339 0.061699316
-0.058026664 -0.37225607 0.061655737
-0.058205426 -0.37236175 0.061644487
-0.058379691 -0.37245774 0.061678246
-0.058566108 -0.37257528 0.061619662
-0.058745064 -0.37268198 0.061602637
-0.058907192 -0.3727729 0.061623767
-0.059083872 -0.37288585 0.061558306
-0.059268601 -0.37297836 0.061653148
-0.059423894 -0.37307072 0.061639704
-0.059644379 -0.37322366 0.061481744
-0.059815489 -0.37332487 0.061470527
-0.059997324 -0.37342238 0.061522711
-0.060176693 -0.37353185 0.061489537
-0.060354732 -0.37363836 0.061470203
-0.060536772 -0.37375498 0.061401255
-0.060715303 -0.37385708 0.061411925
-0.06089228 -0.37396172 0.061400682
-0.061068647 -0.37405854 0.061436743
-0.061247095 -0.37416729 0.06140472
-0.061431278 -0.37429133 0.061296534
-0.061603703 -0.374385 0.06133838
-0.061779093 -0.37448654 0.061340991
-0.061928328 -0.37456578 0.061388716
-0.062144544 -0.37471622 0.061230768
-0.062321723 -0.37482351 0.061203375
-0.062473536 -0.37490317 0.061258003
-0.06265004 -0.37500155 0.061284833
-0.062846035 -0.37511888 0.06126311
-0.063012637 -0.37521893 0.061242685
-0.063201591 -0.37533143 0.061225623
-0.063381553 -0.37544864 0.061145142
-0.063560389 -0.3755551 0.061129279
-0.06373439 -0.37565491 0.061137654
-0.063898303 -0.37576461 0.061045721
-0.064088717 -0.37587526 0.061045952
-0.064243793 -0.37595737 0.061097108
-0.064423427 -0.37605903 0.061114684
-0.064607956 -0.37618613 0.060988039
-0.06478928 -0.3762942 0.060971014
-0.064964071 -0.37640786 0.060894027
-0.065144211 -0.37649354 0.061015427
-0.0653219 -0.37659895 0.061001882
-0.065491602 -0.37669519 0.0610172
-0.065656543 -0.37679407 0.060997933
-0.065845892 -0.3769137 0.060937028
-0.066023856 -0.37702161 0.060908467
-0.066197909 -0.37712526 0.060892627
-0.066373155 -0.3772229 0.060919464
-0.066552088 -0.3773475 0.060788225
-0.066728033 -0.3774488 0.060794294
-0.066888534 -0.37754348 0.060785435
-0.067071989 -0.37764138 0.060841076
-0.067241289 -0.3777383 0.060850635
-0.067399852 -0.37783766 0.060804874
-0.067592546 -0.37796661 0.060696643
-0.06776733 -0.37806401 0.060723472
-0.06794031 -0.37816668 0.060709946
-0.06810604 -0.37826151 0.06071952
-0.068275027 -0.37835857 0.060726777
-0.068430014 -0.37845767 0.060669493
-0.068624161 -0.37856829 0.060683541
-0.068801224 -0.37868041 0.060625002
-0.06895458 -0.37877181 0.060610406
-0.06914103 -0.37889028 0.060546055
-0.069319621 -0.37899622 0.060532492
-0.069490492 -0.37908933 0.060572036
-0.069636464 -0.37917158 0.060588636
-0.069809534 -0.37928134 0.060530111
-0.069985189 -0.37938955 0.060491189
-0.070181184 -0.37949547 0.060542144
-0.070327193 -0.37957901 0.06055066
-0.070501566 -0.37970585 0.060388308
-0.070673004 -0.37977612 0.060575508
-0.070869297 -0.37991732 0.060402665
-0.071045995 -0.38001004 0.060466409
-0.071212322 -0.38012421 0.060354847
-0.071377367 -0.38022405 0.060329817
-0.071548328 -0.38032266 0.06033475
-0.071713619 -0.38042954 0.060265884
-0.071899153 -0.38051525 0.060406879
-0.072054736 -0.38061541 0.060344972
-0.072234936 -0.38071612 0.060370632
-0.07241255 -0.38083395 0.060277477
-0.072592631 -0.38093388 0.060307749
-0.072765991 -0.38100094 0.060522627
-0.072908282 -0.38106948 0.06061307
-0.07310459 -0.38123167 0.060306408
-0.07327196 -0.3813374 0.060252532
-0.073442467 -0.38143411 0.060267851
-0.073635198 -0.3815383 0.060317673
-0.073789783 -0.38163155 0.060296156
-0.073987976 -0.38176355 0.060189053
-0.074170105 -0.38188565 0.060085494
-0.074343562 -0.38198262 0.060110029
-0.074497893 -0.38207245 0.06010928
-0.074655324 -0.3821646 0.060105048
-0.074856736 -0.38228291 0.060097143
-0.075028978 -0.38239384 0.060028248
-0.075199485 -0.38248584 0.060073562
-0.075369462 -0.38258368 0.060079649
-0.075532742 -0.38268143 0.060061559
-0.075671166 -0.38276145 0.060064342
-0.075826935 -0.38286442 0.059985135
-0.076006651 -0.38298944 0.059853904
-0.076184899 -0.38307419 0.059974164
-0.076357469 -0.38317573 0.059966397
-0.076536521 -0.38327938 0.059968986
-0.076718539 -0.38338569 0.059965797
-0.076893702 -0.38349143 0.059940726
-0.07704103 -0.38357806 0.059934236
-0.077215254 -0.38368779 0.059880316
-0.077408627 -0.38380596 0.059843618
-0.077565819 -0.38389492 0.059858993
-0.077732496 -0.38398901 0.059876639
-0.077899039 -0.38409916 0.059791617
-0.078059115 -0.38420552 0.059706628
-0.078241341 -0.38429403 0.059817638
-0.078393534 -0.38438821 0.059781134
-0.078567952 -0.38449353 0.059756063
-0.078751244 -0.38460582 0.059719402
-0.078908205 -0.38469499 0.059732486
-0.079075985 -0.38478488 0.059781276
-0.079230838 -0.38489309 0.059665158
-0.079403475 -0.38500261 0.059606642
-0.079579279 -0.38511327 0.059552714
-0.079770379 -0.38521147 0.059634842
-0.079939634 -0.38530815 0.059645556
-0.080122627 -0.38541919 0.059615821
-0.080277972 -0.38551229 0.05959776
-0.080468073 -0.38561425 0.059652202
-0.080632649 -0.38571313 0.059631795
-0.080782555 -0.38580036 0.059631068
-0.080960892 -0.38591248 0.05957713
-0.081112891 -0.38599461 0.059616767
-0.081288874 -0.38612056 0.059465945
-0.081456125 -0.38622117 0.059444353
-0.081614368 -0.38629824 0.05953934
-0.081762992 -0.38640463 0.059411716
-0.08194299 -0.38650325 0.05945006
-0.08212956 -0.3866131 0.059441075
-0.082310356 -0.38671833 0.059440203
-0.082473539 -0.38681838 0.059407104
-0.082656302 -0.38693506 0.059340458
-0.082807042 -0.38702732 0.059310883
-0.082988679 -0.38712326 0.059372291
-0.083147079 -0.3872093 0.059410743
-0.083328851 -0.38731977 0.059379868
-0.083472088 -0.38739628 0.059423003
-0.083629005 -0.38750589 0.059305727
-0.083815441 -0.387622 0.05925636
-0.083994359 -0.38772956 0.05923358
-0.084161565 -0.3878352 0.059179697
-0.084340878 -0.3879354 0.059205353
-0.084513068 -0.38803977 0.05917798
-0.084684268 -0.3881329 0.059218686
-0.084840775 -0.38822833 0.059190229
-0.085003525 -0.38832721 0.0591629
-0.085166007 -0.38842034 0.059171341
-0.085336193 -0.38853294 0.059083991
-0.085508965 -0.38862428 0.059141982
-0.085683405 -0.38873103 0.059107684
-0.085865468 -0.38883954 0.059090644
-0.086015217 -0.388937 0.059024155
-0.086198501 -0.38903826 0.059057869
-0.086362638 -0.38913488 0.059050158
-0.086516798 -0.38923219 0.059000954
-0.086694084 -0.38932976 0.059035845
-0.086866215 -0.38942796 0.059047699
-0.08702834 -0.38953716 0.058952317
-0.087199874 -0.38963589 0.058958404
-0.087355003 -0.38972655 0.058955342
-0.087520093 -0.38983205 0.058894549
-0.087679684 -0.38992801 0.058874156
-0.087869704 -0.3900328 0.058910154
-0.088029616 -0.39013329 0.058862068
-0.088186212 -0.39023203 0.058812857
-0.088353038 -0.3903257 0.058833964
-0.088539511 -0.39043403 0.05883421
-0.088698253 -0.39053059 0.058806904
-0.088873886 -0.39063028 0.0588222
-0.089049958 -0.3907342 0.058812108
-0.089217685 -0.39083633 0.058782451
-0.089370593 -0.39092878 0.058759786
-0.089550093 -0.39103416 0.058753148
-0.089704253 -0.39113417 0.058686636
-0.08986026 -0.39122823 0.058665115
-0.090023473 -0.39131653 0.058707006
-0.090185627 -0.39141852 0.058657765
-0.090371676 -0.39152715 0.058654547
-0.090548411 -0.39163452 0.058624852
-0.090695225 -0.39171472 0.05865759
-0.090859182 -0.39181107 0.058651015
-0.091023907 -0.3919149 0.058599465
-0.091188259 -0.39201888 0.058545593
-0.091339976 -0.39211169 0.058516011
-0.091504775 -0.39221123 0.058492146
-0.091682121 -0.39231011 0.058518961
-0.091844738 -0.39241108 0.058477797
-0.092019074 -0.39250821 0.058504626
-0.092193469 -0.39261296 0.058483012
-0.092337936 -0.39270264 0.058446556
-0.09251824 -0.39280742 0.058446821
-0.092686161 -0.39290497 0.058447167
-0.092840843 -0.39300674 0.058371425
-0.093025342 -0.39310545 0.058425896
-0.093188137 -0.39320961 0.058365121
-0.093344226 -0.39330316 0.058347054
-0.093529545 -0.39341229 0.05833808
-0.093708612 -0.39351434 0.058351051
-0.093858533 -0.39360774 0.058311097
-0.094025724 -0.39370921 0.05828375
-0.09419556 -0.39380243 0.058318678
-0.094379395 -0.39390564 0.058342017
-0.094533391 -0.39400703 0.058266278
-0.094695933 -0.39410073 0.058271259
-0.094850317 -0.39419508 0.058241662
-0.095014066 -0.39430144 0.058170497
-0.095186457 -0.39439705 0.058199644
-0.095345452 -0.39448923 0.058201183
-0.095518529 -0.39458472 0.05823379
-0.095692016 -0.39469293 0.058186807
-0.095860362 -0.39479381 0.058167521
-0.09602917 -0.39489132 0.058171321
-0.096185997 -0.39499709 0.058078263
-0.09634617 -0.39508885 0.058086712
-0.096530035 -0.39519259 0.058106579
-0.096719682 -0.3952972 0.058142576
-0.096869722 -0.39539012 0.05810608
-0.09702976 -0.39549124 0.05805454
-0.097196512 -0.3955957 0.058006428
-0.09739048 -0.39569592 0.058086239
-0.097549684 -0.39577955 0.058143146
-0.097708441 -0.39588696 0.05804662
-0.097857423 -0.39598307 0.057985913
-0.098023467 -0.39608186 0.057971261
-0.098204307 -0.39619291 0.057933457
-0.098377973 -0.39629489 0.057926849
-0.098540917 -0.3963919 0.057912208
-0.098696917 -0.39648271 0.057911448
-0.09884923 -0.39657751 0.057871483
-0.099028364 -0.396689 0.057824474
-0.099204913 -0.39678741 0.057851292
-0.099367104 -0.39688468 0.057832047
-0.099536546 -0.39697987 0.057853144
-0.099687554 -0.39708585 0.057737045
-0.099854775 -0.3971763 0.057780068
-0.100023 -0.39728001 0.057742335
-0.10018209 -0.39737549 0.057723098
-0.10036144 -0.39747354 0.0577626
-0.10052557 -0.39757305 0.05773643
-0.10069694 -0.39767331 0.057732128
-0.10086565 -0.39777169 0.057730149
-0.10102689 -0.39787713 0.057655536
-0.10118233 -0.39797357 0.057616707
-0.10136639 -0.3980709 0.057678107
-0.10153394 -0.39817476 0.057636917
-0.10168715 -0.39827171 0.057586562
-0.10184839 -0.39836934 0.057561554
-0.10202374 -0.39847395 0.057544544
-0.10218483 -0.39856914 0.057534534
-0.10236368 -0.39866564 0.057582118
-0.10252984 -0.39876977 0.057534009
-0.10269605 -0.3988665 0.057533205
-0.10287338 -0.39896354 0.057571556
-0.10305363 -0.39906502 0.057592601
-0.10319718 -0.39916611 0.05748
-0.10336967 -0.39926904 0.057463013
-0.10353415 -0.39936388 0.057467975
-0.10369398 -0.39946666 0.057404906
-0.10386651 -0.39956489 0.057417907
-0.10404957 -0.39966384 0.057465464
-0.10420305 -0.39976531 0.05738743
-0.1043709 -0.39986444 0.057377376
-0.1045283 -0.39996979 0.057288934
-0.10471013 -0.40006459 0.057358421
-0.10487638 -0.40016407 0.057340309
-0.105038 -0.40026191 0.057315297
-0.10519862 -0.40035993 0.057285674
-0.10536869 -0.40046343 0.057256002
-0.10553791 -0.40056482 0.057236724
-0.10570052 -0.40066037 0.057230163
-0.10586686 -0.40075773 0.057225887
-0.10604976 -0.40086198 0.057238847
-0.10621396 -0.40096408 0.057196517
-0.10636734 -0.40105641 0.057176154
-0.10653809 -0.40115994 0.057148792
-0.10669676 -0.40125611 0.057123795
-0.10687715 -0.40135658 0.057151757
-0.10703209 -0.40145743 0.057082932
-0.1072052 -0.40155655 0.05709248
-0.10738581 -0.40165931 0.057106592
-0.10754339 -0.40175989 0.057049297
-0.1077055 -0.40185586 0.057038128
-0.10786714 -0.40195608 0.056998119
-0.10805134 -0.40205878 0.057026066
-0.10821208 -0.40215704 0.056995288
-0.10837989 -0.40225688 0.056980625
-0.10855318 -0.40236461 0.056935944
-0.10871704 -0.40246269 0.056917839
-0.10890773 -0.40255919 0.057009201
-0.1090713 -0.40265945 0.056976102
-0.10923153 -0.40276393 0.056903794
-0.10939218 -0.40286231 0.056871869
-0.10957182 -0.40296179 0.056903295
-0.10975048 -0.40306541 0.056904729
-0.1099046 -0.40316218 0.056858987
-0.11006974 -0.40326244 0.05683165
-0.11022227 -0.40336514 0.05674208
-0.11038822 -0.40346736 0.056705508
-0.11059744 -0.40356433 0.056862533
-0.11075747 -0.40366489 0.056814454
-0.11091986 -0.40376538 0.0567756
-0.11108056 -0.40386397 0.056742515
-0.11124898 -0.40396434 0.056726702
-0.11141323 -0.4040648 0.056694746
-0.11157871 -0.40416908 0.056643181
-0.11176614 -0.40427312 0.05667457
-0.11193453 -0.40436983 0.056681834
-0.11209237 -0.4044686 0.05663722
-0.11225989 -0.40456915 0.056616791
-0.11241895 -0.40467349 0.056541041
-0.11258977 -0.40477037 0.056556348
-0.11276744 -0.40487108 0.056572795
-0.11295513 -0.40497559 0.056601871
-0.11307742 -0.40507409 0.056427076
-0.11328799 -0.4051753 0.056562182
-0.11345791 -0.40527982 0.056525592
-0.11363263 -0.40538079 0.056529354
-0.11378721 -0.40547779 0.056483611
-0.11396271 -0.40558246 0.056466602
-0.11411955 -0.40568134 0.056417387
-0.11430141 -0.40578267 0.056445342
-0.11447729 -0.40588215 0.056462944
-0.11463644 -0.4059847 0.05639872
-0.11480081 -0.40608743 0.056352932
-0.11497156 -0.40618864 0.056340564
-0.11514805 -0.40629008 0.056347776
-0.11533279 -0.40639544 0.056360722
-0.11548103 -0.40649581 0.056270022
-0.11566231 -0.40659589 0.05630374
-0.11583161 -0.40669551 0.056295998
-0.11599201 -0.40679646 0.056246765
-0.11615205 -0.4068974 0.056196377
-0.11631189 -0.40700001 0.056134459
-0.11651131 -0.40710142 0.056226932
-0.11666679 -0.40720385 0.056150038
-0.11684321 -0.40730581 0.056153789
-0.11699611 -0.40740639 0.056079216
-0.11720065 -0.40751022 0.056175128
-0.11736669 -0.40761337 0.056132786
-0.11752661 -0.40771279 0.056091625
-0.11771065 -0.40781555 0.056118421
-0.11789778 -0.4079203 0.05614404
-0.11807761 -0.40802461 0.056145467
-0.1182332 -0.40812546 0.056078963
-0.11839482 -0.40822515 0.05604241
-0.11858283 -0.40832859 0.056079566
-0.11873521 -0.40843084 0.055992298
-0.11890821 -0.4085348 0.055970691
-0.11907511 -0.40863663 0.055939887
-0.11928967 -0.4087427 0.056058813
-0.11943696 -0.40884453 0.055955432
-0.11959234 -0.40894383 0.055898145
-0.11978099 -0.40904781 0.055934135
-0.11995647 -0.40915069 0.055928677
-0.12012526 -0.40925452 0.05589208
-0.12029944 -0.40935734 0.055882007
-0.12048877 -0.40946174 0.055918008
-0.12064044 -0.40956396 0.055828433
-0.1208096 -0.40966639 0.055802234
-0.12100087 -0.4097712 0.055842832
-0.12116536 -0.40987635 0.055782042
-0.12134719 -0.40997872 0.055803068
-0.12151192 -0.4100824 0.055752669
-0.12170042 -0.41018721 0.055782899
-0.12186588 -0.41029257 0.055724405
-0.12203912 -0.41039574 0.055708569
-0.12220622 -0.41049823 0.0556743
-0.12238866 -0.4106026 0.055684946
-0.12256788 -0.41070819 0.055675998
-0.12273168 -0.41081038 0.055631362
-0.12291744 -0.41091686 0.055640839
-0.12308852 -0.41102007 0.055616934
-0.12327018 -0.41112614 0.055613741
-0.12345989 -0.41123185 0.055642813
-0.12363716 -0.41133901 0.055616576
-0.12381169 -0.41144586 0.055582266
-0.12394685 -0.41154438 0.055454716
-0.12413099 -0.41164958 0.055466503
-0.12430395 -0.41175479 0.055436827
-0.12448852 -0.41186309 0.055430152
-0.12469414 -0.411973 0.055491451
-0.12485215 -0.41207328 0.05543761
-0.12502721 -0.41217896 0.055412535
-0.12521937 -0.41228721 0.05543467
-0.12538718 -0.4123919 0.055388864
-0.12558596 -0.41249982 0.055437498
-0.1257531 -0.41260743 0.055370927
-0.1259367 -0.41271463 0.055367727
-0.12612173 -0.41282213 0.05536798
-0.12629804 -0.41292691 0.055353276
-0.12646383 -0.41303012 0.055309787
-0.12665044 -0.41314089 0.055295039
-0.12681337 -0.41324368 0.055243485
-0.12700686 -0.41335142 0.055273682
-0.12716806 -0.4134568 0.055199072
-0.12735617 -0.41356522 0.055205081
-0.1275575 -0.41367587 0.05524563
-0.12773776 -0.41378313 0.05522975
-0.12788314 -0.41388458 0.055121757
-0.12807636 -0.41399267 0.055148497
-0.12827085 -0.41409972 0.055186782
-0.12842023 -0.41420189 0.05508915
-0.12862349 -0.41431475 0.055122763
-0.12880033 -0.41441894 0.055113826
-0.12899317 -0.41453153 0.055110585
-0.1291637 -0.41463748 0.055067074
-0.041671351 -0.36638787 0.038460266
-0.041841928 -0.36648932 0.038445599
-0.042015947 -0.36659512 0.03841592
-0.04218005 -0.36669281 0.038401294
-0.042346995 -0.36679214 0.038386647
-0.042511005 -0.36688796 0.03838354
-0.042685814 -0.3669973 0.038334262
-0.042852983 -0.36709729 0.038316153
-0.043018606 -0.36719549 0.038303819
-0.043187018 -0.36729732 0.038278785
-0.043353546 -0.36739895 0.038247991
-0.043519396 -0.3674978 0.0382322
-0.043682057 -0.36759484 0.03821642
-0.043851234 -0.36769819 0.038184464
-0.044012692 -0.3677898 0.038198669
-0.044172999 -0.36788002 0.038217507
-0.044332922 -0.36797401 0.038210958
-0.044503417 -0.36807954 0.038169768
-0.044664174 -0.36817276 0.038171299
-0.044828806 -0.36826894 0.038168199
-0.044989351 -0.36836419 0.038155891
-0.045155678 -0.3684628 0.038143553
-0.04531889 -0.36856177 0.038117386
-0.045480378 -0.36865431 0.038125839
-0.045636307 -0.36874396 0.038132001
-0.04579854 -0.36883765 0.03813583
-0.045951288 -0.36892331 0.038155846
-0.046108857 -0.36901319 0.038166616
-0.046259969 -0.36909682 0.038193569
-0.046413101 -0.36917871 0.038238958
-0.046564259 -0.36926469 0.038250919
-0.04671526 -0.36934152 0.038320534
-0.046854604 -0.36940941 0.038404051
-0.047002278 -0.36948398 0.03847599
-0.047141224 -0.36954892 0.038576819
-0.047282767 -0.36961502 0.038679924
-0.047426973 -0.36968467 0.038770337
-0.047566034 -0.36974949 0.038872313
-0.047697246 -0.36980343 0.039014682
-0.047832325 -0.36986014 0.039153583
-0.047962863 -0.3699128 0.039301723
-0.048092522 -0.369964 0.039455645
-0.048222288 -0.37001276 0.039625704
-0.048347849 -0.37005779 0.039803855
-0.048472304 -0.37009859 0.040005084
-0.048594825 -0.37013876 0.040202856
-0.048715752 -0.3701764 0.040411022
-0.048833609 -0.37020683 0.040653799
-0.048956823 -0.37023947 0.040902309
-0.049077976 -0.3702738 0.041132383
-0.049201466 -0.37031114 0.041352063
-0.04932607 -0.37034711 0.041584428
-0.048678722 -0.36702934 0.060337912
-0.048870344 -0.36714703 0.060297772
-0.049057823 -0.36726174 0.060261119
-0.049251501 -0.3673864 0.060184065
-0.049440328 -0.3675037 0.060135864
