# .PCD v0.7 - Point Cloud Data file format
VERSION 0.7
FIELDS x y z
SIZE 4 4 4
TYPE F F F
COUNT 1 1 1
WIDTH 729
HEIGHT 1
VIEWPOINT 0 0 0 1 0 0 0
POINTS 729
DATA ascii
-0.24463458 -0.26524848 0.062511876
-0.24485806 -0.26521969 0.062525891
-0.24508324 -0.26519287 0.062523752
-0.24531665 -0.26516664 0.062510036
-0.24552983 -0.26513702 0.062539078
-0.24578328 -0.26511598 0.062469929
-0.24601603 -0.26509142 0.062444691
-0.24625939 -0.26506811 0.062400952
-0.24647933 -0.26504052 0.062409215
-0.24669439 -0.26501018 0.062441707
-0.24694034 -0.26498941 0.0623772
-0.2471692 -0.26496279 0.062370434
-0.24742565 -0.264945 0.06227475
-0.24763696 -0.26491401 0.062315334
-0.24788155 -0.26489341 0.06225083
-0.24809542 -0.26486322 0.062283337
-0.24831814 -0.26483703 0.062278897
-0.24856833 -0.26481667 0.062207453
-0.24878041 -0.26478782 0.062231895
-0.24901217 -0.26476273 0.062211275
-0.24922636 -0.26473457 0.062228777
-0.24948284 -0.26471648 0.062135398
-0.24972484 -0.26469615 0.062070914
-0.24994516 -0.26466835 0.062080324
-0.25013798 -0.26463455 0.062157895
-0.25037023 -0.2646102 0.062131505
-0.25061461 -0.26459104 0.062056631
-0.25083303 -0.26456296 0.062069505
-0.2510457 -0.26453498 0.062087018
-0.25127542 -0.26451033 0.062065259
-0.25149158 -0.26448348 0.062071227
-0.25172544 -0.26446021 0.062035598
-0.25194541 -0.26443467 0.062028866
-0.25217986 -0.26441178 0.061989784
-0.25241035 -0.26438954 0.061949559
-0.25263214 -0.26436314 0.061947435
-0.25286588 -0.2643421 0.061895672
-0.25308499 -0.26431507 0.06190047
-0.25330144 -0.26428899 0.061900675
-0.25354904 -0.26427084 0.061815411
-0.25377119 -0.26424503 0.061808661
-0.2539877 -0.26421753 0.06181924
-0.25421351 -0.26419473 0.061787121
-0.25443798 -0.2641699 0.06177114
-0.25466582 -0.264148 0.061730936
-0.25487834 -0.26411954 0.061751902
-0.25511289 -0.26409823 0.06170129
-0.25534251 -0.26407546 0.061665684
-0.25554165 -0.26404467 0.061715554
-0.25579238 -0.264029 0.061609514
-0.25599757 -0.26400033 0.061638594
-0.25621819 -0.26397502 0.061629556
-0.25644684 -0.26395425 0.061580114
-0.25664759 -0.26392248 0.061635733
-0.25689179 -0.26390538 0.061545867
-0.25709748 -0.2638754 0.061584175
-0.25731456 -0.26385114 0.061570533
-0.25754249 -0.26382887 0.061532632
-0.25776553 -0.26380691 0.061497062
-0.25800472 -0.26378882 0.061418742
-0.25820178 -0.26375797 0.06147093
-0.25841007 -0.26372924 0.061497681
-0.2586475 -0.26371279 0.061409004
-0.25885019 -0.26368222 0.06145424
-0.25907189 -0.2636604 0.061418671
-0.25928554 -0.26363388 0.061424654
-0.25952336 -0.26361817 0.061330199
-0.25974274 -0.26359394 0.061314248
-0.25994414 -0.26356509 0.061347954
-0.26017407 -0.26354498 0.061292741
-0.26039475 -0.26352152 0.061269872
-0.26060849 -0.26349753 0.061257392
-0.26082277 -0.26347187 0.061256453
-0.26102719 -0.26344249 0.0612913
-0.26125106 -0.26342261 0.061239578
-0.26147264 -0.26340002 0.061209776
-0.26169413 -0.26337948 0.061164983
-0.26190448 -0.26335272 0.061175596
-0.2621029 -0.26332331 0.061216231
-0.26231945 -0.26329911 0.061202593
-0.26254284 -0.26327977 0.061147418
-0.26277313 -0.26326132 0.061079517
-0.26296896 -0.2632311 0.061128251
-0.26319072 -0.26320943 0.061091524
-0.26341665 -0.26319167 0.061022494
-0.26362404 -0.26316431 0.061040036
-0.26384038 -0.26314282 0.061006799
-0.26404336 -0.26311582 0.061025508
-0.26426724 -0.26309565 0.060976095
-0.26447517 -0.26307091 0.060974024
-0.26468429 -0.26304886 0.060951192
-0.2648882 -0.26302254 0.060964141
-0.26511106 -0.26300028 0.060930867
-0.26532617 -0.26297688 0.060912624
-0.26553383 -0.26295674 0.060877115
-0.26573759 -0.26293281 0.060872763
-0.26594824 -0.26290554 0.060886834
-0.26617917 -0.26288751 0.060815472
-0.26639149 -0.26286554 0.060789168
-0.26656902 -0.26282993 0.060893331
-0.26679137 -0.26281497 0.060807016
-0.26701835 -0.26279569 0.060748365
-0.26722792 -0.26276839 0.06076359
-0.26744318 -0.26274607 0.060737271
-0.26764548 -0.26272452 0.060716778
-0.26786798 -0.26270133 0.060690425
-0.2680752 -0.26267779 0.060680296
-0.2682777 -0.26265433 0.060673639
-0.26846442 -0.26263246 0.060669355
-0.26868877 -0.26261061 0.060631476
-0.26891437 -0.26258722 0.060603961
-0.2691178 -0.26255989 0.060624979
-0.26931733 -0.26254481 0.060559519
-0.26951247 -0.26251814 0.06058288
-0.26972422 -0.26250002 0.060528904
-0.26994503 -0.26247233 0.060537159
-0.27013057 -0.26244807 0.060551338
-0.27035159 -0.2624279 0.060504239
-0.2705487 -0.26240256 0.060516056
-0.2707766 -0.2623814 0.060470074
-0.2709817 -0.26236302 0.060424201
-0.27116817 -0.2623446 0.060394563
-0.27137157 -0.26231048 0.060465157
-0.27157876 -0.26228598 0.060461942
-0.27178654 -0.26226443 0.060436815
-0.27202275 -0.26224875 0.060343526
-0.27223641 -0.26221797 0.060380641
-0.27245048 -0.26220036 0.060320888
-0.27265659 -0.26217836 0.060300376
-0.27283946 -0.26215348 0.06032148
-0.27307451 -0.26213542 0.060246646
-0.27326882 -0.26210678 0.060285002
-0.27347153 -0.26208046 0.060299106
-0.2736809 -0.26206091 0.060257822
-0.27389485 -0.26204425 0.060191147
-0.27407983 -0.26202101 0.060198411
-0.27429849 -0.26199389 0.060204372
-0.27449736 -0.26197937 0.060135458
-0.27470669 -0.26196328 0.060068808
-0.27491412 -0.26193497 0.060093269
-0.2750963 -0.26191032 0.060113221
-0.27529192 -0.26188579 0.060120441
-0.27551442 -0.26186168 0.060101006
-0.27572769 -0.26184022 0.06007009
-0.27594206 -0.26181677 0.060053002
-0.27614734 -0.26179612 0.060023271
-0.27631959 -0.26176509 0.060098626
-0.27653372 -0.26176247 0.059929326
-0.27675775 -0.26172823 0.059982538
-0.27695742 -0.26170418 0.05998281
-0.27716085 -0.26168281 0.059960008
-0.27736118 -0.26167157 0.059865721
-0.27757382 -0.26164171 0.059897073
-0.27775633 -0.26161495 0.059932023
-0.27795097 -0.26159701 0.059891962
-0.27817625 -0.26157334 0.059866749
-0.27838951 -0.2615568 0.059800081
-0.2785854 -0.26153067 0.059818834
-0.2787596 -0.26150429 0.059858423
-0.27898452 -0.26148081 0.059832066
-0.27918071 -0.26146159 0.05980007
-0.27935782 -0.26144084 0.059795834
-0.27955395 -0.26141846 0.059786901
-0.27975494 -0.26140338 0.059720285
-0.27997464 -0.26137644 0.059723929
-0.28019392 -0.26134923 0.059729889
-0.28039798 -0.26133031 0.059688635
-0.2806029 -0.26130876 0.059665821
-0.28080678 -0.26129001 0.059623409
-0.28100389 -0.26126927 0.059601787
-0.28119501 -0.26123992 0.059648231
-0.28139818 -0.26121733 0.059634648
-0.28157291 -0.26119906 0.059614278
-0.2817927 -0.26117671 0.059584484
-0.28198999 -0.26116031 0.059530567
-0.28218719 -0.26114032 0.059503175
-0.28240299 -0.26111481 0.059499927
-0.28257474 -0.26109439 0.05949802
-0.28277352 -0.26106852 0.059512138
-0.28299788 -0.26104355 0.059497315
-0.28318158 -0.26101905 0.059514958
-0.28336084 -0.26099822 0.059509553
-0.28358135 -0.2609778 0.059464764
-0.2837891 -0.26096112 0.059403885
-0.28396803 -0.26094031 0.059398491
-0.2841669 -0.26092327 0.059348036
-0.28437781 -0.26089376 0.059378237
-0.28456894 -0.260869 0.059391238
-0.28479701 -0.26084909 0.059336033
-0.28496918 -0.26082578 0.059354886
-0.28516591 -0.26080728 0.059317119
-0.28538132 -0.2607829 0.059305795
-0.28556272 -0.26075661 0.059338436
-0.28577018 -0.26074153 0.059266027
-0.28595641 -0.26071167 0.059320562
-0.28613868 -0.26070026 0.059243649
-0.28635851 -0.26068163 0.05918619
-0.28654784 -0.26065078 0.059245314
-0.28674856 -0.26063353 0.059194852
-0.28697574 -0.26061481 0.059131585
-0.28718647 -0.26059574 0.059085678
-0.28735733 -0.26056156 0.059185259
-0.2875599 -0.2605474 0.05911056
-0.28773859 -0.26051795 0.059168592
-0.2879414 -0.26049936 0.059126191
-0.2881352 -0.26049 0.059023853
-0.28835681 -0.26046553 0.059007891
-0.28854775 -0.26044217 0.059010513
-0.28873581 -0.26042029 0.059005067
-0.28893751 -0.26039568 0.059007641
-0.28912526 -0.26037917 0.058963001
-0.28934109 -0.26036406 0.058883637
-0.28954455 -0.2603367 0.058904648
-0.28971472 -0.26030591 0.058980014
-0.28992605 -0.26027855 0.058994073
-0.29013649 -0.26025587 0.058974702
-0.29032797 -0.2602402 0.058920808
-0.29050604 -0.26022187 0.058898121
-0.29070869 -0.26019967 0.058882236
-0.29089698 -0.26017284 0.058912545
-0.29112238 -0.2601569 0.058830835
-0.29130921 -0.26012757 0.058880754
-0.29150271 -0.26011008 0.05883839
-0.29169601 -0.26008552 0.058847923
-0.29190242 -0.26006395 0.058823951
-0.29210216 -0.26004446 0.058790784
-0.29229426 -0.26003262 0.058708064
-0.29247776 -0.26000419 0.058754534
-0.29268208 -0.25998697 0.058700599
-0.29288045 -0.2599656 0.058682427
-0.29307559 -0.25994569 0.058656193
-0.29325205 -0.2599099 0.05876267
-0.29346654 -0.259891 0.05871214
-0.29366431 -0.25988606 0.058574043
-0.29385519 -0.25985706 0.05861818
-0.29405239 -0.25983393 0.058613852
-0.294267 -0.25980759 0.058617517
-0.29444426 -0.25979111 0.058582149
-0.29463449 -0.25976974 0.058570936
-0.29482886 -0.25974962 0.058547016
-0.29501733 -0.25972372 0.058570407
-0.2952432 -0.25968739 0.058637451
-0.29545698 -0.25963691 0.058818705
-0.29564247 -0.25958946 0.059002399
-0.29583448 -0.25954929 0.059127249
-0.29602066 -0.25950116 0.059315547
-0.29621127 -0.25945392 0.059493452
-0.29639864 -0.2594066 0.059674829
-0.29658994 -0.25935832 0.059859648
-0.29677901 -0.25931376 0.060019098
-0.29697254 -0.25927058 0.060164697
-0.29716229 -0.25922549 0.060327612
-0.29735589 -0.25917915 0.060496278
-0.29754949 -0.2591309 0.06067878
-0.24477223 -0.26523098 0.06251882
-0.24500182 -0.2652038 0.062515497
-0.24522446 -0.2651765 0.062519126
-0.2454519 -0.26514897 0.062520429
-0.24568354 -0.26512405 0.062498651
-0.24590841 -0.26509604 0.062505737
-0.24612248 -0.26506534 0.062541679
-0.24637613 -0.26504475 0.062469084
-0.24661554 -0.26502222 0.062423065
-0.2468508 -0.26499721 0.06239897
-0.24707247 -0.26497033 0.062400289
-0.24730349 -0.2649444 0.062386595
-0.24756113 -0.26492554 0.06229784
-0.2477639 -0.26489243 0.062361505
-0.24800688 -0.26487154 0.062300477
-0.24824584 -0.26484811 0.062261388
-0.24846652 -0.26482153 0.062261563
-0.24871178 -0.26480004 0.062202834
-0.24892998 -0.26477298 0.062208798
-0.24915971 -0.2647475 0.062192794
-0.24938521 -0.26472098 0.062188342
-0.24964076 -0.26470283 0.062096138
-0.24984418 -0.26467201 0.062142503
-0.25005952 -0.26464292 0.06216576
-0.25027615 -0.26461586 0.062172875
-0.25051081 -0.26459235 0.062138408
-0.25075647 -0.26457205 0.062070455
-0.25098661 -0.2645475 0.062047534
-0.25123098 -0.26452878 0.061969221
-0.25143933 -0.26449817 0.062009797
-0.25165471 -0.26447129 0.062016919
-0.25188655 -0.2644476 0.061985925
-0.25211355 -0.26442263 0.061968785
-0.25235581 -0.2644023 0.061904304
-0.25257751 -0.26437762 0.061889492
-0.25278836 -0.26434812 0.061919689
-0.25301266 -0.26432443 0.061895646
-0.25323552 -0.26429868 0.061887741
-0.25342637 -0.26426324 0.061979126
-0.25368065 -0.26424727 0.061871938
-0.25391981 -0.26422855 0.061798256
-0.25413957 -0.26420224 0.061797284
-0.25435191 -0.26417542 0.06180672
-0.25456882 -0.26414832 0.061813839
-0.25480103 -0.26412794 0.061758623
-0.25501823 -0.26410112 0.061763428
-0.25525239 -0.2640816 0.061700143
-0.25546634 -0.26405394 0.061714187
-0.25569433 -0.26403087 0.061682053
-0.25590974 -0.26400384 0.061690323
-0.25614974 -0.26398677 0.061603956
-0.25635496 -0.26395652 0.06164455
-0.25657493 -0.263933 0.061622836
-0.25679791 -0.26390883 0.061603397
-0.25702703 -0.26388863 0.061549358
-0.25723416 -0.26385927 0.061581872
-0.25746107 -0.26383856 0.061533608
-0.25767538 -0.2638118 0.061540738
-0.25788057 -0.26378375 0.061565183
-0.2581265 -0.26376817 0.061462656
-0.25833231 -0.26374054 0.061483644
-0.25854433 -0.26371324 0.061496541
-0.25877342 -0.26369402 0.06143558
-0.25897521 -0.26366323 0.061483111
-0.25921163 -0.26364499 0.061408289
-0.25943404 -0.26362184 0.061381944
-0.25965586 -0.26360047 0.061342925
-0.25986654 -0.2635732 0.061356977
-0.26008564 -0.26355106 0.061326034
-0.26029891 -0.26352489 0.061329708
-0.26052842 -0.26350686 0.061259523
-0.26074317 -0.26348147 0.061256267
-0.26094475 -0.26345307 0.061286509
-0.26119551 -0.26344162 0.061149366
-0.26139399 -0.26342008 0.061132345
-0.2616083 -0.26338699 0.061185591
-0.26180512 -0.26335698 0.061231978
-0.26203147 -0.26333666 0.061181407
-0.26225248 -0.26331633 0.061135478
-0.26246524 -0.26329085 0.061134536
-0.2626788 -0.26326576 0.061130136
-0.26288259 -0.26323679 0.061162665
-0.26309058 -0.26321772 0.061119094
-0.26332384 -0.26319483 0.061081171
-0.26353082 -0.26316941 0.06108487
-0.2637502 -0.26315337 0.06100896
-0.26394403 -0.26313299 0.060987365
-0.26417696 -0.26310006 0.061023217
-0.26439893 -0.26308137 0.060964599
-0.26461011 -0.26305607 0.060963668
-0.26481873 -0.2630319 0.060956985
-0.2650333 -0.26300824 0.060941044
-0.26524612 -0.26298606 0.060915895
-0.26546231 -0.26296332 0.060891896
-0.26566222 -0.26293561 0.060918674
-0.265885 -0.26291603 0.060865808
-0.26608938 -0.26289046 0.060872979
-0.26628956 -0.26286742 0.060865171
-0.26651251 -0.26284388 0.060841132
-0.26673114 -0.2628229 0.060802128
-0.26692405 -0.2628012 0.060790896
-0.26715565 -0.26277757 0.060759902
-0.26735708 -0.2627511 0.060776308
-0.26757705 -0.26273122 0.060728066
-0.26774743 -0.26270592 0.060763054
-0.2679669 -0.26268375 0.060732111
-0.26819989 -0.26266137 0.060690738
-0.26842332 -0.26264137 0.060640179
-0.26864019 -0.26262298 0.060583878
-0.26884094 -0.26259437 0.060616434
-0.26903284 -0.26257077 0.060620196
-0.26924664 -0.26254877 0.060592733
-0.26943916 -0.26251611 0.060662203
-0.2696498 -0.26249987 0.060595565
-0.26987138 -0.26247743 0.060564615
-0.27008325 -0.2624549 0.06054293
-0.27028048 -0.26243696 0.060500555
-0.27047268 -0.26241645 0.060481261
-0.27067408 -0.26238132 0.060561068
-0.27092281 -0.26236415 0.060467742
-0.27110672 -0.26233944 0.060486533
-0.27133739 -0.26231527 0.060460143
-0.27154461 -0.26229095 0.060455777
-0.27175659 -0.26227185 0.060408726
-0.27196139 -0.2622489 0.060396291
-0.27217236 -0.26222697 0.060371153
-0.27237436 -0.26220262 0.060371414
-0.27259535 -0.26218924 0.060274757
-0.27275354 -0.26215279 0.060402013
-0.27298039 -0.26213524 0.060330689
-0.27321246 -0.26211834 0.060250122
-0.27341601 -0.26209271 0.060258448
-0.27360588 -0.2620616 0.060318708
-0.2738274 -0.2620469 0.060231268
-0.27403018 -0.26202372 0.060222305
-0.27422968 -0.26200408 0.060190298
-0.27443126 -0.2619831 0.060166344
-0.27463034 -0.26196069 0.060155097
-0.27484924 -0.26193133 0.060177177
-0.27503982 -0.26190645 0.060191326
-0.27526692 -0.26189375 0.060084261
-0.27547762 -0.26187357 0.060046438
-0.27567115 -0.26184803 0.060062878
-0.27587447 -0.26182321 0.060065448
-0.2760742 -0.26179898 0.060066871
-0.27627835 -0.26177484 0.060063656
-0.27648661 -0.26175651 0.060014322
-0.2766864 -0.26173261 0.060013436
-0.27688494 -0.26171386 0.059975676
-0.27709118 -0.26168555 0.060001276
-0.27728671 -0.26165882 0.060024615
-0.27750069 -0.26164219 0.059957966
-0.27771017 -0.26162562 0.059894785
-0.2779046 -0.26159522 0.059945803
-0.27810431 -0.26157179 0.059941471
-0.27828893 -0.26155946 0.059869178
-0.27845949 -0.26153684 0.059884567
-0.27870446 -0.26151884 0.059800472
-0.2789129 -0.26148632 0.059854891
-0.2791214 -0.26146686 0.059813619
-0.27931607 -0.26144341 0.059813917
-0.27951485 -0.26141658 0.059834942
-0.27972755 -0.26140422 0.059738312
-0.27991471 -0.2613818 0.059737489
-0.28012985 -0.26135823 0.059720397
-0.28031316 -0.26133281 0.059744958
-0.28048497 -0.26130831 0.059773013
-0.28070402 -0.26128823 0.059727095
-0.28092822 -0.26126564 0.059694968
-0.28112558 -0.26124167 0.059696402
-0.28133234 -0.26122591 0.059629783
-0.2815333 -0.26120168 0.059630044
-0.28171608 -0.2611798 0.059629239
-0.28193146 -0.26115748 0.059602931
-0.28211597 -0.26114106 0.059560612
-0.28231293 -0.26111731 0.059560899
-0.28250739 -0.26109514 0.059551969
-0.28272554 -0.26108745 0.059416123
-0.28291947 -0.2610535 0.059493653
-0.28310594 -0.26103574 0.059459403
-0.28332913 -0.26100618 0.05947917
-0.2834914 -0.26098502 0.059491135
-0.28367475 -0.26097661 0.059391182
-0.28391385 -0.26095507 0.059338246
-0.28409606 -0.26092145 0.059423901
-0.28428403 -0.26090601 0.059371192
-0.28448713 -0.26088548 0.059342638
-0.28471228 -0.26086277 0.059310511
-0.28489831 -0.26084161 0.059301615
-0.2851254 -0.26082134 0.059249893
-0.28529608 -0.2607924 0.05931139
-0.28548616 -0.26077592 0.059264436
-0.2856763 -0.26075521 0.059248611
-0.28587133 -0.26073107 0.059253514
-0.2860738 -0.26070637 0.059256084
-0.28628629 -0.26068407 0.059232086
-0.28649408 -0.26066107 0.059217334
-0.28666312 -0.26062995 0.059296131
-0.28684905 -0.26061431 0.05924689
-0.2870585 -0.26059851 0.059177954
-0.28727913 -0.26057225 0.059175819
-0.28745067 -0.260544 0.059231553
-0.28763428 -0.26052612 0.059200771
-0.28784132 -0.26051834 0.059075341
-0.28805959 -0.26049471 0.059055939
-0.2882444 -0.26046848 0.059085101
-0.28844693 -0.26045576 0.059000049
-0.28864688 -0.26042345 0.059060261
-0.28883713 -0.26039389 0.059108995
-0.2890479 -0.26037118 0.059089616
-0.28924289 -0.26035979 0.059001148
-0.28941953 -0.26033315 0.059040707
-0.28964084 -0.26031515 0.058977485
-0.2898196 -0.26029769 0.058947872
-0.29002318 -0.26028889 0.058832843
-0.2902205 -0.26025236 0.058926508
-0.29042223 -0.26022252 0.05896711
-0.29064122 -0.26020199 0.058924645
-0.29081681 -0.26018646 0.058883522
-0.29100743 -0.26017058 0.058831953
-0.29118133 -0.2601392 0.058908425
-0.29137856 -0.26012173 0.058862597
-0.29158977 -0.26010209 0.058820166
-0.29179585 -0.26007333 0.058849223
-0.29198602 -0.2600649 0.058743477
-0.29215801 -0.26004398 0.058745027
-0.29236737 -0.26001436 0.058777533
-0.29256168 -0.2600002 0.058709808
-0.29274568 -0.25998086 0.058689401
-0.2929402 -0.25995994 0.058671243
-0.29312962 -0.2599363 0.058677331
-0.29333252 -0.25990918 0.058697186
-0.29352218 -0.25989464 0.058636397
-0.29372048 -0.25987437 0.058610164
-0.29392213 -0.25985339 0.05858621
-0.29411399 -0.25982711 0.058609575
-0.29430646 -0.25982091 0.05848537
-0.29451168 -0.25978121 0.05859514
-0.29473433 -0.2597276 0.058791287
-0.2949222 -0.25967944 0.058978371
-0.29511243 -0.25963649 0.059125096
-0.29529738 -0.25958803 0.059316799
-0.29548758 -0.25954258 0.059481964
-0.29567575 -0.25950098 0.059620626
-0.29586089 -0.25944874 0.059839994
-0.29604918 -0.25940493 0.059994791
-0.29624128 -0.25936002 0.060154188
-0.29643047 -0.25931641 0.060306676
-0.2966221 -0.2592667 0.060501818
-0.29681143 -0.25922054 0.060672753
-0.24459828 -0.26524737 0.06255196
-0.24486528 -0.26522925 0.062449396
-0.24504295 -0.26519096 0.062573135
-0.24527054 -0.26516339 0.062574469
-0.24550062 -0.26513806 0.062557355
-0.2457478 -0.26511553 0.062504433
-0.24597466 -0.26508805 0.062505782
-0.24619704 -0.26505953 0.062518664
-0.24644381 -0.26503879 0.062453076
-0.24671826 -0.26502371 0.062321652
-0.2469089 -0.26498893 0.062408447
-0.24713291 -0.26496115 0.062414415
-0.24737164 -0.26493728 0.062378824
-0.24759933 -0.26491064 0.06237324
-0.24784572 -0.26489058 0.062303036
-0.24807166 -0.26486367 0.06230092
-0.24831001 -0.26484016 0.062263019
-0.24853626 -0.26481354 0.062258601
-0.24876674 -0.26478973 0.062229961
-0.24898045 -0.26475987 0.062260181
-0.24922253 -0.26473781 0.062208429
-0.24945667 -0.2647137 0.062178627
-0.24967135 -0.26468596 0.062192697
-0.24989906 -0.26466024 0.062180199
-0.25013313 -0.26463804 0.062136561
-0.25038114 -0.26461828 0.062062889
-0.25059396 -0.26458868 0.062091954
-0.25080508 -0.26455867 0.062125638
-0.2510303 -0.26453438 0.062105097
-0.25123578 -0.26450282 0.062154941
-0.25149927 -0.26448813 0.062030479
-0.25172237 -0.26446187 0.062026076
-0.25195765 -0.26444095 0.061972052
-0.25216359 -0.26440984 0.062018443
-0.25239819 -0.26438725 0.0619771
-0.25262088 -0.2643612 0.061971549
-0.25286663 -0.26434389 0.061881747
-0.25309473 -0.26431975 0.061857723
-0.25332451 -0.26429787 0.061815254
-0.25354099 -0.2642704 0.06182586
-0.25376397 -0.26424494 0.06181569
-0.25397867 -0.26421702 0.061830923
-0.25419471 -0.2641913 0.061828848
-0.25440586 -0.26416239 0.061854467
-0.25465736 -0.2641463 0.061750811
-0.25487673 -0.26412016 0.061748721
-0.255097 -0.26409614 0.061730497
-0.25532132 -0.26407179 0.061711106
-0.2555522 -0.26404968 0.061669782
-0.25577784 -0.26402596 0.061644621
-0.25599331 -0.26400077 0.061639089
-0.25619751 -0.26397017 0.061683178
-0.25642347 -0.26394862 0.061641876
-0.25665137 -0.26392606 0.061606325
-0.2568621 -0.26389784 0.061627336
-0.25708169 -0.26387262 0.061618339
-0.25731826 -0.26385516 0.061537802
-0.25752649 -0.26382628 0.061565734
-0.25775185 -0.26380339 0.061534807
-0.25797093 -0.26377842 0.061524652
-0.25817314 -0.26374948 0.061558373
-0.25839943 -0.26374018 0.061427157
-0.25864097 -0.26371047 0.061431903
-0.25885195 -0.26368299 0.06144714
-0.25905988 -0.26365635 0.061458942
-0.2592974 -0.26363862 0.061379548
-0.25949654 -0.26360705 0.061435185
-0.25974384 -0.26359317 0.061318871
-0.25994751 -0.2635653 0.061343364
-0.26016173 -0.26353949 0.061343607
-0.26038188 -0.26351598 0.061321925
-0.26059988 -0.26349175 0.061307169
-0.26080436 -0.26346442 0.061327051
-0.26103866 -0.2634466 0.06125113
-0.26125699 -0.26342282 0.061232917
-0.26148039 -0.26340109 0.061195076
-0.26169538 -0.2633782 0.06117342
-0.26189959 -0.26334918 0.061205976
-0.2621187 -0.26332608 0.061182
-0.26235193 -0.2633087 0.061103776
-0.26255611 -0.26328188 0.061120201
-0.26276797 -0.26325619 0.061121602
-0.2629869 -0.26323548 0.061080329
-0.26319131 -0.2632069 0.061109435
-0.26340601 -0.26318261 0.061098151
-0.26362142 -0.26315871 0.061083406
-0.26383808 -0.26313749 0.061047908
-0.26405168 -0.26311299 0.061038926
-0.26427868 -0.26309431 0.060975719
-0.26447064 -0.26306504 0.061021011
-0.26469904 -0.26304507 0.060965866
-0.26491079 -0.26302019 0.060961507
-0.26511911 -0.26299602 0.060954861
-0.26533169 -0.26297167 0.060945895
-0.26554328 -0.26294696 0.060940381
-0.26576167 -0.26292536 0.06090603
-0.26596102 -0.26290622 0.060870599
-0.26616392 -0.26288223 0.06086744
-0.26639017 -0.26286238 0.060813449
-0.26654294 -0.26283321 0.06089234
-0.26677766 -0.26280415 0.060898259
-0.26704529 -0.26279053 0.06076226
-0.26724371 -0.26276267 0.060791384
-0.26744699 -0.26273486 0.060815878
-0.2676824 -0.26272243 0.060699616
-0.2678782 -0.26269802 0.060705703
-0.26807287 -0.26267314 0.060716406
-0.26827216 -0.26264596 0.060739767
-0.26846513 -0.26262033 0.060757391
-0.26872408 -0.26260412 0.060647942
-0.26892382 -0.26257974 0.060650542
-0.26914293 -0.26255804 0.060616195
-0.26934692 -0.26254308 0.060546156
-0.26954988 -0.26250869 0.060619079
-0.26979303 -0.26249737 0.060487784
-0.26999837 -0.26247153 0.060496133
-0.27015659 -0.26245257 0.060495462
-0.2703796 -0.26242396 0.060508352
-0.27060467 -0.26239654 0.060510855
-0.27082509 -0.26237407 0.060481101
-0.27102765 -0.26235202 0.060464107
-0.27123022 -0.26232508 0.060482841
-0.27142975 -0.26230907 0.060424358
-0.27165812 -0.26228392 0.060407259
-0.27185243 -0.26225513 0.060446769
-0.27207434 -0.26223674 0.060385894
-0.27227175 -0.2622098 0.060409255
-0.27249378 -0.2621944 0.060326479
-0.27266613 -0.26215312 0.06047675
-0.27290219 -0.26214609 0.060320135
-0.27310348 -0.26212168 0.060321581
-0.2733115 -0.26209864 0.060306866
-0.27352709 -0.26208025 0.06025178
-0.27372843 -0.26205343 0.060270518
-0.27390715 -0.26203188 0.060270913
-0.27409753 -0.26201206 0.060248207
-0.27433208 -0.2619977 0.060146928
-0.27456498 -0.26197153 0.060133256
-0.27475539 -0.26194102 0.060188934
-0.27494666 -0.26190817 0.060260743
-0.27517265 -0.26190034 0.060119152
-0.27537966 -0.26187775 0.060102135
-0.27558735 -0.26185569 0.060080506
-0.27579004 -0.26183048 0.060086563
-0.27599859 -0.26181212 0.060037266
-0.27619109 -0.26178023 0.060100995
-0.27640468 -0.26176554 0.060020555
-0.27661365 -0.26174492 0.059987396
-0.27680588 -0.26171589 0.060030378
-0.27701342 -0.26169452 0.060004145
-0.27721119 -0.2616694 0.060013682
-0.27741936 -0.26165172 0.059959769
-0.27762127 -0.26162976 0.059942771
-0.27782935 -0.26160923 0.059909616
-0.27800447 -0.26159298 0.059874296
-0.27822733 -0.26156473 0.059884876
-0.27843225 -0.26153907 0.059892073
-0.27863887 -0.26151794 0.059864685
-0.27884793 -0.26150206 0.059796944
-0.27904767 -0.26147923 0.059788022
-0.27923548 -0.26144397 0.059880592
-0.27945018 -0.26142961 0.059796691
-0.27963179 -0.26141274 0.059760191
-0.27980891 -0.26138571 0.059802085
-0.28001371 -0.26136053 0.059805829
-0.28025019 -0.26134071 0.059742577
-0.28044912 -0.26132131 0.059709452
-0.28064507 -0.26129958 0.059695952
-0.28082278 -0.26128018 0.059681356
-0.28102797 -0.26125938 0.059652824
-0.2812323 -0.26123443 0.059655417
-0.28145948 -0.2612077 0.059650995
-0.28166234 -0.26118892 0.059609789
-0.28186992 -0.26117447 0.059532829
-0.28205848 -0.26114321 0.059595428
-0.28224629 -0.26112244 0.05958195
-0.28243876 -0.26110223 0.059560388
-0.28263173 -0.2610788 0.059561878
-0.2828494 -0.26105934 0.059512541
-0.28304932 -0.261031 0.059543967
-0.2832565 -0.26101753 0.059460096
-0.28344005 -0.26099727 0.059446633
-0.28362247 -0.26097196 0.059471216
-0.28381366 -0.26095536 0.059424303
-0.2840111 -0.26093298 0.059414238
-0.2842162 -0.2609185 0.059339594
-0.28443974 -0.26089409 0.059321359
-0.28463924 -0.26087004 0.059321657
-0.28482139 -0.26084051 0.05937738
-0.28501728 -0.26082128 0.059345417
-0.285211 -0.26080424 0.05929964
-0.285418 -0.26078433 0.059263028
-0.28561893 -0.2607623 0.059247188
-0.28580803 -0.26074061 0.059239469
-0.28601679 -0.26071402 0.05925012
-0.2861982 -0.26068822 0.059279315
-0.28640211 -0.26066065 0.05930151
-0.28657308 -0.26063654 0.059327293
-0.28681004 -0.26063934 0.059098054
-0.28702515 -0.26060161 0.059184745
-0.28718221 -0.26057523 0.05923941
-0.28738004 -0.26056021 0.059175175
-0.28759038 -0.26054636 0.059091292
-0.28777927 -0.26052547 0.059077807
-0.28797475 -0.26049781 0.059108101
-0.28818873 -0.26047912 0.059056476
-0.28838247 -0.26045984 0.05902683
-0.28858423 -0.26043016 0.059066322
-0.28878576 -0.26040557 0.059068926
-0.28899479 -0.2603862 0.059026543
-0.28919148 -0.26036611 0.059000343
-0.28937849 -0.2603319 0.059086002
-0.2895925 -0.26032043 0.058981355
-0.28975955 -0.26030296 0.058962196
-0.28993201 -0.26028198 0.058963776
-0.29016063 -0.26026422 0.058892488
-0.29036909 -0.26023924 0.058891602
-0.29053554 -0.26021504 0.058922023
-0.29072833 -0.26018974 0.058937345
-0.29093575 -0.26016966 0.058901884
-0.29113421 -0.2601476 0.058888361
-0.29132026 -0.26013082 0.058847226
-0.29150146 -0.26009873 0.058922537
-0.29171219 -0.26007837 0.058885917
-0.29192171 -0.2600632 0.058812395
