# .PCD v0.7 - Point Cloud Data file format
VERSION 0.7
FIELDS x y z
SIZE 4 4 4
TYPE F F F
COUNT 1 1 1
WIDTH 922
HEIGHT 1
VIEWPOINT 0 0 0 1 0 0 0
POINTS 922
DATA ascii
-0.27464092 -0.26145235 0.060261711
-0.27484524 -0.26142979 0.060243599
-0.27504578 -0.26140502 0.060245112
-0.27525067 -0.26138303 0.060222395
-0.27546722 -0.26136842 0.06013507
-0.27566504 -0.26134226 0.060149267
-0.27586448 -0.26131713 0.060154248
-0.27606487 -0.2612927 0.060153455
-0.27627134 -0.26126939 0.060138803
-0.27646464 -0.26124045 0.060177237
-0.27666801 -0.26121816 0.060157984
-0.27687645 -0.26119936 0.060108736
-0.27707756 -0.26117578 0.060101021
-0.27729544 -0.26116371 0.059994083
-0.27749988 -0.2611427 0.059964459
-0.27769315 -0.26111409 0.060000584
-0.27787986 -0.26108089 0.060075939
-0.27809912 -0.26107055 0.059955161
-0.27829641 -0.26104492 0.059965916
-0.27850378 -0.26102656 0.059914358
-0.27869979 -0.26100013 0.059932038
-0.27889019 -0.26096964 0.059984315
-0.27909532 -0.26094997 0.059944302
-0.27930516 -0.260934 0.059873141
-0.27949479 -0.26090297 0.059930041
-0.27970052 -0.2608842 0.05988311
-0.27991241 -0.26087034 0.059794649
-0.28010648 -0.26084286 0.059821546
-0.28030697 -0.26082048 0.059805758
-0.28049752 -0.26079029 0.059855741
-0.28071186 -0.26077911 0.05974536
-0.28090858 -0.26076427 0.059677713
-0.28110224 -0.26072645 0.059780709
-0.28130439 -0.26070589 0.059749931
-0.28150523 -0.2606844 0.059727229
-0.28170395 -0.26066124 0.059718378
-0.28190035 -0.26063618 0.059725665
-0.28210405 -0.26061749 0.059679896
-0.28230172 -0.26059368 0.059676804
-0.28249708 -0.26056796 0.059689865
-0.28270549 -0.2605539 0.059606038
-0.28290653 -0.26053348 0.059575267
-0.28309998 -0.26050624 0.059601005
-0.28330216 -0.26048711 0.059559859
-0.28350073 -0.26046476 0.059545241
-0.28369197 -0.26043561 0.059587132
-0.28389421 -0.26041299 0.059571348
-0.28409836 -0.26039627 0.059510585
-0.28429312 -0.26037866 0.05946485
-0.28446263 -0.26035643 0.059475712
-0.28469318 -0.26033002 0.059462115
-0.28488582 -0.26030242 0.059491333
-0.28508669 -0.26028329 0.059451334
-0.28528523 -0.26026189 0.059429795
-0.28548837 -0.26024547 0.05936788
-0.2856873 -0.26022485 0.059340581
-0.28587601 -0.26019332 0.059402093
-0.28604594 -0.26017195 0.059406035
-0.28627589 -0.26015478 0.059325561
-0.28646824 -0.26012722 0.059354782
-0.28666544 -0.26010522 0.059339013
-0.28686529 -0.26008636 0.059297867
-0.28706315 -0.26006538 0.059274025
-0.28725594 -0.26003852 0.059297472
-0.28745651 -0.260021 0.059245944
-0.28764689 -0.25999132 0.059292469
-0.28784776 -0.25997454 0.059235174
-0.28801379 -0.25995901 0.059199937
-0.28824356 -0.25993416 0.059175961
-0.28844336 -0.25991672 0.059124447
-0.28863752 -0.25989208 0.059130598
-0.2888312 -0.25986686 0.059141356
-0.2890254 -0.2598424 0.059146345
-0.28922915 -0.2598311 0.059046395
-0.28942284 -0.25980622 0.059054855
-0.2896198 -0.25978598 0.059026401
-0.2898114 -0.25975817 0.059057914
-0.29000649 -0.25973549 0.059049077
-0.29020086 -0.25971177 0.05904831
-0.29039603 -0.25968939 0.059037156
-0.29058862 -0.25966308 0.059057146
-0.29078665 -0.25965136 0.058965281
-0.29095235 -0.25963178 0.058960017
-0.29117689 -0.25960737 0.058937214
-0.2913408 -0.25958502 0.058953866
-0.2915324 -0.25956386 0.058936968
-0.29176506 -0.25954068 0.058898002
-0.29196244 -0.25952321 0.058848787
-0.29214725 -0.25949737 0.058872275
-0.29231244 -0.25949141 0.058767848
-0.29248318 -0.25945386 0.058889396
-0.29271099 -0.25943696 0.058808938
-0.29291943 -0.25941265 0.058800038
-0.29307774 -0.25938717 0.058844373
-0.29327497 -0.25937101 0.058785945
-0.29349574 -0.25933334 0.058863476
-0.29366598 -0.25930864 0.058891624
-0.29384834 -0.25929365 0.058837865
-0.29404357 -0.25928229 0.058746014
-0.29423094 -0.25925392 0.058785625
-0.294442 -0.25922784 0.058787093
-0.29465559 -0.25920779 0.058742434
-0.29487243 -0.25918701 0.05870007
-0.29506731 -0.25916782 0.058665857
-0.29526252 -0.25914982 0.058622431
-0.29545417 -0.25913277 0.058575559
-0.29565081 -0.25910926 0.058571316
-0.29581892 -0.25908953 0.05856489
-0.29600486 -0.25906762 0.05855839
-0.29619223 -0.25904998 0.058519594
-0.29639378 -0.25903076 0.0584796
-0.29656643 -0.2590026 0.058530804
-0.29676557 -0.25899991 0.058372062
-0.29697466 -0.25895783 0.058492288
-0.29719451 -0.25893924 0.058431465
-0.29737654 -0.25891781 0.058424979
-0.29757029 -0.2588852 0.05848993
-0.29772344 -0.25885153 0.058598854
-0.29794002 -0.25883538 0.058523059
-0.29814824 -0.25881594 0.058478415
-0.29832157 -0.25880489 0.058403946
-0.29854912 -0.2587918 0.058295816
-0.29870927 -0.25875446 0.058425471
-0.29890007 -0.25874126 0.058350921
-0.29909906 -0.25871462 0.058367431
-0.2992883 -0.25869438 0.058345929
-0.29947513 -0.25868183 0.058270246
-0.2996819 -0.25865898 0.058252133
-0.29985335 -0.25864279 0.05821687
-0.30006218 -0.25860959 0.058272533
-0.30024537 -0.25860095 0.058171507
-0.30046284 -0.25857931 0.058134899
-0.30065855 -0.25855717 0.058121443
-0.30082947 -0.2585398 0.058095399
-0.30100313 -0.25851342 0.05813276
-0.30122662 -0.25848031 0.058174536
-0.30139747 -0.25846264 0.058150798
-0.30158278 -0.25844744 0.05809588
-0.3017959 -0.25841954 0.058108874
-0.30198434 -0.25839955 0.058086224
-0.30214062 -0.25837892 0.058097132
-0.30232555 -0.2583625 0.058051437
-0.30252087 -0.2583349 0.05807833
-0.30273053 -0.2583161 0.058027923
-0.3029187 -0.25830308 0.057954542
-0.30309972 -0.25828272 0.057941139
-0.3032918 -0.25824401 0.058052219
-0.30347645 -0.25822416 0.058031883
-0.30368167 -0.25821695 0.057900794
-0.30386701 -0.25817984 0.05800613
-0.30404729 -0.25817141 0.057906259
-0.30423948 -0.25814053 0.057959691
-0.3044489 -0.25811595 0.057951942
-0.30465066 -0.25809827 0.057900414
-0.30484545 -0.25807893 0.057867363
-0.3050251 -0.25806931 0.057776727
-0.30518824 -0.25804958 0.057774916
-0.30539805 -0.25802004 0.057802912
-0.30559957 -0.25800049 0.057765223
-0.30579451 -0.25797781 0.057756379
-0.30596668 -0.25796738 0.057678457
-0.30614755 -0.25794515 0.057678886
-0.30634832 -0.25792822 0.057622753
-0.30654162 -0.25789458 0.057695776
-0.30673984 -0.25785446 0.057811439
-0.30693355 -0.25783825 0.057756484
-0.30712059 -0.25782031 0.057720006
-0.30729786 -0.25779948 0.057713531
-0.30750987 -0.25777739 0.057685025
-0.30771297 -0.25776365 0.057603516
-0.30788869 -0.25773466 0.057658158
-0.30810753 -0.25771236 0.057625014
-0.30829763 -0.25769454 0.057585053
-0.30845132 -0.25768432 0.057522193
-0.30862677 -0.25765708 0.057564154
-0.30883902 -0.25762141 0.057634801
-0.30903527 -0.25759417 0.057658229
-0.30923906 -0.25758711 0.057527144
-0.30942923 -0.25756818 0.057495262
-0.3095974 -0.25755396 0.05744848
-0.30978325 -0.2575272 0.05747772
-0.30997175 -0.25750294 0.057486191
-0.31016433 -0.25748655 0.057433553
-0.31033921 -0.25746253 0.057452455
-0.31054285 -0.25744337 0.057410143
-0.31074822 -0.25741941 0.057401262
-0.31091025 -0.25740266 0.057378713
-0.31110808 -0.25738072 0.057361789
-0.3112902 -0.25736418 0.057319567
-0.31148294 -0.25732994 0.057397202
-0.31166443 -0.25731492 0.057344597
-0.31186706 -0.25729743 0.057290763
-0.31203932 -0.25728005 0.057263564
-0.31224933 -0.25725317 0.057271954
-0.31245631 -0.25722572 0.057287276
-0.31263101 -0.25721025 0.057243925
-0.31282538 -0.25718844 0.057229314
-0.31300277 -0.25716016 0.057277039
-0.31319389 -0.25713828 0.0572659
-0.31336704 -0.25713244 0.057153385
-0.31356475 -0.25709727 0.057233311
-0.31374836 -0.25708356 0.057169169
-0.31393749 -0.25707185 0.057085413
-0.31413668 -0.25703445 0.057180312
-0.3143076 -0.25705019 0.056912161
-0.3144972 -0.25702453 0.056929853
-0.31467769 -0.25700945 0.05687841
-0.31486607 -0.25699198 0.056837313
-0.31505826 -0.25696191 0.056884974
-0.31525198 -0.25692946 0.056948774
-0.31544709 -0.25690061 0.056984894
-0.31564781 -0.25686258 0.057083253
-0.3158395 -0.25683448 0.057117078
-0.31604087 -0.25680155 0.057177387
-0.31623471 -0.25679699 0.057037119
-0.31640178 -0.25679266 0.056918852
-0.31661093 -0.25675803 0.056984894
-0.31679612 -0.25674048 0.056947265
-0.31698257 -0.25673097 0.056849685
-0.31716838 -0.25669742 0.056928501
-0.31735191 -0.25668231 0.056874737
-0.3175467 -0.25665522 0.056898184
-0.31774986 -0.2566399 0.056828197
-0.3179363 -0.25662032 0.056804404
-0.31811583 -0.25660124 0.056782942
-0.31830522 -0.25657752 0.056786802
-0.31849515 -0.25656664 0.056696121
-0.31869888 -0.25653657 0.056733355
-0.31887996 -0.25651544 0.056725726
-0.31906694 -0.25649074 0.056738824
-0.31926501 -0.25645572 0.056817584
-0.31945243 -0.2564393 0.056769572
-0.31964505 -0.25642449 0.056705397
-0.31983489 -0.25640479 0.056679282
-0.32002181 -0.25638467 0.056658946
-0.32020423 -0.25637031 0.056600571
-0.3203932 -0.25634757 0.056597516
-0.32220629 -0.25591484 0.058137581
-0.32242522 -0.25586402 0.058313124
-0.24539141 -0.2647194 0.062578268
-0.24560006 -0.26468813 0.062620088
-0.24585205 -0.2646659 0.062556788
-0.24608743 -0.26464128 0.062525854
-0.24701071 -0.26453784 0.062455207
-0.24796557 -0.2644425 0.062296793
-0.24812919 -0.26440504 0.062424134
-0.24837586 -0.2643781 0.062400058
-0.24857989 -0.26434487 0.062460348
-0.24882114 -0.264323 0.062404014
-0.24906573 -0.26430058 0.062348824
-0.24925348 -0.26426476 0.062442623
-0.24954124 -0.26425409 0.062262703
-0.2497835 -0.26423305 0.062199451
-0.24999139 -0.26420125 0.062245876
-0.25022706 -0.26417863 0.06219995
-0.25045377 -0.26415211 0.06219095
-0.25069046 -0.26413003 0.062140405
-0.2508997 -0.26409882 0.062181063
-0.25112247 -0.26407307 0.062169783
-0.25137138 -0.26405311 0.062092654
-0.25158507 -0.264025 0.062106781
-0.25178987 -0.26399276 0.062158994
-0.25339052 -0.26382402 0.061958745
-0.25429088 -0.26372352 0.061887041
-0.2545253 -0.26370108 0.061841112
-0.25472653 -0.26367021 0.061886419
-0.25497687 -0.26365292 0.061788529
-0.25519267 -0.26362675 0.061786503
-0.25541261 -0.26360026 0.061783299
-0.25563779 -0.26357546 0.06176278
-0.25585985 -0.2635498 0.061751492
-0.2560443 -0.26351392 0.061848763
-0.25629589 -0.26349789 0.061740495
-0.25651306 -0.26347265 0.061730389
-0.25673047 -0.26344582 0.061731812
-0.25695497 -0.26342317 0.061696298
-0.25718522 -0.26340076 0.061653852
-0.25740966 -0.26337653 0.061629869
-0.25763249 -0.26335189 0.061610512
-0.25786692 -0.26333308 0.061538056
-0.25807217 -0.26330268 0.061576433
-0.2583006 -0.26328206 0.061522461
-0.25851002 -0.26325321 0.061545826
-0.25872034 -0.26322472 0.06156572
-0.25897273 -0.26321098 0.061440159
-0.25917506 -0.26318172 0.061472766
-0.25937197 -0.26314873 0.061537705
-0.25958079 -0.26311994 0.06156107
-0.25983477 -0.26310742 0.061425108
-0.2600435 -0.26308069 0.061433483
-0.26030475 -0.26307121 0.061268676
-0.26048324 -0.26303369 0.061383262
-0.26070315 -0.26300937 0.061363917
-0.26092505 -0.26298594 0.061336488
-0.26114962 -0.26296359 0.061298676
-0.26136464 -0.26293972 0.0612805
-0.26157075 -0.26291066 0.061308496
-0.2617889 -0.26288813 0.061277628
-0.26197538 -0.26286146 0.061305694
-0.26219782 -0.26283291 0.061315164
-0.2623806 -0.26280683 0.061342098
-0.26268309 -0.2628018 0.061107926
-0.26287553 -0.26276776 0.061184406
-0.26308692 -0.26274323 0.061174322
-0.26331139 -0.26272199 0.06112843
-0.26352325 -0.26269585 0.061129879
-0.26373109 -0.26266813 0.061146326
-0.26395077 -0.26264733 0.061101615
-0.26417252 -0.26262549 0.061062656
-0.26438081 -0.26260024 0.06106066
-0.26459864 -0.26257697 0.061035544
-0.26480949 -0.26255301 0.061022006
-0.26502749 -0.26253003 0.060994592
-0.26523602 -0.26250523 0.060989141
-0.26545992 -0.26248503 0.060936335
-0.26564676 -0.26245102 0.061017446
-0.26588106 -0.26243556 0.060920782
-0.26608372 -0.26240641 0.060952242
-0.26630399 -0.26238507 0.060910989
-0.26651099 -0.26236013 0.060907841
-0.26671702 -0.26233265 0.060924292
-0.26692048 -0.26230624 0.060934998
-0.26715422 -0.26229146 0.060833722
-0.26735735 -0.26226512 0.060844421
-0.26758149 -0.26224628 0.06078124
-0.26778406 -0.26221985 0.060793106
-0.26800692 -0.26220068 0.060733378
-0.26820907 -0.26217195 0.060762543
-0.26842067 -0.26214769 0.060750149
-0.26861808 -0.26211905 0.06078279
-0.26884505 -0.26210243 0.060701139
-0.26904953 -0.2620773 0.06070146
-0.26926923 -0.26205745 0.060649835
-0.26947212 -0.26203176 0.060655914
-0.26968223 -0.26200739 0.060645837
-0.26987481 -0.26197666 0.060698107
-0.27008748 -0.26195371 0.060675323
-0.27031246 -0.26193953 0.060577542
-0.27052021 -0.26191434 0.060575552
-0.27073404 -0.26189235 0.060544696
-0.27093935 -0.26186606 0.060553081
-0.27114639 -0.26184317 0.060534939
-0.27135485 -0.26181868 0.060527176
-0.27155656 -0.26179314 0.060533274
-0.27177742 -0.26177549 0.060464341
-0.27196985 -0.2617451 0.060514294
-0.27217689 -0.26172015 0.060511142
-0.27236855 -0.2616944 0.06052766
-0.27254456 -0.26168287 0.060454298
-0.27280405 -0.26165691 0.060411721
-0.27303058 -0.26163825 0.060345072
-0.27323198 -0.26161322 0.060347714
-0.27342504 -0.26158085 0.060411505
-0.27359086 -0.26155889 0.060423512
-0.27379715 -0.26154476 0.060341951
-0.27397123 -0.26151186 0.060426578
-0.27419102 -0.26150334 0.060291909
-0.27440405 -0.26148304 0.060249537
-0.27470848 -0.26147759 0.060016505
-0.27485651 -0.26142627 0.060259223
-0.27507523 -0.26139614 0.060283702
-0.27527696 -0.26137483 0.060258664
-0.27542782 -0.26135519 0.060267277
-0.27563629 -0.26134109 0.060183398
-0.27588379 -0.26131833 0.06012819
-0.27611232 -0.26128635 0.060157247
-0.27629447 -0.26127014 0.060112678
-0.2765213 -0.26126313 0.059960686
-0.27671844 -0.26122236 0.06008213
-0.27693388 -0.26119655 0.060077794
-0.27708578 -0.26116335 0.060184419
-0.27734423 -0.26115203 0.060035761
-0.27755892 -0.26113498 0.059967995
-0.27774513 -0.26110139 0.060046807
-0.2779566 -0.26108238 0.059996367
-0.27816018 -0.26106101 0.059970163
-0.27836671 -0.26103881 0.059947416
-0.27856946 -0.26101708 0.059924677
-0.27877942 -0.26099762 0.059878848
-0.2789686 -0.26096621 0.059939198
-0.27917722 -0.26094598 0.059900291
-0.2793816 -0.26092592 0.059863713
-0.27957928 -0.2608977 0.059892893
-0.27978304 -0.26087743 0.059858616
-0.27999157 -0.26085767 0.059816264
-0.28019342 -0.26083621 0.059792377
-0.28039017 -0.26080748 0.059826169
-0.28058583 -0.26078126 0.059842668
-0.28079772 -0.26076472 0.059773773
-0.28099775 -0.26074222 0.059759118
-0.28120133 -0.26071927 0.059744451
-0.28140759 -0.26070216 0.059684798
-0.28160369 -0.2606732 0.059720904
-0.28180784 -0.2606546 0.05967395
-0.2820079 -0.26062909 0.059681203
-0.28220299 -0.26060292 0.059697703
-0.2824024 -0.26059154 0.059602335
-0.28260419 -0.26056045 0.059648789
-0.28281295 -0.26054305 0.059589125
-0.28300834 -0.26051748 0.059601016
-0.28321266 -0.26049635 0.05957251
-0.28341004 -0.26047274 0.059568241
-0.28359863 -0.26045257 0.05954672
-0.28380689 -0.26042387 0.059570093
-0.28400567 -0.26040182 0.059553135
-0.2841953 -0.26037097 0.059608877
-0.28440085 -0.26035172 0.059565365
-0.28457165 -0.26033059 0.059566975
-0.28475666 -0.26031148 0.05954086
-0.28495437 -0.26029715 0.05946856
-0.28517917 -0.26028171 0.059380002
-0.28537747 -0.26027283 0.059267331
-0.28559175 -0.26024699 0.05926415
-0.28579408 -0.26021713 0.059301388
-0.28601322 -0.26019228 0.059286654
-0.28620946 -0.26016897 0.059281241
-0.28639939 -0.26013872 0.059332363
-0.28659472 -0.26011443 0.059335031
-0.28679806 -0.26009482 0.059296146
-0.28696072 -0.26007923 0.059264351
-0.28718221 -0.26005316 0.059256531
-0.28738725 -0.26002657 0.059267223
-0.2875866 -0.26000762 0.059227206
-0.28778628 -0.25998926 0.059182569
-0.28797084 -0.25995225 0.059287913
-0.28816956 -0.25993291 0.059251361
-0.28837782 -0.2599209 0.059152488
-0.28857973 -0.2599062 0.059079017
-0.28877521 -0.25988331 0.059071299
-0.28896415 -0.25985175 0.0591328
-0.2891582 -0.25982699 0.05914009
-0.28935057 -0.2597999 0.059165828
-0.2895411 -0.2597757 0.059171967
-0.28966922 -0.25974068 0.059313282
-0.28989422 -0.25973234 0.059172835
-0.2901257 -0.25973421 0.058951635
-0.29032773 -0.25969869 0.059030391
-0.29048288 -0.25968039 0.059025139
-0.29068637 -0.25966486 0.05895628
-0.29091305 -0.25964969 0.058864251
-0.29108229 -0.25962967 0.05885895
-0.29124388 -0.25958458 0.059043959
-0.29143426 -0.25956735 0.05899936
-0.29165035 -0.25957441 0.058754005
-0.29186332 -0.25956407 0.058638975
-0.2920115 -0.25948071 0.059115786
-0.29223028 -0.25949439 0.058819681
-0.29242057 -0.25946441 0.05886849
-0.29260641 -0.25943306 0.058931164
-0.29281467 -0.25943699 0.058715828
-0.29300439 -0.25939855 0.058826908
-0.29321936 -0.25939474 0.058662284
-0.29344699 -0.25934803 0.05879974
-0.29361087 -0.25928625 0.059104659
-0.29380444 -0.25927812 0.058990866
-0.29400292 -0.25928968 0.058728278
-0.29419386 -0.25925222 0.058831289
-0.29440376 -0.25925767 0.058603264
-0.29461735 -0.25922909 0.05862084
-0.2947962 -0.25919831 0.058685847
-0.2950016 -0.25917703 0.058657337
-0.29517022 -0.2591579 0.058646273
-0.29535323 -0.2591373 0.058632843
-0.29554337 -0.25912592 0.058545582
-0.29573214 -0.25910118 0.058557495
-0.29594398 -0.25908905 0.058456302
-0.2961444 -0.25905532 0.058523528
-0.29633018 -0.25902176 0.058602348
-0.29653758 -0.25900862 0.058512703
-0.29672006 -0.25898778 0.058501579
-0.29689404 -0.2589511 0.058613885
-0.29709259 -0.25893429 0.058558881
-0.29731148 -0.2589117 0.058527999
-0.29750606 -0.25889507 0.058475316
-0.29770866 -0.25888154 0.058392622
-0.29789993 -0.25885302 0.058429897
-0.29807919 -0.25883526 0.058399178
-0.29825291 -0.25882572 0.058313135
-0.29843456 -0.25880325 0.058314711
-0.29863575 -0.25876972 0.058379617
-0.29883176 -0.25874582 0.058378823
-0.29903212 -0.25874472 0.058207333
-0.29922572 -0.25870895 0.058295339
-0.29941666 -0.25867748 0.058354523
-0.29961607 -0.25865254 0.058358334
-0.29980394 -0.25864741 0.058227256
-0.30001202 -0.25863403 0.058138769
-0.3002159 -0.25859025 0.058276322
-0.30038682 -0.25856972 0.058273315
-0.30056867 -0.25855023 0.058252975
-0.30076861 -0.25853199 0.058207188
-0.30094922 -0.25850064 0.058274489
-0.30118537 -0.25848699 0.058162816
-0.30136019 -0.25847307 0.058107913
-0.30155921 -0.25844723 0.058118626
-0.30172995 -0.25842813 0.058105245
-0.30191168 -0.25841495 0.058038779
-0.30210721 -0.25839347 0.058020689
-0.30230638 -0.25837675 0.057964519
-0.30249819 -0.25835273 0.057968359
-0.30268645 -0.25833008 0.057965279
-0.30287468 -0.25831074 0.057937995
-0.30308437 -0.25827524 0.058009788
-0.30327976 -0.25825313 0.057996318
-0.30346468 -0.25822538 0.058033615
-0.30364954 -0.25820172 0.058040932
-0.30385202 -0.25817907 0.058025122
-0.30402613 -0.25815877 0.058017492
-0.30423543 -0.25813815 0.057980891
-0.30443823 -0.25811011 0.058004275
-0.3046391 -0.25810435 0.057866238
-0.30481222 -0.25809175 0.057803255
-0.30500102 -0.25806257 0.057847463
-0.30518791 -0.25805068 0.05776713
-0.3053802 -0.25802201 0.057804402
-0.30558905 -0.25800097 0.057771262
-0.30576336 -0.25797686 0.057791319
-0.30595103 -0.25793442 0.057933547
-0.30614641 -0.25791106 0.057929289
-0.30633515 -0.25790617 0.057795908
-0.30652258 -0.25788742 0.057765156
-0.30671257 -0.25787306 0.057699814
-0.30690721 -0.25785217 0.057678256
-0.3070946 -0.25783262 0.057653282
-0.3072899 -0.25780818 0.057657097
-0.30747408 -0.25778729 0.057644818
-0.30766818 -0.25776818 0.057610583
-0.30785736 -0.25774068 0.057642106
-0.30804959 -0.25772876 0.057557136
-0.30824316 -0.25771099 0.057513684
-0.30843633 -0.25768158 0.057555567
-0.30861747 -0.25765902 0.057558283
-0.30881149 -0.25763929 0.057528667
-0.30900556 -0.25761926 0.057501353
-0.30919996 -0.25758687 0.05756399
-0.30939347 -0.25756863 0.057523988
-0.30958745 -0.25754875 0.057495527
-0.30977604 -0.25752449 0.05750398
-0.30997083 -0.25750214 0.057492815
-0.3101564 -0.25749624 0.057369824
-0.31035709 -0.25745708 0.057476249
-0.31054398 -0.25743777 0.057450119
-0.31073546 -0.25741521 0.057443574
-0.3109189 -0.25740466 0.057356343
-0.31111968 -0.25738394 0.057327844
-0.31131184 -0.25735942 0.057335131
-0.31152892 -0.25733182 0.057342321
-0.31171837 -0.25730604 0.057361156
-0.31190315 -0.25729123 0.057303898
-0.31209016 -0.25727111 0.057283532
-0.31227043 -0.25725842 0.057214763
-0.31246772 -0.25723025 0.057243947
-0.31265327 -0.25721315 0.057202827
-0.3128446 -0.25719073 0.057195127
-0.31303692 -0.25717327 0.057150524
-0.31322864 -0.25715005 0.057148587
-0.31341118 -0.25712526 0.057166301
-0.31360677 -0.2571077 0.057119373
-0.31381252 -0.25707033 0.057208486
-0.31399536 -0.25705811 0.057133939
-0.31419152 -0.25703308 0.057141207
-0.31438172 -0.25700688 0.057162344
-0.31457537 -0.25699273 0.057092369
-0.31476629 -0.25697133 0.057077754
-0.31498086 -0.25694329 0.057090715
-0.31516704 -0.25693017 0.057019621
-0.31535378 -0.25691023 0.056998096
-0.31553185 -0.25689942 0.056917801
-0.31572115 -0.25686401 0.057006985
-0.31592023 -0.25683469 0.057043079
-0.31610361 -0.25682572 0.056944311
-0.31629747 -0.25680491 0.056922756
-0.31648269 -0.25678217 0.056923158
-0.31667006 -0.25676641 0.056870509
-0.31687087 -0.25673482 0.056921586
-0.31706572 -0.25670758 0.056946162
-0.31725949 -0.25669199 0.056886557
-0.3174541 -0.25667503 0.056836177
-0.31764618 -0.25665209 0.056831934
-0.31784362 -0.25663084 0.056810372
-0.31808522 -0.25658846 0.056903955
-0.31831554 -0.25653026 0.057123274
-0.31852937 -0.25647768 0.057316136
-0.31918117 -0.25631902 0.057892382
-0.31983265 -0.25615835 0.058483608
-0.32005641 -0.25610191 0.058696039
-0.32027525 -0.25604826 0.058892351
-0.24518542 -0.26473227 0.062668733
-0.24541113 -0.26470348 0.062676996
-0.2456498 -0.26467943 0.062639073
-0.24589963 -0.26465669 0.062581494
-0.24613246 -0.26463145 0.062557429
-0.24638499 -0.26460966 0.06249062
-0.24659675 -0.26457942 0.062522002
-0.24681467 -0.26454923 0.062547609
-0.24707098 -0.26453027 0.062456548
-0.24727876 -0.26449767 0.062508717
-0.24752213 -0.26447415 0.062462695
-0.24777938 -0.26445585 0.062365878
-0.24800868 -0.264429 0.06235683
-0.24824768 -0.26440474 0.062320054
-0.248474 -0.26437888 0.062306397
-0.2486968 -0.26435062 0.062313527
-0.24892186 -0.26432458 0.062302176
-0.24913652 -0.26429433 0.062331248
-0.2493908 -0.26427624 0.062235594
-0.24961272 -0.26424807 0.062242724
-0.24983883 -0.26422271 0.06222561
-0.25003275 -0.26418707 0.062312428
-0.25118464 -0.26406458 0.062176038
-0.25141752 -0.26404014 0.062146217
-0.25233483 -0.26394105 0.062048882
-0.25255889 -0.26391625 0.062029466
-0.2528069 -0.26389688 0.061948828
-0.25298604 -0.26385912 0.062064551
-0.25414735 -0.26374304 0.061872765
-0.2550014 -0.26363119 0.06192562
-0.25523877 -0.2636117 0.061855413
-0.25547394 -0.26358995 0.061803669
-0.25571671 -0.26357076 0.061726511
-0.25593194 -0.26354295 0.06173712
-0.25616223 -0.26352179 0.061685402
-0.25638843 -0.26349768 0.061659053
-0.25658822 -0.26346686 0.061705489
-0.2568326 -0.26344889 0.061617948
-0.25703001 -0.26341739 0.061671317
-0.2572425 -0.26338911 0.061687708
-0.25747839 -0.26336873 0.061625578
-0.25837737 -0.26327705 0.06149026
-0.25856212 -0.26323971 0.061597884
-0.25880888 -0.2632257 0.061479192
-0.25902399 -0.263199 0.061481737
-0.25923464 -0.26317081 0.06149929
-0.25944519 -0.26314259 0.061516844
-0.25965104 -0.26311466 0.061536718
-0.25988659 -0.26309556 0.061465368
-0.26009279 -0.2630679 0.06148294
-0.2603378 -0.26305252 0.061375789
-0.26053622 -0.26302028 0.061433762
-0.26075488 -0.26299551 0.061418988
-0.26097521 -0.26297337 0.061383441
-0.26119664 -0.26294982 0.061357126
-0.26141396 -0.26292682 0.061330825
-0.26163495 -0.26290333 0.06130451
-0.26188293 -0.26289028 0.061177749
-0.26206255 -0.26285118 0.061302692
-0.26227254 -0.26282573 0.061300643
-0.26249862 -0.26280463 0.061252385
-0.26269814 -0.26277527 0.061288439
-0.26293474 -0.26275855 0.061198629
-0.26315853 -0.26273695 0.061156154
-0.26336032 -0.26270667 0.061196811
-0.26357025 -0.26268169 0.061191302
-0.26379311 -0.26266003 0.061149988
-0.26401156 -0.26263875 0.061109841
-0.26425046 -0.26262397 0.061003875
-0.26443398 -0.2625885 0.06109881
-0.26464251 -0.26256135 0.061110608
-0.26485124 -0.26253432 0.061121255
-0.26508468 -0.26251784 0.061032601
-0.26529312 -0.2624951 0.061012104
-0.26549205 -0.26246199 0.06107584
-0.26572084 -0.26244608 0.060987208
-0.2659452 -0.26242632 0.060930897
-0.26614875 -0.26239753 0.060958862
-0.26636288 -0.26237348 0.060942955
-0.26656881 -0.26234806 0.060944386
-0.26678729 -0.26232615 0.060908847
-0.26698527 -0.26229727 0.060942605
-0.26718897 -0.26226881 0.060968265
-0.26740694 -0.26224694 0.060932726
-0.26763174 -0.26222837 0.060867187
-0.26784623 -0.26220742 0.060828216
-0.26807952 -0.26219317 0.060723424
-0.26825798 -0.26215547 0.060839139
-0.26847863 -0.26213551 0.060787447
-0.26868945 -0.26211327 0.060761176
-0.26890782 -0.26209247 0.060717575
-0.26913089 -0.26207647 0.06063474
-0.26933509 -0.26204905 0.060652323
-0.26953825 -0.26202348 0.060657226
-0.26975447 -0.26200217 0.060619395
-0.2699599 -0.26197791 0.060612746
-0.27017447 -0.26195601 0.060580693
-0.27038705 -0.26193559 0.060539417
-0.27058268 -0.26190418 0.060593948
-0.27078292 -0.26187754 0.060609236
-0.27100566 -0.26186031 0.060535628
-0.27120441 -0.26183307 0.060556691
-0.27140954 -0.26180682 0.060565043
-0.27162209 -0.26178703 0.060519155
-0.27183485 -0.26176503 0.060489416
-0.27204034 -0.2617417 0.060475849
-0.27225861 -0.26172298 0.060417254
-0.27245814 -0.26169661 0.060431398
-0.27265954 -0.26166874 0.060454756
-0.27286518 -0.26164585 0.060437731
-0.2730886 -0.26163059 0.060349129
-0.27329704 -0.26160958 0.060315941
-0.27349597 -0.26158062 0.060349695
-0.27368307 -0.26154739 0.060425017
-0.27390447 -0.26153159 0.060342178
-0.27411258 -0.26151079 0.060307845
-0.27433032 -0.26149321 0.060241185
-0.27451885 -0.26146093 0.060308427
-0.27473623 -0.26144341 0.060241759
-0.27493438 -0.26141703 0.060257055
-0.27514112 -0.26139325 0.060245793
-0.27534717 -0.26137191 0.060217232
-0.27556726 -0.26135674 0.060130954
-0.2757656 -0.26133081 0.060142793
-0.27595749 -0.2613008 0.060190409
-0.27616626 -0.26127881 0.060164146
-0.27637991 -0.26126301 0.060088269
-0.27657428 -0.26123473 0.060120881
-0.27677917 -0.26121053 0.060114242
-0.27697667 -0.26118439 0.060128398
-0.27719283 -0.26116797 0.060054816
-0.27740011 -0.26114869 0.060010113
-0.27760214 -0.26112294 0.060017318
-0.27779385 -0.26109311 0.060063783
-0.27800077 -0.26107088 0.060040988
-0.27820441 -0.26104951 0.060014747
-0.27841404 -0.26102945 0.059973486
-0.27860919 -0.26100221 0.059998021
-0.27881667 -0.26098084 0.059968308
-0.27901533 -0.26096261 0.059923634
-0.27923602 -0.26094499 0.059854645
-0.27941999 -0.26090965 0.059948429
-0.27963445 -0.26089406 0.059870251
-0.27984336 -0.26087773 0.059802458
-0.28003651 -0.26084614 0.059860453
-0.28021711 -0.26082125 0.059880443
-0.28043368 -0.26079801 0.059856456
-0.28064173 -0.26078162 0.059789829
-0.28084117 -0.26075509 0.059805118
-0.28104344 -0.26073438 0.059775427
-0.28124675 -0.26071116 0.059763025
-0.28144908 -0.26069075 0.059731022
-0.28165656 -0.26067129 0.059687465
-0.28185549 -0.26064828 0.059677392
-0.28205881 -0.26062554 0.059661526
-0.28225088 -0.26059675 0.059699919
-0.28245732 -0.26058057 0.059633307
-0.28265321 -0.26055527 0.059642844
-0.28285411 -0.26053077 0.05964198
-0.2830528 -0.26050812 0.059629604
-0.28326461 -0.26049381 0.059544511
-0.28346166 -0.26046994 0.059542511
-0.2836656 -0.26044869 0.059515119
-0.28385705 -0.26041967 0.059555821
-0.28405517 -0.26042467 0.059341617
-0.28427178 -0.26038849 0.059412196
-0.28445679 -0.26035726 0.059474833
-0.28465083 -0.26032272 0.059553582
-0.28481653 -0.2603088 0.059506752
-0.28506273 -0.26029426 0.059392668
-0.2852498 -0.26025662 0.059500284
-0.28545409 -0.26024115 0.059430212
-0.28565294 -0.26021582 0.059437439
-0.28585634 -0.26019984 0.059371982
-0.28605148 -0.26017067 0.05941036
-0.28625381 -0.26015389 0.059351832
-0.28645173 -0.26012787 0.059364833
-0.28664595 -0.2601023 0.059377838
-0.28684863 -0.26008183 0.059345834
-0.28704575 -0.26005968 0.059331153
-0.28722212 -0.26005095 0.059236981
-0.28745121 -0.26002932 0.059189875
-0.2876429 -0.25999144 0.059295163
-0.28782225 -0.25997731 0.059237886
-0.28800756 -0.2599659 0.059155215
-0.28822577 -0.25993124 0.059213094
-0.28843662 -0.25991249 0.059161447
-0.28861314 -0.25989032 0.05916531
-0.28878808 -0.25987136 0.059147265
-0.28897485 -0.25985789 0.059078418
-0.28921095 -0.25984234 0.058980539
-0.28940353 -0.25981033 0.059041996
-0.28959021 -0.25978646 0.059049264
-0.28976652 -0.25975332 0.059133857
-0.28997403 -0.25971979 0.059192948
-0.29016766 -0.25971764 0.059035275
-0.29041815 -0.25970224 0.058923483
-0.29059187 -0.25967079 0.058997709
-0.29076827 -0.25964943 0.058995798
-0.29096642 -0.2596319 0.058946513
-0.29115099 -0.25960514 0.058976866
-0.29137096 -0.25960496 0.05878102
-0.2915628 -0.25955838 0.058949739
-0.29173163 -0.25953102 0.058998607
-0.29194388 -0.25952563 0.058847778
-0.29216307 -0.25949922 0.058844537
-0.29233888 -0.25947762 0.058844939
-0.29254535 -0.25946334 0.05876448
-0.29275581 -0.25944981 0.058674775
-0.29294255 -0.25939834 0.058883876
-0.2931276 -0.25938761 0.058796585
-0.29333952 -0.25936255 0.058789916
-0.29354262 -0.2593351 0.058808662
-0.2937167 -0.25933439 0.058657985
-0.29392213 -0.25932053 0.058575224
-0.29413661 -0.25928554 0.058638897
-0.29431844 -0.25925311 0.058713082
-0.2945067 -0.25924402 0.058610786
-0.29469129 -0.25921789 0.058636528
-0.294891 -0.25919196 0.058647208
-0.29508749 -0.25916722 0.058652129
-0.29526529 -0.25913307 0.058742482
-0.2954751 -0.25912359 0.058623955
-0.29568115 -0.25910491 0.058575787
-0.29587832 -0.25908262 0.058562264
-0.29606578 -0.25904319 0.058682557
-0.2962651 -0.25904918 0.058460273
-0.29645261 -0.25904363 0.058332607
-0.2966471 -0.2590144 0.058372147
-0.29688084 -0.25896794 0.058502618
-0.29707059 -0.25894669 0.058487967
-0.29725778 -0.25891662 0.058540225
-0.29745224 -0.25889921 0.05849326
-0.29764003 -0.25888497 0.058429025
-0.29785508 -0.25886285 0.058398128
-0.29806608 -0.25883979 0.058377624
-0.29825792 -0.25881326 0.058399864
-0.29844686 -0.25879005 0.058400221
-0.2986199 -0.2587781 0.058332589
-0.29881173 -0.25875172 0.058353677
-0.29900718 -0.2587249 0.058374755
-0.2992149 -0.25870508 0.058333505
-0.29941615 -0.25869092 0.058256529
-0.29962522 -0.25865898 0.058302917
-0.29980293 -0.25863463 0.058321767
-0.29998121 -0.258614 0.05831293
-0.30017126 -0.25860059 0.058240615
-0.3003715 -0.25858358 0.058185562
-0.30056325 -0.25855643 0.058212422
-0.30075607 -0.2585389 0.058167771
-0.3009522 -0.25852004 0.05813003
-0.30114415 -0.25849521 0.058139585
-0.30133921 -0.25846276 0.058202181
-0.30152884 -0.25845635 0.058079123
-0.30173519 -0.25843322 0.058063254
-0.3019236 -0.25840977 0.05806591
-0.30211911 -0.25838467 0.058074303
-0.30230412 -0.25836763 0.058033146
-0.30250666 -0.25833789 0.058069184
-0.30270222 -0.25831988 0.058025677
-0.3028906 -0.25829753 0.058020264
-0.3030861 -0.25827274 0.058026351
-0.30328149 -0.25825366 0.057990916
-0.30348045 -0.25823128 0.057976231
-0.30367231 -0.25820822 0.057973102
-0.30386415 -0.2581856 0.057966512
-0.30405608 -0.25816172 0.057969153
-0.30425149 -0.25813869 0.057962552
-0.30444601 -0.25812599 0.05788099
-0.30463755 -0.25810549 0.057859417
-0.30482951 -0.25808033 0.057871282
-0.30502445 -0.25806051 0.057841618
-0.30522603 -0.25804272 0.05779117
-0.30541474 -0.2580156 0.05782035
-0.30560628 -0.25799397 0.057806842
-0.30579722 -0.25797606 0.05776681
-0.30599585 -0.25795311 0.057756741
-0.30618671 -0.25793502 0.057717867
-0.30638194 -0.25791124 0.057717036
-0.30657801 -0.25788289 0.057748485
-0.3067694 -0.25786147 0.057733826
-0.30696377 -0.25784215 0.057700709
-0.30715838 -0.25782159 0.057676814
-0.30735382 -0.25779697 0.057681747
-0.30754924 -0.25777251 0.057685524
-0.30772746 -0.2577481 0.057704374
-0.30792329 -0.25772232 0.057717375
-0.30811989 -0.25770718 0.057651952
-0.30831406 -0.25768775 0.057619981
-0.30850065 -0.25767067 0.057577662
-0.30868953 -0.25765726 0.057506509
-0.30888963 -0.25762844 0.057537951
-0.30908349 -0.25760922 0.057504833
-0.30927545 -0.25758502 0.057509772
-0.30947384 -0.2575621 0.057499703
-0.30966127 -0.25754145 0.057482753
-0.30986351 -0.25751728 0.057478435
-0.31005812 -0.25749543 0.057463765
-0.31025606 -0.25747383 0.057444461
-0.31044638 -0.2574544 0.057415977
-0.31063902 -0.25742871 0.057431296
-0.31083331 -0.2574077 0.057410862
-0.31103656 -0.25738099 0.05742383
-0.31121826 -0.25736609 0.057370007
-0.31141973 -0.25734389 0.05735185
-0.3116014 -0.25732869 0.057300322
-0.31179625 -0.25730604 0.057291418
-0.31198603 -0.25728729 0.057258319
-0.31218845 -0.25726277 0.057256296
-0.31238532 -0.25723562 0.057278529
-0.3125757 -0.25721556 0.05725465
-0.31276208 -0.25719675 0.057225022
-0.31295919 -0.25717652 0.057196498
-0.31316206 -0.25715116 0.057200242
-0.31334472 -0.25713974 0.057119891
-0.31354845 -0.25710607 0.057183608
-0.31374437 -0.25708157 0.057187378
-0.3139317 -0.25706077 0.057171591
-0.31412926 -0.25703952 0.05714998
-0.31432083 -0.25702325 0.057097264
-0.31451589 -0.25700042 0.057089519
-0.31469756 -0.25698379 0.057048377
-0.31489751 -0.25695229 0.057099417
-0.31508562 -0.25693014 0.057092853
-0.31527677 -0.25690857 0.057079345
-0.31547192 -0.2568914 0.057030082
-0.31569743 -0.25686201 0.057042956
-0.31594622 -0.25679982 0.057274859
-0.31616336 -0.25674197 0.057503439
-0.31637612 -0.25669205 0.057677828
-0.3165921 -0.25663781 0.057881042
-0.3168039 -0.25658581 0.058071587
-0.31701773 -0.25653654 0.058240205
-0.31745231 -0.25642979 0.058631629
-0.31766886 -0.25637373 0.058847517
