# .PCD v0.7 - Point Cloud Data file format
VERSION 0.7
FIELDS x y z
SIZE 4 4 4
TYPE F F F
COUNT 1 1 1
WIDTH 1282
HEIGHT 1
VIEWPOINT 0 0 0 1 0 0 0
POINTS 1282
DATA ascii
-0.32690752 -0.12156002 0.053525843
-0.32706216 -0.1215326 0.053315833
-0.32726747 -0.12144764 0.053410377
-0.32744855 -0.12138895 0.053368814
-0.32764739 -0.12131377 0.053405665
-0.32783821 -0.1212473 0.053397533
-0.32802445 -0.12118574 0.053364016
-0.32820505 -0.12112768 0.053318992
-0.32840338 -0.12105343 0.053350069
-0.32858977 -0.12099183 0.053316548
-0.32878888 -0.12091702 0.053349935
-0.32895601 -0.12087301 0.0532334
-0.32916242 -0.12079082 0.053303681
-0.32934681 -0.12073141 0.053258635
-0.32953522 -0.12066789 0.053234342
-0.32971519 -0.12061064 0.053184699
-0.32991055 -0.12054016 0.053195015
-0.33011186 -0.12046608 0.053216837
-0.33029199 -0.12040877 0.05316719
-0.33047348 -0.12035009 0.053124465
-0.33066812 -0.12028061 0.05312901
-0.33087113 -0.12020516 0.053156596
-0.33106348 -0.12013815 0.053148456
-0.33123514 -0.12009151 0.053039957
-0.33141419 -0.12003534 0.052984554
-0.3316173 -0.11995792 0.053027153
-0.33181089 -0.11988985 0.053023618
-0.33201197 -0.11981464 0.053054675
-0.33222756 -0.11972559 0.053152632
-0.33238184 -0.1196977 0.052947242
-0.33258185 -0.11962377 0.052971382
-0.33277029 -0.1195652 0.052908983
-0.33297083 -0.11948882 0.052950438
-0.33316672 -0.11942326 0.052921485
-0.33335641 -0.11935733 0.052912198
-0.33355993 -0.1192847 0.052916691
-0.33373871 -0.11922909 0.052857816
-0.3339324 -0.11915754 0.052880831
-0.33412582 -0.11909045 0.052870374
-0.33432829 -0.11902315 0.052836753
-0.33451751 -0.11896205 0.05279167
-0.33470377 -0.11889762 0.052780099
-0.33488607 -0.11883491 0.052766245
-0.33506721 -0.11877725 0.052716594
-0.33526468 -0.11870676 0.052721113
-0.33545142 -0.11864804 0.0526645
-0.33561891 -0.1185988 0.052587219
-0.33585206 -0.11849455 0.052754357
-0.33601627 -0.1184561 0.052603185
-0.33623341 -0.1183665 0.052701119
-0.33643115 -0.11829818 0.052688323
-0.33662298 -0.11823705 0.052636292
-0.33682194 -0.11816964 0.052613094
-0.33701253 -0.118104 0.05259918
-0.33719647 -0.11804236 0.052572612
-0.33740622 -0.11796753 0.052577056
-0.33759001 -0.11790985 0.052520461
-0.33779082 -0.11783924 0.052516881
-0.33797759 -0.11777163 0.0525284
-0.33817026 -0.11770269 0.052534111
-0.33837196 -0.11763703 0.052490108
-0.33855325 -0.11757617 0.052464709
-0.33876133 -0.11749969 0.052486487
-0.33892807 -0.11745133 0.052404586
-0.3391301 -0.11738013 0.052402161
-0.33933204 -0.11730733 0.052412424
-0.33952194 -0.11724297 0.052390434
-0.3397381 -0.11716545 0.052398302
-0.33992237 -0.11710593 0.052354407
-0.34010527 -0.11704586 0.05231861
-0.34032172 -0.11696132 0.052379601
-0.34051418 -0.11689861 0.052337959
-0.3407048 -0.116834 0.052315965
-0.34087855 -0.11678166 0.052245568
-0.34107283 -0.11671411 0.052236266
-0.3412652 -0.11665158 0.05219347
-0.34146628 -0.11658029 0.052194506
-0.34167981 -0.11649887 0.052239351
-0.34186551 -0.11643691 0.05221045
-0.34204847 -0.11638057 0.052145775
-0.34226099 -0.11630026 0.05218485
-0.34245798 -0.1162343 0.052155893
-0.34264907 -0.11617149 0.052118883
-0.34283859 -0.11610997 0.052076105
-0.3430416 -0.11603437 0.052104842
-0.34322861 -0.11597661 0.052040141
-0.34341237 -0.11591652 0.052002024
-0.34363443 -0.1158309 0.052056056
-0.34382454 -0.11576752 0.052025978
-0.34404522 -0.11569291 0.051999174
-0.34424302 -0.11562997 0.051944796
-0.34443241 -0.11556249 0.051948212
-0.34463429 -0.11549166 0.051943477
-0.34481737 -0.11542927 0.051924992
-0.34500939 -0.11536627 0.051886823
-0.34520885 -0.11530064 0.051848602
-0.34541693 -0.1152174 0.051922347
-0.34561303 -0.11515296 0.051884156
-0.34579989 -0.11509103 0.051851794
-0.34599736 -0.11502716 0.051805496
-0.24428198 -0.15034479 0.05705883
-0.24450901 -0.15027077 0.057010047
-0.24475883 -0.15019533 0.056910321
-0.24499595 -0.15012015 0.056843013
-0.24523872 -0.15004376 0.056769889
-0.24547037 -0.14997156 0.056694523
-0.24572697 -0.14989537 0.056582056
-0.24597798 -0.1498234 0.056452312
-0.2461929 -0.14974901 0.056439407
-0.24640971 -0.14967471 0.056420706
-0.24663818 -0.14960049 0.05636961
-0.2468608 -0.14952773 0.056323163
-0.24708901 -0.14945376 0.056270923
-0.24731395 -0.14937988 0.056226775
-0.24754527 -0.14930616 0.056164116
-0.24777494 -0.14923392 0.056094535
-0.24801838 -0.14916058 0.055996016
-0.24823616 -0.14908713 0.055968069
-0.24846314 -0.14901389 0.055913519
-0.24869257 -0.14894219 0.055840477
-0.24891591 -0.14887053 0.055783652
-0.24915001 -0.14879778 0.055705957
-0.249376 -0.14872503 0.055650264
-0.24960369 -0.14865245 0.055588774
-0.24982685 -0.1485813 0.055528484
-0.25005984 -0.14850909 0.055449646
-0.25029325 -0.14843704 0.055368505
-0.25051948 -0.14836496 0.055307023
-0.25075033 -0.14829455 0.05522012
-0.25095969 -0.14822227 0.055206098
-0.25118515 -0.14815198 0.055133082
-0.25140417 -0.1480802 0.055088975
-0.25163382 -0.14800887 0.055012468
-0.25185183 -0.1479373 0.054969527
-0.25206622 -0.14786714 0.054925442
-0.25229558 -0.14779621 0.05484663
-0.25251305 -0.14772497 0.05480253
-0.25273177 -0.14765389 0.054753806
-0.25294727 -0.14758426 0.054702792
-0.25316614 -0.14751343 0.05465176
-0.25339001 -0.14744294 0.054584526
-0.25360227 -0.14737205 0.054552
-0.25381356 -0.14730269 0.054510251
-0.25402978 -0.1472322 0.054463856
-0.25424463 -0.14716324 0.054409385
-0.25445879 -0.14709288 0.054367617
-0.25467414 -0.14702269 0.054321215
-0.25488883 -0.14695258 0.054275982
-0.25509852 -0.1468838 0.054234244
-0.25531191 -0.14681385 0.054191317
-0.2555182 -0.14674507 0.054158837
-0.25573468 -0.14667553 0.054104354
-0.25598511 -0.14660077 0.053997703
-0.25613967 -0.14652726 0.054142185
-0.2563155 -0.14645977 0.054182634
-0.25653553 -0.14639394 0.05409003
-0.25686291 -0.14633316 0.053666547
-0.25705558 -0.14626421 0.053672247
-0.25719941 -0.14618686 0.053875685
-0.25740346 -0.14612351 0.053807423
-0.25761506 -0.14605464 0.053761058
-0.25782126 -0.14598544 0.053732038
-0.25802532 -0.14591774 0.053697262
-0.2582348 -0.14584902 0.053655513
-0.25845033 -0.14577937 0.053604506
-0.258643 -0.14571254 0.053594042
-0.25885108 -0.14564402 0.053554624
-0.2590628 -0.14557436 0.053514022
-0.25925359 -0.14550759 0.053508192
-0.25946131 -0.14543936 0.053467616
-0.2596688 -0.1453712 0.053427041
-0.25987008 -0.14530087 0.053419996
-0.26006508 -0.14523487 0.053396814
-0.26026767 -0.14516649 0.05337128
-0.26046973 -0.14509979 0.053334214
-0.26066968 -0.14503129 0.053316779
-0.26086107 -0.14496191 0.053329419
-0.26105589 -0.14489296 0.053329334
-0.2612381 -0.14482592 0.053348958
-0.26140961 -0.14475423 0.053433303
-0.26157755 -0.14468037 0.053544223
-0.26171207 -0.14460388 0.053766191
-0.26017407 -0.14409445 0.061868064
-0.2607415 -0.14398043 0.061200611
-0.26082459 -0.14388742 0.061689593
-0.26104066 -0.14382043 0.061616648
-0.26146004 -0.14357248 0.062381744
-0.26174384 -0.143402 0.062920257
-0.26354963 -0.14329624 0.058819447
-0.2637651 -0.14322647 0.058769584
-0.26395878 -0.1431435 0.058880344
-0.26420984 -0.14306867 0.058772527
-0.26440108 -0.14300069 0.058774773
-0.26459163 -0.1429307 0.058794349
-0.26480246 -0.14285867 0.058774531
-0.2650089 -0.14279373 0.058712035
-0.26518929 -0.14273378 0.058682024
-0.26542291 -0.14265263 0.058670156
-0.26561895 -0.14259002 0.05861811
-0.26580963 -0.14252044 0.05863421
-0.26601499 -0.14244387 0.058664076
-0.26620349 -0.14237189 0.058704443
-0.26637679 -0.14230891 0.058717199
-0.26661369 -0.14224522 0.058562145
-0.26679966 -0.14219126 0.058470901
-0.26699743 -0.14210926 0.058563162
-0.26721796 -0.14203019 0.058571
-0.26739466 -0.14197035 0.058550254
-0.26762581 -0.14189593 0.058493368
-0.26781982 -0.14182563 0.05850599
-0.2679958 -0.14176799 0.058470227
-0.2681891 -0.14169763 0.058485162
-0.26841384 -0.14162429 0.058437556
-0.26860711 -0.14155619 0.058435172
-0.26882643 -0.14148821 0.058361046
-0.26902065 -0.14142053 0.058352891
-0.26919457 -0.14135641 0.058372568
-0.26941153 -0.14128384 0.058340013
-0.26958638 -0.14122225 0.058337744
-0.26976195 -0.14115426 0.058382817
-0.26999539 -0.1410909 0.058234699
-0.27016222 -0.14102733 0.058269434
-0.27036437 -0.14095114 0.058305092
-0.27059245 -0.14087781 0.058248229
-0.27074316 -0.14081649 0.058309615
-0.27096641 -0.14075342 0.058186967
-0.27115247 -0.14068188 0.05823081
-0.27134588 -0.14061718 0.058201879
-0.27153644 -0.14054704 0.058222599
-0.27174315 -0.14047255 0.058232836
-0.27193898 -0.1404112 0.058171555
-0.27210954 -0.14034437 0.058221273
-0.2723527 -0.14028178 0.058040775
-0.27254713 -0.14021087 0.058056854
-0.2727268 -0.14013992 0.058113441
-0.27291101 -0.14007533 0.058108803
-0.27310905 -0.14001305 0.058048669
-0.2733123 -0.13994534 0.058016203
-0.27350393 -0.13987617 0.05802653
-0.27371287 -0.13980569 0.057999805
-0.27389365 -0.13974276 0.057991728
-0.27409819 -0.13967595 0.057948865
-0.27430624 -0.13960548 0.057924449
-0.27448457 -0.13954701 0.057888679
-0.27464977 -0.13947847 0.057966143
-0.27485335 -0.13941169 0.057925593
-0.2750594 -0.13935123 0.057829618
-0.27524695 -0.13927841 0.057879217
-0.27544513 -0.13921249 0.057846788
-0.27564481 -0.13915263 0.057763554
-0.2758182 -0.1390821 0.057834029
-0.27603173 -0.13901752 0.057749547
-0.2762154 -0.13896497 0.057653703
-0.27641204 -0.13888532 0.057730965
-0.27660656 -0.13881017 0.057779375
-0.27680287 -0.13874416 0.057752732
-0.27697611 -0.13867909 0.057781644
-0.2771658 -0.13861585 0.057751574
-0.27736974 -0.13855931 0.057631366
-0.27755964 -0.13848791 0.057663642
-0.27775952 -0.13842122 0.057632349
-0.27794212 -0.13834924 0.057688922
-0.27812898 -0.13828807 0.057650782
-0.27833802 -0.13822326 0.05758018
-0.2785331 -0.13816653 0.057485431
-0.27871746 -0.13809858 0.057506196
-0.27890271 -0.13802807 0.057544269
-0.2791062 -0.13796102 0.057506032
-0.27929872 -0.13789439 0.057494417
-0.27946401 -0.13782866 0.057549942
-0.2796545 -0.13776726 0.057503708
-0.27986395 -0.13770396 0.057420395
-0.28004587 -0.13763492 0.057456188
-0.28022277 -0.13757259 0.057453908
-0.28044263 -0.13750938 0.05734168
-0.28063723 -0.13744141 0.057334669
-0.28083414 -0.13737158 0.057335727
-0.28102738 -0.1372996 0.057363361
-0.28123817 -0.13723508 0.057285823
-0.28140333 -0.1371727 0.057315946
-0.28157076 -0.13710487 0.057381846
-0.28177392 -0.13704619 0.057280108
-0.28197041 -0.13697651 0.05728117
-0.28216124 -0.13691363 0.057245322
-0.28233293 -0.13685571 0.057223454
-0.28252211 -0.13678125 0.057281137
-0.28270707 -0.13671818 0.057262637
-0.28292933 -0.13664871 0.057191953
-0.28311226 -0.13658082 0.05721619
-0.28332591 -0.13651665 0.057128243
-0.28348875 -0.1364716 0.057031378
-0.28368109 -0.13638821 0.057149075
-0.28388295 -0.13631949 0.057128161
-0.28406289 -0.13626496 0.057057753
-0.28421405 -0.13619192 0.057208039
-0.28441575 -0.13612324 0.057187129
-0.2846086 -0.13607152 0.057060063
-0.28478962 -0.13600639 0.057068147
-0.28498125 -0.13594608 0.057010353
-0.28517345 -0.13587822 0.057009138
-0.2853629 -0.13581222 0.057001002
-0.28555942 -0.13574404 0.056990515
-0.28573769 -0.13568528 0.056957055
-0.28592208 -0.13561927 0.056962814
-0.28612715 -0.13554612 0.056967288
-0.28630912 -0.13548231 0.056962661
-0.2864868 -0.13542347 0.056931518
-0.28667378 -0.13536014 0.056909546
-0.28686088 -0.13529707 0.056885265
-0.28706366 -0.13523598 0.056803159
-0.28724504 -0.13516264 0.05687359
-0.28744304 -0.13510174 0.056803063
-0.28761035 -0.13504235 0.056804307
-0.28779179 -0.13497376 0.05683779
-0.28798988 -0.13491854 0.056723386
-0.28819132 -0.13485236 0.05668401
-0.28837648 -0.13478309 0.056712855
-0.28855324 -0.1347091 0.056800626
-0.28873277 -0.13465397 0.056735985
-0.28891304 -0.13459466 0.056701362
-0.2891112 -0.13453054 0.056655075
-0.28929886 -0.13448095 0.05652573
-0.28948617 -0.1344091 0.056568407
-0.28967154 -0.1343402 0.056593791
-0.28984237 -0.1342575 0.056764729
-0.29002717 -0.13419916 0.056710437
-0.29022843 -0.13415812 0.056478254
-0.29041544 -0.13407962 0.056572892
-0.29059604 -0.13401599 0.056570597
-0.29078472 -0.13395824 0.056501281
-0.29098102 -0.13389972 0.056416903
-0.29114968 -0.13381796 0.056586705
-0.29134217 -0.13375358 0.056557771
-0.29154083 -0.13369274 0.05648493
-0.29171941 -0.13362624 0.056510352
-0.29191178 -0.13356926 0.056424841
-0.29209948 -0.13351169 0.056356691
-0.29229575 -0.13344073 0.056368142
-0.29247099 -0.1333757 0.056391276
-0.29265302 -0.13330813 0.056415521
-0.292842 -0.1332462 0.05637737
-0.2930167 -0.13318001 0.056410894
-0.29320136 -0.13311765 0.05638779
-0.29339653 -0.13307756 0.056164876
-0.29359102 -0.13300334 0.05620636
-0.29376805 -0.1329162 0.056394577
-0.29395014 -0.13286646 0.056281425
-0.29414821 -0.13280913 0.056183197
-0.29432482 -0.13272861 0.05632177
-0.29451621 -0.13268429 0.056141604
-0.29470912 -0.13261528 0.0561473
-0.29489544 -0.13253883 0.05622809
-0.29508665 -0.13248602 0.056113735
-0.29526544 -0.1324202 0.056133371
-0.29545331 -0.1323588 0.05609408
-0.29564306 -0.13228023 0.056181774
-0.29581988 -0.13221975 0.056165643
-0.29600945 -0.13216437 0.056075539
-0.29619631 -0.13210049 0.056058191
-0.29638591 -0.13203324 0.056059297
-0.29656464 -0.13196698 0.056082405
-0.29674864 -0.13190652 0.056046601
-0.29693231 -0.13184527 0.056017723
-0.29712239 -0.13178025 0.056000356
-0.29731026 -0.13172217 0.055935662
-0.2974911 -0.13164854 0.056009557
-0.29767871 -0.1315898 0.055950634
-0.29786766 -0.13151978 0.055974834
-0.29806459 -0.13145371 0.055947028
-0.29824117 -0.1313951 0.055917043
-0.29843485 -0.13133226 0.0558731
-0.29860631 -0.13126361 0.055934355
-0.29878309 -0.1312075 0.055884734
-0.2989769 -0.13114703 0.055822313
-0.29915577 -0.13108025 0.055848889
-0.29934919 -0.13101782 0.055802636
-0.29954618 -0.13095786 0.055727489
-0.29973152 -0.13088505 0.055782881
-0.29990423 -0.13082708 0.055758696
-0.30008709 -0.130767 0.055722896
-0.30028668 -0.13069834 0.055707775
-0.30046219 -0.1306293 0.055760924
-0.30064154 -0.13056928 0.055734385
-0.30082083 -0.13050792 0.055718236
-0.30100685 -0.13044389 0.055704359
-0.30119962 -0.13038182 0.055656947
-0.30138218 -0.13031901 0.055643089
-0.30157149 -0.13025306 0.055634957
-0.30175737 -0.13019028 0.055611841
-0.30194336 -0.1301228 0.055624519
-0.30212921 -0.13005988 0.055602554
-0.3023085 -0.12999476 0.055615272
-0.30249038 -0.12994196 0.055526368
-0.30267861 -0.12988961 0.055416647
-0.30286276 -0.12980385 0.055574801
-0.3030408 -0.1297539 0.055474382
-0.3032262 -0.1296934 0.055435106
-0.30341223 -0.1296262 0.05544547
-0.30360222 -0.12955326 0.055489291
-0.30378088 -0.12949453 0.055454668
-0.30396587 -0.12943612 0.055400386
-0.30415782 -0.12937315 0.055362221
-0.30433717 -0.12930846 0.055371474
-0.30452764 -0.12923445 0.05542222
-0.30471292 -0.12917307 0.05538987
-0.30490023 -0.12911789 0.055304397
-0.30507517 -0.1290773 0.055140495
-0.3052693 -0.12900093 0.055199295
-0.30545408 -0.12892534 0.055277783
-0.3056294 -0.12886551 0.055260509
-0.30582437 -0.12880163 0.05522117
-0.30602446 -0.12872857 0.055238374
-0.30620131 -0.12866238 0.055266112
-0.30638012 -0.12860118 0.055249967
-0.30655983 -0.12853637 0.05525922
-0.30674925 -0.12848166 0.055164494
-0.30693525 -0.12840471 0.055249907
-0.30711567 -0.12835991 0.055103291
-0.30731061 -0.12829515 0.055070881
-0.30749169 -0.12822564 0.055112444
-0.30767742 -0.12816127 0.055102021
-0.30787104 -0.12810069 0.055040762
-0.30805093 -0.12803568 0.055051163
-0.30823946 -0.12797196 0.055028033
-0.30842447 -0.12790979 0.055002607
-0.30860582 -0.1278495 0.054972596
-0.3087835 -0.12778255 0.055003792
-0.30897456 -0.12771164 0.055029128
-0.30916858 -0.12764102 0.055044059
-0.30935675 -0.12758645 0.054951653
-0.30952457 -0.12753078 0.054922882
-0.30970827 -0.12746428 0.054934412
-0.30989161 -0.1274063 0.054881293
-0.31007832 -0.1273396 0.054885879
-0.31026322 -0.12727042 0.054914728
-0.31044653 -0.12720522 0.054917023
-0.31062603 -0.12715626 0.054805052
-0.31081086 -0.12709431 0.054778479
-0.31098235 -0.12704982 0.054653846
-0.31117603 -0.12696086 0.054810792
-0.31135389 -0.12691456 0.054682665
-0.31153283 -0.12685288 0.054669984
-0.31172553 -0.12677358 0.054755345
-0.31192762 -0.12669291 0.054825637
-0.31211105 -0.12663415 0.054778293
-0.31229302 -0.12658416 0.054667462
-0.31249681 -0.12649477 0.054800089
-0.31269312 -0.12642124 0.05483117
-0.31285942 -0.12638551 0.054653473
-0.31304538 -0.12632133 0.054640744
-0.31321836 -0.12626086 0.054635026
-0.31340015 -0.12620477 0.054571524
-0.31359276 -0.12612805 0.054637261
-0.31377265 -0.12607549 0.054551844
-0.31396383 -0.12600183 0.054597959
-0.31414694 -0.12594318 0.054550618
-0.31432781 -0.12588352 0.054517142
-0.31450158 -0.12582184 0.054518346
-0.31468949 -0.12575939 0.054487139
-0.31488508 -0.12568824 0.054502059
-0.31506339 -0.12563309 0.054440886
-0.31524181 -0.12556827 0.054453608
-0.31542644 -0.12550683 0.054423574
-0.31561527 -0.12544286 0.054401591
-0.31579745 -0.12538543 0.054347329
-0.31597883 -0.12532049 0.054353099
-0.31617177 -0.1252498 0.054371499
-0.31635368 -0.12518422 0.054380737
-0.31653523 -0.12512776 0.0543207
-0.31672004 -0.12506613 0.054291818
-0.31691539 -0.12499204 0.054329831
-0.31709987 -0.12493095 0.054297484
-0.31727767 -0.12487207 0.054266341
-0.31746405 -0.12480806 0.054251298
-0.31765124 -0.12474286 0.054243177
-0.31783903 -0.12467295 0.054269698
-0.31803375 -0.12460449 0.054266155
-0.31821051 -0.12455108 0.054195762
-0.31839365 -0.12448821 0.054180741
-0.31858808 -0.12441655 0.054202594
-0.31876254 -0.12436261 0.054142606
-0.31894413 -0.1243021 0.054113738
-0.31913522 -0.12423176 0.054134462
-0.31932345 -0.12417281 0.054075539
-0.31950235 -0.12411249 0.054052465
-0.31967837 -0.12405619 0.054006331
-0.31987494 -0.12398212 0.05404086
-0.3200781 -0.12389927 0.054125011
-0.32024056 -0.12386487 0.053947333
-0.32043135 -0.1237921 0.053987686
-0.3206282 -0.12371478 0.054046471
-0.32080996 -0.12365437 0.054016452
-0.32098326 -0.12361164 0.053873342
-0.32116851 -0.12354653 0.053869858
-0.3213751 -0.12345706 0.053995542
-0.32155997 -0.12339913 0.053937793
-0.32174334 -0.12334309 0.053869672
-0.32193628 -0.12327166 0.053893842
-0.32212314 -0.12320493 0.053898428
-0.32231671 -0.12314229 0.053853326
-0.32249764 -0.12307689 0.053863719
-0.32266736 -0.12302852 0.053773742
-0.3228536 -0.12296577 0.053749472
-0.3230471 -0.12289413 0.053773642
-0.32322589 -0.12283461 0.053744797
-0.32342896 -0.12275164 0.053830095
-0.32361677 -0.12269313 0.053768862
-0.3238036 -0.122627 0.053768832
-0.32396996 -0.12257953 0.053681187
-0.32415506 -0.12252121 0.053625744
-0.32434899 -0.12244689 0.053669542
-0.32454473 -0.12237342 0.053701777
-0.32472843 -0.12231125 0.053679835
-0.32491621 -0.1222472 0.053661324
-0.32509091 -0.12219541 0.053584013
-0.32529098 -0.12212011 0.053618535
-0.32546449 -0.12206696 0.053555086
-0.32564488 -0.12200326 0.053553935
-0.32581806 -0.12195577 0.053447772
-0.325991 -0.12190311 0.053382024
-0.3262049 -0.12181016 0.053514592
-0.32637945 -0.12175844 0.053437285
-0.32657668 -0.12168429 0.053470664
-0.32675457 -0.12162628 0.053432591
-0.32696658 -0.1215388 0.053528227
-0.32711712 -0.12151313 0.05331599
-0.32732311 -0.12142732 0.053415127
-0.32750279 -0.12137004 0.053366646
-0.32769945 -0.12129459 0.053411577
-0.3278864 -0.12122963 0.053402305
-0.32807243 -0.12116814 0.053368799
-0.32825202 -0.12111104 0.053319167
-0.32845041 -0.12103662 0.053351387
-0.32863289 -0.12097654 0.05331675
-0.32882875 -0.12090257 0.053352445
-0.32899725 -0.12085704 0.05324401
-0.32920039 -0.1207781 0.053298131
-0.32938397 -0.12071703 0.053268101
-0.32957155 -0.12065425 0.053240359
-0.32975271 -0.12059568 0.053197645
-0.32994279 -0.12052812 0.053199898
-0.33013666 -0.1204568 0.053220604
-0.33031964 -0.12039879 0.05316864
-0.33050215 -0.12033901 0.053131692
-0.33069426 -0.12027192 0.0531247
-0.33089474 -0.12019663 0.05315806
-0.33108762 -0.12012897 0.053153366
-0.33125389 -0.12008528 0.053036865
-0.33142847 -0.12003113 0.052978024
-0.33163938 -0.119946 0.053058662
-0.3318243 -0.11988626 0.053014763
-0.33202189 -0.11981213 0.053046986
-0.33223596 -0.11972227 0.05315531
-0.332389 -0.11969332 0.052961536
-0.33258176 -0.11962404 0.052969545
-0.33276772 -0.11956559 0.052912939
-0.332964 -0.11949312 0.052935943
-0.3331686 -0.11941712 0.05296351
-0.33335042 -0.11936058 0.052903473
-0.33354816 -0.1192891 0.052914917
-0.33372879 -0.11923163 0.052865278
-0.33391944 -0.11916281 0.052875604
-0.33411813 -0.11909069 0.052889355
-0.33430764 -0.11902919 0.052846588
-0.33449939 -0.11896763 0.052798033
-0.33467731 -0.11890676 0.052781891
-0.3348656 -0.11884041 0.05277954
-0.33504656 -0.11878283 0.052729897
-0.33523783 -0.11871589 0.052724067
-0.3354257 -0.11865406 0.052688237
-0.33558753 -0.11860982 0.052587915
-0.335816 -0.11850768 0.052751563
-0.33598638 -0.11846358 0.052626949
-0.33618745 -0.11838628 0.052674163
-0.33639753 -0.11830683 0.052713238
-0.33657715 -0.11825453 0.052626662
-0.33677793 -0.11818348 0.052626543
-0.3369633 -0.11812043 0.052606884
-0.33714715 -0.11806061 0.052566465
-0.33734819 -0.11798767 0.0525802
-0.3375392 -0.11792728 0.052524723
-0.33773878 -0.11785575 0.052531529
-0.33791852 -0.11779228 0.052530393
-0.33810589 -0.11772598 0.052530359
-0.33831358 -0.11765683 0.052496709
-0.33849135 -0.11759886 0.05245864
-0.33870667 -0.11751608 0.052509222
-0.33886689 -0.11747137 0.052416999
-0.33904877 -0.11741179 0.052380055
-0.33924553 -0.11734322 0.052371874
-0.33946192 -0.1172599 0.052423604
-0.3396526 -0.11719663 0.052391216
-0.33984655 -0.11713415 0.052343808
-0.340018 -0.11707826 0.052306928
-0.34023651 -0.1169936 0.052363269
-0.34043506 -0.11692049 0.052385096
-0.34061822 -0.11686542 0.052310038
-0.34079838 -0.11680765 0.052263878
-0.34098175 -0.11674726 0.052229226
-0.34117013 -0.1166845 0.052199166
-0.34137869 -0.1166086 0.052215159
-0.34158128 -0.11653601 0.052221958
-0.34177321 -0.11646885 0.052216109
-0.34194666 -0.11641675 0.052144587
-0.34215918 -0.1163363 0.052184798
-0.3423641 -0.11626379 0.052184653
-0.34254038 -0.11621115 0.052109636
-0.3427366 -0.11614412 0.05209107
-0.34293395 -0.11607293 0.052101366
-0.34312779 -0.11600795 0.052073576
-0.34330857 -0.11595176 0.05201355
-0.34350741 -0.1158796 0.052027296
-0.34371299 -0.11580867 0.052013289
-0.34391424 -0.11574121 0.051984303
-0.34412318 -0.11566772 0.051980663
-0.34431526 -0.1156044 0.051944807
-0.34449673 -0.11554468 0.051910177
-0.34469959 -0.11547139 0.051921591
-0.34489724 -0.11540069 0.051927261
-0.34507465 -0.11534901 0.051841848
-0.34529147 -0.11526509 0.051897041
-0.34548268 -0.11520118 0.051868118
-0.34567764 -0.11513128 0.051874965
-0.34586099 -0.1150751 0.051807992
-0.24423456 -0.150361 0.057063192
-0.24445981 -0.15028702 0.057019081
-0.24469648 -0.15021169 0.056954131
-0.24493197 -0.15013784 0.056881107
-0.24517263 -0.15006277 0.056803428
-0.24541685 -0.14998914 0.056704946
-0.24566396 -0.149913 0.05661799
-0.24592096 -0.14983831 0.05649288
-0.24613379 -0.14976659 0.056465026
-0.24635233 -0.14969364 0.056431349
-0.24658078 -0.14961942 0.056380302
-0.24680424 -0.14954667 0.05633159
-0.24702485 -0.14947265 0.056300215
-0.24724475 -0.14940012 0.056259602
-0.24748279 -0.14932641 0.05617848
-0.24771161 -0.14925416 0.056111269
-0.24794595 -0.14918071 0.056038249
-0.24816908 -0.14910868 0.055984922
-0.24839112 -0.14903538 0.055944301
-0.24862757 -0.14896373 0.055851646
-0.24885346 -0.14889073 0.055798303
-0.24907686 -0.14881919 0.055740356
-0.24930412 -0.14874645 0.055681232
-0.2495309 -0.14867523 0.055611718
-0.24975744 -0.14860272 0.055552598
-0.24998753 -0.14853184 0.055471525
-0.25021535 -0.14845964 0.05540663
-0.25044045 -0.14838752 0.055348672
-0.25068182 -0.14831594 0.055242125
-0.25089774 -0.14824525 0.055198085
-0.25110918 -0.14817312 0.055177152
-0.25133353 -0.14810291 0.055106506
-0.25155735 -0.14803138 0.055047404
-0.25177324 -0.14796115 0.054999888
-0.25199679 -0.14788987 0.054939635
-0.2522167 -0.14782003 0.054878253
-0.25243229 -0.14774869 0.05483998
-0.25264737 -0.1476789 0.05479132
-0.25287116 -0.14760813 0.054726452
-0.25308788 -0.14753865 0.054670855
-0.25330308 -0.14746776 0.054630272
-0.25351885 -0.14739847 0.054575846
-0.25373423 -0.14732781 0.054532945
-0.25394681 -0.14725861 0.054486614
-0.25416386 -0.14718826 0.054436792
-0.25437734 -0.14711933 0.054385841
-0.25458717 -0.14704883 0.054356828
-0.25480559 -0.14697891 0.05430007
-0.25501895 -0.14690882 0.05425835
-0.25522655 -0.14684001 0.054222438
-0.25543576 -0.14676988 0.05419229
-0.25564507 -0.14670138 0.054149434
-0.25590661 -0.14663035 0.053983897
-0.25606152 -0.14655386 0.054150328
-0.25645545 -0.14642347 0.054080948
-0.25673524 -0.1463514 0.053873733
-0.25718316 -0.14622129 0.053655088
-0.2573058 -0.14615005 0.053869054
-0.2575244 -0.14608173 0.053799592
-0.25773785 -0.1460131 0.053746328
-0.25794482 -0.14594406 0.053713884
-0.25814766 -0.14587633 0.053682614
-0.25836003 -0.14580481 0.053654753
-0.25855693 -0.14573991 0.053617753
-0.25876537 -0.14567143 0.053577214
-0.25897098 -0.14560436 0.053533234
-0.25917518 -0.14553407 0.053518113
-0.25936911 -0.14546767 0.053500764
-0.25957531 -0.14539936 0.05346486
-0.25979328 -0.14532749 0.053424262
-0.25997886 -0.14526376 0.053409263
-0.26017785 -0.14519499 0.053396486
-0.26038092 -0.14512673 0.053368691
-0.26058087 -0.14505988 0.053338591
-0.26077932 -0.14499129 0.053325824
-0.26096737 -0.14492324 0.053337358
-0.26115727 -0.14485377 0.053354658
-0.26133305 -0.144786 0.053397443
-0.26150894 -0.14471488 0.053465627
-0.26165766 -0.1446403 0.053634405
-0.26031876 -0.14406398 0.061708651
-0.26059815 -0.14400916 0.061369833
-0.26074928 -0.14392576 0.061599787
-0.26093215 -0.14385037 0.061681777
-0.26114178 -0.14378069 0.061647005
-0.26142499 -0.14361927 0.06211742
-0.26191941 -0.14337769 0.062629245
-0.2621761 -0.14331934 0.06237945
-0.26365817 -0.14326113 0.058793899
-0.2638514 -0.14318766 0.058833107
-0.26407212 -0.14310941 0.058834057
-0.26430261 -0.14303492 0.058779538
-0.26448396 -0.14296909 0.058792263
-0.26468724 -0.14289954 0.058773693
-0.26489177 -0.14282642 0.058779359
-0.26510218 -0.14276624 0.058669552
-0.26526171 -0.14270434 0.058711279
-0.265515 -0.14262316 0.058646217
-0.26570353 -0.14255913 0.058625437
-0.26590568 -0.14248593 0.058638036
-0.26609313 -0.14241178 0.058698066
-0.26627451 -0.14234443 0.058722343
-0.26646319 -0.14228065 0.05869925
-0.26670536 -0.14222232 0.058488801
-0.26687878 -0.14216168 0.058483109
-0.26709908 -0.14207232 0.058570646
-0.26729253 -0.14200175 0.058586769
-0.26747173 -0.14194462 0.058538329
-0.26770011 -0.14186758 0.058509216
-0.26789069 -0.14180073 0.058504574
-0.26807114 -0.14174211 0.058464207
-0.2682817 -0.14166746 0.05846522
-0.26848099 -0.14160083 0.058435127
-0.26868486 -0.14152898 0.058432721
-0.26890218 -0.14146276 0.058350563
-0.26908123 -0.14139563 0.058379479
-0.26925325 -0.14133322 0.05839112
-0.26948139 -0.14125927 0.058338918
-0.26965013 -0.14119832 0.058348268
-0.26982236 -0.1411339 0.058374912
-0.27006295 -0.14106816 0.058225662
-0.27022541 -0.14100343 0.05828122
-0.2704336 -0.14092675 0.058304183
-0.27064741 -0.14085397 0.058282085
-0.27080411 -0.14079668 0.058296122
-0.27103108 -0.14072794 0.058206983
-0.27121249 -0.14065968 0.058238193
-0.27141428 -0.14059292 0.058202304
-0.27159294 -0.14052622 0.058228914
-0.271804 -0.14045079 0.058234539
-0.27199218 -0.14039184 0.058175653
-0.27216467 -0.14032567 0.058215
-0.27241489 -0.14026073 0.058033366
-0.27260903 -0.14018738 0.05806911
-0.27277693 -0.14011982 0.058131561
-0.27296478 -0.14005649 0.058107324
-0.27316317 -0.13999198 0.05806338
-0.27336523 -0.13992393 0.058036737
-0.27355647 -0.13985714 0.058029786
-0.27376777 -0.1397851 0.058008857
-0.27394661 -0.13972403 0.057991587
-0.27414563 -0.13965781 0.057959192
-0.2743513 -0.13958907 0.057927907
-0.27452523 -0.13953157 0.057896815
-0.2746982 -0.13946088 0.057969637
-0.27490017 -0.13939616 0.057917595
-0.27510899 -0.13933428 0.057825103
-0.27528721 -0.13926308 0.057887502
-0.27548939 -0.13919619 0.057851616
-0.27568388 -0.13913697 0.057777688
-0.27586305 -0.13906619 0.057834309
-0.27607372 -0.1390032 0.05774527
-0.276261 -0.13894953 0.057648294
-0.27645016 -0.13887222 0.057727944
-0.27664194 -0.13879594 0.057792563
-0.27683833 -0.13873003 0.057764798
-0.27701226 -0.13866532 0.057789121
-0.2771982 -0.13860326 0.057760268
-0.2774033 -0.13854735 0.057632014
-0.27758944 -0.1384771 0.057665501
-0.27779511 -0.13840748 0.057641141
-0.27796844 -0.13833982 0.057689711
-0.27816233 -0.13827631 0.057650417
-0.27836272 -0.1382132 0.05759031
-0.27855876 -0.13815702 0.057488665
-0.27874008 -0.1380906 0.057506017
-0.27892438 -0.13801967 0.057549905
-0.27912465 -0.13795404 0.057509415
-0.27931902 -0.13788541 0.057508215
-0.27948612 -0.13782069 0.057551056
-0.27967203 -0.13776 0.057511814
-0.27987841 -0.13769822 0.057425112
-0.28006226 -0.13762714 0.057471313
-0.28024024 -0.13756549 0.057460979
-0.28044993 -0.13750616 0.057346545
-0.2806468 -0.13743635 0.05734764
-0.28084126 -0.13736843 0.057340663
-0.28103474 -0.13729665 0.057366028
-0.28125033 -0.13722846 0.057303511
-0.28141806 -0.13716774 0.057314016
-0.28158104 -0.13710058 0.057386901
-0.2817775 -0.13704455 0.057282947
-0.28197092 -0.13697641 0.057280593
-0.28217024 -0.13690872 0.057258584
-0.28233773 -0.13685513 0.057214841
-0.28251848 -0.13678214 0.057284143
-0.28270823 -0.13671888 0.057254117
-0.28292295 -0.13664787 0.057215847
-0.28310493 -0.136583 0.057219341
-0.28330705 -0.13651794 0.057169609
-0.28348804 -0.13647129 0.057035729
-0.2836749 -0.13639149 0.05714079
-0.28386748 -0.13632348 0.057139602
-0.28405756 -0.13626522 0.057070315
-0.28421789 -0.13619554 0.057169762
-0.28438762 -0.13612524 0.057248369
-0.28460056 -0.13607377 0.057064656
-0.28477538 -0.13600768 0.057097051
-0.28496629 -0.13595091 0.057013907
-0.285153 -0.13588259 0.057031233
-0.28534877 -0.13581795 0.056995396
-0.28553736 -0.13575135 0.056994222
-0.28571877 -0.1356912 0.056963094
-0.28590134 -0.13562793 0.05695273
-0.28609616 -0.13555418 0.056989625
-0.28629282 -0.13548653 0.056974564
-0.28646007 -0.13543122 0.056944665
-0.2866447 -0.13537022 0.056911208
-0.28683493 -0.13530575 0.056889255
-0.28702763 -0.13524386 0.056840733
-0.28722429 -0.13517216 0.056856837
-0.28740507 -0.13510771 0.056860335
-0.28758153 -0.13505322 0.056799211
-0.28775209 -0.13498771 0.056838572
-0.28795555 -0.13492849 0.056740344
-0.28814927 -0.13486382 0.056710284
-0.2883428 -0.13479398 0.056720629
-0.28851464 -0.13472475 0.056785375
-0.2886934 -0.13466357 0.056769267
-0.2888746 -0.13460544 0.056723133
-0.28906676 -0.13454479 0.056666523
-0.28925565 -0.13449129 0.056563772
-0.28944477 -0.13442181 0.05658339
-0.28962812 -0.13436171 0.056546465
-0.2897976 -0.13427754 0.056732446
-0.2899712 -0.13420993 0.056779861
-0.29017624 -0.134174 0.056498066
-0.29035968 -0.13410263 0.056547731
-0.29054853 -0.13403279 0.056570809
-0.29072815 -0.13397416 0.056532755
-0.29092401 -0.13392767 0.056357227
-0.29109466 -0.13383648 0.056593988
-0.29128027 -0.13377453 0.056565136
-0.29147354 -0.1337117 0.056522392
-0.29166421 -0.1336448 0.056517743
-0.2918441 -0.13358758 0.056468148
-0.29203358 -0.13353314 0.05637116
-0.29223147 -0.1334652 0.056354936
-0.29240674 -0.13340046 0.056375787
-0.29258391 -0.1333316 0.05642318
-0.29277277 -0.13326955 0.056386232
-0.29295313 -0.13320675 0.056378186
-0.29313096 -0.133139 0.056415185
-0.29332054 -0.13309534 0.056235075
-0.29351795 -0.13303584 0.056155365
-0.29369178 -0.13295102 0.056334384
-0.29386824 -0.1328887 0.056333285
-0.29406199 -0.13283937 0.056185484
-0.29424912 -0.13275661 0.056312472
-0.29442829 -0.13270114 0.056251332
-0.29462603 -0.13265415 0.056074638
-0.29480439 -0.13256757 0.056254789
-0.29499808 -0.1325109 0.056163549
-0.2951785 -0.13244988 0.05614166
-0.29536664 -0.13238944 0.056094315
-0.29555494 -0.1323183 0.056128941
-0.29573169 -0.13224627 0.056201726
-0.29591376 -0.13219084 0.056132503
-0.29609916 -0.13213468 0.056059785
-0.29628825 -0.13206595 0.056073621
-0.29647455 -0.13200061 0.056069009
-0.29665369 -0.131936 0.056078296
-0.29684138 -0.13187617 0.056027494
-0.29702109 -0.13181421 0.056014843
-0.2972084 -0.13175362 0.055970971
-0.29739502 -0.13169043 0.05594904
-0.29757646 -0.1316199 0.055997558
-0.29776376 -0.13156036 0.055945616
-0.29794881 -0.13148916 0.055989496
-0.29813963 -0.13142988 0.055925973
-0.29832634 -0.13136829 0.055891342
-0.29850844 -0.13130039 0.055917926
-0.29868099 -0.13123976 0.055914558
-0.29886547 -0.13118918 0.05580144
-0.29905063 -0.13111733 0.055849932
-0.29923356 -0.13105604 0.055823412
-0.29942703 -0.13099568 0.055761032
-0.29962298 -0.13092573 0.055765599
-0.29979506 -0.13086119 0.055793397
-0.29997131 -0.13080557 0.055741511
-0.30016407 -0.13073945 0.05572531
-0.30035341 -0.13067454 0.055709139
-0.30052555 -0.1306079 0.055753101
-0.3007082 -0.13054775 0.055718496
-0.30089408 -0.13048121 0.055724274
-0.30107334 -0.13042662 0.055656217
-0.30126256 -0.1303601 0.055652738
-0.30144501 -0.13029912 0.055625059
-0.30163762 -0.13022974 0.05563426
-0.30182341 -0.13016714 0.055610023
-0.30200589 -0.13010255 0.055610053
-0.30219179 -0.13003631 0.055613521
-0.30236423 -0.1299742 0.055621695
-0.30255216 -0.12992826 0.05546353
-0.30274162 -0.129857 0.055495843
-0.30291796 -0.12978709 0.05555363
-0.3031024 -0.12973681 0.055438209
-0.30329162 -0.12966955 0.055440508
-0.30347088 -0.12960413 0.055455558
-0.30366117 -0.12952852 0.055519033
-0.3038387 -0.12947799 0.055424433
-0.3040235 -0.12941994 0.055367872
-0.30421278 -0.12935251 0.055371329
-0.30439144 -0.12929182 0.055351749
-0.30457595 -0.12921479 0.055441812
-0.30476388 -0.12915625 0.055380624
-0.30495018 -0.12910591 0.055260565
-0.30513301 -0.12905607 0.055146303
-0.30532497 -0.12897462 0.055250179
-0.30550066 -0.12891257 0.055249095
-0.30568713 -0.12884417 0.055267565
-0.30587429 -0.12878694 0.055198297
-0.30607548 -0.12870869 0.05525247
-0.30625138 -0.12864627 0.055253696
-0.30643082 -0.12858215 0.055258356
-0.30660814 -0.12852643 0.055204164
-0.30680415 -0.12845767 0.055199493
-0.30698067 -0.12839323 0.055214558
-0.30716476 -0.12834565 0.055079509
-0.30735418 -0.12827845 0.055080652
-0.307538 -0.12820978 0.055108376
-0.30772653 -0.1281459 0.055086438
-0.30791411 -0.12808508 0.05504372
-0.30809355 -0.12802126 0.055046078
-0.30828544 -0.12795605 0.055025268
-0.30847687 -0.12789236 0.054994069
-0.30865183 -0.12783311 0.054973364
-0.30882677 -0.12776533 0.05501847
-0.30901548 -0.12770095 0.054999977
-0.30921021 -0.12762797 0.05503111
-0.30939582 -0.12757203 0.054956075
-0.30956593 -0.12751797 0.054908853
-0.30974993 -0.12745045 0.054927338
-0.30992967 -0.12739404 0.054871969
-0.31012064 -0.12732373 0.054892734
-0.31030434 -0.12725736 0.054903142
-0.31048772 -0.12719186 0.054907776
-0.31066334 -0.12714501 0.054790106
-0.31085601 -0.12707786 0.054781981
-0.31102365 -0.12703548 0.054651655
-0.31121531 -0.12694453 0.054829415
-0.31139037 -0.12690432 0.05466209
-0.31157202 -0.12684274 0.05464134
-0.31176555 -0.12676148 0.054739431
-0.31196967 -0.12667634 0.054838605
-0.31214696 -0.12662439 0.054755546
-0.31233037 -0.12657118 0.054665525
-0.31252998 -0.12647878 0.054832842
-0.31273228 -0.12641004 0.054810815
-0.3128964 -0.1263728 0.054650493
-0.31308135 -0.12631048 0.054626264
-0.31325603 -0.12624656 0.054642502
-0.31343246 -0.12619537 0.054555986
-0.31363177 -0.12611628 0.054621711
-0.31380993 -0.12606162 0.054557122
-0.31399873 -0.12599224 0.05457674
-0.31417891 -0.12593371 0.054536372
-0.31436393 -0.12587138 0.054512139
-0.31453678 -0.12581123 0.054504149
-0.31472588 -0.12574658 0.054486819
-0.31492159 -0.12567505 0.054504089
-0.31509936 -0.12562069 0.054438341
-0.31527692 -0.12555723 0.054443013
-0.31546092 -0.12549676 0.054407246
-0.31565428 -0.12542953 0.054397978
-0.31582841 -0.12537645 0.054332253
-0.31601378 -0.12530918 0.054344963
-0.31620643 -0.1252389 0.05436109
-0.31638822 -0.12517335 0.054370351
-0.31657383 -0.12511456 0.054317258
-0.31675389 -0.12505607 0.054276902
-0.31695029 -0.12498027 0.054325327
-0.31713417 -0.12491999 0.05428841
-0.31731275 -0.12485978 0.054265372
-0.31749487 -0.12479817 0.054243468
-0.31768134 -0.12473397 0.054229617
-0.31788045 -0.1246587 0.054266486
-0.31806839 -0.12459249 0.054264177
-0.31823647 -0.1245441 0.05417886
-0.31842989 -0.12447369 0.054193832
-0.31861931 -0.12440544 0.054203048
-0.31879655 -0.12435111 0.054138467
-0.31897721 -0.12429182 0.054102719
-0.31916991 -0.12421912 0.054137316
-0.31935003 -0.12416421 0.054069251
-0.31953529 -0.1241021 0.054042708
-0.31971565 -0.12404321 0.054004651
-0.31990933 -0.12396956 0.054043867
-0.32011002 -0.12388998 0.054109581
-0.32027313 -0.12385461 0.053937715
-0.32046443 -0.12378104 0.05398272
-0.32066166 -0.12370313 0.054044992
-0.32084522 -0.12364357 0.054003455
-0.32102278 -0.12359843 0.053867295
-0.32120281 -0.12353351 0.053876571
-0.32140777 -0.12344612 0.053990748
-0.32159126 -0.12338988 0.053923815
-0.32178023 -0.12332975 0.053871855
-0.32197672 -0.12325691 0.053897195
-0.32215476 -0.12319493 0.053889174
-0.32235101 -0.12313195 0.053839467
-0.32252806 -0.12306821 0.053847615
-0.32269961 -0.12302056 0.053747274
-0.32288933 -0.12295341 0.053747259
-0.32308087 -0.12288412 0.053758778
-0.32326093 -0.12282293 0.05373919
-0.32346377 -0.12274019 0.05382337
-0.32364872 -0.12268208 0.053766817
-0.32383406 -0.12261768 0.053757589
-0.3239994 -0.12257131 0.053664215
-0.32418421 -0.12251325 0.053607665
-0.32438278 -0.12243623 0.053659551
-0.32457936 -0.1223617 0.053697586
-0.32476318 -0.12229934 0.053676821
-0.32494953 -0.12223683 0.053650282
-0.3251234 -0.12218595 0.053568393
-0.32532871 -0.12210459 0.053635243
-0.32549617 -0.12205821 0.05353608
-0.32568094 -0.12199222 0.053540714
-0.32585418 -0.12194455 0.053435739
-0.32602665 -0.12189236 0.053367727
-0.32624045 -0.12179943 0.053500321
-0.32641768 -0.12174466 0.053439192
-0.32660955 -0.12167375 0.053462252
-0.32678819 -0.12161487 0.053428832
-0.32699749 -0.12153029 0.053509496
-0.32714829 -0.12150423 0.053299613
-0.32735997 -0.12141476 0.053411447
-0.32753563 -0.12135918 0.053360727
-0.32773614 -0.12128206 0.053407975
-0.32792151 -0.12121871 0.053390667
-0.32810703 -0.12115769 0.053354893
-0.32828736 -0.12109972 0.05330991
-0.32848176 -0.12102702 0.05333988
-0.32866547 -0.12096561 0.053312194
-0.32886365 -0.12089156 0.053342141
-0.32903641 -0.12084392 0.053238329
-0.32923666 -0.12076554 0.05329597
-0.32942015 -0.1207045 0.053265974
-0.3296012 -0.12064597 0.053223297
-0.32978249 -0.1205872 0.053181775
-0.32997873 -0.12051566 0.053197879
-0.33017299 -0.1204439 0.053220924
-0.33035567 -0.12038615 0.05316785
-0.33053622 -0.12032825 0.053121716
-0.33072895 -0.12026049 0.053118214
-0.33092818 -0.12018412 0.053163163
-0.33111602 -0.12011914 0.053151615
-0.33128291 -0.12007477 0.053038612
-0.33145902 -0.12002129 0.052970562
-0.3316696 -0.11993642 0.053050071
-0.33185238 -0.11987653 0.053013161
-0.33205259 -0.11979982 0.053058099
-0.33226597 -0.11971276 0.053146828
-0.33241761 -0.11968504 0.052947327
-0.33261356 -0.11961269 0.052970365
-0.33280319 -0.11955278 0.052914944
-0.33299941 -0.11948033 0.052937966
-0.33320111 -0.1194091 0.052936725
-0.33337981 -0.11935125 0.052895214
-0.33357903 -0.11927835 0.052913614
-0.3337639 -0.11921892 0.052867454
-0.33395147 -0.11915088 0.052880149
-0.33414796 -0.11908074 0.052884705
-0.33433989 -0.11901897 0.052837349
-0.3345325 -0.11895455 0.052808456
-0.33471256 -0.11889368 0.052786555
-0.33489269 -0.11883277 0.052764669
-0.33507791 -0.11877321 0.052718505
-0.33526987 -0.11870363 0.052731171
-0.33545601 -0.1186433 0.052688465
-0.33561832 -0.1185986 0.052590497
-0.33584285 -0.11849993 0.05273803
-0.33601367 -0.11845537 0.052615754
-0.33621663 -0.11837635 0.052671075
-0.33642662 -0.11829694 0.052710179
-0.33660755 -0.11824341 0.052629411
-0.3368037 -0.11817639 0.052610885
-0.33698809 -0.11811413 0.052587807
-0.3371743 -0.11805032 0.052571654
-0.33737683 -0.1179779 0.052577335
-0.33756328 -0.11791956 0.052518461
-0.33776134 -0.11784932 0.052519552
-0.33794692 -0.11778259 0.05252764
-0.3381336 -0.11771681 0.052525334
-0.3383376 -0.11764897 0.052491747
-0.33851203 -0.11759384 0.052441038
-0.33872452 -0.11751159 0.052495141
-0.33889276 -0.11746359 0.052406359
-0.3390685 -0.11740739 0.052360255
-0.33927092 -0.11733396 0.052374013
-0.33947727 -0.11725553 0.052415449
-0.33966839 -0.1171936 0.052371562
-0.33986509 -0.11712699 0.052348409
-0.34004122 -0.11707065 0.052302301
-0.34025538 -0.11698781 0.052356392
-0.34045655 -0.11691423 0.05237478
-0.3406325 -0.11686335 0.052287117
-0.34082174 -0.11679802 0.052274399
-0.34100121 -0.1167408 0.052225959
-0.34118992 -0.11667942 0.052184388
-0.34139282 -0.11660641 0.052193526
-0.34160078 -0.11652937 0.05221995
-0.34178764 -0.11646458 0.05220956
-0.34196532 -0.1164107 0.052140351
-0.3421708 -0.11633423 0.052169103
-0.34237531 -0.11626202 0.052167844
-0.34255743 -0.1162046 0.052113611
-0.34275788 -0.11613578 0.052097373
-0.34294748 -0.11606911 0.05209389
-0.34314454 -0.11600314 0.05206497
-0.34332088 -0.11594883 0.052002698
-0.34352231 -0.11587453 0.052025698
-0.34372616 -0.1158033 0.052018665
-0.34391877 -0.11574264 0.051960915
-0.34413505 -0.11566491 0.051969972
-0.3443352 -0.11559679 0.05194911
-0.34451449 -0.11553872 0.051907599
-0.34472182 -0.11546191 0.051934026
-0.34490606 -0.1153985 0.051920187
-0.3450821 -0.11534939 0.051818669
-0.34530622 -0.11525974 0.051898092
-0.34549913 -0.11519447 0.051874973
-0.34569368 -0.11512487 0.051880702
-0.34586903 -0.11507481 0.051788416
-0.24426986 -0.15034635 0.057079773
-0.24449565 -0.15027249 0.057033338
-0.24473764 -0.15019724 0.056953333
-0.24496891 -0.15012488 0.05688031
-0.24520791 -0.15004994 0.056806087
-0.24544655 -0.14997649 0.056721482
-0.24569976 -0.14990044 0.056617156
-0.24595767 -0.14982587 0.056488551
-0.24616805 -0.14975564 0.05645607
-0.24637812 -0.1496828 0.056444377
-0.24660411 -0.14960872 0.056399103
-0.24683444 -0.14953609 0.056330711
-0.24705681 -0.14946221 0.056293547
-0.24727635 -0.14938979 0.056252927
-0.24750397 -0.14931753 0.056189165
-0.24773204 -0.1492454 0.0561231
-0.2479731 -0.14917213 0.056030393
-0.24819545 -0.14910021 0.055978213
-0.24841839 -0.14902705 0.055934109
-0.24864668 -0.14895545 0.055863418
-0.24887714 -0.14888263 0.055796184
-0.24910103 -0.14881122 0.055735908
-0.24932835 -0.14873861 0.055675615
-0.24954993 -0.14866741 0.055619977
-0.24977535 -0.14859502 0.055563156
-0.25001109 -0.14852437 0.055464715
-0.25023818 -0.1484523 0.055400953
-0.25046 -0.14838162 0.055340704
-0.2506963 -0.14831005 0.055248022
-0.25091463 -0.14823955 0.055195868
-0.25112814 -0.14816761 0.055167988
-0.25134665 -0.14809735 0.055113532
-0.25157601 -0.14802612 0.055037059
-0.25178999 -0.14795597 0.05499417
-0.25200641 -0.14788601 0.054943178
-0.2522347 -0.14781515 0.054866713
-0.25244704 -0.14774527 0.054826137
-0.25266355 -0.14767422 0.054783233
-0.25288031 -0.14760473 0.054727629
-0.25310227 -0.14753416 0.054666214
-0.25331753 -0.1474634 0.054624468
-0.25353411 -0.14739428 0.054566551
-0.25374579 -0.14732358 0.054534066
-0.2539573 -0.14725445 0.054490034
-0.25417665 -0.14718436 0.054432098
-0.25439382 -0.14711426 0.054379951
-0.25460517 -0.14704399 0.054345157
-0.25481519 -0.14697522 0.054302298
-0.25502861 -0.14690527 0.054259412
-0.25523847 -0.14683671 0.054215387
-0.25544915 -0.14676683 0.054179445
-0.25565815 -0.14669843 0.054136589
-0.25591362 -0.14662564 0.054001071
-0.25606179 -0.14655033 0.054176811
-0.25647223 -0.14641981 0.054063428
-0.25675648 -0.14634977 0.053828429
-0.25717878 -0.1462149 0.053716134
-0.25732517 -0.14614564 0.053850319
-0.25754136 -0.14607726 0.053787779
-0.25774813 -0.14600979 0.053743783
-0.25795379 -0.14594078 0.053714801
-0.25815973 -0.14587346 0.053671952
-0.25837871 -0.14580108 0.053632498
-0.25856835 -0.14573728 0.053607076
-0.25877479 -0.14566873 0.053572312
-0.25898534 -0.14560068 0.05352252
-0.25918394 -0.14553159 0.053513207
-0.25938314 -0.14546426 0.05348888
-0.25958735 -0.14539589 0.053458754
-0.25979814 -0.14532506 0.053429738
-0.25999093 -0.14526059 0.053400833
-0.2601864 -0.1451932 0.053386915
-0.26039043 -0.14512521 0.053354479
-0.26058683 -0.14505811 0.053335954
-0.26078373 -0.14498949 0.053327806
-0.26097307 -0.14492172 0.053333554
-0.26116234 -0.14485233 0.053352013
-0.26133946 -0.14478318 0.053401724
-0.26151609 -0.14471059 0.053479146
-0.26165688 -0.14463684 0.053663008
-0.26035407 -0.14406757 0.061584838
-0.26061177 -0.14400631 0.061354626
-0.26074094 -0.14392 0.061666735
-0.26094809 -0.1438482 0.061655059
-0.26141408 -0.1436117 0.062205233
-0.26195991 -0.14338051 0.062497433
-0.26214033 -0.14330433 0.062592149
-0.26367813 -0.14325778 0.058765464
-0.26385185 -0.14318112 0.058882166
-0.26409885 -0.14310381 0.058804423
-0.26431578 -0.14303094 0.058774218
-0.26449126 -0.14296614 0.058795065
-0.2647059 -0.14289303 0.058772955
-0.26491094 -0.14282018 0.058775157
-0.2651141 -0.14276271 0.05866421
-0.2652792 -0.14269809 0.058711678
-0.26553729 -0.14261806 0.058624633
-0.26572755 -0.14255059 0.058625765
-0.26592937 -0.14247751 0.058638375
-0.26611146 -0.14240645 0.058689211
-0.26628429 -0.14234152 0.058718152
-0.26649314 -0.14227407 0.058668371
-0.26672912 -0.14221868 0.058452159
-0.26689631 -0.14215483 0.058488064
-0.26712164 -0.14206474 0.058567487
-0.26730612 -0.14199854 0.058574438
-0.26751322 -0.14193338 0.058511954
-0.26772559 -0.14185913 0.058504872
-0.26791227 -0.14179575 0.058484085
-0.2680904 -0.14173464 0.058469132
-0.26832527 -0.14165547 0.058438808
-0.26849705 -0.14159511 0.058435433
-0.26872218 -0.14151801 0.058415569
-0.26893273 -0.14145462 0.058329973
-0.26910678 -0.1413864 0.058380857
-0.26929006 -0.14132273 0.058371644
-0.26951084 -0.14124927 0.05833564
-0.26968569 -0.14118572 0.058348402
-0.26985466 -0.14112726 0.058338128
-0.27008769 -0.14105968 0.058223531
-0.27026001 -0.14098892 0.05829867
-0.27048138 -0.14091164 0.05829037
-0.2706672 -0.14084467 0.058299616
-0.27084783 -0.14078765 0.058246534
-0.27106002 -0.14071482 0.058229059
-0.27125561 -0.14064635 0.058223233
-0.27145165 -0.14058042 0.058196619
-0.27162957 -0.14051369 0.058225527
-0.27184016 -0.14044069 0.05821383
-0.27202013 -0.14037937 0.058195408
-0.27221552 -0.14031594 0.058151472
-0.27246651 -0.14024203 0.058036771
-0.27264291 -0.14017507 0.058071464
