# .PCD v0.7 - Point Cloud Data file format
VERSION 0.7
FIELDS x y z
SIZE 4 4 4
TYPE F F F
COUNT 1 1 1
WIDTH 1312
HEIGHT 1
VIEWPOINT 0 0 0 1 0 0 0
POINTS 1312
DATA ascii
-0.20688926 -0.41840249 0.052913908
-0.2070761 -0.41847381 0.052918702
-0.20724319 -0.41853747 0.052923609
-0.20742509 -0.41861746 0.05285576
-0.2075962 -0.41868472 0.052846801
-0.20780385 -0.41876724 0.052829579
-0.20797852 -0.41882947 0.052864436
-0.20814987 -0.41889784 0.052848555
-0.20833564 -0.4189674 0.052862592
-0.20851949 -0.4190473 0.052800503
-0.20869432 -0.41911027 0.052830741
-0.20887148 -0.41917983 0.052821752
-0.20903637 -0.41923863 0.052854352
-0.20918141 -0.41928068 0.052949354
-0.20938648 -0.41939181 0.052729111
-0.20959431 -0.41947779 0.052688815
-0.20976938 -0.41954219 0.052709825
-0.20994765 -0.41960767 0.052731976
-0.21011513 -0.41967553 0.052709192
-0.21029937 -0.41975155 0.052674789
-0.2104799 -0.41981521 0.052715387
-0.21065578 -0.41989303 0.05264641
-0.21083885 -0.4199661 0.052629311
-0.21100938 -0.42003614 0.052599587
-0.21118566 -0.42010623 0.052584834
-0.21136153 -0.42017499 0.052578159
-0.21154974 -0.4202463 0.052586414
-0.21172598 -0.42031705 0.052567054
-0.21190926 -0.42039302 0.052530341
-0.21208888 -0.42046642 0.052501719
-0.21226452 -0.42053577 0.052490436
-0.21244352 -0.42060724 0.052473359
-0.21260081 -0.42066056 0.0525233
-0.21274933 -0.4207297 0.052441776
-0.21297196 -0.42081061 0.052475244
-0.21315019 -0.42087924 0.052475475
-0.21332602 -0.42095169 0.052443415
-0.21350579 -0.42103019 0.052380197
-0.21364595 -0.42109004 0.052340243
-0.21381377 -0.42115232 0.052356683
-0.21399692 -0.42121512 0.052409954
-0.2141722 -0.42128667 0.052382518
-0.21436396 -0.42136779 0.052333072
-0.2145609 -0.42144215 0.052343596
-0.21474244 -0.42151713 0.052309196
-0.21491714 -0.42158711 0.052290991
-0.21509469 -0.42165533 0.052292377
-0.21526903 -0.4217228 0.052290328
-0.21544626 -0.42178807 0.052311327
-0.2156212 -0.42186418 0.052251592
-0.215785 -0.42191735 0.052319959
-0.21595311 -0.4219878 0.052281018
-0.21615021 -0.42207164 0.052226938
-0.2163278 -0.42214763 0.052175261
-0.21650487 -0.42221364 0.05219049
-0.21667868 -0.42227605 0.052221894
-0.21683028 -0.42234635 0.052140363
-0.21703312 -0.42243007 0.052102402
-0.21721007 -0.42249888 0.052098021
-0.21738379 -0.42256328 0.052115578
-0.21755427 -0.42262778 0.052123927
-0.21771827 -0.42269227 0.052115001
-0.21791102 -0.4227719 0.052078251
-0.21807809 -0.42283794 0.052067
-0.2182551 -0.42290089 0.052103005
-0.21843109 -0.4229818 0.052013267
-0.21860091 -0.42305276 0.05197547
-0.21877152 -0.42311242 0.052017279
-0.21894144 -0.42318088 0.051996786
-0.21911013 -0.42326134 0.051890936
-0.21929771 -0.42331812 0.051997248
-0.21948162 -0.42337987 0.052059755
-0.21963686 -0.42342991 0.052127011
-0.21979509 -0.42350951 0.051999293
-0.22000748 -0.42361003 0.051871292
-0.22017181 -0.42366725 0.051913135
-0.22032148 -0.42371023 0.052013882
-0.22052693 -0.42380807 0.051885918
-0.22071201 -0.42388391 0.051854964
-0.22086459 -0.42394921 0.051810339
-0.22103269 -0.42400539 0.051869467
-0.22120616 -0.42408615 0.051773965
-0.22141057 -0.42416695 0.051760219
-0.22157428 -0.42422763 0.051776677
-0.22174704 -0.42429432 0.051775787
-0.22192693 -0.42437455 0.05170102
-0.22211955 -0.42444557 0.0517231
-0.22228895 -0.42451131 0.051719919
-0.22247119 -0.42458168 0.05171898
-0.22263685 -0.42464784 0.051703129
-0.22278659 -0.4247075 0.051689658
-0.22298355 -0.42478776 0.0516598
-0.22316654 -0.42485541 0.051679626
-0.22332191 -0.42493021 0.0515773
-0.22349937 -0.42499268 0.051617913
-0.2236536 -0.42505947 0.05156751
-0.22383167 -0.4251304 0.051551595
-0.22401989 -0.42520341 0.051548317
-0.22420266 -0.42527145 0.051564671
-0.22437009 -0.42534116 0.051529199
-0.22452843 -0.42539674 0.051566448
-0.22468863 -0.42545691 0.051577158
-0.22487476 -0.4255347 0.051535822
-0.22504643 -0.42561105 0.051465716
-0.22520953 -0.42568111 0.051416416
-0.22540995 -0.4257516 0.05146268
-0.22557588 -0.42581549 0.051462974
-0.22576398 -0.4258883 0.051460855
-0.2259213 -0.42594653 0.051477347
-0.22610107 -0.42602804 0.051393352
-0.22626534 -0.42609486 0.051369436
-0.22643828 -0.42615977 0.05138123
-0.22660623 -0.42622679 0.051365368
-0.22679368 -0.42629364 0.051402468
-0.22696568 -0.4263604 0.051399272
-0.22713628 -0.42642289 0.051421456
-0.22731476 -0.42650494 0.051330552
-0.22749314 -0.42657399 0.051328484
-0.22766533 -0.42664653 0.051286057
-0.22783476 -0.42671701 0.051250573
-0.22799933 -0.42679468 0.051152818
-0.22816384 -0.42685416 0.051179655
-0.22834899 -0.42691302 0.051265225
-0.2285365 -0.42698628 0.051258478
-0.22871506 -0.42706633 0.051181421
-0.22887444 -0.42713881 0.051105611
-0.22904402 -0.42720276 0.051115122
-0.22923172 -0.42727003 0.051149916
-0.22939502 -0.42733696 0.051122539
-0.22958556 -0.42741138 0.051115777
-0.22976469 -0.42747921 0.051124081
-0.2299494 -0.42755052 0.051123131
-0.23010813 -0.4276177 0.051081933
-0.23027667 -0.42768312 0.051078755
-0.23043713 -0.42774811 0.05105716
-0.23060863 -0.42781988 0.051018208
-0.23078243 -0.42788413 0.051036917
-0.23095557 -0.42795873 0.05098296
-0.23111542 -0.42802414 0.050956748
-0.23128481 -0.42809778 0.050899353
-0.23146491 -0.42816919 0.050885726
-0.23163624 -0.4282451 0.050817933
-0.23180519 -0.42830983 0.050820522
-0.23198795 -0.42836964 0.050893407
-0.23217569 -0.42843354 0.050951272
-0.2323408 -0.42850235 0.050915811
-0.23252086 -0.42857811 0.050872196
-0.23269105 -0.42865038 0.05082633
-0.23285761 -0.42871335 0.050834697
-0.23301937 -0.42878488 0.050771561
-0.23320505 -0.42885119 0.050807521
-0.23337755 -0.42892116 0.050783552
-0.23355383 -0.42899579 0.050737653
-0.23371708 -0.42906171 0.050717197
-0.23389277 -0.42912886 0.0507209
-0.23406738 -0.42919308 0.050741922
-0.2342544 -0.42926261 0.050759412
-0.23442286 -0.42933574 0.050703168
-0.23459348 -0.42940331 0.050690752
-0.23476134 -0.42946929 0.050681811
-0.23494908 -0.42953843 0.050703906
-0.23512034 -0.42960557 0.050696105
-0.23529086 -0.42967325 0.05068253
-0.23545744 -0.42974028 0.050663214
-0.23563069 -0.42980951 0.050646164
-0.23580559 -0.4298811 0.050617572
-0.2359716 -0.42995194 0.050570566
-0.23614423 -0.43001807 0.050573137
-0.23631731 -0.43009079 0.050531864
-0.23649889 -0.43015435 0.050575927
-0.23667899 -0.43022573 0.0505623
-0.23684768 -0.43029794 0.050512973
-0.23701753 -0.43036604 0.050494794
-0.23718543 -0.43043864 0.050440863
-0.23736423 -0.43050429 0.050463013
-0.2375391 -0.43057248 0.050457492
-0.23771365 -0.43064091 0.050449666
-0.23788844 -0.43070602 0.050464921
-0.23805921 -0.43077987 0.050409812
-0.23824023 -0.43084458 0.05044464
-0.23840034 -0.43091834 0.050361905
-0.23857158 -0.43098867 0.050332181
-0.23875117 -0.43105432 0.050356627
-0.23893374 -0.4311184 0.050399523
-0.23910736 -0.43119049 0.050364017
-0.23927946 -0.43125746 0.050359663
-0.23945397 -0.43132904 0.05032992
-0.23962413 -0.43139997 0.050293282
-0.23979351 -0.43147126 0.050252032
-0.23997298 -0.43153736 0.05027302
-0.24015029 -0.43160465 0.050280184
-0.24031927 -0.43167612 0.050236624
-0.24049634 -0.43174079 0.050261095
-0.24067158 -0.43181199 0.050235957
-0.24084929 -0.43187925 0.050244268
-0.24102135 -0.43194923 0.050219156
-0.241203 -0.43202022 0.050212443
-0.2413597 -0.43209451 0.050117038
-0.24154836 -0.43215963 0.050169133
-0.24173425 -0.43222082 0.050240844
-0.24190262 -0.43228987 0.050212294
-0.24205898 -0.43236673 0.050098427
-0.24222142 -0.43243819 0.050037596
-0.24240281 -0.43250421 0.050064355
-0.24258514 -0.43257761 0.05004264
-0.24276225 -0.432643 0.050062492
-0.24294671 -0.43270546 0.050121523
-0.24311467 -0.43277723 0.050073359
-0.24328725 -0.43285209 0.050015938
-0.24343799 -0.43292543 0.049911335
-0.24364187 -0.4329882 0.050019875
-0.24382102 -0.43305317 0.050047792
-0.24400063 -0.43312049 0.050060704
-0.24416283 -0.43319675 0.049966425
-0.24433607 -0.43326163 0.049979374
-0.24450663 -0.43333471 0.049928889
-0.24468669 -0.43340442 0.049926803
-0.24483842 -0.43348402 0.049781818
-0.24501544 -0.43354768 0.049813196
-0.24521799 -0.43361679 0.049874447
-0.24537598 -0.43368706 0.049810179
-0.24556012 -0.43375093 0.049858835
-0.24569756 -0.43383244 0.049663171
-0.24587795 -0.433893 0.049724534
-0.24608094 -0.4339579 0.04981577
-0.2462409 -0.43403196 0.049730729
-0.24642247 -0.43409702 0.049764402
-0.24661577 -0.43416309 0.04982223
-0.24677593 -0.43423924 0.049723353
-0.24694774 -0.4343096 0.049694773
-0.24713397 -0.43437797 0.049718037
-0.24730855 -0.43445632 0.049642149
-0.24747768 -0.43452314 0.049630888
-0.24765183 -0.4345929 0.049612686
-0.24783958 -0.43466324 0.049626715
-0.24799705 -0.43472907 0.049591292
-0.24818349 -0.4347935 0.049642246
-0.24835566 -0.43486184 0.04962866
-0.24853489 -0.43493256 0.04961735
-0.24871066 -0.43500209 0.049604908
-0.24889061 -0.43506855 0.049624741
-0.24904203 -0.43514016 0.049533978
-0.24920169 -0.43521374 0.049451247
-0.24938427 -0.43528575 0.049439918
-0.24957177 -0.43535665 0.04944934
-0.24975641 -0.43542627 0.049459912
-0.24994117 -0.43549389 0.049484342
-0.25011262 -0.43556869 0.049424626
-0.25029352 -0.43563533 0.049445607
-0.25047725 -0.43570343 0.049464263
-0.2506592 -0.43577787 0.049434483
-0.2508333 -0.43583837 0.049479734
-0.25101152 -0.43590787 0.049474195
-0.25117102 -0.43598324 0.049378768
-0.25134346 -0.43605202 0.049362883
-0.2515071 -0.4361226 0.049311284
-0.25169069 -0.43618727 0.049353015
-0.25186378 -0.43625984 0.049312893
-0.25204355 -0.43633109 0.049299281
-0.25220576 -0.43640196 0.049241912
-0.25238988 -0.43646869 0.049270954
-0.25256443 -0.43653727 0.049261976
-0.25274327 -0.436607 0.049256444
-0.25291562 -0.43668163 0.049200181
-0.25309902 -0.43674874 0.049224608
-0.25327089 -0.43681797 0.049204107
-0.25346744 -0.43688849 0.049240004
-0.25362739 -0.43695799 0.049186114
-0.25380272 -0.43702853 0.049165595
-0.25398472 -0.43709981 0.049157739
-0.25415254 -0.43717521 0.049084194
-0.2543349 -0.43724295 0.04910171
-0.25450093 -0.43731326 0.049058165
-0.25468159 -0.43738136 0.049068771
-0.25488046 -0.43745208 0.049109265
-0.25503778 -0.43752378 0.049033474
-0.25520125 -0.43759277 0.04899225
-0.2554062 -0.43765762 0.049089245
-0.25558847 -0.43773103 0.049067542
-0.25575179 -0.43780014 0.049025163
-0.25593504 -0.43787175 0.04901845
-0.2560955 -0.43794128 0.048965707
-0.25627497 -0.43801343 0.048945166
-0.25644398 -0.43808526 0.048899308
-0.25662249 -0.43815082 0.048921451
-0.25679851 -0.43822181 0.048899777
-0.2569862 -0.43829647 0.048883814
-0.25717673 -0.43836415 0.048923202
-0.25734293 -0.43843809 0.048855435
-0.25751519 -0.43850964 0.048819937
-0.25769153 -0.43858078 0.048798263
-0.25784567 -0.43865106 0.048723627
-0.25802958 -0.43872139 0.048727296
-0.25822514 -0.43878731 0.048792042
-0.25840837 -0.43885788 0.048792247
-0.25858858 -0.43892884 0.048782092
-0.25879967 -0.4389984 0.048862901
-0.25895703 -0.43907329 0.048765186
-0.25911722 -0.43914625 0.048688222
-0.25930181 -0.43921533 0.048702266
-0.25948322 -0.43928319 0.048716325
-0.25966436 -0.43935433 0.048707314
-0.25983396 -0.43942806 0.048649907
-0.26000297 -0.43949869 0.048612114
-0.26020232 -0.43956843 0.048660692
-0.26037914 -0.43964007 0.048636708
-0.26054853 -0.4397139 0.048578151
-0.26073596 -0.43978325 0.048597947
-0.26090252 -0.43984959 0.048583243
-0.26108557 -0.43992245 0.048567303
-0.26126844 -0.43999842 0.048529442
-0.26144007 -0.44006604 0.048519321
-0.26162413 -0.44013745 0.048516061
-0.26179749 -0.4402096 0.048479408
-0.2619825 -0.44028106 0.048478454
-0.26215708 -0.44035318 0.048445243
-0.26232427 -0.44042277 0.048409771
-0.26250359 -0.44049168 0.048411153
-0.26269591 -0.4405629 0.048430927
-0.26288188 -0.44063607 0.048420731
-0.26307255 -0.44070902 0.048424367
-0.26324263 -0.44078159 0.048376184
-0.26341859 -0.44084802 0.048385665
-0.26357901 -0.44092107 0.048308689
-0.26376104 -0.4409917 0.048305441
-0.26393348 -0.44106132 0.048283786
-0.26413038 -0.4411343 0.048303537
-0.26432639 -0.44121033 0.048300218
-0.26450139 -0.44128144 0.048275083
-0.26468602 -0.44134936 0.048297204
-0.26485166 -0.44142374 0.048224822
-0.26503313 -0.44149333 0.048227344
-0.26523209 -0.44156241 0.048279382
-0.26540264 -0.44163954 0.048201203
-0.26557603 -0.44170952 0.048179548
-0.26577231 -0.4417789 0.048222374
-0.26592657 -0.44184804 0.048155814
-0.26610553 -0.44192222 0.048120283
-0.2663019 -0.44199601 0.048133109
-0.26648745 -0.44206733 0.048134461
-0.2666792 -0.44214135 0.048133474
-0.26684883 -0.44221309 0.04808991
-0.26702142 -0.44228476 0.048054408
-0.26717752 -0.44235396 0.04799246
-0.26739118 -0.44242653 0.048059423
-0.26755932 -0.44249701 0.048020486
-0.26776767 -0.44257393 0.048043627
-0.26793218 -0.44264454 0.047994331
-0.26810655 -0.44271505 0.047971509
-0.26829347 -0.44278556 0.047982082
-0.2684741 -0.44285884 0.047956917
-0.26867995 -0.44293478 0.047980081
-0.26886126 -0.4430095 0.047946844
-0.26902404 -0.44307891 0.047901008
-0.2691991 -0.44314837 0.047887418
-0.26936585 -0.4432205 0.047833484
-0.26956907 -0.44329542 0.047856659
-0.26975909 -0.44337299 0.047826838
-0.26993066 -0.44344261 0.04780288
-0.27011609 -0.44351238 0.047814611
-0.2702992 -0.44358611 0.047792904
-0.27046818 -0.44365841 0.047743574
-0.27066451 -0.44373238 0.047755249
-0.27086139 -0.44380772 0.047758844
-0.27104241 -0.44387645 0.047765989
-0.27123407 -0.44395313 0.047746539
-0.27138612 -0.44402531 0.047653466
-0.27159661 -0.44409987 0.04769852
-0.17504652 -0.40572861 0.055673137
-0.1752532 -0.40581095 0.055654749
-0.17544389 -0.40588289 0.055665284
-0.17565602 -0.40596464 0.055665322
-0.17588416 -0.40606469 0.055582222
-0.17608155 -0.40614107 0.055580027
-0.17627862 -0.40621918 0.055565145
-0.17649436 -0.40630469 0.055549011
-0.17670469 -0.40638927 0.055524834
-0.17691106 -0.40647233 0.055500679
-0.17710908 -0.40654594 0.055519242
-0.17730771 -0.40662211 0.05552166
-0.17750354 -0.40669388 0.055547152
-0.17771849 -0.40678528 0.055488355
-0.17793962 -0.40688059 0.055419125
-0.17813864 -0.40695763 0.05541693
-0.17833966 -0.4070366 0.055406637
-0.1785503 -0.40712467 0.055359386
-0.17875087 -0.40720344 0.055349108
-0.17893997 -0.40726957 0.055395402
-0.17915536 -0.40736049 0.055341206
-0.17935984 -0.40744331 0.055313602
-0.17956744 -0.40752718 0.05528713
-0.17975891 -0.4075979 0.055308037
-0.1799252 -0.40765506 0.055355605
-0.18017583 -0.40777001 0.055229712
-0.18037178 -0.40784535 0.055230983
-0.180574 -0.4079268 0.05520685
-0.18078803 -0.40801769 0.055149205
-0.1809475 -0.40806648 0.055236027
-0.18117847 -0.40816557 0.055166759
-0.18134226 -0.40822715 0.055177428
-0.18151698 -0.4082973 0.055158053
-0.18178597 -0.40841061 0.05509204
-0.18197292 -0.40848228 0.055094514
-0.18217586 -0.40856117 0.05508998
-0.1823886 -0.40865207 0.055028886
-0.18258829 -0.40874547 0.054915939
-0.18276906 -0.40880048 0.055016495
-0.18296638 -0.40886977 0.055062748
-0.18318084 -0.40896302 0.054990105
-0.18336731 -0.4090305 0.055020265
-0.18358846 -0.40913084 0.054916438
-0.18376367 -0.40918708 0.05499395
-0.18393181 -0.40925419 0.054978069
-0.18409914 -0.40932283 0.0549495
-0.18437657 -0.40944746 0.054828081
-0.18457469 -0.4095206 0.054850105
-0.18476534 -0.40959069 0.054873325
-0.18496186 -0.40966925 0.054853838
-0.18515611 -0.40974325 0.054859735
-0.18535174 -0.40982115 0.054842554
-0.18554771 -0.40989715 0.054839216
-0.18574725 -0.40997943 0.054802407
-0.18595311 -0.41006616 0.054751724
-0.18614346 -0.41013899 0.05475533
-0.1863503 -0.41022709 0.054697722
-0.1865305 -0.41028929 0.054747529
-0.18672457 -0.41036642 0.054731503
-0.1869255 -0.41045105 0.054682001
-0.18710442 -0.41050956 0.054753728
-0.1873052 -0.41059431 0.054703072
-0.18751517 -0.41068682 0.054623529
-0.18770239 -0.41075709 0.054636382
-0.18789981 -0.41083619 0.054615732
-0.18809541 -0.41091594 0.054585863
-0.18828337 -0.41098735 0.054592952
-0.18846914 -0.41105637 0.054610431
-0.18866818 -0.41113779 0.054578234
-0.18885282 -0.41120571 0.054600324
-0.18905103 -0.41128644 0.054570451
-0.18925962 -0.41138181 0.054467849
-0.18944329 -0.41144633 0.054510709
-0.18962303 -0.41150901 0.0545559
-0.18982795 -0.41160077 0.054468311
-0.19002034 -0.41167825 0.054445375
-0.19022402 -0.41176632 0.054379717
-0.19040717 -0.41183335 0.054404125
-0.19060695 -0.41191721 0.054356929
-0.19078842 -0.41198242 0.054389425
-0.19098054 -0.41206029 0.054363042
-0.1911725 -0.4121381 0.054336648
-0.19136357 -0.41221222 0.054333337
-0.19155514 -0.41228992 0.054306947
-0.19174185 -0.412359 0.054326728
-0.19193555 -0.4124395 0.054286491
-0.19208062 -0.41248676 0.054345705
-0.19228032 -0.41259232 0.054149721
-0.19251204 -0.41267356 0.054205015
-0.19269684 -0.41274372 0.054212119
-0.1928885 -0.41281959 0.054198414
-0.19307753 -0.41289526 0.054178968
-0.19327044 -0.412976 0.054135274
-0.19343606 -0.41302228 0.054255515
-0.19364141 -0.41311604 0.054155227
-0.19382796 -0.41318908 0.054147329
-0.19400935 -0.4132556 0.054170597
-0.19420804 -0.41334459 0.054085348
-0.1943983 -0.41341975 0.054072812
-0.19458334 -0.41349137 0.054070678
-0.194769 -0.41356391 0.054063931
-0.19496043 -0.41364422 0.05401909
-0.19514039 -0.41372883 0.053914331
-0.1953427 -0.41380143 0.05395133
-0.19551554 -0.41385722 0.054025397
-0.19571041 -0.4139429 0.05395285
-0.19588788 -0.41400841 0.053972684
-0.19607671 -0.41407946 0.053984374
-0.19624545 -0.41415337 0.053923503
-0.19645202 -0.41423231 0.053928189
-0.19663976 -0.41430563 0.053921431
-0.19682956 -0.4143855 0.053875435
-0.19701263 -0.41445601 0.053875633
-0.19720124 -0.41453457 0.053835422
-0.19738519 -0.4146066 0.053827524
-0.19757329 -0.41468477 0.053788468
-0.19775626 -0.41475207 0.053810578
-0.19793387 -0.41482252 0.053796954
-0.19810751 -0.41488349 0.05383756
-0.19826709 -0.41495335 0.053780202
-0.19847454 -0.41502759 0.053819481
-0.19867958 -0.4151172 0.053746887
-0.19886006 -0.41518503 0.053758625
-0.19904765 -0.41526386 0.053713799
-0.19923997 -0.41534638 0.053656265
-0.19941996 -0.41541386 0.053669162
-0.19960372 -0.41548735 0.05365089
-0.19977334 -0.41555065 0.05366499
-0.19996525 -0.4156293 0.053632833
-0.20014994 -0.41570061 0.053631861
-0.20033982 -0.41578048 0.053585876
-0.2005197 -0.41584843 0.053595316
-0.20070095 -0.41591877 0.053592052
-0.20088673 -0.41599673 0.053548388
-0.20105721 -0.41606221 0.053549796
-0.2012406 -0.41613218 0.053554598
-0.20137908 -0.41617858 0.053602319
-0.2015624 -0.41627529 0.053423714
-0.20176333 -0.41634917 0.053448033
-0.20198843 -0.41643813 0.053433008
-0.20216636 -0.41650382 0.053452827
-0.20234896 -0.41657785 0.053427644
-0.20253272 -0.41664946 0.053422067
-0.2027024 -0.41670996 0.05345577
-0.20288654 -0.41679215 0.053378675
-0.20307459 -0.41686243 0.053393833
-0.20325874 -0.41693538 0.053380176
-0.20343879 -0.41700575 0.05337346
-0.20361254 -0.41707939 0.053327557
-0.20380257 -0.41715917 0.053282719
-0.20398632 -0.41722694 0.053303666
-0.20416394 -0.41729316 0.053318888
-0.20434465 -0.41736564 0.053299479
-0.20449144 -0.41741306 0.053362142
-0.20466492 -0.41750395 0.053197436
-0.20486529 -0.41757324 0.053251747
-0.20503536 -0.41764683 0.053196635
-0.20522936 -0.41772559 0.053169087
-0.20541485 -0.41779217 0.053202711
-0.2055587 -0.41785091 0.053180043
-0.20575763 -0.41792318 0.053210128
-0.20597288 -0.41801977 0.053116716
-0.20614846 -0.41808286 0.053148091
-0.20632809 -0.41815525 0.053126384
-0.20650901 -0.41822442 0.053130038
-0.20668556 -0.41828993 0.053147573
-0.20686233 -0.418356 0.053161629
-0.20704812 -0.41844404 0.053048771
-0.20722823 -0.41851881 0.053012066
-0.20739755 -0.41858083 0.053034235
-0.20758472 -0.41865277 0.053035557
-0.20775144 -0.4187153 0.053047366
-0.20788565 -0.41875148 0.053153932
-0.20810737 -0.41886318 0.052973982
-0.20830236 -0.41894183 0.052949883
-0.20847441 -0.41901198 0.052923594
-0.20865835 -0.41908401 0.052915707
-0.20883544 -0.41915289 0.052911315
-0.20901647 -0.41922516 0.052894205
-0.20919439 -0.41929689 0.052872516
-0.20937434 -0.41936636 0.052871559
-0.20954026 -0.41942808 0.052886836
-0.2097168 -0.41950518 0.052824773
-0.20988634 -0.41956964 0.052830797
-0.21006246 -0.41963679 0.05283564
-0.21026184 -0.41971427 0.052831132
-0.21041572 -0.41977507 0.052821092
-0.21059667 -0.41984946 0.052788995
-0.21077904 -0.41992947 0.052722286
-0.21097389 -0.42000237 0.052737407
-0.21115357 -0.42007324 0.052726075
-0.21131979 -0.42013779 0.052722897
-0.21147639 -0.42019928 0.052715153
-0.21168247 -0.42028254 0.052688688
-0.21183969 -0.42035973 0.052574821
-0.21202883 -0.42042217 0.052646492
-0.21221215 -0.42049816 0.052609768
-0.21237291 -0.42056683 0.052563932
-0.21255338 -0.42063028 0.052605659
-0.21273585 -0.42070341 0.052586243
-0.21291602 -0.42078075 0.05253223
-0.21308765 -0.42084533 0.052542862
-0.21325032 -0.42091066 0.052524708
-0.21341591 -0.42097563 0.052516915
-0.21360609 -0.42104283 0.052558582
-0.21380761 -0.42112383 0.052535612
-0.21394864 -0.42114767 0.052744802
-0.21414037 -0.42126748 0.052430045
-0.21431807 -0.42133358 0.052446414
-0.21451771 -0.42140293 0.052498423
-0.21469694 -0.42148206 0.052429415
-0.21486314 -0.42155701 0.052354719
-0.21504688 -0.42162323 0.052386053
-0.21522497 -0.4216952 0.052363191
-0.21540292 -0.42176661 0.052343801
-0.2155671 -0.42182294 0.05239138
-0.21574236 -0.42190239 0.052309718
-0.21592948 -0.42197263 0.05232257
-0.21610412 -0.42204663 0.052276663
-0.21627805 -0.42210773 0.052317273
-0.21645594 -0.42218855 0.05223329
-0.21659166 -0.42225137 0.052161057
-0.21678141 -0.42230934 0.052265022
-0.21696195 -0.42237973 0.05225946
-0.21714565 -0.4224574 0.05221235
-0.21732287 -0.42251641 0.052276015
-0.21749046 -0.42257828 0.052294735
-0.21766436 -0.42264962 0.052264988
-0.2178541 -0.42273229 0.052199386
-0.21799864 -0.42279619 0.052143257
-0.21817207 -0.42286921 0.052100822
-0.21838135 -0.4229455 0.052130859
-0.21854854 -0.42301071 0.052125368
-0.21871911 -0.42307439 0.052139465
-0.21890491 -0.42315423 0.05208312
-0.21906847 -0.42322108 0.052056886
-0.2192678 -0.42329636 0.052067365
-0.2194446 -0.42336345 0.052074514
-0.21961093 -0.42343375 0.052032106
-0.21976845 -0.42349288 0.052042808
-0.21994457 -0.42356443 0.052017659
-0.22012718 -0.4236373 0.052000552
-0.22031197 -0.42371741 0.051939595
-0.22046861 -0.4237811 0.051916853
-0.22061779 -0.42384794 0.051852621
-0.22078715 -0.42391604 0.051833272
-0.22096507 -0.42399296 0.051775821
-0.22116891 -0.42406076 0.051849719
-0.22136012 -0.42412364 0.051923692
-0.22153202 -0.42419559 0.051884718
-0.22169828 -0.4242613 0.051873464
-0.22186303 -0.42433298 0.051817231
-0.22204024 -0.42441034 0.051755164
-0.22222564 -0.42446965 0.051838383
-0.22239242 -0.42453286 0.05184558
-0.2225765 -0.42461017 0.051801935
-0.2227646 -0.42468551 0.051782481
-0.22291917 -0.42474166 0.051805895
-0.22308455 -0.42482033 0.05170352
-0.22328441 -0.4248921 0.051739372
-0.22345275 -0.42496097 0.051711962
-0.22361279 -0.42503253 0.051644213
-0.22377115 -0.42509824 0.051612236
-0.22397901 -0.42516825 0.051681504
-0.22415847 -0.4252362 0.051689789
-0.22433272 -0.42530802 0.051657718
-0.22449711 -0.42537653 0.051622249
-0.22466677 -0.42544997 0.051567141
-0.22483672 -0.42551374 0.051578939
-0.22501908 -0.4255833 0.051583737
-0.2251821 -0.42564592 0.051585186
-0.22536501 -0.42572245 0.051543854
-0.22553194 -0.4257926 0.051503755
-0.22570653 -0.42585465 0.051539745
-0.22589463 -0.42592797 0.051534146
-0.22606739 -0.42599383 0.051539004
-0.22624131 -0.42606485 0.051511556
-0.22639824 -0.42612427 0.051518802
-0.2265711 -0.42619002 0.05152481
-0.22676468 -0.4262673 0.051506486
-0.22691326 -0.42632097 0.051531084
-0.22710717 -0.42640427 0.051472388
-0.22726795 -0.42647693 0.05139887
-0.22744735 -0.4265447 0.051408302
-0.22761367 -0.42660809 0.051413193
-0.22777236 -0.42667103 0.051400825
-0.22794147 -0.4267424 0.051358406
-0.22810578 -0.42681476 0.051296405
-0.2282732 -0.4268705 0.051356666
-0.22845073 -0.42694107 0.051341884
-0.22861363 -0.42702079 0.051225677
-0.22878326 -0.42709067 0.051194802
-0.22897176 -0.42715707 0.051237635
-0.22915871 -0.42722571 0.051260877
-0.22934617 -0.42729929 0.051251814
-0.22952393 -0.42736927 0.051241651
-0.22969984 -0.42744157 0.051210731
-0.22986285 -0.42750385 0.051214486
-0.23003867 -0.42757612 0.05118357
-0.23021851 -0.4276385 0.051231071
-0.23039053 -0.42770526 0.051227853
-0.23055807 -0.42777717 0.051177375
-0.23071186 -0.42784515 0.051117733
-0.23088501 -0.42791051 0.051127199
-0.23106983 -0.42798203 0.051125079
-0.23124418 -0.42805088 0.051113769
-0.23141924 -0.4281235 0.051078249
-0.23158351 -0.42818913 0.051062386
-0.23176089 -0.42825475 0.051081065
-0.23194118 -0.42832202 0.051096261
-0.23210877 -0.42839313 0.051051538
-0.23227373 -0.42846239 0.051012609
-0.23243955 -0.4285264 0.051011734
-0.23260999 -0.42859459 0.050994691
-0.23280008 -0.42866546 0.051010996
-0.23295952 -0.42873123 0.050981309
-0.23313507 -0.42880711 0.05092502
-0.2333115 -0.42886984 0.050960999
-0.23348165 -0.42893824 0.050941646
-0.23365797 -0.42900127 0.05097533
-0.23382677 -0.42907083 0.050944448
-0.23399746 -0.42914262 0.050903179
-0.23416823 -0.4292143 0.050863057
-0.23433906 -0.42928579 0.050824087
-0.23451672 -0.42935559 0.050815083
-0.23468366 -0.42942259 0.0507969
-0.23484218 -0.42948866 0.050762609
-0.23502594 -0.42955744 0.050776638
-0.23520221 -0.42962465 0.050781477
-0.23538323 -0.42969203 0.050797831
-0.23555766 -0.42976427 0.050763458
-0.23572536 -0.4298307 0.050751038
-0.23589973 -0.42990291 0.050716668
-0.23604611 -0.42997038 0.050640926
-0.23622538 -0.43004248 0.050620366
-0.23640789 -0.43010217 0.050693233
-0.23657817 -0.43017027 0.050676182
-0.23675036 -0.43023711 0.050672974
-0.23692498 -0.43030572 0.050663974
-0.23708922 -0.43037772 0.050604284
-0.23727538 -0.43044874 0.050609075
-0.23745316 -0.43051538 0.050621971
-0.23762631 -0.43057856 0.050646443
-0.2377978 -0.43065235 0.050593622
-0.23795995 -0.43072218 0.05054317
-0.23812684 -0.43078914 0.050524995
-0.23830256 -0.43085718 0.050522909
-0.23848113 -0.43092361 0.050539274
-0.23865607 -0.43099216 0.050531432
-0.23882571 -0.43105766 0.050530538
-0.23900391 -0.43112749 0.050522681
-0.23917773 -0.43119377 0.050527535
-0.23934942 -0.43126714 0.050478183
-0.23953339 -0.43133396 0.050506044
-0.23971178 -0.43140674 0.050478574
-0.23988312 -0.43147153 0.050486896
-0.24005774 -0.43154907 0.050416775
-0.24023129 -0.4316043 0.050496601
-0.24038824 -0.43167922 0.050397724
-0.24056318 -0.4317508 0.050369121
-0.2407342 -0.43181869 0.050355531
-0.24092032 -0.43187946 0.050430682
-0.24108341 -0.43195117 0.050369836
-0.24124895 -0.43201897 0.050342441
-0.24142973 -0.43209061 0.050328802
-0.24159281 -0.43216756 0.050232198
-0.24178235 -0.43222728 0.050323475
-0.24195817 -0.43229854 0.050299488
-0.2421307 -0.43237123 0.05025705
-0.24230617 -0.43243998 0.050249208
-0.24247284 -0.4325099 0.050210267
-0.24264115 -0.4325791 0.050180536
-0.24280719 -0.43265432 0.05010353
-0.24298908 -0.43272051 0.050130256
-0.24316552 -0.43278393 0.050161626
-0.24334788 -0.43285015 0.050189499
-0.24352801 -0.43291736 0.050204705
-0.24370211 -0.43299434 0.050136879
-0.24387406 -0.43305483 0.050176349
-0.24404141 -0.43312451 0.050140865
-0.24421972 -0.43318528 0.050195292
-0.24438369 -0.43326107 0.05010907
-0.24456115 -0.43333429 0.050075833
-0.24472964 -0.43340591 0.050029956
-0.24491623 -0.4334783 0.050026678
-0.2450667 -0.43354195 0.049987812
-0.24523658 -0.43360603 0.0499973
-0.24542119 -0.43368155 0.04996749
-0.24559411 -0.43374932 0.04995966
-0.24577521 -0.43381909 0.049959853
-0.24595456 -0.43388262 0.049998127
-0.24612843 -0.43395481 0.049962614
-0.24627957 -0.43402728 0.049864918
-0.24646416 -0.4341006 0.04985011
-0.24662773 -0.43416023 0.049873471
-0.2468207 -0.43422666 0.049927823
-0.24698517 -0.43429506 0.049893502
-0.24714963 -0.43436563 0.049844187
-0.247344 -0.43443412 0.049888153
-0.24748822 -0.43450394 0.049790494
-0.24767983 -0.434569 0.04985062
-0.24786012 -0.43464166 0.049828909
-0.24803688 -0.4347153 0.049791068
-0.24820866 -0.43478599 0.04976017
-0.24836966 -0.43485323 0.04972472
-0.24854212 -0.43492165 0.049711123
-0.24871814 -0.4349871 0.049727499
-0.24890651 -0.43505782 0.049740344
-0.24907501 -0.43512946 0.049694471
-0.24924248 -0.43519515 0.049686667
-0.24944095 -0.43526152 0.049755987
-0.24961317 -0.43534046 0.04966972
-0.24978194 -0.43540797 0.049652684
-0.24995534 -0.43548048 0.049613703
-0.25011241 -0.43554872 0.049560975
-0.25028139 -0.43562222 0.049503561
-0.25044361 -0.43568921 0.049472712
-0.25066537 -0.43574911 0.049648032
-0.25084558 -0.43582225 0.04962286
-0.25102493 -0.43589166 0.049620755
-0.25118375 -0.43596542 0.049534559
-0.25137252 -0.4360368 0.049543954
-0.2515426 -0.4361082 0.049503837
-0.25172409 -0.43617156 0.049549021
-0.2518892 -0.43624592 0.049475476
-0.25206223 -0.43631676 0.049446885
-0.25224635 -0.43638551 0.049462061
-0.25243875 -0.4364509 0.049522184
-0.25262213 -0.43652371 0.049507372
-0.25278297 -0.43659323 0.049455777
-0.25294971 -0.43666166 0.049427211
-0.25312662 -0.43673754 0.049374375
-0.2532934 -0.43680596 0.049345814
-0.25347343 -0.43687212 0.049367927
-0.25365019 -0.43694443 0.049339317
-0.25384805 -0.43701139 0.049402867
-0.25399876 -0.43708441 0.049300566
-0.25419399 -0.43715557 0.049328376
-0.25436261 -0.43722928 0.049268663
-0.25452322 -0.43730238 0.049191684
-0.25471398 -0.43736732 0.049250666
-0.25489733 -0.43743879 0.049245082
-0.25507307 -0.43750614 0.049247615
-0.25523722 -0.43757525 0.049207538
-0.25540584 -0.43764895 0.049147815
-0.25559247 -0.43771663 0.049176823
-0.25578326 -0.43779248 0.049160827
-0.25596574 -0.4378626 0.049162164
-0.25613391 -0.43793127 0.049135905
-0.25630417 -0.43800136 0.049105015
-0.25649142 -0.43806762 0.049145557
-0.2566846 -0.43814003 0.049159538
-0.25685808 -0.43821493 0.049104411
-0.25703123 -0.43828481 0.049082734
-0.2572234 -0.4383592 0.049080566
-0.25738496 -0.43843049 0.049018577
-0.25756836 -0.4384993 0.049031459
-0.25774521 -0.43856725 0.049032837
-0.25791916 -0.43864214 0.048978854
-0.25809914 -0.43871149 0.048979055
-0.25828373 -0.4387804 0.048994239
-0.25845918 -0.43885523 0.048944868
-0.25862682 -0.43892431 0.048913993
-0.25882027 -0.43899414 0.048946425
-0.25898269 -0.43906546 0.048886735
-0.25915942 -0.43913537 0.048874278
-0.25934365 -0.43920466 0.048885994
-0.25951546 -0.43927673 0.048845869
-0.25970945 -0.43934843 0.048866764
-0.25989884 -0.43941906 0.048883066
-0.2600691 -0.43949136 0.048837189
-0.2602486 -0.43956134 0.048831623
-0.26043236 -0.43963414 0.04881797
-0.26060447 -0.43970481 0.04878822
-0.2607806 -0.43977517 0.048771147
-0.26095366 -0.4398489 0.048722938
-0.26113251 -0.43991914 0.04871393
-0.26132637 -0.43999299 0.048719831
-0.26150399 -0.44006494 0.048695821
-0.26168579 -0.44013667 0.048684478
-0.26188338 -0.44020438 0.048742261
-0.26205194 -0.44028157 0.048658326
-0.26224124 -0.44035149 0.048679244
-0.26243287 -0.44042733 0.04866555
-0.26259413 -0.44049448 0.048631247
-0.26278418 -0.44056752 0.048632547
-0.2629894 -0.44064575 0.048638389
-0.26315376 -0.44071731 0.048582159
-0.2633172 -0.44078445 0.048553612
-0.26349947 -0.44085953 0.048520364
-0.26369298 -0.44093561 0.048510108
-0.26388294 -0.44100457 0.048539102
-0.26406801 -0.44107386 0.048553124
-0.26429182 -0.44114599 0.048649985
-0.2644231 -0.44122192 0.048476275
-0.26459807 -0.44129318 0.048449978
-0.26479092 -0.44136816 0.048445497
-0.26496667 -0.44143805 0.048430733
-0.26515219 -0.44150767 0.048443593
-0.26533926 -0.44158158 0.048431072
-0.26550663 -0.44165328 0.048381746
-0.26570833 -0.44172543 0.048419904
-0.26589832 -0.4417966 0.048433892
-0.26607403 -0.44187102 0.048387989
-0.26624909 -0.44194686 0.048330542
-0.26645043 -0.44202074 0.048356008
-0.26661617 -0.44209266 0.048300929
-0.26680946 -0.44216543 0.04831259
-0.26699716 -0.4422453 0.048260856
-0.26717365 -0.44231296 0.048263386
-0.26735809 -0.44238469 0.048258945
-0.26754329 -0.4424606 0.048227981
-0.26772752 -0.44253105 0.048231628
-0.26791185 -0.44260022 0.048244495
-0.26810515 -0.44267753 0.048225027
-0.26827404 -0.44275099 0.048167609
-0.26845407 -0.44282037 0.048167821
-0.26865461 -0.44290182 0.048139077
-0.26885921 -0.44297662 0.048166834
-0.26901713 -0.44304484 0.048116405
-0.26921201 -0.44312245 0.048099227
-0.2693862 -0.44319206 0.048082162
-0.26957738 -0.44326976 0.048054624
-0.26975676 -0.44333684 0.048068676
-0.26996645 -0.44341344 0.048097558
-0.2701498 -0.4434886 0.048066601
-0.27033064 -0.44356248 0.048037969
-0.27051741 -0.44363645 0.048024297
-0.27069315 -0.44370902 0.047991071
-0.27088693 -0.44378316 0.047994662
-0.2710765 -0.44385603 0.047995973
-0.2712599 -0.44392887 0.047981165
-0.27142501 -0.44399884 0.047937613
-0.27159151 -0.44407272 0.047870994
-0.1749731 -0.40565616 0.055975944
-0.17517205 -0.40572962 0.055997953
-0.1754102 -0.4058401 0.055869848
-0.1756123 -0.4059166 0.055879153
-0.17578882 -0.40597215 0.055964708
-0.17599167 -0.40604949 0.05597055
-0.176228 -0.40615907 0.055843603
-0.176429 -0.40623501 0.055854075
-0.1766561 -0.40633667 0.055757165
-0.17683998 -0.40639725 0.055827685
-0.17705429 -0.40648755 0.055774659
-0.17725483 -0.40656349 0.055783972
-0.17747296 -0.40665764 0.055714779
-0.17767088 -0.40673137 0.055732187
-0.17787778 -0.40681547 0.055702258
-0.17809619 -0.40690839 0.055642299
-0.17829265 -0.40698308 0.055649325
-0.17848584 -0.40705281 0.055681743
-0.17869149 -0.40713626 0.055652983
-0.17890695 -0.40722701 0.055599947
-0.1790942 -0.40729344 0.055639323
-0.17931065 -0.40738544 0.055580512
-0.17950633 -0.40745997 0.055586405
-0.17970699 -0.40753728 0.055586491
-0.17990857 -0.40761766 0.055568129
-0.18012744 -0.40771261 0.055495471
-0.18027131 -0.40776294 0.055530459
-0.1805301 -0.40787145 0.055470277
-0.18072698 -0.40794781 0.055466935
-0.18092325 -0.4080216 0.055479728
-0.1811201 -0.4080981 0.055475228
-0.18133266 -0.40818793 0.055421058
-0.18152454 -0.40825984 0.055435035
-0.18171653 -0.40832976 0.055462848
-0.1819326 -0.40842563 0.05537637
-0.18212286 -0.40849406 0.05540996
-0.18233053 -0.408582 0.055355817
-0.18255199 -0.40868163 0.055257775
-0.1827333 -0.40875685 0.05522107
-0.18292537 -0.40881422 0.055335369
-0.18313879 -0.40890858 0.055252362
-0.18333495 -0.40898347 0.055257089
-0.18353111 -0.40906072 0.055245675
-0.18373147 -0.40914011 0.055230778
-0.18390763 -0.4092063 0.055242535
-0.18412936 -0.40929863 0.055195235
-0.18432869 -0.40937966 0.055166498
-0.18452668 -0.40945712 0.055158541
-0.18472405 -0.40953636 0.055136729
-0.18492424 -0.40961635 0.055117223
-0.18511583 -0.40968981 0.055119667
-0.18530269 -0.40975609 0.055159044
-0.1854815 -0.40983757 0.055072762
-0.18571894 -0.40993601 0.055025376
-0.18590009 -0.40999889 0.055072851
-0.18606235 -0.41005853 0.055092748
-0.18631372 -0.41017711 0.054943815
-0.18650763 -0.41025147 0.054946247
-0.1866847 -0.41031027 0.055011045
-0.18688083 -0.41038719 0.055001929
-0.18707469 -0.41046423 0.054985914
-0.18726289 -0.41053522 0.05499645
-0.18745595 -0.41061163 0.05498274
-0.1876656 -0.41070384 0.054904372
-0.18783598 -0.41075552 0.055000335
-0.18804793 -0.41085064 0.054908112
-0.18823843 -0.4109247 0.054903649
-0.18844883 -0.41101855 0.054816052
-0.18863115 -0.41108376 0.054850832
-0.18882781 -0.41116256 0.054830186
-0.18898003 -0.41122252 0.054821312
-0.18913233 -0.41127476 0.054865472
-0.18937939 -0.41140348 0.054635849
-0.18961954 -0.41149032 0.054674931
-0.18980469 -0.41155928 0.054691251
-0.18999584 -0.4116326 0.054693699
-0.19018793 -0.41170979 0.054671925
-0.19037601 -0.41177973 0.054689378
-0.19056438 -0.41185281 0.054686081
-0.19076073 -0.41193268 0.054657366
-0.19094524 -0.41200137 0.054673679
-0.19114353 -0.41208383 0.054632269
-0.19132966 -0.4121547 0.054638211
-0.19153146 -0.41224173 0.05457487
-0.19171993 -0.41231567 0.054565802
-0.19190302 -0.41238031 0.054606345
-0.19207059 -0.41244048 0.05463659
-0.19229884 -0.4125461 0.054515462
-0.19248116 -0.41261297 0.054538704
-0.19267415 -0.41269019 0.054519236
-0.19286859 -0.41277233 0.054469779
-0.19305037 -0.41283581 0.054514937
-0.19322756 -0.41289648 0.054567039
-0.19343485 -0.41299236 0.054457553
-0.19362509 -0.41306984 0.054428872
-0.19381878 -0.41314885 0.054399014
-0.19401142 -0.41322979 0.054353021
-0.19419797 -0.41331863 0.054236725
-0.19438411 -0.4133727 0.054357972
-0.1945682 -0.41343975 0.054384675
-0.19476232 -0.41352329 0.054324832
-0.19494763 -0.41359216 0.0543423
-0.19513655 -0.41366914 0.054313626
-0.19533764 -0.41375941 0.054226074
-0.1955191 -0.41382343 0.054266628
-0.19570801 -0.41390091 0.054234494
-0.19589621 -0.41397426 0.054228887
-0.19608562 -0.41404942 0.054214045
-0.19627537 -0.41412857 0.054172687
-0.19645765 -0.41419408 0.054205157
-0.19664145 -0.41426522 0.054203033
-0.19682924 -0.41434211 0.054172061
-0.19702545 -0.41442761 0.054104142
-0.19721606 -0.41450542 0.054074295
-0.19739562 -0.41457108 0.054098714
-0.19758549 -0.41464809 0.054072343
-0.19776103 -0.41470796 0.054125614
-0.19792688 -0.41478664 0.054024417
-0.19814654 -0.414875 0.053999033
-0.19832513 -0.41493589 0.054053437
-0.19849467 -0.41500202 0.054047935
-0.19869049 -0.4150852 0.053994998
-0.19888693 -0.41516578 0.053961676
-0.19908096 -0.41525063 0.053892605
-0.19925418 -0.41530743 0.053960882
-0.1994309 -0.4153775 0.053947266
-0.19961767 -0.41544357 0.053987782
-0.19981283 -0.41553509 0.05387605
-0.19999833 -0.41561159 0.053841632
-0.20017964 -0.4156774 0.053869501
-0.20036948 -0.41576129 0.053795844
-0.20051907 -0.41582158 0.053777754
-0.20070948 -0.41589847 0.053753689
-0.20090739 -0.41596666 0.053809144
-0.2010754 -0.4160322 0.053803641
-0.20127925 -0.41611043 0.053806018
-0.20146579 -0.41619018 0.053751994
-0.20164055 -0.4162454 0.053835239
-0.20182779 -0.41632679 0.05377198
-0.20198347 -0.41638958 0.053752713
-0.20215891 -0.4164691 0.053671062
-0.20236738 -0.41653782 0.053750675
-0.20256115 -0.41662258 0.053681616
-0.20274334 -0.41669613 0.053658742
-0.20293117 -0.41678512 0.053544737
-0.20308398 -0.4168438 0.053546239
-0.20329176 -0.41691649 0.053597026
-0.20346987 -0.41698307 0.053611081
-0.20363575 -0.41704661 0.053613655
-0.20379755 -0.41711783 0.053552836
-0.20397773 -0.41717312 0.053649902
-0.20417166 -0.4172554 0.053598136
-0.2043213 -0.4173083 0.053630784
-0.20452885 -0.41740242 0.053533971
-0.20471637 -0.41748357 0.053473022
-0.20491353 -0.41756272 0.053451225
-0.20510188 -0.41763496 0.053453684
-0.2052809 -0.41770476 0.053448122
-0.2054366 -0.41776538 0.053443838
-0.20563468 -0.4178355 0.053486615
-0.20581454 -0.4179014 0.053509872
-0.20599803 -0.41798168 0.053444326
-0.20617168 -0.41805243 0.053418037
-0.20634715 -0.41811499 0.053452861
-0.2065407 -0.41820687 0.053334206
-0.20669888 -0.41826797 0.053333372
-0.20686589 -0.41833043 0.053346325
-0.20707256 -0.41840854 0.053356767
-0.20723477 -0.41847304 0.053343225
-0.20743138 -0.41855419 0.053306434
-0.20761311 -0.41862619 0.053292789
-0.20776793 -0.41868666 0.053287361
-0.20793599 -0.41875997 0.05322881
-0.20813704 -0.41883928 0.053216219
-0.20832685 -0.41891122 0.053224441
-0.20850381 -0.41897905 0.053226955
-0.20868073 -0.41904688 0.053229481
-0.20885675 -0.41911215 0.053246997
-0.20903604 -0.4191871 0.053206846
-0.20920552 -0.41925019 0.05322209
-0.20936137 -0.41930667 0.053246636
-0.20952594 -0.41939005 0.053109698
-0.20972854 -0.41946763 0.05311323
-0.20992155 -0.41954231 0.053111058
-0.21007711 -0.41959834 0.053137906
-0.21025735 -0.4196693 0.053127728
-0.21045578 -0.41975316 0.053077094
-0.21061879 -0.41982552 0.05301166
-0.2108123 -0.41989285 0.053061366
-0.21098714 -0.41996658 0.05301778
-0.2111678 -0.42004073 0.052986845
-0.21131662 -0.42009413 0.053013731
-0.21148941 -0.42017281 0.052930944
-0.21165684 -0.42023021 0.052979644
-0.21183032 -0.42031303 0.052870329
-0.21201593 -0.42037225 0.052954681
-0.21221174 -0.42045006 0.052938655
-0.21237329 -0.42052153 0.05287553
-0.21253623 -0.42058611 0.052863132
-0.212713 -0.42066008 0.052822992
-0.21288131 -0.42073771 0.052735608
-0.21306622 -0.42080861 0.052738093
-0.21325946 -0.42087549 0.052790113
-0.21342394 -0.4209511 0.052706219
-0.21363309 -0.42102244 0.052769683
-0.21378298 -0.42108452 0.052740067
-0.21398318 -0.42115662 0.052774757
-0.2141429 -0.42122418 0.052733544
-0.21429768 -0.42127857 0.052769624
-0.21449941 -0.4213627 0.0527259
-0.21468648 -0.42142853 0.052768722
-0.21487024 -0.42152053 0.052623603
-0.21503563 -0.42158824 0.052596211
-0.21521923 -0.42165157 0.052647129
-0.21539411 -0.42172182 0.052627753
-0.21556191 -0.42178255 0.052654538
-0.21573025 -0.42185059 0.052632898
-0.21589841 -0.42191705 0.052621622
-0.21605693 -0.42198163 0.05259772
-0.21624148 -0.42206213 0.052533329
-0.21642223 -0.42213193 0.052532367
-0.21659327 -0.42219731 0.05253607
-0.21675141 -0.42225921 0.052529469
-0.21693203 -0.42232576 0.052550431
-0.21711916 -0.42240173 0.052524064
-0.21729006 -0.42247292 0.052487411
-0.21743505 -0.42253664 0.05243361
-0.21762203 -0.42260364 0.052468363
-0.21780211 -0.42268562 0.052382071
-0.2179859 -0.42274937 0.052430689
-0.21816358 -0.4228057 0.052513927
-0.21832439 -0.42287284 0.052478477
-0.21849407 -0.42295468 0.052365728
-0.21868071 -0.42302641 0.052367043
-0.21886095 -0.42309484 0.052374162
-0.21901907 -0.42315018 0.052412536
-0.21920501 -0.42322904 0.05236312
-0.21935856 -0.42329589 0.052310415
-0.21953358 -0.42337912 0.052202251
-0.21973307 -0.42345297 0.052223098
-0.21990183 -0.4235045 0.052315608
-0.22005646 -0.42356136 0.052334398
-0.22022027 -0.42364714 0.052179001
-0.22039501 -0.42368436 0.052385643
-0.22058688 -0.42378399 0.052209355
-0.22076356 -0.42385122 0.052215341
-0.22096869 -0.42394942 0.052083943
-0.22112651 -0.42400652 0.052109633
-0.221295 -0.42406264 0.052169856
-0.22148785 -0.42413512 0.052182678
-0.22163574 -0.42420551 0.052090801
-0.22183724 -0.42428514 0.052077048
-0.22200023 -0.42434993 0.052063499
-0.22214556 -0.42440119 0.052096169
-0.22234078 -0.42447758 0.052088216
-0.22253509 -0.424557 0.052057203
-0.22268707 -0.42461029 0.052093308
-0.22286434 -0.42468649 0.052039318
-0.22304165 -0.42475075 0.052067205
-0.223232 -0.42483047 0.052023537
-0.22339654 -0.4248898 0.052051492
-0.223557 -0.424961 0.05198722
-0.22372529 -0.4250302 0.051957499
-0.22389862 -0.42509547 0.051968113
-0.22407472 -0.42517272 0.051903762
-0.22422098 -0.42524111 0.051821113
-0.22439821 -0.42529628 0.051911272
-0.22456814 -0.42536962 0.05185733
-0.22475763 -0.42544046 0.051872469
-0.22493172 -0.42551237 0.051839262
-0.22513279 -0.42558247 0.05189009
-0.2252986 -0.42564765 0.051881138
-0.2254627 -0.4257164 0.051843371
-0.22565101 -0.4257898 0.051837761
-0.22582726 -0.4258644 0.051791854
-0.22599348 -0.42592844 0.05179213
-0.22614737 -0.42598668 0.051799383
-0.22631715 -0.42605847 0.051755816
-0.22649269 -0.42611951 0.051801018
-0.22665216 -0.42618176 0.051795557
-0.22683997 -0.42627633 0.051643502
-0.22700962 -0.42634082 0.051649526
-0.22718658 -0.42639974 0.051713165
-0.2273479 -0.42646521 0.0516904
-0.22751814 -0.42653534 0.051659521
-0.22770908 -0.42660403 0.051693104
-0.22787313 -0.42667747 0.05162305
-0.22804578 -0.42674968 0.05158408
-0.22823767 -0.42681706 0.051629189
-0.22839503 -0.42687613 0.051639892
-0.22857989 -0.42695391 0.051595092
-0.22874767 -0.42702124 0.051576901
-0.22890931 -0.42708567 0.051562212
-0.2290691 -0.42714149 0.051601727
-0.22926116 -0.42722574 0.051531516
-0.22941704 -0.42728138 0.051561832
-0.22957091 -0.42735037 0.051495288
-0.22977102 -0.42742395 0.051519599
-0.22993828 -0.42748132 0.051568292
-0.23011492 -0.42755809 0.051508546
-0.23027429 -0.42763007 0.051436216
-0.23043735 -0.42770246 0.051370773
-0.23062742 -0.42777297 0.051389366
-0.23080318 -0.42784524 0.051358461
-0.23096594 -0.42791751 0.051293019
-0.23114328 -0.4279784 0.051343977
-0.23132235 -0.42804235 0.051378775
-0.23148645 -0.42811295 0.051328324
-0.23165712 -0.4281812 0.051311277
-0.23182359 -0.42824918 0.051285028
-0.23199232 -0.42831483 0.051280666
-0.23216622 -0.4283798 0.051294737
-0.23235048 -0.42844775 0.05131568
-0.23250923 -0.4285188 0.051247951
-0.23267633 -0.42858604 0.051228613
-0.2328517 -0.42865813 0.051197708
-0.23301362 -0.42872587 0.051161103
-0.23318678 -0.42878753 0.051195938
-0.23336127 -0.42885625 0.051185783
-0.23354274 -0.42891893 0.051235564
-0.23370172 -0.42899308 0.051147088
-0.23388843 -0.42906719 0.051132258
-0.23407274 -0.42913938 0.05112436
-0.23422997 -0.42921069 0.051050879
-0.234392 -0.42926654 0.051096149
-0.23457758 -0.42933398 0.051123995
-0.23474315 -0.42940229 0.051093139
-0.23491083 -0.4294726 0.051054195
-0.23508881 -0.42954233 0.051046342
-0.23526604 -0.42960539 0.051082298
-0.2354226 -0.42967308 0.05103188
-0.23559244 -0.42974523 0.050986018
-0.2357648 -0.42981195 0.05098395
-0.23593931 -0.42988068 0.050973803
-0.23611142 -0.42994764 0.050969426
-0.23627831 -0.43001476 0.050950103
-0.23644915 -0.43007922 0.050959565
-0.23661973 -0.43014729 0.05094368
-0.23679045 -0.43021858 0.050905872
-0.23696405 -0.43028799 0.05088881
-0.2371323 -0.43036404 0.050811812
-0.2373019 -0.43042937 0.050812069
-0.23747806 -0.43049386 0.050835352
-0.23765264 -0.43055943 0.050847109
-0.23783268 -0.43062812 0.050851919
-0.23801385 -0.43069303 0.050885558
-0.23818731 -0.43076572 0.050845433
-0.23835298 -0.43083978 0.050775368
-0.23853064 -0.43090686 0.050784811
-0.23869273 -0.43097368 0.050755121
-0.23885408 -0.4310469 0.050679311
-0.23902316 -0.43111876 0.050633442
-0.23920852 -0.43117872 0.050712034
-0.23938048 -0.43125203 0.05066384
-0.23957381 -0.43132567 0.05066973
-0.23973471 -0.43139303 0.05063314
-0.23989572 -0.43145737 0.050617296
-0.24006729 -0.43151924 0.050646372
-0.24022679 -0.43159297 0.050562501
-0.24040675 -0.43165925 0.050583459
-0.24057725 -0.43172744 0.050566413
-0.2407635 -0.4317992 0.050566573
-0.24094307 -0.43187138 0.050546024
-0.24110332 -0.43194169 0.050487511
-0.24128735 -0.43200636 0.050530363
-0.24146056 -0.43207881 0.050491389
-0.24162112 -0.4321408 0.05049054
-0.24180149 -0.43220204 0.050547246
-0.24197276 -0.4322727 0.050515201
-0.24214819 -0.43233895 0.050524652
-0.24231234 -0.43241528 0.050434992
-0.24248761 -0.43248162 0.050443284
-0.24264966 -0.43255091 0.050396301
-0.24281673 -0.43261811 0.050376974
-0.24299912 -0.43267912 0.050440587
-0.24318647 -0.43274844 0.050460346
-0.24337067 -0.43282664 0.050410941
-0.24355508 -0.43289971 0.050397284
-0.24370889 -0.43296716 0.050341114
-0.24387361 -0.43303785 0.050291806
-0.24404192 -0.43310466 0.050278232
-0.24422483 -0.43317345 0.050289948
-0.24438079 -0.43324244 0.050229158
-0.24455565 -0.43330458 0.050265137
-0.2447395 -0.43337557 0.050264161
-0.24491376 -0.43344286 0.050263241
-0.24509892 -0.4335182 0.050235745
-0.24524733 -0.43358967 0.050138086
-0.24541014 -0.43364915 0.050160289
-0.2455993 -0.43371162 0.050231934
-0.24576639 -0.43378603 0.050163019
-0.2459431 -0.43385732 0.050141327
-0.24611768 -0.43392926 0.050109264
-0.24628595 -0.43399188 0.050124522
-0.24646203 -0.4340634 0.050099373
-0.2466452 -0.43412608 0.050153751
-0.24682628 -0.43420509 0.050090525
-0.24697837 -0.43427274 0.050028607
-0.24715273 -0.43433821 0.050040364
-0.24732244 -0.43440071 0.050060224
-0.24749999 -0.43446758 0.050070815
-0.247656 -0.43453842 0.049997341
-0.24786076 -0.43461934 0.049983568
-0.24800849 -0.4346838 0.049932051
-0.24818061 -0.43475229 0.049917307
-0.24837314 -0.43482596 0.049920894
-0.24852367 -0.43488961 0.049882047
-0.24869932 -0.43495306 0.049911104
-0.2488731 -0.4350296 0.049845606
-0.24904542 -0.43509817 0.04983085
