# .PCD v0.7 - Point Cloud Data file format
VERSION 0.7
FIELDS x y z
SIZE 4 4 4
TYPE F F F
COUNT 1 1 1
WIDTH 499
HEIGHT 1
VIEWPOINT 0 0 0 1 0 0 0
POINTS 499
DATA ascii
-0.21582885 -0.28933701 0.062571019
-0.21605499 -0.28933227 0.062580489
-0.21630299 -0.2893371 0.062517256
-0.21652448 -0.28933245 0.062526748
-0.21676767 -0.28933576 0.062475055
-0.2169928 -0.28933263 0.062473007
-0.21722306 -0.28933144 0.062455952
-0.21746407 -0.28933433 0.062407732
-0.21770109 -0.28933585 0.062369891
-0.21791594 -0.28932926 0.062394403
-0.21815525 -0.28933185 0.062348489
-0.21838108 -0.28932792 0.062352203
-0.21861339 -0.28932813 0.062324759
-0.21883824 -0.28932559 0.062318105
-0.21907321 -0.28932703 0.062281433
-0.2192871 -0.28931889 0.062317476
-0.21953529 -0.28932557 0.062240399
-0.21975452 -0.28932127 0.062247593
-0.2199825 -0.28932041 0.06222824
-0.22020134 -0.28931612 0.062235445
-0.22043738 -0.28931862 0.062190693
-0.22068833 -0.28932542 0.062112458
-0.22089496 -0.28931659 0.062154293
-0.22111374 -0.2893126 0.062159188
-0.22132094 -0.28930411 0.062198706
-0.2215749 -0.2893143 0.062095098
-0.22181185 -0.28931788 0.062042277
-0.22204989 -0.28932032 0.061997525
-0.2222638 -0.28931484 0.062013969
-0.22249129 -0.28931496 0.061987698
-0.22271116 -0.28931203 0.061984517
-0.22293156 -0.28930944 0.061979033
-0.2231558 -0.28930852 0.061960846
-0.22339186 -0.28931084 0.061917253
-0.22361703 -0.28931051 0.061894454
-0.22381562 -0.28929916 0.061955918
-0.224039 -0.28929824 0.061937734
-0.22427574 -0.28930303 0.061875694
-0.22450431 -0.28930455 0.061839044
-0.22472171 -0.28929964 0.061850864
-0.22490598 -0.28928772 0.061918147
-0.22521126 -0.28931719 0.061666772
-0.22541243 -0.28930736 0.061716691
-0.22562155 -0.28930101 0.061740071
-0.22585134 -0.28930375 0.06169419
-0.22605844 -0.28929663 0.061723344
-0.22628465 -0.28929803 0.061687857
-0.22651425 -0.28929919 0.061653517
-0.22672363 -0.28929332 0.06167344
-0.22694372 -0.28929228 0.061656419
-0.22715552 -0.2892876 0.0616671
-0.22739629 -0.28929612 0.061577383
-0.22759305 -0.2892848 0.061638854
-0.22781897 -0.28928679 0.061598752
-0.22802511 -0.28928739 0.061571416
-0.22826408 -0.2892881 0.061539344
-0.22850226 -0.28929618 0.061453085
-0.22870308 -0.28928512 0.061512239
-0.22891094 -0.28927925 0.061532162
-0.22912256 -0.28927523 0.061538231
-0.22935259 -0.28927997 0.061477371
-0.22958136 -0.28928429 0.061419979
-0.22980662 -0.28928709 0.06137412
-0.23002468 -0.28928655 0.06135365
-0.23023438 -0.28928208 0.06136319
-0.23044261 -0.28927496 0.061392341
-0.23066419 -0.28927642 0.061356872
-0.23088953 -0.28927985 0.061306402
-0.23109126 -0.28927171 0.06134364
-0.23131432 -0.28927425 0.061300106
-0.23153406 -0.28927523 0.061268106
-0.23175812 -0.28927854 0.061218794
-0.23194253 -0.28926191 0.061320659
-0.23217523 -0.28926772 0.061251722
-0.23238999 -0.28926662 0.061235875
-0.23260871 -0.28926763 0.061203882
-0.23282808 -0.28926912 0.061168425
-0.23304197 -0.28926787 0.06115374
-0.23324984 -0.28926355 0.061162129
-0.23346728 -0.28926226 0.061147429
-0.23368697 -0.28926435 0.061107367
-0.23389441 -0.28926006 0.061115768
-0.23410371 -0.28925684 0.061116084
-0.23432562 -0.28926048 0.061064474
-0.23454022 -0.2892603 0.061041713
-0.23474373 -0.28925419 0.061063964
-0.23495576 -0.28925279 0.061050437
-0.23517343 -0.28925243 0.061028823
-0.23540519 -0.28926218 0.060931064
-0.23560923 -0.28925669 0.060948696
-0.23583029 -0.2892608 0.06089364
-0.23600516 -0.2892479 0.060969029
-0.23622596 -0.2892431 0.060979672
-0.23644885 -0.28924862 0.060914233
-0.23664971 -0.2892552 0.060843114
-0.23688124 -0.28925011 0.060854875
-0.23708035 -0.2892445 0.060873676
-0.23727837 -0.28924757 0.060829084
-0.23750675 -0.28924546 0.060818948
-0.23771989 -0.28924376 0.060807724
-0.23793134 -0.28924346 0.060786135
-0.23813346 -0.28923768 0.060806084
-0.23830901 -0.28923246 0.060824983
-0.23850983 -0.28923312 0.060797673
-0.23873012 -0.28924099 0.060714945
-0.23898381 -0.28923836 0.060705863
-0.23919643 -0.2892395 0.060673892
-0.23941205 -0.2892426 0.060626917
-0.23960808 -0.28924331 0.060599625
-0.23979886 -0.28923097 0.060669184
-0.2399503 -0.28922328 0.060708936
-0.24023718 -0.28924754 0.060497984
-0.24045411 -0.28923467 0.060568593
-0.24065652 -0.28922999 0.060580466
-0.24084078 -0.28922868 0.060569353
-0.24104474 -0.28923792 0.060478631
-0.2412889 -0.28923291 0.060488027
-0.24148776 -0.28922877 0.060496464
-0.2416881 -0.28922567 0.060496822
-0.24189632 -0.28922009 0.060514435
-0.24208063 -0.28921145 0.060557511
-0.24227414 -0.28922239 0.060455292
-0.24253196 -0.28922471 0.060409311
-0.24274701 -0.28923503 0.060309302
-0.24293204 -0.28921637 0.060426157
-0.24315448 -0.28922406 0.060344581
-0.24335103 -0.28921899 0.060359932
-0.24351537 -0.28921562 0.060366198
-0.24374862 -0.28922331 0.060283419
-0.24397978 -0.28922415 0.06025137
-0.24417111 -0.28921556 0.060293265
-0.24438328 -0.28921106 0.060302794
-0.24458656 -0.28920853 0.060298532
-0.24480216 -0.28921539 0.060223889
-0.24499735 -0.28920987 0.06024272
-0.24520561 -0.28920853 0.060229205
-0.24541755 -0.28921312 0.060171872
-0.24561246 -0.28920463 0.060212605
-0.24582307 -0.28920841 0.060161039
-0.24602373 -0.28920454 0.060167164
-0.24623318 -0.28920773 0.06012021
-0.246425 -0.28920305 0.060133278
-0.24664423 -0.28920826 0.060070157
-0.24684575 -0.28920549 0.060068198
-0.2470427 -0.28919899 0.060093932
-0.24724871 -0.28920004 0.060063146
-0.24744207 -0.28919065 0.060110793
-0.2476595 -0.28920153 0.060006171
-0.2478632 -0.28920105 0.059986912
-0.24806178 -0.28919628 0.059999958
-0.24826437 -0.28919503 0.059986472
-0.24845976 -0.28919747 0.0599465
-0.2486344 -0.28919178 0.059968863
-0.24887489 -0.28919438 0.059922941
-0.24909 -0.28920484 0.059821796
-0.24926218 -0.28919715 0.059859149
-0.24946433 -0.28919965 0.059818
-0.24964891 -0.28919303 0.059846081
-0.24987504 -0.28919363 0.05981636
-0.25007275 -0.28918886 0.059829414
-0.2502951 -0.28919327 0.059772044
-0.2504904 -0.28918636 0.059801236
-0.25068164 -0.28918275 0.059806235
-0.25083888 -0.2891753 0.059843659
-0.25107098 -0.28918254 0.059764341
-0.25122917 -0.28916115 0.059904356
-0.25146553 -0.28918052 0.059735101
-0.2516675 -0.28918442 0.059683576
-0.25187144 -0.28918678 0.059643567
-0.25209358 -0.28918493 0.059632309
-0.25226235 -0.28918198 0.059635095
-0.25246713 -0.28917772 0.059643507
-0.25265926 -0.28918397 0.059575871
-0.25286767 -0.28917983 0.05958312
-0.25310123 -0.28918299 0.059533771
-0.25325555 -0.28916445 0.059653051
-0.25345048 -0.28917864 0.059526615
-0.2536636 -0.28918022 0.05949118
-0.25385845 -0.28917375 0.059516922
-0.25409237 -0.28917393 0.059489477
-0.254287 -0.28916731 0.059516374
-0.25446501 -0.28916299 0.059528351
-0.25463441 -0.28916615 0.059486166
-0.25486147 -0.28917205 0.059417255
-0.25507173 -0.28917587 0.059365682
-0.25524715 -0.28917328 0.059364993
-0.25545597 -0.2891663 0.059392981
-0.25564393 -0.28916577 0.059376098
-0.25583416 -0.28916344 0.059371877
-0.25607306 -0.28916699 0.059319049
-0.25624529 -0.28915569 0.059382923
-0.25643525 -0.28915823 0.059342973
-0.25662521 -0.2891559 0.059338763
-0.25683454 -0.28915504 0.059321791
-0.25704134 -0.28915593 0.059292145
-0.25725773 -0.28915495 0.059275139
-0.25742874 -0.28915226 0.05927562
-0.25764856 -0.28915656 0.059219401
-0.25782824 -0.28915611 0.059202552
-0.25803053 -0.28915113 0.05921673
-0.25822133 -0.28916225 0.059113368
-0.2584202 -0.28915793 0.059122957
-0.25862759 -0.28915551 0.059117518
-0.25881708 -0.28914806 0.059151351
-0.25902542 -0.28915328 0.059089426
-0.25919303 -0.28914598 0.059124492
-0.25937653 -0.28915909 0.059007324
-0.25957885 -0.28914878 0.059060708
-0.25978214 -0.28914627 0.059056442
-0.25997961 -0.28914011 0.059079863
-0.2601864 -0.2891441 0.059027165
-0.26037204 -0.28914312 0.059013739
-0.26057687 -0.28914401 0.058984108
-0.2607705 -0.28914461 0.058957979
-0.26098385 -0.28914836 0.058906406
-0.26116911 -0.28914738 0.05889298
-0.26135269 -0.28913578 0.058957968
-0.261538 -0.28913495 0.058943395
-0.26175016 -0.28914481 0.058846865
-0.26193443 -0.28914228 0.058844984
-0.2621341 -0.28914168 0.058826901
-0.26232156 -0.28914645 0.058770806
-0.26254427 -0.289141 0.058786061
-0.26272619 -0.28914192 0.058758829
-0.26290864 -0.28912705 0.058848027
-0.26310709 -0.28913307 0.058781523
-0.26328254 -0.28911829 0.05887074
-0.26346812 -0.28912902 0.058770858
-0.26367971 -0.28913265 0.058720455
-0.26386505 -0.28912464 0.058758914
-0.2640636 -0.28911266 0.058824982
-0.26430559 -0.28908986 0.058965825
-0.26449129 -0.28906024 0.059163369
-0.26467592 -0.28903687 0.059314817
-0.26486361 -0.28901052 0.05948814
-0.26505217 -0.2889857 0.059649948
-0.26523769 -0.28896138 0.059808299
-0.26542932 -0.28893182 0.060004678
-0.26561892 -0.28890622 0.060172237
-0.26581001 -0.28888449 0.060310964
-0.26600194 -0.28886479 0.060434707
-0.26619229 -0.28883743 0.060614947
-0.2155368 -0.28933704 0.06260334
-0.21577877 -0.28933772 0.062571257
-0.21600282 -0.28933367 0.06257613
-0.21625462 -0.28933811 0.062515184
-0.21647072 -0.28933135 0.062540844
-0.21671936 -0.28933489 0.06248682
-0.21694495 -0.28933176 0.062484771
-0.21718472 -0.2893323 0.062453844
-0.21742208 -0.28933367 0.062417153
-0.217658 -0.28933305 0.062395468
-0.21787734 -0.28932795 0.06240844
-0.21812323 -0.28933123 0.062356729
-0.21834856 -0.28932855 0.062351227
-0.21857743 -0.28932565 0.062346861
-0.2188091 -0.28932557 0.062321726
-0.21904445 -0.28932697 0.062285043
-0.21925995 -0.28931928 0.062317632
-0.21950345 -0.28932399 0.062255554
-0.21972933 -0.28932208 0.062244277
-0.21995951 -0.28932029 0.062231839
-0.2201803 -0.28931656 0.062234424
-0.22041349 -0.28931615 0.062211592
-0.22066423 -0.28932434 0.062122971
-0.22087997 -0.28931728 0.06215094
-0.22109644 -0.28931224 0.062163919
-0.22131231 -0.2893053 0.062190738
-0.2215659 -0.28931519 0.062089421
-0.2218039 -0.28931734 0.062046967
-0.22203527 -0.28931865 0.062011462
-0.22225887 -0.28931522 0.06201173
-0.22248748 -0.28931564 0.061983149
-0.22270733 -0.28931084 0.061993808
-0.22292885 -0.28930855 0.061986011
-0.22316009 -0.28930858 0.061959729
-0.22339392 -0.28931159 0.061911527
-0.22362097 -0.28931013 0.061896786
-0.22381993 -0.28929877 0.061958261
-0.22404592 -0.28929701 0.061945833
-0.22428992 -0.28930297 0.061874531
-0.22452286 -0.28930444 0.061837867
-0.22473732 -0.28929988 0.0618474
-0.2249047 -0.28928414 0.061944738
-0.22524455 -0.28932294 0.061620545
-0.22543395 -0.2893061 0.061723568
-0.22564864 -0.28930202 0.06172964
-0.22587343 -0.28930059 0.06171491
-0.22608814 -0.28929666 0.061719824
-0.2263149 -0.28929633 0.061697017
-0.22654632 -0.28929996 0.061644211
-0.22675222 -0.28929055 0.06169067
-0.22698313 -0.28929418 0.061637871
-0.22720057 -0.28929007 0.061643921
-0.22743127 -0.28929389 0.061589967
-0.22763535 -0.28928384 0.061641045
-0.22786856 -0.28928718 0.061590545
-0.22806513 -0.28928131 0.061611675
-0.22831726 -0.28928795 0.061534576
-0.22855742 -0.2892949 0.061456371
-0.22874781 -0.28928071 0.061539784
-0.22896871 -0.28927886 0.061528534
-0.22918364 -0.28927431 0.061538063
-0.2294323 -0.28928584 0.061425231
-0.22964062 -0.2892803 0.061442852
-0.22988249 -0.28928894 0.061351959
-0.23008887 -0.28928265 0.061375357
-0.23031005 -0.28928158 0.061358333
-0.2305162 -0.28927529 0.061381727
-0.23074943 -0.28928033 0.061318547
-0.23095582 -0.28927228 0.061354615
-0.23117872 -0.28927246 0.061328374
-0.23140082 -0.28927436 0.061289445
-0.23162475 -0.28927532 0.061257429
-0.23183671 -0.28927237 0.061255436
-0.23203713 -0.28926161 0.061312284
-0.23227155 -0.2892682 0.061237566
-0.2324893 -0.28926641 0.061226331
-0.2327012 -0.28926376 0.061222024
-0.23293914 -0.28927264 0.061129995
-0.23313691 -0.28926286 0.061179943
-0.23335743 -0.28926292 0.061154857
-0.233578 -0.28926313 0.061128613
-0.23379523 -0.28926167 0.061115075
-0.23400153 -0.2892566 0.061129238
-0.23422636 -0.2892594 0.061083384
-0.2344448 -0.28926107 0.061046772
-0.23465174 -0.28925443 0.061072476
-0.23486505 -0.2892535 0.061055489
-0.23508482 -0.28925404 0.061026946
-0.23530988 -0.28925762 0.060975313
-0.23552947 -0.2892583 0.060945623
-0.23574661 -0.28925997 0.060909018
-0.23595762 -0.2892561 0.060913943
-0.23612772 -0.2892403 0.061011281
-0.23637038 -0.28924552 0.060945749
-0.23657352 -0.28925318 0.060866535
-0.23681132 -0.28925142 0.060852908
-0.23701519 -0.28924608 0.060869403
-0.23720312 -0.28924301 0.06087096
-0.23744772 -0.28924555 0.06082502
-0.23765998 -0.28924304 0.06081957
-0.23787285 -0.28924337 0.060793355
-0.23808327 -0.28923997 0.06079483
-0.23826453 -0.28923091 0.060841382
-0.23846646 -0.28923437 0.060793318
-0.23868154 -0.28924122 0.06071867
-0.23892754 -0.28923839 0.060711924
-0.23914674 -0.28923848 0.060686842
-0.23936805 -0.28924245 0.060632929
-0.23957276 -0.28924349 0.06060214
-0.23976487 -0.28923178 0.060667098
-0.23991272 -0.28922161 0.060725316
-0.24019682 -0.28925377 0.060456693
-0.24041508 -0.28923398 0.060578045
-0.24062476 -0.28923121 0.060574912
-0.24081388 -0.28922781 0.060578771
-0.24100679 -0.2892372 0.060488075
-0.24125946 -0.2892324 0.060495138
-0.24145912 -0.28922853 0.060501263
-0.24165982 -0.28922543 0.060501628
-0.24187712 -0.28922054 0.060513448
-0.24206176 -0.2892119 0.060556531
-0.24225624 -0.2892206 0.060470432
-0.24251406 -0.28922528 0.060407147
-0.24272813 -0.28923467 0.060314059
-0.24291816 -0.28921655 0.060426302
-0.24314301 -0.28922296 0.060353924
-0.24334034 -0.28921819 0.060366973
-0.24350767 -0.28921402 0.060378995
-0.24374507 -0.28922164 0.060296196
-0.24398103 -0.28922287 0.060260668
-0.24416852 -0.28921402 0.060304888
-0.24438272 -0.28921074 0.060305193
-0.24458675 -0.28920853 0.060298622
-0.24480584 -0.28921485 0.060227424
-0.2450029 -0.28920758 0.060258925
-0.24521412 -0.28920826 0.060230412
-0.24542481 -0.28921157 0.060182307
-0.24562638 -0.28920501 0.060208023
-0.2458379 -0.28920928 0.060152993
-0.24603873 -0.28920227 0.060182184
-0.24625026 -0.28920683 0.060124837
-0.24644087 -0.28920093 0.060147144
-0.24666476 -0.28920656 0.060080536
-0.2468698 -0.28920323 0.06008203
-0.24706934 -0.28919861 0.060093924
-0.24727216 -0.28919673 0.060085043
-0.24747193 -0.28919238 0.06009464
-0.24769028 -0.2892006 0.060009599
-0.24789557 -0.2892012 0.059982266
-0.24809441 -0.28919312 0.06001953
-0.24830285 -0.28919664 0.059970267
-0.24849728 -0.28919801 0.059938375
-0.2486636 -0.28918806 0.059993058
-0.24891847 -0.28919637 0.059903268
-0.24912605 -0.2892032 0.059829801
-0.24930088 -0.28919423 0.059876382
-0.24949916 -0.28919631 0.059838705
-0.24968673 -0.28919217 0.059848331
-0.24992523 -0.2891899 0.059838161
-0.25013918 -0.28919303 0.059791192
-0.2503413 -0.28918868 0.059800774
-0.25054628 -0.28918707 0.059789576
-0.25071844 -0.28917563 0.059854619
-0.25091788 -0.2891871 0.059747748
-0.25112745 -0.28917184 0.059836853
-0.25128481 -0.28916422 0.059875432
-0.25153333 -0.28917667 0.059755687
-0.2517322 -0.28918096 0.059701864
-0.25194857 -0.28918421 0.059653737
-0.25214881 -0.28918251 0.059643716
-0.2523264 -0.28917679 0.059666067
-0.25254318 -0.28918096 0.059611022
-0.25273317 -0.28917661 0.059621796
-0.25296006 -0.28918409 0.059541341
-0.25316858 -0.28917167 0.059609689
-0.25332421 -0.28916657 0.059629835
-0.253555 -0.2891832 0.059481334
-0.25374407 -0.28917402 0.059527859
-0.25396949 -0.28917244 0.059514284
-0.25418788 -0.28917143 0.059497271
-0.25437915 -0.28916487 0.059524179
-0.25454372 -0.28916183 0.05952815
-0.25474697 -0.28917873 0.059380904
-0.25496206 -0.28917432 0.059389275
-0.25514996 -0.28916845 0.059411593
-0.25536302 -0.28916624 0.059403829
-0.25554916 -0.28916758 0.059373118
-0.25575033 -0.28916466 0.059372313
-0.25597626 -0.28916994 0.059308
-0.25617257 -0.28915596 0.059389092
-0.25635314 -0.28915533 0.059373379
-0.25654656 -0.2891522 0.059374925
-0.2567547 -0.28915417 0.059337206
-0.25698039 -0.28916025 0.05926713
-0.25717407 -0.28915271 0.059300952
-0.25737044 -0.2891542 0.059267886
-0.25756997 -0.28915519 0.05923827
-0.25777167 -0.28915411 0.059223641
-0.2579692 -0.28915247 0.059213631
-0.25815192 -0.28915638 0.059164476
-0.25836927 -0.28915724 0.059133634
-0.25856966 -0.2891548 0.059129383
-0.25876963 -0.28914592 0.059172399
-0.25896737 -0.28915116 0.05911167
-0.25914517 -0.28914198 0.059159387
-0.25933275 -0.28915519 0.059041034
-0.25952187 -0.28915289 0.059036829
-0.25973698 -0.28913862 0.059117842
-0.25993723 -0.28914306 0.059062857
-0.26014456 -0.28914079 0.059056267
-0.26034424 -0.28914475 0.059004739
-0.26054651 -0.28914022 0.059015475
-0.26074237 -0.2891444 0.058962815
-0.26096171 -0.28914493 0.058934264
-0.26114166 -0.28914714 0.058897816
-0.26133326 -0.28913635 0.058955848
-0.26151857 -0.28913489 0.058945894
-0.26172608 -0.28914186 0.058871284
-0.26191598 -0.28914285 0.05884286
-0.26211825 -0.28913924 0.058846667
-0.26230991 -0.28914458 0.058785945
-0.26253304 -0.28913912 0.058801211
-0.26271206 -0.28914103 0.058767065
-0.26290968 -0.28912687 0.05884929
-0.26310503 -0.2891334 0.058779344
-0.26328456 -0.28911904 0.058865104
-0.2634685 -0.28912479 0.058802109
-0.2636857 -0.28913257 0.058720537
-0.26387104 -0.28912359 0.058765925
-0.26407343 -0.28911138 0.058833148
-0.26431671 -0.28909093 0.058956712
-0.26450625 -0.28906092 0.059156585
-0.26469448 -0.28903642 0.059316106
-0.26488626 -0.28901047 0.059485994
-0.26507509 -0.28898531 0.059650131
-0.2652646 -0.28896111 0.059807334
-0.26545665 -0.2889317 0.060002591
-0.2656464 -0.28890529 0.060175933
-0.2658377 -0.28888309 0.06031815
-0.26603323 -0.28886178 0.06045343
-0.26622406 -0.28883487 0.06063024
-0.26641911 -0.28880841 0.060803577
-0.21559757 -0.28933948 0.0625787
-0.21583198 -0.28933746 0.062567368
-0.21605194 -0.28933033 0.0625953
-0.21631254 -0.28933793 0.062510058
-0.21652621 -0.28933027 0.062542625
-0.21677822 -0.28933501 0.062479325
-0.21700507 -0.28933233 0.062473785
-0.21723753 -0.28933018 0.062463611
-0.21749127 -0.28933758 0.062380701
-0.21772677 -0.2893368 0.06236013
-0.21795219 -0.28933397 0.062355753
-0.21818759 -0.28933334 0.062334042
-0.21841094 -0.28932992 0.062334284
-0.21864583 -0.28932929 0.062312566
-0.21886891 -0.28932428 0.062324338
