# .PCD v0.7 - Point Cloud Data file format
VERSION 0.7
FIELDS x y z
SIZE 4 4 4
TYPE F F F
COUNT 1 1 1
WIDTH 876
HEIGHT 1
VIEWPOINT 0 0 0 1 0 0 0
POINTS 876
DATA ascii
-0.24554276 -0.26468986 0.062694192
-0.24578956 -0.2646665 0.062643632
-0.2459814 -0.26463142 0.062728167
-0.24622466 -0.2646074 0.062685706
-0.24646987 -0.26458549 0.062625945
-0.24669211 -0.26455805 0.06262736
-0.24692985 -0.26453453 0.062586069
-0.24720901 -0.26451999 0.062442023
-0.24742594 -0.26449463 0.062433086
-0.24765322 -0.26446578 0.062440254
-0.2478721 -0.26443794 0.062447444
-0.24879427 -0.26433796 0.062351547
-0.24901085 -0.26430997 0.062362209
-0.24923787 -0.26428318 0.062354386
-0.24944068 -0.26425007 0.062414661
-0.24966207 -0.26422352 0.062410317
-0.24987881 -0.2641958 0.062418684
-0.25011986 -0.26417473 0.062356628
-0.2503514 -0.26414961 0.062332645
-0.25059175 -0.26412863 0.062270604
-0.25080878 -0.26410136 0.062275499
-0.25104967 -0.26408076 0.062209986
-0.25127342 -0.26405391 0.062205631
-0.25151092 -0.26403263 0.06214821
-0.25174975 -0.26401025 0.062097687
-0.25199315 -0.26399094 0.062020637
-0.25220889 -0.26396224 0.062037066
-0.25242704 -0.26393592 0.062033892
-0.25266179 -0.26391453 0.061979927
-0.25288558 -0.26389003 0.061958294
-0.25311425 -0.26386544 0.061933167
-0.25331411 -0.26383409 0.061983094
-0.25356382 -0.26381591 0.061892189
-0.25379413 -0.26379377 0.061847467
-0.25399756 -0.263762 0.061897367
-0.25421882 -0.26373735 0.061879199
-0.25444323 -0.26371375 0.061850633
-0.25461769 -0.26367497 0.061977893
-0.25486484 -0.26365677 0.061889298
-0.25511995 -0.26364294 0.061761487
-0.25532624 -0.26361242 0.06179985
-0.25553069 -0.26358303 0.061831314
-0.25577569 -0.2635648 0.061745036
-0.25598517 -0.26353717 0.061759181
-0.25619778 -0.26350886 0.061775628
-0.25640559 -0.26348081 0.061794385
-0.25663701 -0.2634587 0.061748512
-0.25686842 -0.26343849 0.061688807
-0.25709432 -0.26341483 0.061659086
-0.25732857 -0.26339585 0.061587833
-0.25751826 -0.26336041 0.061676987
-0.25772443 -0.26333225 0.06169806
-0.25795466 -0.26331043 0.061651044
-0.25816771 -0.26328474 0.061647877
-0.25838962 -0.26326033 0.061627399
-0.25861079 -0.2632376 0.061595391
-0.25882047 -0.26320916 0.061615311
-0.25902647 -0.26318133 0.061634079
-0.25922891 -0.26315048 0.06167822
-0.25949645 -0.26314443 0.061482362
-0.26036507 -0.26304692 0.061416645
-0.26056796 -0.26301852 0.061442345
-0.26078272 -0.2629945 0.061425358
-0.26100659 -0.26297206 0.061388727
-0.26121134 -0.26294455 0.061406348
-0.26143736 -0.26292309 0.061360493
-0.26164877 -0.26289824 0.06135273
-0.26186988 -0.26287517 0.061323032
-0.26209375 -0.26285526 0.061267965
-0.26229852 -0.26282617 0.061297119
-0.26251572 -0.26280391 0.061265126
-0.26273319 -0.26277986 0.061245814
-0.26295245 -0.26275861 0.061204597
-0.26319322 -0.26274404 0.06109529
-0.26338491 -0.26271212 0.061156761
-0.2636103 -0.26269171 0.061103992
-0.26380458 -0.26266089 0.061155088
-0.2640197 -0.26263654 0.061140396
-0.26423377 -0.26261386 0.061114181
-0.26444176 -0.26258674 0.061126031
-0.26465753 -0.26256496 0.061091743
-0.26488623 -0.26254666 0.061020516
-0.26508147 -0.26251653 0.061065838
-0.26528862 -0.26248935 0.061078854
-0.26547438 -0.26245517 0.061162256
-0.26572335 -0.26244605 0.061005652
-0.2659308 -0.26242134 0.061000213
-0.26614755 -0.26239866 0.060971677
-0.26634377 -0.26236919 0.061011244
-0.26655853 -0.26234582 0.060989633
-0.26677179 -0.26232404 0.060957655
-0.26699033 -0.26230255 0.060918752
-0.26720262 -0.26228058 0.060889088
-0.26740462 -0.26225182 0.060918253
-0.26762879 -0.26223549 0.060836665
-0.26784265 -0.26221237 0.060813911
-0.26804507 -0.26218626 0.060823478
-0.26825172 -0.26215991 0.060830727
-0.26847428 -0.26214346 0.060751457
-0.26867166 -0.26211292 0.060797922
-0.26888645 -0.26209298 0.060750958
-0.26909748 -0.26206911 0.060736291
-0.2693069 -0.26204684 0.060711242
-0.26951358 -0.26202336 0.060697734
-0.26971418 -0.2619946 0.060728066
-0.26991174 -0.26196671 0.060754929
-0.27013698 -0.2619504 0.06067219
-0.2703571 -0.26193407 0.060594089
-0.2705625 -0.26190805 0.060600184
-0.2707651 -0.26188067 0.060618974
-0.27096805 -0.26185587 0.060618162
-0.27118635 -0.2618368 0.060561955
-0.27138039 -0.26180506 0.060619973
-0.27161002 -0.26179469 0.06048996
-0.27180892 -0.26176569 0.060523741
-0.27200693 -0.26173866 0.060543701
-0.27223107 -0.26172343 0.060454048
-0.27241898 -0.26169103 0.060522463
-0.27262747 -0.26166749 0.060507797
-0.27284068 -0.26164919 0.060450464
-0.27305204 -0.26162747 0.060419653
-0.27325562 -0.26160404 0.060408466
-0.27346441 -0.26158106 0.060389191
-0.27366513 -0.26155356 0.060410284
-0.273875 -0.26153141 0.060384087
-0.2740812 -0.26150987 0.060356759
-0.27429998 -0.26149324 0.060282111
-0.27448714 -0.26146063 0.060352832
-0.27470031 -0.2614409 0.060305875
-0.27490395 -0.26141825 0.060288917
-0.27511156 -0.26139542 0.060269646
-0.27532703 -0.26138031 0.060186945
-0.27551717 -0.26134685 0.060261119
-0.27568904 -0.261338 0.060171671
-0.2759313 -0.26130402 0.060202979
-0.27613494 -0.261282 0.060181417
-0.27631086 -0.26126209 0.060169194
-0.27653953 -0.26123372 0.060171735
-0.27673817 -0.26120582 0.060197458
-0.27688617 -0.2611821 0.060238354
-0.27713323 -0.26118076 0.060026437
-0.27736002 -0.26114866 0.060057804
-0.27755651 -0.26111665 0.060115807
-0.27776125 -0.26109624 0.060081564
-0.27796558 -0.26107869 0.060026571
-0.27816898 -0.26105765 0.059998095
-0.27836913 -0.26102832 0.060033027
-0.27855131 -0.2610015 0.06006572
-0.27874175 -0.26098377 0.060024619
-0.27897489 -0.26096916 0.059922248
-0.27915353 -0.26093367 0.060021825
-0.27938262 -0.26091325 0.059965588
-0.27959454 -0.26089621 0.059900183
-0.27978325 -0.26086497 0.059959374
-0.27997926 -0.26085556 0.05985254
-0.28014472 -0.26082936 0.059895687
-0.28038993 -0.26079595 0.059920073
-0.28060597 -0.26078629 0.059797019
-0.28078988 -0.2607547 0.059863143
-0.28098592 -0.26073959 0.059797809
-0.28120923 -0.26071611 0.05976925
-0.28139344 -0.26071236 0.059631348
-0.28160343 -0.26067477 0.059718113
-0.28178924 -0.26064831 0.059745036
-0.28199071 -0.26061031 0.059842207
-0.28219289 -0.26059067 0.059804518
-0.28240666 -0.26057765 0.059707996
-0.28260121 -0.26055169 0.059723347
-0.28279549 -0.26052183 0.059767526
-0.28301191 -0.26051557 0.059619121
-0.2831749 -0.26050246 0.059568908
-0.28337955 -0.26047102 0.059615355
-0.28357363 -0.26044118 0.059659533
-0.28378648 -0.26042891 0.059558399
-0.28400311 -0.26040891 0.059510272
-0.28418458 -0.2603907 0.059480734
-0.28439274 -0.26037079 0.059439562
-0.28460416 -0.26033822 0.059488282
-0.28481209 -0.26031834 0.05944711
-0.28500259 -0.26028925 0.059488997
-0.28519017 -0.26026541 0.059495166
-0.28535679 -0.26024508 0.059494492
-0.2855452 -0.26024336 0.05933813
-0.28574222 -0.26019567 0.059510242
-0.28599897 -0.26017708 0.059415862
-0.28619605 -0.26015523 0.059398931
-0.28639948 -0.26013607 0.059356619
-0.2865496 -0.26008433 0.05960039
-0.28677773 -0.26008406 0.059397765
-0.28699362 -0.26007047 0.05930353
-0.28718567 -0.26005268 0.059261277
-0.28736278 -0.26003626 0.059222531
-0.28757527 -0.26000056 0.059293143
-0.28774524 -0.25996122 0.059428483
-0.28795543 -0.25997102 0.05916829
-0.28814083 -0.25994587 0.059185989
-0.28835663 -0.2599192 0.059187435
-0.28857258 -0.25989282 0.059186578
-0.28877765 -0.25987804 0.059110828
-0.28896835 -0.25984973 0.059146956
-0.28916264 -0.25982615 0.059145033
-0.28936163 -0.25980374 0.059130404
-0.28956959 -0.25979397 0.059015453
-0.28975844 -0.25976318 0.059071191
-0.28993997 -0.2597385 0.059088904
-0.29014415 -0.25970712 0.05913534
-0.29034588 -0.25969511 0.059042323
-0.2905302 -0.25967482 0.059025459
-0.29073247 -0.25964651 0.059051156
-0.29091829 -0.25962868 0.059014682
-0.29110369 -0.25960433 0.059026625
-0.29127285 -0.25957865 0.059062831
-0.2914941 -0.25956881 0.058936302
-0.29168546 -0.25953534 0.059009306
-0.29187199 -0.25952613 0.058909439
-0.29209054 -0.25949314 0.058954678
-0.29227975 -0.25947589 0.058911275
-0.29247987 -0.25945097 0.058913931
-0.29270375 -0.25943482 0.0588312
-0.29289758 -0.25941274 0.058818892
-0.29308063 -0.25939196 0.058806635
-0.29326025 -0.25937209 0.058790937
-0.29344758 -0.25935254 0.058765985
-0.29366419 -0.25932342 0.058784716
-0.29386786 -0.25929886 0.05878159
-0.29404417 -0.25927231 0.058817782
-0.29422724 -0.25926051 0.058739819
-0.29443085 -0.25923613 0.058735549
-0.29464611 -0.25920403 0.058777332
-0.29483238 -0.25919199 0.058698211
-0.29501861 -0.25917131 0.058682486
-0.29523498 -0.25915134 0.058634356
-0.29540056 -0.25913554 0.058601424
-0.295634 -0.25911224 0.058562458
-0.29582056 -0.25908333 0.058606658
-0.29600868 -0.25905848 0.058619738
-0.29620275 -0.25903997 0.058580935
-0.29640752 -0.25903168 0.058457933
-0.29659396 -0.2590023 0.058505602
-0.29675248 -0.25896627 0.058627144
-0.2969667 -0.25894216 0.058611304
-0.29714802 -0.25893152 0.058526438
-0.2973597 -0.2589123 0.058477174
-0.29754362 -0.25888607 0.058504105
-0.29772657 -0.25884247 0.058658995
-0.29790226 -0.25884023 0.058517657
-0.29810461 -0.25884372 0.058310531
-0.29831722 -0.25881588 0.05832351
-0.29851788 -0.25876743 0.058497917
-0.29869652 -0.25874987 0.058466077
-0.2989139 -0.25872636 0.058443308
-0.29911068 -0.25870958 0.058389504
-0.29930383 -0.2586934 0.058334559
-0.29948053 -0.25866726 0.058367275
-0.29970172 -0.2586467 0.058319137
-0.29988763 -0.25863299 0.058252692
-0.30005336 -0.25863025 0.058124091
-0.30024087 -0.258605 0.058140621
-0.30043852 -0.2585741 0.058189407
-0.30063933 -0.25853825 0.058271587
-0.30084914 -0.2585175 0.058235016
-0.301016 -0.25849903 0.058220521
-0.30122718 -0.25845483 0.058354542
-0.30144361 -0.25842744 0.058360592
-0.3016437 -0.25842318 0.05821225
-0.30182052 -0.25839356 0.058270335
-0.30201608 -0.25837979 0.058195781
-0.30223596 -0.25835499 0.058179919
-0.30240628 -0.25833985 0.058137745
-0.30257323 -0.25833887 0.057995297
-0.30276066 -0.2582944 0.05815246
-0.30299458 -0.25827718 0.05806854
-0.30320704 -0.25825724 0.058023892
-0.3033841 -0.25823545 0.058024336
-0.30356795 -0.25822294 0.057950981
-0.30373052 -0.25820985 0.057900771
-0.3039574 -0.25817382 0.057960957
-0.30412731 -0.25815371 0.057955664
-0.30431131 -0.25813252 0.057945713
-0.30451328 -0.25810519 0.057964496
-0.30470419 -0.25808519 0.057939529
-0.30490538 -0.25806692 0.057892628
-0.30509916 -0.25805131 0.057833064
-0.30529049 -0.25802574 0.057848431
-0.30547258 -0.25799042 0.057943381
-0.30567127 -0.25796318 0.057964489
-0.30586088 -0.25795153 0.057879586
-0.30605128 -0.25793317 0.057843097
-0.30626073 -0.25792524 0.057713155
-0.30645159 -0.25790259 0.057707787
-0.30665392 -0.25787377 0.057736948
-0.30682302 -0.25785676 0.057709761
-0.30703068 -0.25781897 0.057799991
-0.3072328 -0.25780925 0.057689682
-0.30744475 -0.25778463 0.057679616
-0.30762202 -0.25776127 0.057691582
-0.307805 -0.25775769 0.05755369
-0.30799583 -0.25772053 0.057654362
-0.30818173 -0.25770396 0.057608664
-0.3083865 -0.25768039 0.05759747
-0.30857486 -0.25765425 0.057619777
-0.30878034 -0.25764036 0.057537116
-0.30898273 -0.25761297 0.057555899
-0.30915686 -0.25760052 0.057490658
-0.3093546 -0.25757733 0.05748295
-0.30954275 -0.25755215 0.057498332
-0.30975622 -0.25752249 0.057523992
-0.30993366 -0.25750947 0.057459891
-0.31012446 -0.25748682 0.057454519
-0.31032544 -0.2574544 0.057511345
-0.31053045 -0.25743017 0.057504766
-0.31072563 -0.25741422 0.057446361
-0.31089139 -0.25740439 0.05736962
-0.31109434 -0.2573851 0.057328463
-0.3112759 -0.25736013 0.057348486
-0.31146392 -0.25734442 0.057294711
-0.31166461 -0.25731394 0.057337716
-0.31185681 -0.25729597 0.0572966
-0.31205103 -0.25727323 0.057288907
-0.31223106 -0.25725219 0.057281274
-0.31243223 -0.25721392 0.057380758
-0.31261909 -0.25720763 0.057258975
-0.31281197 -0.25718787 0.057230551
-0.3130095 -0.25716519 0.057219386
-0.31320706 -0.25714943 0.057157498
-0.3134225 -0.25711051 0.057248857
-0.31360996 -0.25709489 0.057195086
-0.31380287 -0.25706834 0.057216212
-0.31398648 -0.25705993 0.057112895
-0.31418341 -0.25704473 0.057047565
-0.31438902 -0.25700685 0.057140101
-0.31459162 -0.25698718 0.057102412
-0.31477889 -0.25696525 0.057094745
-0.31495267 -0.25695568 0.057008758
-0.31514207 -0.25693572 0.056984946
-0.31532866 -0.25690916 0.057011865
-0.31551838 -0.25688869 0.05699151
-0.3157191 -0.25685519 0.057056412
-0.31591362 -0.25683242 0.057048716
-0.31610203 -0.25681964 0.056973048
-0.31629398 -0.25679559 0.056976885
-0.31649312 -0.25677064 0.056980707
-0.31669226 -0.2567561 0.05690844
-0.31689236 -0.25672457 0.056959514
-0.31707898 -0.256704 0.056942634
-0.31726673 -0.25668171 0.05693727
-0.31747055 -0.25665495 0.056950286
-0.31766602 -0.2566407 0.056879193
-0.31783953 -0.25662503 0.056838162
-0.31802103 -0.25661185 0.056771733
-0.31821492 -0.25659007 0.056757126
-0.31840751 -0.25657019 0.056729853
-0.31861159 -0.25654778 0.056710586
-0.31881538 -0.25652134 0.056721307
-0.31901368 -0.25649807 0.056713596
-0.31920609 -0.2564697 0.056748558
-0.3193993 -0.2564491 0.056725889
-0.3195667 -0.25644553 0.056601889
-0.31978315 -0.25641122 0.056658648
-0.31995738 -0.25639847 0.05659572
-0.3201524 -0.25637543 0.056589171
-0.32034019 -0.25635347 0.056581508
-0.32055244 -0.25630486 0.056746639
-0.32076809 -0.25626057 0.056877181
-0.32095426 -0.25627676 0.056591734
-0.3211261 -0.25626665 0.05651151
-0.32135597 -0.25622505 0.056609727
-0.32153332 -0.25620827 0.056573287
-0.32172254 -0.25620392 0.056435369
-0.32192162 -0.25615773 0.056594785
-0.32209808 -0.25614202 0.056551434
-0.32229891 -0.25611654 0.056557547
-0.3224982 -0.25609663 0.056524478
-0.32267547 -0.25609076 0.056408502
-0.32288337 -0.25605386 0.056491815
-0.32308111 -0.25602502 0.056525607
-0.32327873 -0.2560105 0.056454506
-0.32346028 -0.25600296 0.056346588
-0.3236376 -0.25599298 0.056260578
-0.32381722 -0.25597358 0.056241423
-0.32402048 -0.25594246 0.056286715
-0.32423645 -0.25590146 0.05639305
-0.32444954 -0.25586048 0.056501698
-0.32465339 -0.25583276 0.056521632
-0.3248257 -0.25583771 0.056330755
-0.32501283 -0.25581738 0.05631157
-0.32520476 -0.25579223 0.056323487
-0.32538939 -0.25578088 0.056240905
-0.32558697 -0.25575328 0.05626547
-0.32578412 -0.25573254 0.056240484
-0.32597589 -0.25571084 0.056227036
-0.24595207 -0.26464775 0.062635042
-0.24620816 -0.26462829 0.062547587
-0.2464238 -0.26459756 0.062579036
-0.24664286 -0.26456922 0.062589712
-0.24688044 -0.26454559 0.062549599
-0.2471341 -0.26452455 0.062476002
-0.24734063 -0.26449335 0.062519006
-0.24763234 -0.26448372 0.062327668
-0.24780908 -0.26444513 0.062451482
-0.24803677 -0.26441795 0.062445991
-0.24825515 -0.26439002 0.062454373
-0.24850392 -0.26437005 0.062377326
-0.2487099 -0.26433909 0.062419184
-0.24895185 -0.26431599 0.062370978
-0.24920201 -0.2642968 0.062287018
-0.24944934 -0.26427543 0.062221512
-0.24962418 -0.26423642 0.062349942
-0.24982621 -0.26420468 0.062401038
-0.25014299 -0.26420397 0.062121987
-0.25035372 -0.26417318 0.062158063
-0.25166145 -0.26400974 0.062180676
-0.25189692 -0.26398635 0.062140573
-0.25211141 -0.26395875 0.062150117
-0.25303018 -0.26386341 0.062023215
-0.25325769 -0.26384008 0.06199006
-0.25346193 -0.26380992 0.062027313
-0.25371706 -0.26379502 0.061907593
-0.25393912 -0.26376867 0.061900966
-0.25413546 -0.26373637 0.061961308
-0.25437942 -0.26371682 0.061885439
-0.25459468 -0.26369038 0.061885752
-0.25481895 -0.26366678 0.061857216
-0.25569731 -0.26356584 0.061807714
-0.25592506 -0.26354384 0.061764181
-0.25612688 -0.26351196 0.061816428
-0.25634637 -0.26348752 0.061798286
-0.25656646 -0.26346162 0.061790518
-0.25678518 -0.26343712 0.061773539
-0.25703698 -0.26342353 0.061646909
-0.25724643 -0.26339623 0.061658777
-0.25746351 -0.26336974 0.061657939
-0.25833267 -0.26327023 0.061606161
-0.25854731 -0.26324514 0.061597265
-0.25876546 -0.26322132 0.061575674
-0.25897738 -0.26319546 0.061574854
-0.25920439 -0.2631731 0.061534785
-0.25942823 -0.26315159 0.061491258
-0.25965145 -0.26313001 0.061448894
-0.25986654 -0.26310563 0.061434232
-0.26009119 -0.26308292 0.061398782
-0.26028827 -0.26305225 0.061446436
-0.26049113 -0.2630237 0.061473317
-0.26071492 -0.26300284 0.061425194
-0.26092979 -0.26297691 0.061422057
-0.26115626 -0.2629573 0.061362393
-0.26139107 -0.26293904 0.061285399
-0.26159415 -0.26291093 0.061308824
-0.26179147 -0.26288071 0.06135302
-0.26200128 -0.26285523 0.061351053
-0.26222262 -0.26283231 0.06132023
-0.26244077 -0.26281026 0.06128595
-0.26265731 -0.2627857 0.06127128
-0.26287565 -0.26276392 0.061234705
-0.26307607 -0.26273522 0.061265048
-0.26331493 -0.26272181 0.061148852
-0.26351404 -0.26269069 0.061197646
-0.26374114 -0.2626729 0.061124146
-0.2639401 -0.26264185 0.061172955
-0.26415479 -0.26261926 0.061145607
-0.26436365 -0.26259437 0.061140183
-0.26457885 -0.2625722 0.061109386
-0.26479122 -0.2625469 0.061103947
-0.26500285 -0.26252344 0.061085843
-0.26521108 -0.26249865 0.061080419
-0.26543468 -0.26248047 0.0610127
-0.2656458 -0.26245502 0.061009575
-0.26584131 -0.26242501 0.061053779
-0.26606071 -0.26240325 0.061016038
-0.26627153 -0.26238003 0.060996786
-0.26646936 -0.26235116 0.061030604
-0.26667574 -0.26232612 0.061028652
-0.26690045 -0.2623072 0.060965531
-0.26711008 -0.2622838 0.060948581
-0.26730514 -0.26226488 0.060912091
-0.26755625 -0.26224744 0.060814295
-0.26774272 -0.26222262 0.060828552
-0.2679539 -0.26219147 0.060866937
-0.26815873 -0.26216412 0.060883433
-0.26838833 -0.26215073 0.060775343
-0.26858494 -0.26211965 0.060826451
-0.26879558 -0.26209754 0.060799129
-0.26901776 -0.26208112 0.060719877
-0.2692228 -0.26205656 0.060715623
-0.26942968 -0.26203069 0.060719442
-0.26962575 -0.26200184 0.060754418
-0.26984975 -0.26198459 0.060679771
-0.27005625 -0.2619611 0.060666289
-0.27025634 -0.26193446 0.06068166
-0.27048182 -0.26192081 0.060579341
-0.27069828 -0.26190037 0.060534697
-0.2708649 -0.2618567 0.060704671
-0.2711024 -0.26184976 0.060542352
-0.27128828 -0.26181605 0.060622338
-0.27150652 -0.26179695 0.060566153
-0.27170852 -0.26177183 0.060568832
-0.27192846 -0.26175395 0.060502276
-0.27212849 -0.26172796 0.060513034
-0.27233225 -0.26170403 0.060505331
-0.27255011 -0.26168796 0.060427248
-0.27274519 -0.26165691 0.060479522
-0.27294299 -0.26162994 0.060499504
-0.27315795 -0.26161265 0.060432971
-0.27336034 -0.26158842 0.060428735
-0.27356535 -0.26157096 0.060372602
-0.27376565 -0.26154572 0.06037759
-0.27397615 -0.26152647 0.060329512
-0.27419731 -0.2615031 0.06030215
-0.27438605 -0.26147124 0.060365971
-0.27460125 -0.26145518 0.06029021
-0.27479628 -0.26142445 0.060340181
-0.27500743 -0.26140624 0.060284026
-0.27522558 -0.2613925 0.060188651
-0.27540922 -0.26135764 0.060279019
-0.27562645 -0.26134089 0.060206708
-0.2758334 -0.26132068 0.060169008
-0.27603415 -0.26129663 0.060164779
-0.27623147 -0.26127049 0.060179003
-0.27643064 -0.26124272 0.060203597
-0.27662951 -0.26121762 0.060208593
-0.27683741 -0.26119855 0.060161673
-0.27704883 -0.26118204 0.060092844
-0.27724755 -0.26115716 0.060096689
-0.2774497 -0.26113468 0.060079768
-0.27766421 -0.26111779 0.060010925
-0.27785346 -0.26108664 0.060068987
-0.27803266 -0.26106051 0.060099415
-0.27825487 -0.2610403 0.060047831
-0.27841082 -0.26101306 0.060107179
-0.27865651 -0.26099142 0.060045134
-0.27887553 -0.26098186 0.059918635
-0.27908421 -0.26096505 0.059854425
-0.2792778 -0.2609373 0.059883647
-0.27946976 -0.26090837 0.059923247
-0.27965781 -0.26087642 0.05998823
-0.27981359 -0.2608555 0.060001463
-0.28006738 -0.26083475 0.059925556
-0.280274 -0.26081726 0.059868265
-0.28047732 -0.26079732 0.059831742
-0.28067166 -0.26077044 0.059854053
-0.2808643 -0.26074219 0.059887893
-0.28107014 -0.26072463 0.059831761
-0.28127724 -0.2607083 0.059765249
-0.28147751 -0.26068655 0.05974488
-0.28167203 -0.26066011 0.05976373
-0.28188297 -0.26064759 0.059666075
-0.28208005 -0.26062354 0.059665307
-0.28227597 -0.26060212 0.059646115
-0.28246894 -0.260571 0.059700705
-0.28267542 -0.26055542 0.059629582
-0.28287941 -0.26053414 0.059602283
-0.28307652 -0.26051053 0.059598058
-0.2832658 -0.26047987 0.059652664
-0.28346798 -0.260461 0.059609223
-0.28367087 -0.260443 0.059558868
-0.28386721 -0.26041904 0.059558116
-0.28406629 -0.26039773 0.05953544
-0.28426263 -0.26037392 0.059533529
-0.28446162 -0.26035276 0.059509702
-0.28466305 -0.26033416 0.059465118
-0.28485519 -0.26030645 0.059495505
-0.28505385 -0.26028535 0.059471682
-0.28524762 -0.26025933 0.059488222
-0.2854495 -0.26024178 0.059435569
-0.28563803 -0.26021466 0.059464812
-0.28580067 -0.26019856 0.059436519
-0.28601152 -0.26018685 0.059333101
-0.28624398 -0.26015958 0.05932413
-0.286439 -0.26013544 0.05932568
-0.28663093 -0.2601079 0.059354916
-0.28682917 -0.26008749 0.059326481
-0.28702629 -0.26006594 0.059307277
-0.28721792 -0.26003814 0.059338808
-0.28741261 -0.26001391 0.059341516
-0.28758484 -0.25999618 0.059316643
-0.28780639 -0.25998062 0.059231631
-0.28799218 -0.25996536 0.059176739
-0.28818491 -0.25993913 0.059195589
-0.28837705 -0.25991222 0.05922021
-0.28857848 -0.25987691 0.059297822
-0.28878924 -0.25985873 0.059241675
-0.28897294 -0.2598415 0.059202924
-0.28918403 -0.25981903 0.05917789
-0.28938422 -0.25980327 0.059113711
-0.28958017 -0.25978738 0.059054174
-0.28976917 -0.25975642 0.059111077
-0.28996047 -0.25973985 0.059060767
-0.2901651 -0.25971454 0.05906228
-0.29036489 -0.25969943 0.058993496
-0.29055628 -0.25967199 0.059022725
-0.29073533 -0.25965533 0.058983993
-0.29094625 -0.25962815 0.058993548
-0.29111463 -0.25958869 0.059131235
-0.29130036 -0.25958303 0.05900602
-0.29153058 -0.25956878 0.058903683
-0.29172876 -0.25954646 0.058889087
-0.2919206 -0.25951344 0.058958661
-0.29209524 -0.25950363 0.058873832
-0.29229394 -0.25948945 0.058799289
-0.29247499 -0.25945064 0.058920778
-0.29266459 -0.2594341 0.058871642
-0.29288423 -0.25941706 0.058799319
-0.29306746 -0.25939626 0.058787085
-0.29325789 -0.25938231 0.058718327
-0.29343989 -0.25935188 0.058777571
-0.29360861 -0.25931728 0.05887951
-0.29381278 -0.25930086 0.058816478
-0.29400903 -0.25928414 0.058762684
-0.29421791 -0.25926241 0.058734212
-0.29440451 -0.25925854 0.058595158
-0.294606 -0.25921205 0.058754615
-0.29480073 -0.25919282 0.058720428
-0.29502085 -0.25917193 0.058675781
-0.29522517 -0.25914937 0.058657698
-0.29541561 -0.25912973 0.058630444
-0.29558569 -0.25911558 0.058581375
-0.29575193 -0.2591016 0.058534615
-0.29594231 -0.25906211 0.058652621
-0.29617259 -0.25904015 0.058606774
-0.29636648 -0.25902072 0.058574893
-0.29656219 -0.25900725 0.058498051
-0.29674098 -0.2589761 0.058565382
-0.29691315 -0.25895903 0.058535889
-0.29709622 -0.25892928 0.058589362
-0.29729411 -0.25891206 0.058537878
-0.2974973 -0.25891432 0.058338813
-0.29769653 -0.25887677 0.058434874
-0.29787368 -0.25883797 0.05855985
-0.29805729 -0.25880924 0.05860525
-0.29827848 -0.25879911 0.058481041
-0.29846415 -0.25877944 0.058458421
-0.29870015 -0.25875628 0.058416016
-0.29887015 -0.25873205 0.058440715
-0.29904065 -0.25871 0.058449283
-0.29922611 -0.25869018 0.058427811
-0.29940814 -0.25867173 0.058399439
-0.29961669 -0.25866061 0.05829373
-0.29981199 -0.25865883 0.05813159
-0.30001408 -0.25860879 0.05831641
-0.30020711 -0.25859389 0.058252253
-0.30038098 -0.25857171 0.058258496
-0.30058214 -0.25853643 0.058336109
-0.30076542 -0.25853342 0.058193617
-0.30097935 -0.25851709 0.058121316
-0.30116004 -0.25849235 0.058140215
-0.3013421 -0.25848413 0.058036916
-0.30155048 -0.25844735 0.058119103
-0.3017354 -0.25843233 0.058063056
-0.30193469 -0.25842202 0.057959694
-0.30213612 -0.25838453 0.058053438
-0.30231777 -0.25838786 0.057865985
-0.30251583 -0.25835311 0.057942461
-0.30269998 -0.25832513 0.057982095
-0.30289137 -0.25830522 0.057955991
-0.30309334 -0.25828055 0.057955213
-0.30329534 -0.25825322 0.057974026
-0.30347958 -0.25823244 0.057960637
-0.30367473 -0.25820217 0.058007143
-0.30386972 -0.25817725 0.058014456
-0.30405709 -0.25816384 0.057944566
-0.30423713 -0.25815305 0.057862021
-0.30443516 -0.25813264 0.057833597
-0.30463499 -0.25809014 0.057965394
-0.30480802 -0.25807592 0.057914004
-0.30500841 -0.25806689 0.057800252
-0.30522108 -0.25803906 0.057813264
-0.30542681 -0.25801125 0.05783207
-0.3056106 -0.25799164 0.057810605
-0.30578801 -0.2579678 0.057826061
-0.3059971 -0.25794145 0.057831019
-0.30619559 -0.25791678 0.057833705
-0.30636266 -0.25791386 0.057705097
-0.30654892 -0.25789866 0.057649046
-0.30676702 -0.25786039 0.057733513
-0.30696547 -0.25783554 0.057737358
-0.30715036 -0.25780934 0.057763156
-0.30732661 -0.25777552 0.057852384
-0.30751264 -0.257761 0.057791725
-0.3077085 -0.25774813 0.057710275
-0.30791515 -0.25773233 0.057640307
-0.30812421 -0.25770634 0.057642955
-0.30831373 -0.25768965 0.057594962
-0.30850366 -0.25767103 0.057560794
-0.30867863 -0.25763187 0.057690386
-0.30887696 -0.2576201 0.057598554
-0.30908659 -0.25760397 0.05752857
-0.30926666 -0.25758356 0.057516348
-0.30943367 -0.25757229 0.057448842
-0.30962959 -0.25754461 0.057475753
-0.30983278 -0.2575261 0.057428852
-0.31002367 -0.2574935 0.057496134
-0.31021723 -0.25747332 0.057470024
-0.31040984 -0.2574462 0.057495788
-0.31060466 -0.25742257 0.05749388
-0.31077987 -0.2574062 0.057456315
-0.31097886 -0.25738049 0.057465922
-0.31116158 -0.25737062 0.05737415
-0.3113507 -0.25735274 0.057335377
-0.31154719 -0.25732481 0.057363436
-0.31175229 -0.25730875 0.057296932
-0.31195405 -0.2572923 0.057236206
-0.31212714 -0.25727212 0.057228617
-0.31232318 -0.25724551 0.057247467
-0.31255031 -0.25721699 0.057252351
-0.31271905 -0.25718457 0.057338152
-0.3129063 -0.25716314 0.057327062
-0.31310189 -0.25714523 0.057282493
-0.31330448 -0.25712648 0.057237905
-0.31348664 -0.25710851 0.057206076
-0.31367069 -0.2570999 0.057103924
-0.31384909 -0.25707591 0.057119377
-0.31407163 -0.2570374 0.057201508
-0.31427005 -0.25701365 0.057197288
-0.31446531 -0.25698963 0.057197686
-0.3146373 -0.25697196 0.057172813
-0.31481683 -0.25695255 0.057153668
-0.31501877 -0.25692853 0.057148281
-0.31520578 -0.25690758 0.057133719
-0.31539151 -0.25688317 0.057145685
-0.31558686 -0.25685933 0.057144932
-0.31581366 -0.25684911 0.057016093
-0.31599748 -0.25682795 0.057006165
-0.31616813 -0.25681216 0.056968614
-0.31636304 -0.25678897 0.056963246
-0.31656104 -0.25675565 0.057029348
-0.31674987 -0.25672677 0.057071272
-0.31694511 -0.25669837 0.057103943
-0.31714201 -0.25667763 0.05707898
-0.31732741 -0.25666934 0.056973357
-0.31751052 -0.25665438 0.056918465
-0.31769565 -0.25663635 0.056884322
-0.3178885 -0.2566117 0.05689165
-0.31808931 -0.25658041 0.056940436
-0.31827772 -0.25656703 0.056869395
-0.31847826 -0.2565501 0.056813281
-0.31865683 -0.25654104 0.056719221
-0.31886226 -0.25651267 0.056742635
-0.31907338 -0.25648987 0.05671991
-0.31926316 -0.25645664 0.056792952
-0.31946436 -0.25643003 0.056807168
-0.31964177 -0.25641781 0.056737311
-0.31982949 -0.2563878 0.056788463
-0.32002512 -0.25636864 0.056753118
-0.32021761 -0.25636169 0.056631334
-0.32042477 -0.25633591 0.056633994
-0.32060972 -0.25630578 0.056688614
-0.32079828 -0.25628731 0.05665445
-0.32099593 -0.25625768 0.056694038
-0.3211821 -0.25624219 0.056640282
-0.3213658 -0.25622576 0.056595773
-0.32156968 -0.25619659 0.056626111
-0.32176113 -0.25618994 0.056503173
-0.321933 -0.25617966 0.056424119
-0.32212126 -0.25615022 0.056470655
-0.32231694 -0.25613815 0.056383438
-0.32251769 -0.2561056 0.056441464
-0.32270333 -0.25609395 0.056360044
-0.32290831 -0.25606406 0.056394987
-0.32310459 -0.25602984 0.056469161
-0.3233048 -0.2560021 0.056492597
-0.32403326 -0.25583375 0.057070784
-0.32515928 -0.25557023 0.057988655
-0.24546269 -0.26470622 0.062646195
-0.24571469 -0.26468539 0.062572576
-0.24590491 -0.26464972 0.062662929
-0.24613909 -0.26462474 0.062635511
-0.24637172 -0.2645995 0.06261155
-0.24662568 -0.2645781 0.062540248
-0.25051835 -0.26414758 0.062197816
-0.25074509 -0.26412272 0.06217619
-0.25097075 -0.26409769 0.062156871
-0.25122032 -0.26407778 0.062078662
-0.25142977 -0.26404843 0.062105529
-0.25164223 -0.26401997 0.062123157
-0.25187045 -0.26399603 0.062093455
-0.25210077 -0.26397279 0.062056821
-0.25234002 -0.26395226 0.061992489
-0.25322321 -0.26384822 0.06196142
-0.25367087 -0.26379764 0.061929718
-0.25387591 -0.26376772 0.061964668
-0.25411135 -0.26374701 0.061904959
-0.25433347 -0.26372069 0.061898336
-0.25456387 -0.2636987 0.061852489
-0.2547819 -0.26367304 0.061844729
-0.25497961 -0.26364115 0.061900467
-0.25520861 -0.26361731 0.061869606
-0.25544021 -0.26359612 0.061816826
-0.25566572 -0.26357314 0.061782524
-0.25587666 -0.26354566 0.061794393
-0.25611675 -0.26352581 0.06172429
-0.25633937 -0.26350224 0.061696917
-0.25652644 -0.26346555 0.061797656
-0.25675157 -0.26344293 0.061761044
-0.25698939 -0.26342461 0.061681733
-0.25720868 -0.26340038 0.061662432
-0.25742894 -0.26337472 0.061652362
-0.25765541 -0.26335305 0.061607677
-0.25787714 -0.26332992 0.061578006
-0.25807911 -0.26330024 0.061614119
-0.2583088 -0.26327819 0.061569419
-0.25852853 -0.26325464 0.061544359
-0.25873676 -0.26322544 0.061571233
-0.25895745 -0.26320246 0.06154155
-0.25918081 -0.26317865 0.061515331
-0.2594133 -0.26316002 0.061442956
-0.25960609 -0.26312751 0.061507933
-0.25983313 -0.26310718 0.061452869
-0.26006904 -0.26308832 0.061379321
-0.26027721 -0.26306146 0.061388895
-0.26048881 -0.26303408 0.061399609
-0.2606951 -0.26300669 0.061414953
-0.26090196 -0.26297954 0.061427996
-0.26111442 -0.26295453 0.061420262
-0.26133317 -0.26293004 0.061403275
-0.26153708 -0.26290199 0.061425544
-0.26176149 -0.26287979 0.061386634
-0.26195449 -0.26284772 0.061448149
-0.26219302 -0.26283309 0.061341159
-0.26241994 -0.26281419 0.061275724
-0.262631 -0.26278731 0.061282985
-0.26284266 -0.26276276 0.061272942
-0.26308855 -0.26274973 0.06114747
-0.26327693 -0.26271617 0.061223995
-0.26348597 -0.26269081 0.061222039
-0.26372185 -0.26267636 0.061116207
-0.26393548 -0.26265106 0.061109625
-0.26412344 -0.26261741 0.061187305
-0.2643404 -0.2625936 0.061166868
-0.264566 -0.26257551 0.061096817
-0.26477459 -0.2625505 0.061092556
-0.26499438 -0.26253027 0.061043292
-0.26520187 -0.26250291 0.061057471
-0.26541632 -0.26248065 0.061027825
-0.26564556 -0.26246276 0.060953155
-0.26583421 -0.26242962 0.061026216
-0.26605633 -0.26241103 0.060963094
-0.26626801 -0.26238802 0.060941532
-0.26648277 -0.2623643 0.060922258
-0.26667887 -0.26233676 0.060948022
-0.26689297 -0.26231945 0.060882628
-0.26707411 -0.26229179 0.06092228
-0.2673032 -0.26225957 0.060952529
-0.26750934 -0.26223457 0.060950585
-0.26772454 -0.26221159 0.060925543
-0.26789343 -0.26219177 0.060919125
-0.26814628 -0.26216641 0.0608778
-0.26835394 -0.26214248 0.060866624
-0.26856762 -0.2621192 0.060845047
-0.26877421 -0.26209494 0.060837336
-0.26898506 -0.26207283 0.060810007
-0.26920041 -0.26205298 0.060761906
-0.26942366 -0.26203486 0.060694166
-0.26962593 -0.26200891 0.060702614
-0.26982561 -0.2619817 0.060722604
-0.27004594 -0.2619696 0.060613371
-0.27025312 -0.26193926 0.060649469
-0.27046818 -0.26192009 0.060596757
-0.27067029 -0.26189446 0.060602903
-0.27087179 -0.26188061 0.060523719
-0.27107435 -0.26184326 0.060615182
-0.27128181 -0.26182061 0.060594779
-0.27150255 -0.26180264 0.060528211
-0.27171326 -0.26178196 0.060490504
-0.27190465 -0.26175103 0.060545102
-0.2721065 -0.26172575 0.060548939
-0.27234218 -0.26171651 0.060405072
-0.27253455 -0.26168624 0.060453899
-0.27273694 -0.26166153 0.060453117
-0.27293274 -0.26163322 0.060484655
-0.27315751 -0.2616187 0.060389247
-0.27336678 -0.26159817 0.060351539
-0.27355084 -0.26158154 0.060308181
-0.27376655 -0.2615467 0.060369596
-0.27397156 -0.26152402 0.060351521
-0.27416846 -0.26149666 0.060374968
-0.27436182 -0.26146725 0.060416892
