# .PCD v0.7 - Point Cloud Data file format
VERSION 0.7
FIELDS x y z
SIZE 4 4 4
TYPE F F F
COUNT 1 1 1
WIDTH 1249
HEIGHT 1
VIEWPOINT 0 0 0 1 0 0 0
POINTS 1249
DATA ascii
-0.094889112 -0.40692553 0.05586908
-0.095058694 -0.40703326 0.055864766
-0.095230564 -0.407143 0.055856969
-0.095387623 -0.40725079 0.055803109
-0.09555015 -0.40734887 0.055831127
-0.095710754 -0.40746057 0.055766869
-0.095879741 -0.40756848 0.055759087
-0.096059993 -0.40767279 0.055818155
-0.096209109 -0.40778238 0.05572167
-0.096356854 -0.40788427 0.055667855
-0.096545458 -0.4079909 0.055745326
-0.096721984 -0.40810302 0.055740967
-0.0968787 -0.40821651 0.055650216
-0.097049907 -0.40831918 0.055683937
-0.097211368 -0.40842158 0.055680811
-0.097385421 -0.40853566 0.055654556
-0.097547658 -0.40864006 0.055642199
-0.097691134 -0.40874368 0.055560738
-0.097863473 -0.40885037 0.055573698
-0.098034322 -0.40895891 0.055569366
-0.098192915 -0.40906507 0.055531658
-0.098383367 -0.40917471 0.055597585
-0.098526813 -0.40927833 0.055516124
-0.098670498 -0.4093819 0.055435814
-0.098847471 -0.40949097 0.055452209
-0.099035084 -0.40960437 0.05548355
-0.099188842 -0.40970859 0.055438939
-0.099359989 -0.40981752 0.055433456
-0.099535026 -0.4099285 0.055430263
-0.09970057 -0.41003186 0.055437487
-0.099872515 -0.41014272 0.055422783
-0.10003375 -0.41025111 0.055381589
-0.1002084 -0.41035706 0.055408388
-0.10037529 -0.4104642 0.055397153
-0.10052792 -0.41057196 0.055326018
-0.10068476 -0.4106783 0.055280253
-0.10085409 -0.41078404 0.055287458
-0.10105787 -0.41089803 0.05537869
-0.10117313 -0.410999 0.055202801
-0.10133722 -0.41110435 0.055191584
-0.10149666 -0.41121271 0.055143483
-0.10167129 -0.41132087 0.05515644
-0.10184159 -0.41143036 0.055144034
-0.10201021 -0.41153803 0.055136263
-0.10218874 -0.41164848 0.055150341
-0.10235196 -0.41175571 0.055124141
-0.10250745 -0.41186211 0.055072609
-0.1026718 -0.41196951 0.055049859
-0.10286537 -0.41208187 0.055111151
-0.10304675 -0.41219133 0.055142522
-0.10318917 -0.41229796 0.055038001
-0.10335824 -0.41240448 0.055039447
-0.1035645 -0.41251874 0.055138741
-0.10373013 -0.41262823 0.05510791
-0.10386084 -0.41273341 0.054966539
-0.10405225 -0.41284293 0.055037066
-0.10421252 -0.4129518 0.054988973
-0.1043604 -0.41305748 0.054912101
-0.10454136 -0.41316909 0.054928478
-0.10472004 -0.41327888 0.054947175
-0.10489874 -0.41339034 0.054955494
-0.10505664 -0.413499 0.054899331
-0.10522693 -0.41360942 0.054881163
-0.10541502 -0.41372237 0.054917116
-0.10558291 -0.41383255 0.05489089
-0.1057374 -0.41393927 0.054833584
-0.10591453 -0.41405085 0.054834992
-0.10607368 -0.41415828 0.05479151
-0.1062541 -0.41427046 0.054802131
-0.1064149 -0.4143782 0.054763254
-0.10658593 -0.41448906 0.054745082
-0.10675382 -0.41459796 0.054726925
-0.10691957 -0.41470808 0.054692633
-0.10709859 -0.41481882 0.054706719
-0.10727118 -0.41493011 0.054692
-0.10743947 -0.41503924 0.054673854
-0.10762532 -0.41515285 0.054697126
-0.10778321 -0.41526186 0.054638654
-0.10797293 -0.41537625 0.054672286
-0.10812773 -0.41548479 0.054604609
-0.10832664 -0.41560239 0.054654345
-0.10848758 -0.41571206 0.054603934
-0.10862349 -0.4158144 0.054500595
-0.10881318 -0.4159306 0.054522701
-0.10898844 -0.41604137 0.054521807
-0.10915771 -0.41615409 0.054485187
-0.10934307 -0.41626534 0.054521158
-0.10950638 -0.41637707 0.054467268
-0.10968457 -0.41649154 0.054454833
-0.10985062 -0.41659945 0.054435536
-0.11003402 -0.416715 0.054436903
-0.110213 -0.41682976 0.054425612
-0.11038532 -0.41693759 0.054431662
-0.11054336 -0.41704559 0.054380111
-0.1107509 -0.41716605 0.054445952
-0.11089815 -0.41727206 0.054364465
-0.11105911 -0.41738358 0.054302529
-0.11124109 -0.41750214 0.054279685
-0.11144078 -0.41761428 0.05436632
-0.11158314 -0.4177222 0.054253731
-0.11177096 -0.41783923 0.054263152
-0.11194117 -0.41794997 0.054242678
-0.11212273 -0.41806304 0.054252133
-0.11231012 -0.41817743 0.054276556
-0.11245374 -0.41828281 0.054184709
-0.11264566 -0.41840243 0.054194111
-0.11283201 -0.41851541 0.05422315
-0.11299991 -0.41862875 0.054177318
-0.11317272 -0.41874039 0.054161448
-0.11336643 -0.41886485 0.054147776
-0.11352097 -0.41896436 0.054135457
-0.11370125 -0.41908053 0.054120697
-0.028326374 -0.36784378 0.037568912
-0.028488204 -0.36794734 0.037560053
-0.028654978 -0.36805552 0.037541933
-0.028814029 -0.36815771 0.03753078
-0.02898521 -0.36826998 0.03750458
-0.02914289 -0.36836851 0.03751073
-0.029306993 -0.36847574 0.037488014
-0.029471748 -0.36858189 0.037474521
-0.029639691 -0.36869249 0.037446026
-0.029804122 -0.3688027 0.03740602
-0.029969044 -0.36890951 0.03738907
-0.030132122 -0.36901608 0.037366368
-0.030293472 -0.36912048 0.037350584
-0.030452739 -0.36922428 0.037330199
-0.030619737 -0.36933017 0.037327085
-0.030777384 -0.36943203 0.03731247
-0.0309381 -0.36953822 0.037282862
-0.031100918 -0.36964095 0.037283216
-0.031264361 -0.36974683 0.037266273
-0.031429347 -0.36985719 0.037227411
-0.031590454 -0.36996013 0.037219711
-0.031748265 -0.3700608 0.037213169
-0.031902529 -0.37016106 0.03719512
-0.032071047 -0.37027255 0.037163164
-0.03222936 -0.37037206 0.03716585
-0.032390051 -0.37047732 0.037142001
-0.032546513 -0.37057897 0.037123941
-0.032710042 -0.370684 0.037112765
-0.032872606 -0.37079006 0.037091218
-0.033025548 -0.3708871 0.037088163
-0.033186492 -0.37099344 0.03705854
-0.033344053 -0.37109503 0.037045095
-0.033500999 -0.37119591 0.037033942
-0.033665359 -0.37130532 0.036998544
-0.033824198 -0.37140924 0.036975864
-0.033982828 -0.3715106 0.036968172
-0.034140006 -0.37161234 0.036952406
-0.034300491 -0.37171912 0.036918178
-0.034453165 -0.3718169 0.036909364
-0.034612939 -0.37191805 0.036907438
-0.03476961 -0.37202206 0.036875527
-0.034930069 -0.372127 0.03685284
-0.0350876 -0.37222767 0.036845151
-0.035243731 -0.37232634 0.036844391
-0.035400022 -0.37242788 0.036826331
-0.035560012 -0.37253273 0.036802486
-0.035713963 -0.37263352 0.036779817
-0.035872202 -0.37273851 0.03674791
-0.036025994 -0.37283683 0.036740243
-0.036184885 -0.37293798 0.036734857
-0.036337163 -0.37303939 0.036701821
-0.036494955 -0.37313914 0.036701053
-0.036648918 -0.37324089 0.036672626
-0.036805585 -0.37334174 0.036660325
-0.036958128 -0.37343889 0.036654972
-0.037116431 -0.37354264 0.036631133
-0.037272528 -0.37364572 0.036602695
-0.037426494 -0.37374285 0.036603093
-0.037576094 -0.37384129 0.036578149
-0.037731662 -0.3739385 0.03658431
-0.03788526 -0.37403816 0.036567412
-0.038041476 -0.37414223 0.036533207
-0.038192734 -0.3742384 0.036529012
-0.038345516 -0.37433717 0.036514428
-0.038498159 -0.37443587 0.036499847
-0.038654692 -0.3745383 0.036477163
-0.038807921 -0.37463829 0.03645682
-0.038964793 -0.37473872 0.03644798
-0.03911113 -0.37483326 0.036434576
-0.039267737 -0.37493646 0.036407296
-0.039421588 -0.3750352 0.036397316
-0.039572023 -0.37513119 0.036390815
-0.039725229 -0.37523207 0.036364701
-0.039875578 -0.37532821 0.036357041
-0.040024467 -0.37542194 0.036358625
-0.040180493 -0.37552518 0.036329038
-0.040333424 -0.37562627 0.036300607
-0.040485851 -0.37572667 0.036274496
-0.040635385 -0.3758221 0.036268
-0.040788669 -0.37592119 0.036253415
-0.040943418 -0.37602305 0.036227293
-0.041092254 -0.37611768 0.036223099
-0.041239239 -0.37621558 0.036191247
-0.041395023 -0.37631661 0.036174349
-0.041540593 -0.37640566 0.036192086
-0.041695673 -0.37650904 0.036157884
-0.041842248 -0.37660351 0.036145642
-0.041995812 -0.37670445 0.036120668
-0.042141981 -0.37679851 0.036109578
-0.042295694 -0.37690008 0.03608115
-0.042444922 -0.37699682 0.036065437
-0.042597465 -0.37709653 0.036043935
-0.042745262 -0.37719437 0.036015529
-0.042897653 -0.37729421 0.035992879
-0.043047812 -0.37739706 0.035942551
-0.043195501 -0.37749171 0.035933763
-0.04334338 -0.37759051 0.035899598
-0.043492325 -0.3776843 0.035901181
-0.043640122 -0.37777215 0.035935055
-0.043787099 -0.37786967 0.035905503
-0.043933287 -0.37795818 0.035929009
-0.044084612 -0.37805343 0.035930581
-0.044231221 -0.37814683 0.035925247
-0.04437992 -0.37824082 0.035924524
-0.044527721 -0.378337 0.035906505
-0.044673204 -0.37843245 0.035883889
-0.044821598 -0.37852624 0.035883158
-0.044969533 -0.37862325 0.035860527
-0.045116242 -0.37871781 0.035848286
-0.045261052 -0.37880841 0.035853341
-0.045409076 -0.37890196 0.035852619
-0.045553394 -0.37899169 0.035861142
-0.045698225 -0.37908268 0.035863888
-0.045847956 -0.37918046 0.035843559
-0.04599081 -0.37926722 0.03586477
-0.046132404 -0.37935561 0.035871003
-0.046273977 -0.37943953 0.035904907
-0.04641616 -0.37952033 0.035960719
-0.04655518 -0.37959358 0.036051143
-0.046694659 -0.37966767 0.03613811
-0.04683198 -0.37974116 0.036220472
-0.046970356 -0.37981215 0.036322426
-0.047106311 -0.3798818 0.036423255
-0.047242582 -0.37994704 0.036552906
-0.047375511 -0.38000849 0.03669294
-0.047511902 -0.38006806 0.036858339
-0.047644384 -0.3801274 0.037009917
-0.047780443 -0.38018489 0.037186854
-0.047912948 -0.38024312 0.03734535
-0.048043884 -0.38029668 0.03752692
-0.048179176 -0.38034463 0.037760366
-0.048309974 -0.38039625 0.037953466
-0.048709586 -0.38053712 0.038648058
-0.049309667 -0.37824839 0.05528488
-0.049461238 -0.37830925 0.055502098
-0.049600795 -0.37837839 0.055620193
-0.049751602 -0.37845984 0.05570595
-0.049907386 -0.37854943 0.055760544
-0.050070435 -0.37864673 0.055795506
-0.050240058 -0.37874949 0.055822358
-0.050398447 -0.37884814 0.055830803
-0.051719636 -0.38224661 0.039836179
-0.051853649 -0.38232559 0.039871272
-0.052007683 -0.38241148 0.039942022
-0.052142974 -0.38248608 0.040009394
-0.05362485 -0.38206154 0.04849099
-0.053770006 -0.3821446 0.048544489
-0.053915665 -0.38223019 0.048584133
-0.05459781 -0.38087717 0.059708178
-0.054747079 -0.38097262 0.059700534
-0.054919362 -0.38111442 0.059494428
-0.055108108 -0.3812311 0.05950965
-0.055273551 -0.38132051 0.059603401
-0.055461615 -0.38143051 0.059657842
-0.055601556 -0.38152283 0.059632942
-0.055784214 -0.38163659 0.059642427
-0.055938285 -0.38172546 0.059694722
-0.056094714 -0.38184097 0.059590172
-0.056275975 -0.38197643 0.059458971
-0.056445446 -0.38207614 0.059504282
-0.056610063 -0.38219109 0.059435438
-0.056791566 -0.3822934 0.059511818
-0.056961648 -0.38240331 0.059495989
-0.057141416 -0.38253003 0.059413243
-0.057301983 -0.38263357 0.059399769
-0.057468716 -0.382743 0.05937358
-0.057628933 -0.3828389 0.059406251
-0.057807975 -0.38296184 0.059344254
-0.057959028 -0.38306177 0.059315838
-0.058106869 -0.38315296 0.059328958
-0.058270093 -0.38324133 0.059420422
-0.058427263 -0.38333493 0.059455402
-0.058593489 -0.38345128 0.059384242
-0.058787167 -0.38358644 0.059303727
-0.058953419 -0.3836869 0.059331745
-0.05911601 -0.38380224 0.05925253
-0.059309606 -0.38392568 0.05924467
-0.05945728 -0.3840155 0.059265859
-0.059619941 -0.38412163 0.059244305
-0.059792072 -0.38422856 0.059255004
-0.05994799 -0.3843371 0.059191965
-0.060116511 -0.38444731 0.059168078
-0.060276382 -0.38454428 0.059192672
-0.06043794 -0.38465783 0.059120387
-0.060603689 -0.38476056 0.059132256
-0.060761012 -0.38485056 0.059190303
-0.060946718 -0.38497975 0.059115596
-0.061114233 -0.38509396 0.059062887
-0.06127762 -0.38518852 0.059116285
-0.06143583 -0.38529646 0.059065931
-0.061609406 -0.38541263 0.059024721
-0.061785445 -0.3855128 0.059093051
-0.061940022 -0.3856203 0.059031177
-0.062107157 -0.38573277 0.058987685
-0.062272407 -0.38583627 0.05899265
-0.062424131 -0.38593864 0.058951549
-0.06258782 -0.3860493 0.058905773
-0.062749662 -0.38615179 0.058903836
-0.06291265 -0.38626459 0.058841921
-0.063081138 -0.38636792 0.058860708
-0.06325537 -0.38647676 0.058867928
-0.063430309 -0.3865827 0.058895901
-0.063582763 -0.38667959 0.058891699
-0.063739389 -0.38678747 0.058835581
-0.063915692 -0.38690129 0.058819726
-0.064076379 -0.38700655 0.058795877
-0.064248972 -0.38710803 0.05884232
-0.064401679 -0.38720345 0.058848493
-0.064561255 -0.38732335 0.058728933
-0.064729609 -0.38742658 0.058747716
-0.064886592 -0.3875308 0.05871582
-0.065062329 -0.38764483 0.058696501
-0.065229893 -0.38775018 0.058699146
-0.065385833 -0.38784632 0.058713377
-0.065556102 -0.3879545 0.058709085
-0.065713383 -0.38806665 0.058628749
-0.06587778 -0.38817 0.058631405
-0.066052042 -0.38828659 0.058590196
-0.066204533 -0.38839057 0.058542166
-0.066361725 -0.38849232 0.058526412
-0.066529773 -0.38859576 0.058542892
-0.066693038 -0.38870114 0.058528244
-0.066859305 -0.38880846 0.058513597
-0.067021012 -0.38890862 0.058525499
-0.067185275 -0.38901982 0.058478564
-0.067347735 -0.38911843 0.058503151
-0.067510895 -0.38922358 0.058489665
-0.067678064 -0.38934404 0.058396593
-0.06784822 -0.38945842 0.058353096
-0.068007506 -0.3895478 0.058422666
-0.068150774 -0.3896513 0.058341235
-0.068318695 -0.38976187 0.05831274
-0.068484277 -0.38984802 0.058427252
-0.06865149 -0.38994592 0.058474872
-0.068806551 -0.3900637 0.05835072
-0.06896849 -0.39018345 0.058241535
-0.06915608 -0.3902761 0.058402069
-0.06931904 -0.3903743 0.058431253
-0.069460183 -0.39049864 0.058211461
-0.069621637 -0.39061767 0.058104575
-0.069802076 -0.39069048 0.05836086
-0.069975019 -0.39081791 0.058247
-0.070141688 -0.39092916 0.058209281
-0.070307732 -0.39102319 0.058276512
-0.070460327 -0.39113516 0.058178902
-0.070626043 -0.39123565 0.058204614
-0.070792891 -0.39134628 0.058171511
-0.070954353 -0.39144647 0.058182254
-0.071124338 -0.39155871 0.058151439
-0.071313024 -0.39168164 0.058127455
-0.071471103 -0.39177489 0.058168199
-0.071621031 -0.39187762 0.058117881
-0.071785748 -0.3919954 0.058031742
-0.071948394 -0.39210466 0.057990581
-0.07210426 -0.39220038 0.058007121
-0.07227008 -0.39230612 0.058000546
-0.072432429 -0.3924104 0.057989374
-0.072582774 -0.39251187 0.057948276
-0.072744146 -0.39261702 0.057927884
-0.07292062 -0.39272189 0.057968538
-0.073087074 -0.39282209 0.057998866
-0.073276162 -0.39294401 0.057982955
-0.073433541 -0.39304808 0.05795335
-0.0735998 -0.39315334 0.057951391
-0.073757097 -0.393262 0.057892963
-0.073914565 -0.39336577 0.057865668
-0.074087486 -0.39346969 0.057898272
-0.074242167 -0.39357579 0.057845622
-0.074388944 -0.39367947 0.057776868
-0.074559614 -0.3937853 0.057788715
-0.074727945 -0.39388871 0.05780635
-0.074892662 -0.39399078 0.057818227
-0.075065181 -0.39410388 0.057792023
-0.075212896 -0.39418522 0.057866253
-0.075369745 -0.39429343 0.057808984
-0.07552328 -0.39440802 0.057698678
-0.075702302 -0.39451617 0.057728942
-0.075859554 -0.39461148 0.057753544
-0.076008439 -0.39472482 0.057632882
-0.076163605 -0.39482954 0.057590611
-0.076332785 -0.39493257 0.057614006
-0.076500796 -0.39504042 0.057602808
-0.076674566 -0.39514452 0.057637706
-0.076836541 -0.39525244 0.057602324
-0.077007733 -0.39536211 0.057592258
-0.077163212 -0.39546257 0.057577662
-0.077319987 -0.3955735 0.057503089
-0.077488676 -0.39567715 0.057520725
-0.077650003 -0.39578152 0.057504941
-0.077810474 -0.39587906 0.057528377
-0.077984974 -0.39598325 0.057565581
-0.078146979 -0.3960945 0.057509437
-0.078306235 -0.39619645 0.057500582
-0.078466639 -0.39630485 0.057455987
-0.07863576 -0.3964121 0.057452854
-0.078808278 -0.39651763 0.05747392
-0.078961387 -0.39663306 0.057356697
-0.079119429 -0.39673552 0.05733978
-0.079286642 -0.39684027 0.057344735
-0.079462722 -0.39694086 0.057410758
-0.079630919 -0.39704198 0.057442226
-0.079804234 -0.39715743 0.057404485
-0.079942197 -0.39726254 0.057291947
-0.080111317 -0.39737314 0.057268053
-0.080293827 -0.39747462 0.057353657
-0.080428526 -0.39757437 0.057261899
-0.0805794 -0.39767987 0.057197735
-0.080749251 -0.39778057 0.057238419
-0.080913372 -0.39788687 0.057221472
-0.081084602 -0.39799973 0.057191812
-0.081259921 -0.39811403 0.057169039
-0.081422687 -0.39822394 0.057124421
-0.081589289 -0.39831704 0.057199724
-0.081746079 -0.39842612 0.057136685
-0.081900001 -0.39852709 0.057112869
-0.082058199 -0.39862651 0.057115555
-0.082230665 -0.39873588 0.057112418
-0.082405068 -0.39882982 0.057213046
-0.082556725 -0.39894637 0.057083141
-0.082707718 -0.39905125 0.057023592
-0.082854487 -0.39915159 0.056975592
-0.083036236 -0.39925516 0.057045057
-0.083209448 -0.39936444 0.057045367
-0.083370984 -0.3994745 0.056994982
-0.083539821 -0.39958233 0.056987241
-0.083708651 -0.39968735 0.0569968
-0.08387088 -0.39979154 0.056985632
-0.084023401 -0.3998957 0.05693645
-0.084180713 -0.400004 0.056880321
-0.08435265 -0.40011376 0.056872565
-0.084515892 -0.40020955 0.056917906
-0.084666647 -0.40031406 0.056859508
-0.084825791 -0.40041909 0.056831054
-0.085000366 -0.40052831 0.056837123
-0.085178129 -0.40064213 0.056827027
-0.085325889 -0.40074459 0.056769796
-0.085487977 -0.40084627 0.056773614
-0.085653387 -0.4009499 0.05677858
-0.085809305 -0.40105566 0.056732845
-0.085965216 -0.40115362 0.056735545
-0.086100727 -0.4012585 0.056614947
-0.086276203 -0.40136775 0.056624472
-0.086432092 -0.40146831 0.056611024
-0.086601928 -0.40157121 0.056637876
-0.086790338 -0.40167567 0.056728054
-0.086957194 -0.40178186 0.056722634
-0.087121136 -0.40188861 0.056702226
-0.087276772 -0.40199438 0.056655332
-0.087447569 -0.40210733 0.056623366
-0.087622628 -0.40221223 0.056658268
-0.087749541 -0.40231776 0.056499656
-0.0879265 -0.40241519 0.056588747
-0.088092849 -0.40252641 0.056549869
-0.088269658 -0.40263131 0.056591682
-0.088421337 -0.40274236 0.056496374
-0.088584945 -0.40284684 0.056488659
-0.088738456 -0.40294573 0.056476373
-0.088895142 -0.40305123 0.056435253
-0.089065343 -0.40316194 0.056414817
-0.089226395 -0.40326223 0.056423251
-0.089384042 -0.40336761 0.056386739
-0.089529373 -0.4034698 0.056321446
-0.089724824 -0.40358001 0.056403525
-0.089904845 -0.4036853 0.056455694
-0.090058461 -0.40379569 0.056371912
-0.090190642 -0.40390143 0.056232885
-0.090364218 -0.40400299 0.056282781
-0.090541549 -0.40410432 0.056348801
-0.090728275 -0.40421829 0.056373261
-0.090868577 -0.40432525 0.05625841
-0.091034614 -0.40443 0.056258749
-0.09119416 -0.4045375 0.056216456
-0.091358066 -0.40464681 0.056179903
-0.09151274 -0.40475032 0.056143403
-0.091688626 -0.40485665 0.056172524
-0.091849059 -0.40495768 0.056174051
-0.092017189 -0.40506467 0.056168612
-0.09217681 -0.40516797 0.056152847
-0.092348523 -0.40527907 0.056135863
-0.092497721 -0.40537873 0.056101687
-0.092687309 -0.40548488 0.056186106
-0.092843838 -0.40559471 0.0561173
-0.093029901 -0.40569916 0.056198277
-0.093172625 -0.40580952 0.056071874
-0.093305066 -0.40591598 0.055929385
-0.093485236 -0.40601468 0.056023069
-0.093671605 -0.40612361 0.05607751
-0.09381257 -0.40622765 0.055983417
-0.093975678 -0.40633723 0.05594226
-0.094159037 -0.4064444 0.055995569
-0.094329052 -0.40655592 0.055969361
-0.094478965 -0.40665975 0.05591213
-0.094648741 -0.40676335 0.055934358
-0.094815761 -0.40686706 0.055945083
-0.09496706 -0.40697283 0.055880912
-0.095140398 -0.40708053 0.055891596
-0.095314935 -0.40719417 0.055869989
-0.095458649 -0.40729794 0.055788569
-0.095639795 -0.40740004 0.055864949
-0.095789835 -0.40750965 0.055771958
-0.095953584 -0.40761554 0.05575617
-0.096136928 -0.40772182 0.055815242
-0.096280806 -0.40783125 0.055699214
-0.096434154 -0.4079313 0.055678859
-0.09662398 -0.40803796 0.055760965
-0.096793033 -0.40814608 0.055752072
-0.096947215 -0.40825945 0.055652142
-0.097123981 -0.40836415 0.055695105
-0.097287297 -0.40846846 0.05568739
-0.097446337 -0.40857637 0.055640481
-0.09762226 -0.40868497 0.055655774
-0.097764127 -0.40878665 0.055580121
-0.097936139 -0.40889332 0.05559196
-0.098097861 -0.40899774 0.055577334
-0.098260745 -0.40910771 0.055532716
-0.098445259 -0.40921342 0.055599857
-0.098600969 -0.40932128 0.055540286
-0.098743081 -0.4094229 0.055465784
-0.098918557 -0.4095301 0.055487998
-0.099103898 -0.40964338 0.055511311
-0.099260435 -0.40974951 0.055465572
-0.099424496 -0.40985617 0.055446316
-0.099600166 -0.40996718 0.055445459
-0.099771477 -0.41007268 0.055461925
-0.099935941 -0.41018125 0.055432286
-0.10009245 -0.41028923 0.055375021
-0.10026037 -0.41039461 0.05537881
-0.10044351 -0.4105013 0.055434421
-0.1005905 -0.41061029 0.055333376
-0.1007438 -0.41071457 0.055286504
-0.10090926 -0.41081822 0.055291459
-0.1011045 -0.41093144 0.05535394
-0.10123093 -0.41103333 0.055216089
-0.10140323 -0.41113946 0.05523254
-0.10155777 -0.41124564 0.055178743
-0.1017269 -0.41135493 0.055162922
-0.10189295 -0.41146228 0.055147123
-0.10206851 -0.41157231 0.055152029
-0.10224702 -0.41168106 0.055176534
-0.10241655 -0.41178894 0.055171091
-0.10256355 -0.41189441 0.055091955
-0.10273173 -0.41200387 0.055071533
-0.10292677 -0.41211474 0.055147845
-0.10310274 -0.41222522 0.055151597
-0.10324693 -0.41233039 0.055063255
-0.10341376 -0.41243821 0.055047445
-0.10362147 -0.41255268 0.055151369
-0.10378742 -0.41266218 0.055121735
-0.10391888 -0.4127658 0.054993089
-0.10410224 -0.41287428 0.055038322
-0.10427101 -0.41298261 0.05502712
-0.10441874 -0.41308984 0.054939911
-0.10459576 -0.41319931 0.054954037
-0.1047687 -0.4133099 0.054945115
-0.10495423 -0.41342068 0.054984577
-0.10510968 -0.41353059 0.054911166
-0.10527635 -0.41363889 0.054891899
-0.1054597 -0.41374958 0.054923303
-0.10562129 -0.41385725 0.054887906
-0.1057831 -0.41396654 0.054843307
-0.10596995 -0.41407797 0.054883897
-0.10612349 -0.41418612 0.054813959
-0.10629068 -0.41429475 0.054794695
-0.10645849 -0.41440505 0.054767352
-0.10663746 -0.41451555 0.054782629
-0.10680301 -0.41462409 0.054757595
-0.10696553 -0.41473216 0.054723367
-0.10713874 -0.41484347 0.054710984
-0.10731433 -0.41495371 0.054714739
-0.10748109 -0.4150641 0.054682791
-0.10767433 -0.41517735 0.054737203
-0.10783935 -0.41528755 0.054699492
-0.10801874 -0.41540021 0.054703228
-0.10815509 -0.41550413 0.054591857
-0.10835707 -0.41561919 0.054669295
-0.10852726 -0.41573343 0.054626949
-0.10866835 -0.41583514 0.054547839
-0.10884871 -0.4159497 0.054543503
-0.10901865 -0.41606098 0.054518458
-0.10919438 -0.41617334 0.054509521
-0.10938053 -0.41628617 0.0545386
-0.10953559 -0.41639492 0.054470953
-0.10971041 -0.41650873 0.054449346
-0.10989253 -0.41661957 0.054474987
-0.11006144 -0.41673094 0.054445326
-0.11024494 -0.41684654 0.054446742
-0.11041874 -0.4169575 0.054438964
-0.11058402 -0.41706398 0.054425482
-0.11079115 -0.41718435 0.054490205
-0.11094101 -0.41728944 0.054424893
-0.11109931 -0.41740185 0.054346852
-0.11124864 -0.41751251 0.054244645
-0.11144923 -0.41762763 0.05431632
-0.11161217 -0.41773394 0.054294758
-0.11178976 -0.41785172 0.054259293
-0.11196852 -0.41796416 0.054261886
-0.11213808 -0.41807336 0.05424837
-0.11234197 -0.41819388 0.054299273
-0.11249053 -0.41829887 0.054229356
-0.11265591 -0.41840875 0.054195102
-0.11285122 -0.41852775 0.054221828
-0.11297965 -0.41862851 0.054098967
-0.11319532 -0.41875336 0.054169409
-0.11339184 -0.41887701 0.054171909
-0.11354961 -0.41898134 0.054142315
-0.11372282 -0.41909045 0.054143772
-0.028371181 -0.36787316 0.037562061
-0.0285381 -0.36798364 0.037530102
-0.028700776 -0.36808869 0.037515461
-0.028865956 -0.36819512 0.037501968
-0.029024515 -0.36829698 0.037490807
-0.02918458 -0.36839685 0.037498098
-0.029351532 -0.3685081 0.037461527
-0.029516224 -0.36861441 0.037446875
-0.029680394 -0.36872223 0.037420698
-0.029842455 -0.36882946 0.037389912
-0.030002352 -0.36893183 0.037381057
-0.030171387 -0.36904457 0.037343316
-0.030330792 -0.36914864 0.037321772
-0.030495327 -0.3692556 0.037302513
-0.030653913 -0.36935452 0.037309811
-0.030810043 -0.3694545 0.03730097
-0.03097536 -0.36956507 0.037262097
-0.031136449 -0.3696678 0.037255544
-0.031297419 -0.3697727 0.037235145
-0.031456981 -0.36987576 0.037220526
-0.031618785 -0.36998209 0.037194353
-0.031780403 -0.37008607 0.037182026
-0.031941596 -0.37019184 0.037157014
-0.032098543 -0.37029177 0.037151638
-0.032254633 -0.37039059 0.03714972
-0.032420043 -0.3705005 0.037115458
-0.032576602 -0.37060481 0.037081238
-0.032735087 -0.37070516 0.037079308
-0.032898609 -0.37081054 0.037065823
-0.033048403 -0.37090558 0.037062783
-0.03321179 -0.3710157 0.037019301
-0.033370785 -0.37111729 0.037011608
-0.033527888 -0.37121862 0.036998145
-0.03368859 -0.37132296 0.036980063
-0.03384959 -0.37143025 0.036944661
-0.034005079 -0.37152964 0.036936987
-0.034166787 -0.37163591 0.036910821
-0.034320857 -0.37173587 0.036893912
-0.034477405 -0.3718372 0.036878154
-0.03463468 -0.37193733 0.036872767
-0.034793202 -0.37204438 0.036829319
-0.034952506 -0.37214783 0.036811233
-0.035109617 -0.37224564 0.036819689
-0.035262629 -0.37234235 0.036818944
-0.035419893 -0.37244564 0.036793947
-0.035579808 -0.37255058 0.036768943
-0.035737321 -0.37265456 0.036740489
-0.035892207 -0.37275469 0.036725886
-0.036045924 -0.37285313 0.036717057
-0.03620192 -0.37295523 0.036694381
-0.036358349 -0.37305817 0.036668241
-0.036513232 -0.37315625 0.036666326
-0.036669772 -0.37325701 0.036654025
-0.036824077 -0.37335971 0.036620978
-0.036981162 -0.37345901 0.036620203
-0.037135988 -0.37356019 0.036598682
-0.037292492 -0.37366149 0.036582921
-0.037444718 -0.37375882 0.036575258
-0.037597418 -0.37385976 0.03654683
-0.037750088 -0.37395531 0.036551844
-0.037903778 -0.37405542 0.036532637
-0.038057499 -0.3741557 0.036512282
-0.038210914 -0.37425286 0.036510374
-0.038368031 -0.37435621 0.036484223
-0.038518876 -0.37445506 0.036461569
-0.038672335 -0.37455559 0.036438905
-0.038827989 -0.37465414 0.036436986
-0.038978554 -0.374753 0.036413185
-0.039134305 -0.37485197 0.036408957
-0.039285965 -0.374953 0.036375921
-0.039440572 -0.37505332 0.036359012
-0.039588645 -0.37514856 0.036347911
-0.039742462 -0.37524781 0.036334462
-0.039893374 -0.37534523 0.03632104
-0.040044412 -0.37543994 0.036324911
-0.040196568 -0.37553981 0.036301106
-0.040351488 -0.37564158 0.036276124
-0.040502042 -0.37574211 0.036241934
-0.040655825 -0.37584227 0.036222726
-0.040804975 -0.3759343 0.036235839
-0.04095687 -0.37603456 0.036208563
-0.041107185 -0.37613216 0.03619168
-0.041256584 -0.37622824 0.036180563
-0.041408181 -0.37632847 0.036152139
-0.041559435 -0.376425 0.036145631
-0.041709214 -0.37652224 0.036128744
-0.041862339 -0.37662256 0.03610608
-0.042011544 -0.37671906 0.036091514
-0.042160332 -0.37681496 0.036079243
-0.042310748 -0.37691408 0.036053132
-0.042462576 -0.37701264 0.036036246
-0.042611547 -0.37710938 0.036019363
-0.042764246 -0.37720993 0.035993241
-0.042912945 -0.37730652 0.035976369
-0.043061249 -0.37740967 0.035916813
-0.043208826 -0.37750441 0.035906866
-0.043359973 -0.37760642 0.035865754
-0.043506339 -0.37769911 0.03586388
-0.043654133 -0.37778735 0.035895456
-0.043804564 -0.37788093 0.035903942
-0.043953128 -0.37797463 0.03590437
-0.044099569 -0.37806794 0.035899036
-0.044246297 -0.37816197 0.03589024
-0.044389836 -0.37825343 0.035884932
-0.044539437 -0.37834981 0.035872664
-0.044688668 -0.37844563 0.035862699
-0.044838406 -0.37854266 0.035846971
-0.044984844 -0.37863687 0.035835881
-0.045131177 -0.37873101 0.035824779
-0.045277704 -0.37882158 0.035836753
-0.045425028 -0.3789182 0.035814106
-0.045569304 -0.37900829 0.035820324
-0.045716658 -0.37910104 0.035821907
-0.045862172 -0.37919411 0.035814278
-0.046002761 -0.37928057 0.035828583
-0.046147555 -0.37936783 0.035854403
-0.046290681 -0.37945125 0.035897531
-0.046431087 -0.3795374 0.035912983
-0.046572715 -0.37961268 0.036001105
-0.046709966 -0.37968665 0.036080018
-0.046851538 -0.37976134 0.036171596
-0.046985716 -0.37983227 0.036257442
-0.04712344 -0.37990192 0.036365189
-0.047259733 -0.37996772 0.036491401
-0.047395349 -0.38003144 0.036627993
-0.047529742 -0.38009158 0.036781892
-0.047665659 -0.38014993 0.03695308
-0.047797669 -0.38020802 0.037110448
-0.047929592 -0.38026533 0.037272438
-0.048064314 -0.38032404 0.037436713
-0.048196852 -0.3803708 0.037666749
-0.048328772 -0.38042051 0.037876025
-0.048720971 -0.38056022 0.038548846
-0.049327642 -0.37828574 0.055122688
-0.049623601 -0.37840936 0.05551685
-0.049760792 -0.37847093 0.05567304
-0.049919739 -0.37856361 0.055720713
-0.050086193 -0.37866491 0.055744119
-0.050252113 -0.37876442 0.055776745
-0.050412506 -0.37886208 0.055799033
-0.051725358 -0.38226205 0.039762497
-0.051863991 -0.38234228 0.039807957
-0.0520202 -0.3824288 0.039883316
-0.052152395 -0.38250107 0.039953023
-0.052289426 -0.38257396 0.040037706
-0.053633355 -0.38207296 0.048453331
-0.054767735 -0.38098273 0.059718892
-0.054933444 -0.38111961 0.059517391
-0.055126064 -0.38124672 0.059482995
-0.055303983 -0.38134697 0.05955825
-0.055478755 -0.38144374 0.059642747
-0.05562792 -0.38154355 0.059607405
-0.055791661 -0.38164499 0.059619296
-0.055955328 -0.38174585 0.059634637
-0.05610342 -0.38183576 0.059656985
-0.056301121 -0.38199621 0.059434555
-0.056451883 -0.38208538 0.059471883
-0.056631073 -0.38220161 0.059452549
-0.056816071 -0.38231704 0.059460875
-0.056967072 -0.38241026 0.059473976
-0.057158321 -0.3825326 0.059463806
-0.057325371 -0.38265336 0.059368413
-0.057491649 -0.38275808 0.059369903
-0.057657901 -0.38286296 0.059370242
-0.057827085 -0.3829636 0.059408624
-0.057993472 -0.38308409 0.059312075
-0.058138013 -0.38317639 0.059305601
-0.058294825 -0.38326901 0.059345201
-0.058445573 -0.38335115 0.05942636
-0.058611542 -0.38346383 0.059377097
-0.058801986 -0.38358971 0.059341565
-0.058973718 -0.3837088 0.059274971
-0.059136432 -0.38381183 0.059273031
-0.059320256 -0.3839356 0.05922484
-0.05949223 -0.38404077 0.059245907
-0.059639324 -0.38413614 0.059230193
-0.059817452 -0.38424444 0.059255846
-0.059961371 -0.3843382 0.059237845
-0.06012575 -0.38445687 0.059144765
-0.060303625 -0.38456652 0.059161194
-0.06044535 -0.38464665 0.059219319
-0.060627431 -0.38477895 0.059111163
-0.060784191 -0.38487154 0.059150767
-0.06094633 -0.38497457 0.059146509
-0.061140656 -0.38510975 0.059068277
-0.061296027 -0.38521239 0.059039835
-0.061455525 -0.38530895 0.059065588
-0.061622113 -0.38542497 0.058997869
-0.06179712 -0.38552946 0.059035074
-0.061959554 -0.38562861 0.059056193
-0.062120151 -0.38573807 0.059005804
-0.062293269 -0.38585284 0.058971517
-0.062457573 -0.38595945 0.058953404
-0.062596202 -0.38605651 0.058893897
-0.062763803 -0.386163 0.058889613
-0.062932275 -0.38628092 0.058817282
-0.063106582 -0.38638794 0.058836035
-0.063264608 -0.38648966 0.058823731
-0.063448891 -0.38659909 0.05886665
-0.063607052 -0.38670018 0.058858957
-0.063755564 -0.38679719 0.058838617
-0.063921675 -0.38690791 0.058802053
-0.064091675 -0.38701719 0.058789685
-0.064249218 -0.38711953 0.05877161
-0.064425305 -0.38722047 0.058835343
-0.064577967 -0.38732657 0.058774617
-0.06473282 -0.38743663 0.05869773
-0.064903721 -0.38754225 0.058711886
-0.065064237 -0.38764572 0.058698408
-0.065236762 -0.38775718 0.058682568
-0.065396145 -0.38786346 0.058647186
-0.065557539 -0.38795418 0.058716752
-0.065724619 -0.38806957 0.0586548
-0.065891497 -0.38818502 0.058591709
-0.066049092 -0.38828537 0.058586322
-0.066230692 -0.38840163 0.058576196
-0.066378184 -0.38850722 0.058498196
-0.066537052 -0.38860431 0.058518179
-0.066696607 -0.38870847 0.058496639
-0.066859469 -0.38881379 0.058480844
-0.06702628 -0.38891906 0.058481183
-0.067191303 -0.38901982 0.058502287
-0.067355849 -0.38912955 0.058465727
-0.067511201 -0.38922569 0.058477648
-0.067680269 -0.38933423 0.058466438
-0.067842662 -0.38945499 0.058352612
-0.068011239 -0.38955653 0.058382925
-0.068163581 -0.38965058 0.058396019
-0.068310365 -0.38976148 0.058282271
-0.068480067 -0.38986817 0.058284894
-0.068644844 -0.38995531 0.058390208
-0.068809025 -0.39005074 0.058441304
-0.068962663 -0.39016986 0.058303289
-0.069127955 -0.39029005 0.058204446
-0.06931562 -0.39036927 0.058449201
-0.06946972 -0.39047387 0.058403455
-0.069609381 -0.39059931 0.058170944
-0.069778845 -0.39070603 0.05817242
-0.069953464 -0.39078718 0.058353808
-0.070125721 -0.39091474 0.058236461
-0.070281863 -0.39101562 0.058221862
-0.070452079 -0.39111561 0.058268316
-0.070597216 -0.39122492 0.058158021
-0.070765994 -0.39132679 0.058187187
-0.070922874 -0.39143223 0.058147207
-0.071086287 -0.39153513 0.058148712
-0.071256034 -0.39164704 0.058119036
-0.071441822 -0.39176187 0.05813428
-0.071595341 -0.39185464 0.058160059
-0.071743928 -0.39195836 0.058098193
-0.071910217 -0.39207378 0.058032788
-0.072071813 -0.39218369 0.057983559
-0.072222903 -0.392279 0.057983972
-0.072391905 -0.39238599 0.05798199
-0.072548039 -0.39248616 0.057971992
-0.072696529 -0.39258906 0.057914753
-0.072858281 -0.39269331 0.057901267
-0.073027536 -0.39279512 0.057932738
-0.073192567 -0.39289626 0.057951532
-0.073381588 -0.39301297 0.057967909
-0.073540002 -0.39311567 0.057950988
-0.073692352 -0.39321455 0.05793409
-0.07385648 -0.39332587 0.057885997
-0.074013807 -0.39342937 0.057859853
-0.07417465 -0.39352527 0.057894815
-0.074340135 -0.39363965 0.057832874
-0.074487478 -0.39374685 0.057744496
-0.074652083 -0.39384848 0.057758681
-0.074814372 -0.39394772 0.057778649
-0.074979477 -0.39404911 0.057796296
-0.075148538 -0.39416021 0.057768933
-0.075294659 -0.39423832 0.057857033
-0.075449251 -0.39435193 0.05775708
-0.075599372 -0.39446029 0.057672147
-0.075771943 -0.39456457 0.057701293
-0.075932384 -0.39466134 0.057729341
-0.076080292 -0.39477089 0.05762827
-0.076234341 -0.39487603 0.057579067
-0.076399274 -0.39497769 0.057594411
-0.076564267 -0.39508325 0.057585526
-0.076734327 -0.39518556 0.057616986
-0.07689631 -0.39529312 0.057583898
-0.077064782 -0.39540032 0.057578459
-0.077218376 -0.39550164 0.057551175
-0.077373624 -0.39560938 0.057490434
-0.077542059 -0.39571288 0.057508074
-0.077699646 -0.39581543 0.057488848
-0.077855408 -0.39591536 0.057478849
-0.07802707 -0.39601719 0.057519536
-0.078188218 -0.39612496 0.057481837
-0.078346573 -0.39622706 0.057468366
-0.078503504 -0.39633346 0.057422619
-0.078663722 -0.39643806 0.057401069
-0.078836299 -0.39653972 0.057446364
-0.078994229 -0.3966558 0.057344086
-0.07914988 -0.39675918 0.057312183
-0.079313256 -0.39685872 0.057334453
-0.079485916 -0.39696065 0.057378586
-0.079649299 -0.39705372 0.057441223
-0.079815134 -0.3971591 0.057436947
-0.079965457 -0.39727482 0.057307027
-0.080129869 -0.39738724 0.057253174
-0.080303803 -0.3974857 0.057323828
-0.080448829 -0.39758715 0.057261989
-0.080592036 -0.39769244 0.057169013
-0.080751851 -0.3977907 0.057185531
-0.080915473 -0.39789689 0.057167426
-0.081088886 -0.3980085 0.057153895
-0.081264973 -0.39812219 0.057138037
-0.081429437 -0.39823115 0.057106078
-0.081589654 -0.39832333 0.057161812
-0.081742346 -0.3984215 0.057150692
-0.081895523 -0.39852551 0.057104949
-0.082048759 -0.39862347 0.057097282
-0.082215838 -0.39873147 0.057081472
-0.082396969 -0.39882579 0.057206303
-0.082544722 -0.39894339 0.057054482
-0.082699329 -0.39904389 0.057036422
-0.082837753 -0.39914674 0.056940008
-0.083013907 -0.39924604 0.057014123
-0.083180167 -0.39935148 0.057011001
-0.083348587 -0.39946198 0.056984793
-0.08351475 -0.39957035 0.056963228
-0.083685264 -0.39967182 0.057001602
-0.08384461 -0.39977381 0.056992747
-0.084003568 -0.39987871 0.056964286
-0.084151506 -0.39998665 0.056873593
-0.084318846 -0.4000974 0.056841634
-0.084485315 -0.40019205 0.056906566
-0.084641747 -0.40029758 0.056864277
-0.084798664 -0.40040028 0.056841586
-0.084961027 -0.40050161 0.056848865
-0.08514262 -0.40061691 0.056844518
-0.085284188 -0.40072063 0.05675501
-0.085444711 -0.40082246 0.056751918
-0.085605718 -0.40092421 0.056751125
-0.085773289 -0.40103233 0.056736469
-0.08592549 -0.40112576 0.056753017
-0.086065583 -0.40123206 0.056641608
-0.086228117 -0.40133867 0.056616589
-0.08637841 -0.40144011 0.056575481
-0.08654502 -0.40154338 0.056587357
-0.086727425 -0.40164369 0.05667989
-0.086897567 -0.40174899 0.056692898
-0.087065205 -0.40185237 0.056708217
-0.087213278 -0.40195927 0.056624446
-0.087390706 -0.40207323 0.056612045
-0.087571897 -0.40217444 0.056694202
-0.087699607 -0.40228215 0.056525178
-0.087850109 -0.40238115 0.056500219
-0.088029251 -0.40248773 0.056540862
-0.088212863 -0.40258896 0.056632236
-0.08835768 -0.40270084 0.056504656
-0.088520966 -0.40280753 0.056481931
-0.088670142 -0.40290684 0.056450062
-0.08882226 -0.40301037 0.056403182
-0.088998809 -0.40311769 0.056428842
-0.089158729 -0.40322024 0.056418832
-0.089314267 -0.40332797 0.05635925
-0.089468457 -0.40342894 0.056336574
-0.089644566 -0.40353653 0.056358781
-0.089822166 -0.40363953 0.05641558
-0.089989975 -0.40374595 0.056412451
-0.090127349 -0.40385553 0.05626991
-0.090279087 -0.40395457 0.056249563
-0.090460412 -0.40405974 0.056307495
-0.090638354 -0.40416315 0.056363139
-0.090804324 -0.40427655 0.056309268
-0.090947844 -0.40438518 0.056196682
-0.091127634 -0.40448865 0.056259237
-0.09126956 -0.40459296 0.056167427
-0.091438934 -0.40470165 0.056156214
-0.0916017 -0.40480655 0.056142733
-0.091757946 -0.4049055 0.05614081
-0.091926403 -0.4050101 0.05615152
-0.09208452 -0.40511543 0.056117292
-0.092258886 -0.40522191 0.05613951
-0.09240938 -0.40532553 0.056085713
-0.09257587 -0.40542835 0.056099892
-0.092755184 -0.40553483 0.056141693
-0.092928685 -0.40564376 0.056145456
-0.093100861 -0.40575072 0.056156147
-0.093224317 -0.40585741 0.055976756
-0.093380556 -0.40595874 0.055959847
-0.093573764 -0.40606105 0.056082312
-0.093731053 -0.40616861 0.056030791
-0.093879014 -0.40627432 0.05595395
-0.094043583 -0.40638167 0.05593238
-0.094226055 -0.40649274 0.05595801
-0.094382793 -0.40659827 0.055916868
-0.094544202 -0.40670177 0.055906855
-0.094718017 -0.40680718 0.055933684
-0.094872519 -0.40691277 0.055883326
-0.095033117 -0.40701833 0.055857167
-0.095211074 -0.40712786 0.05587475
-0.095372081 -0.40723738 0.05582552
-0.095525265 -0.40733716 0.055806316
-0.095694922 -0.4074429 0.055814706
-0.095848985 -0.40755045 0.055750515
-0.096026674 -0.40765831 0.055777326
-0.096195698 -0.4077642 0.055782262
-0.096336685 -0.40786958 0.055680078
-0.096500181 -0.40797162 0.055687349
-0.096687146 -0.40807998 0.055747561
-0.096855819 -0.40819547 0.055691376
-0.097011968 -0.40829933 0.055658311
-0.097177394 -0.40840167 0.055671342
-0.097340152 -0.40850767 0.055650931
-0.097509183 -0.40861765 0.055630501
-0.097675823 -0.40872204 0.055635449
-0.097825892 -0.40882576 0.055579353
-0.097988203 -0.40893185 0.055556633
-0.098163575 -0.4090386 0.05558116
-0.09831927 -0.40914625 0.055522725
-0.098505735 -0.40925375 0.055586401
-0.09864594 -0.40935698 0.055494588
-0.098805398 -0.40946126 0.055471893
-0.09897925 -0.40957004 0.055477966
-0.099152446 -0.4096806 0.055470191
-0.099307984 -0.40978298 0.055444058
-0.099483959 -0.40989381 0.0554455
-0.099649832 -0.4100005 0.055433154
-0.099819899 -0.41010928 0.055424247
-0.099988922 -0.4102163 0.055422261
-0.10013783 -0.41032353 0.055339649
-0.10031755 -0.41042972 0.055384897
-0.10048953 -0.41053712 0.055392127
-0.10064113 -0.41064459 0.055318717
-0.10079283 -0.4107486 0.055267226
-0.10096154 -0.4108541 0.055273321
-0.10115264 -0.41096342 0.055343892
-0.10126369 -0.41106376 0.055155344
-0.10144883 -0.41117263 0.055205185
-0.10161386 -0.41128138 0.055176694
-0.10177267 -0.41138783 0.055137854
-0.10194507 -0.41149569 0.055143934
-0.10211585 -0.41160345 0.05514425
-0.10229764 -0.41171408 0.055169884
-0.10246023 -0.4118211 0.055142567
-0.10261118 -0.41192687 0.055077229
-0.10277632 -0.41203418 0.055057965
-0.10297251 -0.41214672 0.055128522
-0.10314506 -0.41225502 0.055132288
-0.10328797 -0.41235828 0.055050842
-0.10345489 -0.41246599 0.055036191
-0.10366303 -0.41258201 0.055132058
-0.10382736 -0.41268957 0.055108178
-0.10395962 -0.41279313 0.054982968
-0.10414166 -0.41290134 0.055024747
-0.10430761 -0.41300917 0.05500548
-0.10445444 -0.41311455 0.054926325
-0.10463478 -0.41322595 0.054941595
-0.10480428 -0.41333437 0.054932691
-0.10499068 -0.41344514 0.054975607
-0.10513891 -0.41355231 0.054890674
-0.1053119 -0.41366294 0.054881752
-0.10549615 -0.41377366 0.054916609
-0.10565408 -0.41388068 0.054870855
-0.10581394 -0.41398799 0.054830853
-0.10600184 -0.41410103 0.054865692
-0.10615534 -0.41420749 0.054806113
-0.10632037 -0.41431564 0.054781079
-0.10648777 -0.41442424 0.054762956
-0.10666534 -0.41453442 0.05477478
-0.10682791 -0.41464236 0.054741681
-0.10699845 -0.41475308 0.054722395
-0.10716193 -0.4148612 0.054691602
-0.10734159 -0.41497198 0.054708023
-0.10750407 -0.41508004 0.054673776
-0.1076951 -0.41519281 0.054722439
-0.10786335 -0.41530192 0.054704312
-0.10803173 -0.4154126 0.054676965
-0.10818061 -0.41552001 0.054593191
-0.10837153 -0.41563308 0.054639544
-0.10854948 -0.41574851 0.054620206
-0.10869798 -0.41585144 0.054562971
-0.10886756 -0.41596249 0.054537918
-0.10903034 -0.41606945 0.054511741
-0.10921597 -0.41618639 0.054513142
-0.10938756 -0.41629502 0.054511148
-0.10956249 -0.41640723 0.054499909
-0.10971937 -0.41651618 0.05443801
-0.10989081 -0.41662639 0.054425634
-0.11006369 -0.41673547 0.054425944
-0.11025017 -0.41685295 0.054427337
-0.11042819 -0.41696602 0.054422997
-0.11059508 -0.41706985 0.054432563
-0.11076508 -0.41718006 0.054414429
-0.11094987 -0.41729462 0.054427367
-0.11109638 -0.41740036 0.054344751
-0.11125336 -0.41751379 0.054255169
-0.11143392 -0.41762626 0.054264665
-0.11161599 -0.41773483 0.054304145
-0.11179157 -0.4178521 0.054264065
-0.11197135 -0.41796461 0.054270107
-0.11211964 -0.41806796 0.054209404
-0.11230732 -0.41818362 0.054226935
-0.1124941 -0.41829777 0.054250244
-0.11264544 -0.41840324 0.054188374
-0.11282598 -0.41851899 0.054177105
-0.11298576 -0.41862625 0.054137111
-0.11318067 -0.41874519 0.054162677
-0.11336079 -0.41885829 0.05416641
-0.1135394 -0.41897801 0.054122858
-0.1137071 -0.41908032 0.054145105
-0.028511859 -0.36796746 0.037527841
-0.028675854 -0.36807221 0.037520103
-0.028842859 -0.36818314 0.037485812
-0.02900672 -0.36829001 0.037464239
-0.029168833 -0.36839265 0.037462279
-0.029328693 -0.36849239 0.037469558
-0.02949252 -0.36859965 0.037445672
-0.029660638 -0.3687107 0.037414849
-0.029828779 -0.36882198 0.037382863
-0.029991716 -0.36892846 0.037360132
-0.030155852 -0.36903459 0.037344322
-0.030324101 -0.3691465 0.037308879
-0.030487839 -0.36925238 0.037293073
-0.030649222 -0.36935735 0.037273809
-0.03081001 -0.36945727 0.037283394
-0.030970551 -0.36956134 0.037266444
-0.031132694 -0.36966991 0.037227571
-0.031298865 -0.3697755 0.037223279
-0.031458121 -0.3698782 0.037209805
-0.031622522 -0.36998597 0.037184756
-0.031782638 -0.37008792 0.037179351
-0.031946659 -0.37019545 0.037154313
-0.032104947 -0.37029958 0.037128143
-0.032265786 -0.37040067 0.03713081
-0.032426894 -0.37050453 0.037117317
-0.032589313 -0.37061495 0.037068062
-0.032749105 -0.37071723 0.037059195
-0.03291472 -0.37082338 0.037049141
-0.033072826 -0.37092349 0.0370472
-0.033225834 -0.37102336 0.037026826
-0.033389308 -0.37113148 0.036996022
-0.03355182 -0.37123603 0.036983684
-0.033710878 -0.37133804 0.036973659
-0.033872206 -0.37144351 0.036950938
-0.034032032 -0.37154695 0.036935151
-0.034194101 -0.3716538 0.036906652
-0.034351595 -0.37175649 0.036886267
-0.034512378 -0.37186423 0.03684739
-0.034670297 -0.37196052 0.036868528
-0.034828302 -0.37206686 0.036827374
-0.034985956 -0.37217036 0.036802359
-0.035147075 -0.37227184 0.036803864
-0.03530388 -0.37237185 0.036797322
-0.035460323 -0.37247148 0.036791928
-0.035618354 -0.37257615 0.036761153
-0.035778392 -0.37268156 0.036733825
-0.035936825 -0.37278464 0.036714576
-0.036094278 -0.37288639 0.036699951
-0.036249764 -0.37298521 0.036695715
-0.036408905 -0.37308985 0.036669552
-0.036566686 -0.37319255 0.036650304
-0.036722325 -0.37329203 0.036642607
-0.036879782 -0.37339449 0.036623374
-0.037036881 -0.37349656 0.036605291
-0.037193432 -0.37359792 0.036589511
-0.037349254 -0.37369823 0.036577202
-0.037503473 -0.37379885 0.036556821
-0.037659381 -0.37389961 0.036542207
-0.037815303 -0.37399778 0.036543746
-0.037970185 -0.37409717 0.036533743
-0.038125828 -0.3742007 0.036500666
-0.0382821 -0.37429985 0.036497585
-0.038435396 -0.37439987 0.036477212
-0.038591333 -0.37450159 0.036456823
-0.038747273 -0.37460345 0.036435287
-0.03890406 -0.37470403 0.036425278
-0.039056923 -0.37480396 0.036403753
-0.039210305 -0.37490201 0.036396079
-0.039366502 -0.37500501 0.036368757
-0.039521329 -0.3751058 0.036349539
-0.039673619 -0.37520242 0.036346477
-0.039826646 -0.37530044 0.03633764
-0.03998255 -0.37540358 0.036308024
-0.040133301 -0.37549794 0.036313042
-0.040287256 -0.37559801 0.036294974
-0.040443182 -0.37570176 0.036261898
-0.040597305 -0.37580249 0.036240369
-0.040750802 -0.3759023 0.036222301
-0.040902235 -0.37599856 0.036218084
-0.041056726 -0.37610045 0.036190785
-0.041208066 -0.37619683 0.036185421
-0.041361474 -0.37629712 0.036163896
-0.041512765 -0.37639698 0.036136612
-0.041663572 -0.37649286 0.036132395
-0.041815039 -0.37659007 0.036122419
-0.041966684 -0.37668777 0.036110133
-0.04212071 -0.37679011 0.036078215
-0.042271208 -0.37688595 0.036072854
-0.042424344 -0.37698701 0.036045562
-0.042573601 -0.37708429 0.036026355
-0.042724296 -0.37718102 0.036016382
-0.042875264 -0.37728196 0.035981022
-0.043027379 -0.3773818 0.035957195
-0.043180093 -0.37748665 0.035904527
-0.043329682 -0.37758195 0.03589917
-0.043478236 -0.37768269 0.035855748
-0.043626763 -0.37777618 0.035857316
-0.043776631 -0.37786499 0.035893492
-0.043927405 -0.37796322 0.035874281
-0.044073481 -0.37805203 0.035895474
-0.044221967 -0.37814587 0.03589474
-0.044368949 -0.37824062 0.035882477
-0.04451751 -0.37833488 0.035879426
-0.044666961 -0.3784312 0.035867147
-0.044814847 -0.37852836 0.035843339
-0.04496358 -0.37862349 0.035835687
-0.04510976 -0.37871733 0.035825726
-0.045257561 -0.37881076 0.035824995
-0.045403667 -0.37890476 0.035813883
-0.045551166 -0.3789978 0.035814308
-0.045698024 -0.3790895 0.035820499
-0.045843158 -0.3791818 0.035816323
-0.045990758 -0.37927544 0.035813276
-0.04613271 -0.37936074 0.035840262
-0.046277396 -0.37945235 0.035838395
-0.046418846 -0.37953657 0.035869993
-0.046561446 -0.37961429 0.035946578
-0.046698589 -0.37968823 0.036025502
-0.046840042 -0.37976283 0.036117092
-0.046979368 -0.37983683 0.036204074
-0.047115318 -0.37990719 0.036300309
-0.047252592 -0.37997565 0.036413837
-0.047388658 -0.38004074 0.036543529
-0.047521196 -0.38010159 0.036685929
-0.047657806 -0.38016203 0.036846753
-0.047794428 -0.3802219 0.03701105
