# .PCD v0.7 - Point Cloud Data file format
VERSION 0.7
FIELDS x y z
SIZE 4 4 4
TYPE F F F
COUNT 1 1 1
WIDTH 1280
HEIGHT 1
VIEWPOINT 0 0 0 1 0 0 0
POINTS 1280
DATA ascii
-0.25017807 -0.36994305 0.050186992
-0.25038469 -0.37000823 0.050241608
-0.25058025 -0.37007323 0.050262697
-0.25075895 -0.37013865 0.050225988
-0.25093123 -0.37020636 0.05014763
-0.25112587 -0.37027314 0.05014905
-0.25131738 -0.37033564 0.050180584
-0.25147757 -0.37039989 0.050095335
-0.25165918 -0.37046659 0.050056294
-0.25182021 -0.37053379 0.049946733
-0.25203329 -0.37059581 0.050051093
-0.2522068 -0.37066332 0.049978521
-0.25241241 -0.37072629 0.050050505
-0.25258389 -0.37079245 0.049983732
-0.25280637 -0.3708556 0.050107732
-0.25294691 -0.37092599 0.049903341
-0.25314683 -0.37098825 0.049963769
-0.25332499 -0.37105533 0.049909703
-0.25353023 -0.37111881 0.049975898
-0.25371823 -0.37118518 0.049959973
-0.25390491 -0.37125021 0.049952175
-0.25407991 -0.37131763 0.049885377
-0.25428039 -0.37138319 0.049916871
-0.25446025 -0.37145025 0.049868576
-0.25466055 -0.3715145 0.049911641
-0.25483897 -0.3715817 0.049857572
-0.25502306 -0.37164712 0.0498382
-0.25522181 -0.37171307 0.04986044
-0.25539804 -0.37177902 0.049810998
-0.25558272 -0.37184587 0.049780056
-0.25575832 -0.37191185 0.049728308
-0.25597039 -0.37197727 0.049797945
-0.25615051 -0.37204307 0.049762387
-0.2563307 -0.37211025 0.049714092
-0.2565147 -0.37217587 0.049692404
-0.2567215 -0.37224323 0.049727343
-0.25691247 -0.37230864 0.049729932
-0.25707603 -0.37237659 0.049621515
-0.25725442 -0.37244251 0.049579017
-0.25747162 -0.37250835 0.049661368
-0.25763741 -0.37257481 0.049573775
-0.25783035 -0.37264165 0.049569421
-0.258053 -0.37270623 0.04968068
-0.25821587 -0.37277281 0.049582686
-0.258396 -0.37284148 0.0495205
-0.25857982 -0.37290743 0.049495343
-0.25877631 -0.37297696 0.049477071
-0.25900394 -0.3730419 0.049601056
-0.25915337 -0.37311134 0.04943366
-0.25936547 -0.37317678 0.049503297
-0.25955132 -0.37324542 0.049459614
-0.25973633 -0.37331152 0.049436755
-0.25993353 -0.37337744 0.049454376
-0.26011184 -0.37344497 0.049396835
-0.26032251 -0.37351719 0.049399335
-0.26049864 -0.37358096 0.049369574
-0.2606833 -0.37364468 0.049367569
-0.26086277 -0.37371099 0.049325064
-0.26104832 -0.37377727 0.04930222
-0.2612361 -0.37384358 0.049286298
-0.26140276 -0.37391248 0.049179029
-0.26160115 -0.37397507 0.049231365
-0.26181185 -0.37404516 0.049253546
-0.26197946 -0.37410912 0.049194891
-0.26221004 -0.3741757 0.049313072
-0.26238033 -0.37424582 0.049205776
-0.26258534 -0.37431732 0.049196735
-0.26277113 -0.37438267 0.049183138
-0.26296455 -0.37445056 0.049170673
-0.26315549 -0.37451845 0.049150109
-0.26334199 -0.37458631 0.049115676
-0.26354536 -0.3746556 0.049121693
-0.26373792 -0.37472242 0.049116164
-0.2639147 -0.37478432 0.049106095
-0.26411238 -0.37485602 0.04907161
-0.26429588 -0.37492397 0.049026772
-0.26450449 -0.37499011 0.049079064
-0.26468396 -0.37505803 0.049021509
-0.26483262 -0.37511948 0.048925903
-0.26504812 -0.37519172 0.048943426
-0.26527831 -0.37525976 0.049046554
-0.26544383 -0.37532628 0.04895781
-0.26565298 -0.37539968 0.048944119
-0.26582658 -0.37546295 0.048910897
-0.26603982 -0.3755343 0.048929594
-0.26624709 -0.37559983 0.048983045
-0.26641637 -0.37566763 0.048894286
-0.26661327 -0.37573519 0.048895694
-0.2667805 -0.37580177 0.048811577
-0.26697275 -0.37586924 0.048799116
-0.2671777 -0.37593946 0.048801646
-0.26736942 -0.37600699 0.048786867
-0.26756656 -0.37607479 0.048787113
-0.2677463 -0.3761408 0.048748083
-0.26795021 -0.37621117 0.048745986
-0.26815569 -0.37627944 0.048768193
-0.26834294 -0.37634918 0.048718702
-0.26853618 -0.37641811 0.048695821
-0.26871803 -0.37648436 0.048661407
-0.26892745 -0.37655413 0.048682444
-0.26910207 -0.37662226 0.048607543
-0.26928812 -0.37668774 0.04859395
-0.26950881 -0.37676039 0.048624195
-0.26967406 -0.37682593 0.04854355
-0.26991418 -0.37690401 0.048585281
-0.27010715 -0.37697536 0.048539236
-0.27028957 -0.3770408 0.048514094
-0.27050048 -0.37711108 0.048535112
-0.27067623 -0.37717411 0.048511144
-0.27084717 -0.3772411 0.048435111
-0.27107215 -0.37731448 0.048472285
-0.27126467 -0.37737966 0.048481811
-0.27146554 -0.3774496 0.048473939
-0.27163985 -0.37751687 0.04840599
-0.17023471 -0.34208962 0.053496003
-0.17045854 -0.34217197 0.053446405
-0.17069617 -0.34226266 0.053363174
-0.17092597 -0.34234944 0.053291563
-0.1711645 -0.34244108 0.053202547
-0.17139384 -0.34252781 0.05312977
-0.17164436 -0.34262818 0.052997865
-0.17187454 -0.3427172 0.05290658
-0.17208679 -0.34279093 0.052899852
-0.17230393 -0.34286958 0.052863009
-0.17252588 -0.34295177 0.052808795
-0.17274515 -0.34303215 0.052762695
-0.17296249 -0.34310988 0.052735113
-0.17318718 -0.3431944 0.052668139
-0.17341085 -0.34327829 0.052603502
-0.1736345 -0.3433623 0.052537695
-0.1738652 -0.34345013 0.052459121
-0.17407821 -0.34352672 0.052428093
-0.17430276 -0.34361181 0.052355349
-0.17452759 -0.34369722 0.052280277
-0.17474833 -0.34377837 0.052231848
-0.1749692 -0.34386119 0.052168373
-0.17518617 -0.34394127 0.052117642
-0.17541084 -0.34402713 0.052037943
-0.17563249 -0.34410948 0.051981412
-0.17585577 -0.34419462 0.051904038
-0.17607895 -0.34427834 0.051839389
-0.17629519 -0.34435856 0.051785201
-0.17652582 -0.34444961 0.051676538
-0.1767339 -0.34452403 0.051650155
-0.1769501 -0.34460309 0.051606376
-0.1771663 -0.3446838 0.05154755
-0.17738493 -0.34476647 0.051478297
-0.17759559 -0.34484327 0.051438022
-0.17781422 -0.34492469 0.051380336
-0.17803034 -0.34500587 0.051316887
-0.17824382 -0.34508362 0.051276591
-0.17845809 -0.34516367 0.051217772
-0.17867118 -0.34524292 0.051162433
-0.17888188 -0.34532049 0.051115204
-0.17909569 -0.34539899 0.051069126
-0.1793061 -0.34547657 0.051020745
-0.17951816 -0.34555399 0.050979298
-0.17972802 -0.34563139 0.05093091
-0.17993614 -0.34570757 0.05088833
-0.18014659 -0.34578565 0.050835319
-0.18035811 -0.34586313 0.050791562
-0.18056571 -0.34593925 0.050747819
-0.18077669 -0.34601653 0.050704062
-0.18098065 -0.34609002 0.050673068
-0.18118833 -0.34616491 0.0506409
-0.18139654 -0.34624201 0.050590217
-0.18164866 -0.34634769 0.050414328
-0.18181448 -0.34638783 0.050571006
-0.18219587 -0.34652293 0.05053461
-0.18247063 -0.34664601 0.050269492
-0.18288994 -0.34680602 0.050122969
-0.18303232 -0.34683385 0.050319105
-0.18324187 -0.34691313 0.05025221
-0.1834477 -0.34698951 0.050200377
-0.18365218 -0.34706318 0.050169375
-0.18385284 -0.34713554 0.050138399
-0.18406276 -0.34721047 0.050113171
-0.18425657 -0.34728259 0.050062548
-0.18446013 -0.34735596 0.05003155
-0.18466091 -0.34742886 0.049995948
-0.18486485 -0.34750098 0.049977683
-0.18505815 -0.34756953 0.049958311
-0.18525803 -0.347642 0.049923867
-0.18547489 -0.34772182 0.049875457
-0.18565801 -0.34778562 0.049867705
-0.18585239 -0.34785369 0.049856432
-0.18605 -0.34792462 0.049828939
-0.1862486 -0.34799653 0.049795657
-0.18644649 -0.34806606 0.049782045
-0.1866319 -0.34812856 0.049793966
-0.18682669 -0.34819365 0.049811624
-0.1870075 -0.34825218 0.04984555
-0.18718323 -0.34830436 0.049922328
-0.1873481 -0.34834489 0.050072078
-0.18749845 -0.34837049 0.050314479
-0.18656844 -0.34719238 0.058276135
-0.18702453 -0.34738168 0.057975493
-0.18718739 -0.34741619 0.05817502
-0.1873951 -0.34749371 0.058118545
-0.18772766 -0.34756395 0.058527976
-0.18821403 -0.34765136 0.059268929
-0.18969139 -0.34858817 0.055292323
-0.18989734 -0.34866297 0.055255536
-0.19009826 -0.34872183 0.055350713
-0.19033909 -0.34881476 0.055257063
-0.19052364 -0.3488782 0.055257402
-0.19071658 -0.34894302 0.055271607
-0.19092441 -0.34901559 0.055261426
-0.19112672 -0.34909216 0.055196881
-0.19129238 -0.34915119 0.055177625
-0.19152743 -0.34923479 0.055152286
-0.19172013 -0.34930688 0.055098195
-0.19191158 -0.34937072 0.055117033
-0.19211532 -0.34943739 0.055148534
-0.19230729 -0.3494994 0.055185888
-0.19247396 -0.34955505 0.055201352
-0.19270687 -0.34965187 0.055046387
-0.19288445 -0.34972402 0.054943755
-0.19307399 -0.34977883 0.05504014
-0.19330052 -0.34985459 0.055059984
-0.19347161 -0.34991527 0.055043019
-0.19369955 -0.35000038 0.054980669
-0.19389483 -0.35006639 0.054991391
-0.19406383 -0.35012773 0.054961704
-0.19424307 -0.35018709 0.054982901
-0.19448414 -0.3502765 0.054922812
-0.19465061 -0.35033271 0.054932497
-0.19487949 -0.35041714 0.054879405
-0.19507566 -0.35049009 0.054828767
-0.19524941 -0.35054642 0.054860409
-0.19545063 -0.35061699 0.054847948
-0.19563909 -0.3506844 0.054823972
-0.19582044 -0.35074386 0.054850955
-0.19600593 -0.35081375 0.054794576
-0.19620669 -0.35088986 0.054728873
-0.19638793 -0.35094368 0.054807939
-0.19662513 -0.3510305 0.054759443
-0.19679117 -0.35108408 0.054792274
-0.19697927 -0.35115772 0.054709267
-0.19718212 -0.3512252 0.054730363
-0.1973775 -0.35129589 0.054698244
-0.1975695 -0.35136262 0.054691616
-0.1977452 -0.35141891 0.054730196
-0.19795507 -0.35149518 0.054692231
-0.19812997 -0.35155368 0.054707672
-0.19832645 -0.35162947 0.054631576
-0.19855392 -0.35171866 0.054529868
-0.19873618 -0.35177708 0.054569572
-0.19891307 -0.35183188 0.054625511
-0.19910546 -0.35190651 0.054547112
-0.19930536 -0.35197774 0.054524239
-0.19949232 -0.35204238 0.054521099
-0.19968779 -0.35211143 0.054504037
-0.19988814 -0.35218018 0.054505467
-0.20007586 -0.35224959 0.05446066
-0.20026793 -0.35231799 0.054438978
-0.20047514 -0.35239285 0.054405656
-0.20062891 -0.35244507 0.054411925
-0.20082167 -0.35250384 0.054481681
-0.20102066 -0.35258597 0.054354638
-0.20121981 -0.35265759 0.054325983
-0.20140277 -0.35271385 0.054387689
-0.2015993 -0.35278952 0.05431274
-0.20177886 -0.35285637 0.054265652
-0.20197938 -0.3529188 0.05432611
-0.20215766 -0.35299194 0.054216519
-0.20235105 -0.35306391 0.054165907
-0.20254879 -0.35312641 0.054217111
-0.20273073 -0.3531771 0.054327432
-0.20292698 -0.35325381 0.054242067
-0.20310478 -0.35330632 0.05432231
-0.20329952 -0.35338536 0.054210339
-0.20348415 -0.35345745 0.054130808
-0.20367482 -0.3535175 0.054182056
-0.20387535 -0.35358906 0.054158028
-0.20405422 -0.3536478 0.054183863
-0.20424035 -0.35371402 0.054163367
-0.20444612 -0.35379487 0.054069862
-0.20462643 -0.35386583 0.053986888
-0.20481202 -0.35392702 0.054011531
-0.20500182 -0.35399064 0.054026902
-0.20519677 -0.35405853 0.054019097
-0.20538844 -0.35412568 0.054007836
-0.20555443 -0.35417685 0.054062665
-0.20574328 -0.35424939 0.053992383
-0.20594157 -0.35432404 0.053932481
-0.20612627 -0.35438392 0.053966392
-0.20630029 -0.3544451 0.053954046
-0.20651151 -0.35452908 0.053848945
-0.20670593 -0.35459718 0.053837672
-0.20689899 -0.35466269 0.05384608
-0.20709124 -0.35472652 0.053867221
-0.20730275 -0.3548066 0.053799164
-0.2074673 -0.35486105 0.053819276
-0.20763579 -0.35491133 0.053890295
-0.20782819 -0.35498857 0.053787589
-0.20801815 -0.35505426 0.053784437
-0.20821294 -0.35512447 0.053754635
-0.20837326 -0.35518306 0.05372268
-0.20856278 -0.35524109 0.053788975
-0.2087502 -0.35530826 0.053763852
-0.20896262 -0.35538617 0.053718932
-0.20914477 -0.35544804 0.05372623
-0.20934008 -0.35552093 0.053673282
-0.20951107 -0.35559329 0.053547524
-0.20970279 -0.35564923 0.053640436
-0.20989843 -0.3557156 0.053648829
-0.21007699 -0.35578522 0.053572811
-0.21024862 -0.35583496 0.053658858
-0.21041958 -0.35588226 0.053765755
-0.21062651 -0.35597423 0.053572707
-0.2108001 -0.35602966 0.053612448
-0.21098195 -0.35610202 0.053521372
-0.21116993 -0.35616452 0.053541377
-0.21135652 -0.35623303 0.053501204
-0.21154855 -0.35629916 0.053500354
-0.21172762 -0.35636359 0.053474102
-0.21190968 -0.35642779 0.05345941
-0.21210697 -0.35649052 0.053507145
-0.21230295 -0.35656062 0.053481981
-0.212468 -0.3566201 0.053456951
-0.21265036 -0.35668665 0.053421419
-0.21283531 -0.35675097 0.053414814
-0.21302104 -0.35681945 0.053372335
-0.21322675 -0.35689279 0.053348273
-0.21340351 -0.35694832 0.053397264
-0.21357964 -0.35701871 0.053306211
-0.2137462 -0.35707095 0.05335293
-0.21394233 -0.3571471 0.053272203
-0.21413088 -0.35721704 0.053225078
-0.21432887 -0.35728535 0.053223047
-0.21450555 -0.35733986 0.053281292
-0.21468605 -0.35739815 0.053316377
-0.21486072 -0.35746416 0.053261213
-0.21504571 -0.35753626 0.053182848
-0.21523035 -0.35760671 0.05311837
-0.21541478 -0.3576766 0.053058535
-0.21559875 -0.3577407 0.053050771
-0.21578537 -0.35778877 0.053200424
-0.21595886 -0.35783753 0.053301517
-0.21614002 -0.3579219 0.053097002
-0.21632394 -0.35799122 0.053040639
-0.21651797 -0.35805196 0.053096496
-0.21669497 -0.35811466 0.053079508
-0.21687829 -0.35819426 0.052925922
-0.21706919 -0.35824654 0.053050078
-0.21724629 -0.35830355 0.053086344
-0.21743672 -0.35837114 0.053066988
-0.2176268 -0.35844234 0.053012904
-0.21780358 -0.35850361 0.053008653
-0.21798615 -0.35857698 0.052910618
-0.21817237 -0.35864699 0.052855402
-0.21835963 -0.35870722 0.052893929
-0.21853672 -0.35876447 0.052927874
-0.21872017 -0.35882753 0.052928217
-0.21890636 -0.35889566 0.052890368
-0.21908389 -0.35895094 0.052943978
-0.21926254 -0.3590202 0.052871436
-0.21944167 -0.35910425 0.052663453
-0.21964069 -0.35916057 0.052776016
-0.2198168 -0.35920626 0.052914135
-0.21999347 -0.35928184 0.052776769
-0.22018963 -0.35935175 0.052753918
-0.22037172 -0.35940474 0.052843399
-0.22054583 -0.35948703 0.052635439
-0.22074062 -0.35954776 0.05269362
-0.22092837 -0.35960758 0.052737929
-0.22111161 -0.35968167 0.052635267
-0.22128832 -0.35974064 0.052651852
-0.22147352 -0.35980806 0.05261746
-0.22166289 -0.35986367 0.052705757
-0.22183836 -0.35992634 0.052684151
-0.22201827 -0.35999706 0.052602336
-0.22220424 -0.36006185 0.052594572
-0.22239354 -0.36012793 0.052585639
-0.22257392 -0.36018756 0.052607983
-0.22275217 -0.36025208 0.052578267
-0.22293009 -0.36031711 0.052542761
-0.22311874 -0.3603842 0.052522257
-0.22330257 -0.36045289 0.052471675
-0.22348489 -0.36050883 0.052534532
-0.22366512 -0.36057651 0.052481648
-0.22385515 -0.3606407 0.05249238
-0.22404464 -0.36070597 0.052491553
-0.22421835 -0.36077043 0.05244796
-0.22440863 -0.36084107 0.052399665
-0.2245879 -0.36089608 0.052461386
-0.22475357 -0.36095989 0.052398145
-0.22493859 -0.36103183 0.052320935
-0.22512437 -0.36108986 0.052375678
-0.22530855 -0.36115652 0.052344777
-0.22549239 -0.36122957 0.052253678
-0.22568831 -0.36129132 0.052306056
-0.22585675 -0.36135033 0.052296065
-0.22603691 -0.36141637 0.052258223
-0.22623661 -0.36148465 0.052261982
-0.22640906 -0.36154392 0.052262377
-0.22658484 -0.36160448 0.052261602
-0.2267628 -0.36166763 0.052243456
-0.22695291 -0.36173186 0.052254189
-0.22713402 -0.36180148 0.052186258
-0.22731245 -0.36186394 0.052176218
-0.22749305 -0.36192888 0.052149951
-0.22768602 -0.36199486 0.052153736
-0.22786424 -0.36205748 0.05214138
-0.22804883 -0.3621228 0.052124355
-0.22823225 -0.36218473 0.052135121
-0.22840473 -0.36224401 0.052135527
-0.2285797 -0.36232314 0.051959973
-0.22877902 -0.36237854 0.052081786
-0.22895379 -0.36243999 0.052069448
-0.22912797 -0.36251047 0.051971447
-0.22931825 -0.36257464 0.051983342
-0.22949414 -0.36263496 0.051984876
-0.22968918 -0.36269516 0.05204884
-0.22985977 -0.36276415 0.051953178
-0.23004031 -0.36283258 0.051894512
-0.2302236 -0.36289468 0.051902957
-0.23040432 -0.36295894 0.051883645
-0.23060207 -0.36301744 0.051971905
-0.23078279 -0.36308554 0.051916704
-0.23094921 -0.36316058 0.051751606
-0.2311305 -0.36322787 0.051705673
-0.23132682 -0.36328414 0.051810138
-0.23150289 -0.36334804 0.051779263
-0.23168932 -0.36340815 0.051816639
-0.23187527 -0.36347917 0.051751006
-0.23207609 -0.36354348 0.051795259
-0.23224843 -0.36360297 0.051793337
-0.23243082 -0.36366266 0.05182147
-0.23259926 -0.36373141 0.051721189
-0.23280211 -0.36379802 0.051750392
-0.23297258 -0.36385873 0.051731125
-0.23315139 -0.36393368 0.051606491
-0.23333609 -0.36399528 0.051624194
-0.23351787 -0.36405554 0.05164538
-0.23370299 -0.36412328 0.051607531
-0.23389027 -0.36418977 0.051588178
-0.23406997 -0.36425132 0.05159086
-0.2342598 -0.36431944 0.051564559
-0.23443887 -0.36438435 0.05153368
-0.23461974 -0.36444828 0.05151784
-0.2347994 -0.36450404 0.051573765
-0.23498496 -0.36457145 0.051540531
-0.23518108 -0.36463636 0.051563982
-0.23535645 -0.36470315 0.051504176
-0.2355223 -0.364766 0.051450204
-0.23570774 -0.36482775 0.051469058
-0.23588428 -0.36489379 0.051419664
-0.23607367 -0.36495653 0.051441982
-0.23625745 -0.3650192 0.051446963
-0.23644191 -0.36508161 0.051456567
-0.23660885 -0.36515185 0.051337767
-0.23679444 -0.36521637 0.051331166
-0.23695651 -0.36528581 0.05120429
-0.23715805 -0.36533576 0.051383961
-0.2373205 -0.36541006 0.051213104
-0.23749849 -0.36547261 0.051200736
-0.23769848 -0.36553138 0.051293612
-0.23790927 -0.36559364 0.051388759
-0.23808129 -0.36566123 0.05131045
-0.2382572 -0.36573219 0.0512136
-0.23846725 -0.36578768 0.051368937
-0.23866437 -0.36585557 0.051368065
-0.23881529 -0.36592591 0.051197257
-0.23899965 -0.36599115 0.051180236
-0.23917775 -0.3660515 0.051188715
-0.2393492 -0.36611891 0.051110413
-0.23954661 -0.36617965 0.051176675
-0.23971906 -0.36624667 0.051105309
-0.23991178 -0.36630917 0.051140338
-0.24008803 -0.36637488 0.051093265
-0.24026853 -0.36643916 0.051072787
-0.24044129 -0.36649916 0.051067401
-0.24062845 -0.36656588 0.051045738
-0.24082194 -0.36663064 0.051062249
-0.24099539 -0.36669713 0.050998989
-0.24117303 -0.36675793 0.051001679
-0.24135645 -0.36682361 0.050977718
-0.24154149 -0.36689097 0.05094333
-0.24171892 -0.36695617 0.050904363
-0.2418991 -0.36701849 0.050901249
-0.24209322 -0.36708337 0.050918907
-0.24227703 -0.36714479 0.050935462
-0.2424542 -0.36721218 0.050875656
-0.24263163 -0.36727741 0.050836679
-0.2428306 -0.36734119 0.05087978
-0.24301545 -0.36740661 0.050862767
-0.24318969 -0.36747062 0.050824955
-0.24337393 -0.36753419 0.050822988
-0.24355736 -0.36759999 0.050797872
-0.24374492 -0.36766285 0.050813254
-0.24394116 -0.3677277 0.050837848
-0.24411623 -0.36779547 0.050767638
-0.24428742 -0.3678602 0.050713632
-0.24449271 -0.36792317 0.050784495
-0.24465635 -0.36798951 0.05069118
-0.24483672 -0.36805412 0.050667234
-0.24502662 -0.36811864 0.050674502
-0.24522004 -0.36818439 0.050681747
-0.24539001 -0.3682493 0.050621968
-0.24556242 -0.36831555 0.050557546
-0.24575855 -0.368379 0.050594881
-0.24596471 -0.36843875 0.050698146
-0.24611977 -0.36851013 0.050530784
-0.2463029 -0.36857432 0.05051956
-0.24650544 -0.36863685 0.050585806
-0.24669141 -0.36870065 0.050587296
-0.24685813 -0.36877143 0.050462715
-0.24702859 -0.36883613 0.050406404
-0.2472409 -0.36889729 0.050516587
-0.24743304 -0.36896372 0.050513431
-0.2476117 -0.36903062 0.050462872
-0.24781109 -0.36909768 0.050477035
-0.24799012 -0.36916107 0.050460041
-0.24817957 -0.36922634 0.050459206
-0.24835457 -0.36929208 0.05040751
-0.24852748 -0.36935812 0.050346561
-0.24869893 -0.36942267 0.050294872
-0.2488997 -0.36948809 0.050328713
-0.24907452 -0.36955217 0.05029206
-0.24928093 -0.36961529 0.050365228
-0.24947096 -0.36968234 0.050349347
-0.24965283 -0.36974722 0.050327707
-0.24981302 -0.36981162 0.050241355
-0.25000498 -0.3698785 0.050233562
-0.25017089 -0.36994213 0.050172646
-0.25037876 -0.37000713 0.050233081
-0.25057623 -0.37007028 0.050277349
-0.2507548 -0.37013727 0.05022563
-0.25092712 -0.37020335 0.050162364
-0.25111374 -0.370271 0.0501303
-0.25131679 -0.37033221 0.050210424
-0.25146958 -0.37039879 0.050080117
-0.25165981 -0.37046456 0.050076958
-0.25181425 -0.37053084 0.04995475
-0.25201514 -0.37059405 0.050009426
-0.2521981 -0.37065908 0.049990091
-0.25240341 -0.37072355 0.050047062
-0.25257224 -0.37078843 0.049983814
-0.25279552 -0.37085298 0.050097421
-0.25294673 -0.37092093 0.049949758
-0.25313178 -0.3709859 0.049937367
-0.25331515 -0.37105104 0.049918044
-0.25352147 -0.37111589 0.049975
-0.25370622 -0.37118101 0.049960308
-0.25389519 -0.37124586 0.049961783
-0.25406936 -0.37131184 0.049905464
-0.25426319 -0.37137786 0.049911551
-0.25444341 -0.37144339 0.049878351
-0.25464168 -0.37150919 0.049900621
-0.25482842 -0.3715744 0.049891699
-0.25500068 -0.37164196 0.049814545
-0.25520977 -0.37170723 0.049876124
-0.2553806 -0.37177208 0.049819812
-0.25556299 -0.37183762 0.049793549
-0.25573862 -0.37190497 0.049729113
-0.25594741 -0.37196916 0.04979996
-0.25613382 -0.37203598 0.049774829
-0.25630885 -0.37210202 0.049720816
-0.25649378 -0.37216896 0.049689904
-0.25669408 -0.37223518 0.049714491
-0.25688946 -0.37230036 0.049733311
-0.25705916 -0.37236667 0.04965964
-0.25723651 -0.37243399 0.049600989
-0.25743192 -0.37249795 0.049631372
-0.25760859 -0.37256664 0.049557678
-0.25780001 -0.37263083 0.049573041
-0.25801933 -0.37269813 0.049648467
-0.2582137 -0.37276369 0.049660336
-0.25836617 -0.37283319 0.049502257
-0.25856429 -0.37289867 0.049526844
-0.25875568 -0.37296835 0.049491275
-0.25897798 -0.37303469 0.049585216
-0.25912926 -0.37310275 0.049436383
-0.25934538 -0.37316808 0.049519934
-0.25953221 -0.37323669 0.04947976
-0.25971347 -0.3733041 0.04943265
-0.25990385 -0.37336755 0.049451493
-0.26008451 -0.37343502 0.04940208
-0.2602922 -0.37350467 0.049418539
-0.26047543 -0.37357217 0.04937721
-0.26065716 -0.37363464 0.049377576
-0.26084086 -0.37370214 0.049337402
-0.26101995 -0.3737672 0.049305372
-0.261213 -0.37383467 0.049295258
-0.26138392 -0.37390229 0.04921348
-0.26154846 -0.37396494 0.049157199
-0.26179808 -0.37403369 0.049315829
-0.26194638 -0.37409887 0.049184386
-0.26217967 -0.37416664 0.049300253
-0.26236162 -0.37423676 0.049230009
-0.26255685 -0.37430578 0.04921294
-0.26274973 -0.37437358 0.049199365
-0.26293802 -0.37444019 0.049182326
-0.26311836 -0.37450555 0.049151439
-0.26332134 -0.37457594 0.049145918
-0.26350677 -0.3746438 0.049108054
-0.2637015 -0.37471062 0.049109515
-0.26388347 -0.37477493 0.049093671
-0.26407373 -0.37484059 0.049091674
-0.26427236 -0.37491348 0.049049128
-0.26445758 -0.37497678 0.049052946
-0.26466095 -0.37504634 0.049056675
-0.26480663 -0.37510887 0.048941441
-0.26502079 -0.37517989 0.048965968
-0.26522738 -0.37524617 0.049010199
-0.26541287 -0.3753143 0.048970029
-0.26562893 -0.37538671 0.048987597
-0.26580587 -0.37545353 0.048932411
-0.26597911 -0.37551793 0.04888767
-0.26620829 -0.37558863 0.048963055
-0.26638982 -0.37565452 0.048930999
-0.26657867 -0.37572294 0.048898913
-0.26674137 -0.37578708 0.048822969
-0.26693517 -0.37585571 0.048804749
-0.2671299 -0.37592441 0.048788846
-0.26733044 -0.37599334 0.048789114
-0.26753855 -0.37606153 0.048820611
-0.26771739 -0.37612751 0.048779309
-0.26789707 -0.37619463 0.048729908
-0.26811478 -0.37626448 0.048776396
-0.26831108 -0.37633461 0.048752386
-0.26849216 -0.37640297 0.048696026
-0.26867843 -0.37647048 0.048663966
-0.26888406 -0.37653893 0.048685044
-0.26907003 -0.3766076 0.048641399
-0.26924697 -0.37667367 0.048593171
-0.26946744 -0.37674412 0.04864312
-0.2696541 -0.37681291 0.048600633
-0.26988342 -0.37689039 0.048613507
-0.27007747 -0.37696284 0.048560575
-0.27024987 -0.37702557 0.048528563
-0.2704438 -0.37709275 0.048524234
-0.27063614 -0.37715986 0.048515286
-0.27082995 -0.37722713 0.048509803
-0.27102205 -0.37729853 0.048460342
-0.27123001 -0.37736565 0.048501089
-0.27142569 -0.37743631 0.04847014
-0.27161023 -0.37750211 0.048448488
-0.17016432 -0.34206465 0.053503126
-0.17039056 -0.3421472 0.053459331
-0.17062429 -0.34223506 0.053390037
-0.17085375 -0.34232146 0.053320765
-0.17110002 -0.342417 0.05322016
-0.17132689 -0.34250325 0.053143956
-0.17156978 -0.34259677 0.053051457
-0.17181388 -0.34269404 0.052927718
-0.1720306 -0.34277081 0.052907109
-0.17224836 -0.34284982 0.052869141
-0.17247242 -0.34293196 0.052821882
-0.17269367 -0.34301364 0.05277
-0.17291266 -0.34309244 0.052737817
-0.17313305 -0.34317234 0.052699827
-0.17336622 -0.34326151 0.052616648
-0.17359015 -0.34334564 0.05255086
-0.1738205 -0.34343308 0.05247464
-0.17404121 -0.3435137 0.052430868
-0.17426622 -0.34359756 0.052370869
-0.17449264 -0.34368402 0.052291188
-0.1747153 -0.34376645 0.052236982
-0.17493826 -0.34384924 0.052180473
-0.17516023 -0.34393144 0.052126266
-0.17538421 -0.34401667 0.052050073
-0.17560644 -0.34409934 0.051992405
-0.17583534 -0.34418702 0.051909234
-0.17605813 -0.34427038 0.051846936
-0.17627527 -0.34435114 0.051790442
-0.1765105 -0.34444401 0.051679473
-0.1767235 -0.34452051 0.051649615
-0.17693838 -0.3445985 0.051611662
-0.17715575 -0.34467998 0.051549379
-0.17737801 -0.34476376 0.051481292
-0.17758921 -0.34484088 0.05143987
-0.17780717 -0.34492168 0.051385693
-0.17802753 -0.34500444 0.051321089
-0.17824124 -0.34508228 0.051280819
-0.17845753 -0.34516376 0.051215068
-0.17867362 -0.34524369 0.051163208
-0.17888911 -0.34532326 0.051112518
-0.17910314 -0.34540185 0.051066454
-0.17931288 -0.34547883 0.051021568
-0.17952602 -0.34555697 0.050976675
-0.17973974 -0.34563571 0.050928298
-0.17995204 -0.34571344 0.050884567
-0.18016154 -0.34579071 0.050836209
-0.18037382 -0.34586868 0.050790153
-0.18058246 -0.34594554 0.050742965
-0.18079364 -0.34602287 0.050699227
-0.18100145 -0.34609771 0.050668247
-0.18120876 -0.34617221 0.050638419
-0.18141772 -0.34624979 0.050585438
-0.18167503 -0.34635788 0.050403759
-0.18184268 -0.3463994 0.050553527
-0.18222371 -0.3465324 0.050535686
-0.18251516 -0.34667057 0.050183702
-0.18290839 -0.34680587 0.050183181
-0.18306592 -0.34684765 0.050298266
-0.18327896 -0.34692803 0.05023253
-0.18348542 -0.34700313 0.050194606
-0.18369032 -0.34707707 0.050162476
-0.18389194 -0.34715012 0.050128043
-0.18410663 -0.34722894 0.050081979
-0.18429753 -0.3472968 0.050061487
-0.18450254 -0.34737128 0.050024733
-0.18470882 -0.34744695 0.049981013
-0.18490586 -0.34751493 0.04997902
-0.18510611 -0.34758753 0.049944595
-0.18530947 -0.34766105 0.049911309
-0.18551803 -0.34773549 0.049886107
-0.18570806 -0.34780332 0.049863309
-0.18590787 -0.34787413 0.04984393
-0.18611133 -0.34794819 0.049806017
-0.18630672 -0.34801725 0.049788974
-0.1864993 -0.34808394 0.049784683
-0.18669178 -0.34814873 0.049797755
-0.1868825 -0.34821206 0.049818933
-0.18706378 -0.34826899 0.049869087
-0.18724616 -0.34832308 0.049949348
-0.18739899 -0.34835476 0.05014316
-0.18670085 -0.34727728 0.057911176
-0.18693778 -0.34737897 0.057723805
-0.18706599 -0.34737572 0.058163121
-0.18727753 -0.34745231 0.0581275
-0.18748449 -0.34752482 0.058115035
-0.18779019 -0.34756985 0.058672845
-0.18835428 -0.34773606 0.058930889
-0.18854518 -0.34778884 0.059050463
-0.18979436 -0.34862795 0.05525174
-0.18998682 -0.34868303 0.055355102
-0.19022807 -0.34877387 0.055282298
-0.19043984 -0.34884989 0.055252459
-0.1906192 -0.34890819 0.055284105
-0.19083105 -0.34898451 0.055251945
-0.19103576 -0.34905627 0.055239499
-0.19122875 -0.34913522 0.055122919
-0.19139566 -0.34918371 0.055205546
-0.19164781 -0.34928191 0.055099137
-0.19182715 -0.34934294 0.05510531
-0.19204152 -0.34941539 0.05511713
-0.19222695 -0.34947303 0.055174209
-0.19240491 -0.34953031 0.055210501
-0.19261169 -0.34960741 0.05515521
-0.19281764 -0.34970117 0.054942496
-0.19299176 -0.34975478 0.055000782
-0.19323221 -0.34983236 0.05504838
-0.19341724 -0.34989482 0.055059165
-0.19361749 -0.34997091 0.054992326
-0.19382657 -0.35004365 0.054984484
-0.19400905 -0.35010627 0.054986015
-0.19419041 -0.35017034 0.054970194
-0.19442073 -0.35025316 0.054936804
-0.19460249 -0.3503179 0.054916356
-0.19481985 -0.35039487 0.054895744
-0.19502448 -0.35047421 0.054812681
-0.19520326 -0.35053053 0.05486054
-0.19538432 -0.35059217 0.054866709
-0.19559437 -0.35066974 0.054817192
-0.19577299 -0.35072875 0.054839578
-0.19594137 -0.35078463 0.054858536
-0.19616279 -0.35087562 0.054721005
-0.19634084 -0.35092846 0.054798953
-0.19656815 -0.35100937 0.054773681
-0.19675301 -0.35107303 0.054772884
-0.19692092 -0.35113162 0.054765221
-0.19714792 -0.35121554 0.054711003
-0.1973391 -0.35128102 0.054713663
-0.1975297 -0.35134891 0.054692015
-0.19770899 -0.35140628 0.05473176
-0.19792476 -0.35148335 0.054705366
-0.19810453 -0.35154763 0.054682612
-0.19829042 -0.35161328 0.054666769
-0.1985285 -0.35171223 0.054508314
-0.19871026 -0.35176983 0.054553851
-0.19888937 -0.35182405 0.054622531
-0.19908337 -0.35189724 0.054562673
-0.19927253 -0.35196438 0.054543342
-0.19947346 -0.3520368 0.054512385
-0.19966041 -0.35210133 0.05451043
-0.19987272 -0.35217533 0.054501422
-0.20005621 -0.35224241 0.05446475
-0.20025241 -0.35231259 0.054439604
-0.20045598 -0.35238582 0.054409802
-0.20062204 -0.35244387 0.05440098
-0.2008076 -0.35249981 0.054474272
-0.20100817 -0.35258025 0.054368086
-0.20120616 -0.35265368 0.054318614
-0.20139949 -0.35271314 0.05438377
-0.2015917 -0.35278621 0.054319281
-0.2017761 -0.35285595 0.054260619
-0.20196882 -0.3529146 0.054331571
-0.2021604 -0.35299131 0.054231193
-0.20235258 -0.35306525 0.054158606
-0.20255286 -0.35312721 0.054222576
-0.20272917 -0.35317734 0.054320216
-0.2029324 -0.3532562 0.054237157
-0.20311049 -0.35330892 0.054316275
-0.20330809 -0.35338795 0.054213561
-0.20349661 -0.35346162 0.054131731
-0.20368469 -0.35352167 0.054174908
-0.20388532 -0.35359314 0.05415206
-0.20407048 -0.35365292 0.054188311
-0.2042539 -0.35371894 0.054160908
-0.20446031 -0.35380065 0.054061625
-0.20463988 -0.35387009 0.053990252
-0.2048296 -0.35393333 0.054009125
-0.20501959 -0.35399702 0.054024514
-0.20521457 -0.35406467 0.054019049
-0.20540704 -0.35413295 0.053999711
-0.20557608 -0.3541843 0.054062657
-0.2057656 -0.35425782 0.053985447
-0.2059674 -0.35433343 0.053927861
-0.20614929 -0.35439309 0.05395487
-0.20632647 -0.35445461 0.053949483
-0.20653802 -0.35453895 0.053842079
-0.20673285 -0.35460755 0.053827345
-0.20692259 -0.35467178 0.053836957
-0.20712519 -0.3547388 0.053861558
-0.20733018 -0.35481703 0.053790074
-0.20749393 -0.35486943 0.053826421
-0.20766328 -0.35492125 0.053885892
-0.20786257 -0.3550005 0.053786643
-0.20805584 -0.35506669 0.053789295
-0.20824464 -0.35513622 0.053746812
-0.2084112 -0.35519534 0.053729892
-0.20860499 -0.35525608 0.053784624
-0.208792 -0.35532185 0.053771093
-0.20900255 -0.35540211 0.053698428
-0.20918748 -0.35546306 0.053723112
-0.20939127 -0.35554212 0.053640042
-0.20954725 -0.3556062 0.053543303
-0.20975213 -0.35566464 0.053654712
-0.20995238 -0.35573497 0.053641118
-0.21012405 -0.35580185 0.053568628
-0.21029031 -0.35584414 0.053706817
-0.21048272 -0.35590953 0.053714097
-0.21067426 -0.35599148 0.053565118
-0.21084879 -0.35604948 0.053584047
-0.21103659 -0.35612077 0.053521886
-0.21122536 -0.35618541 0.053524561
-0.21141465 -0.35625196 0.05351102
-0.21161057 -0.35632032 0.053502083
-0.21178651 -0.35638404 0.053472385
-0.2119682 -0.35644624 0.053475089
-0.2121736 -0.35651547 0.053488098
-0.2123591 -0.35658062 0.05347573
-0.21252775 -0.35664144 0.053449545
-0.21271341 -0.35670787 0.053425603
-0.21289892 -0.35677415 0.053402815
-0.21308881 -0.35684678 0.053334862
-0.21328326 -0.35691053 0.053364124
-0.21347204 -0.35697839 0.053336695
-0.21364017 -0.35703906 0.053310513
-0.21381365 -0.35709295 0.05336418
-0.21401054 -0.35717323 0.053247578
-0.21420255 -0.35724372 0.053206246
-0.21439703 -0.35730872 0.053223938
-0.21457711 -0.35736251 0.053299569
-0.21475175 -0.35742602 0.053267568
-0.21493307 -0.3574912 0.053241327
-0.21512143 -0.35756269 0.053179175
-0.21529627 -0.35763365 0.053078875
-0.21548715 -0.35769764 0.05309426
-0.21566805 -0.35776344 0.053061076
-0.21585479 -0.35780743 0.053248964
-0.21603557 -0.3578653 0.053288713
-0.21621691 -0.35795772 0.053010121
-0.21640426 -0.35801551 0.053071819
-0.21659508 -0.35807934 0.053088367
-0.21677563 -0.35814452 0.053059824
-0.21695891 -0.3582285 0.052865714
-0.21714373 -0.35826632 0.05310455
-0.21732758 -0.35833162 0.053085241
-0.21752135 -0.35840386 0.053033479
-0.21770859 -0.35846847 0.053031519
-0.21788514 -0.35853428 0.052984469
-0.21806791 -0.35860693 0.052893393
-0.21826136 -0.3586767 0.052863635
-0.21843854 -0.35873446 0.052892976
-0.21862289 -0.35879222 0.052945435
-0.21880592 -0.35885939 0.05290645
-0.21898919 -0.35892439 0.052888308
-0.21917039 -0.35898054 0.052945409
-0.21934715 -0.35906038 0.052768704
-0.21953504 -0.35913682 0.052659094
-0.21972577 -0.3591823 0.052845798
-0.21989962 -0.35923931 0.052871678
-0.22008258 -0.35931954 0.052711155
-0.22027881 -0.35937539 0.052819133
-0.22045448 -0.35943952 0.052784808
-0.22063266 -0.35952061 0.052601151
-0.22083113 -0.35956988 0.052777417
-0.22101845 -0.35964411 0.052686322
-0.22120096 -0.35970923 0.052664705
-0.22138248 -0.35977697 0.052615318
-0.22157317 -0.35984004 0.052638814
-0.22175615 -0.3598932 0.05272948
-0.22193018 -0.35996011 0.052663907
-0.22210726 -0.36002859 0.052593697
-0.22230032 -0.36009547 0.052589402
-0.22248335 -0.3601585 0.052588616
-0.22266352 -0.36021918 0.052600585
-0.2228446 -0.36028641 0.052554667
-0.22302698 -0.36035073 0.052539989
-0.22321178 -0.36041799 0.052505635
-0.22339948 -0.36048725 0.052462004
-0.22358224 -0.36054283 0.052529514
-0.22376567 -0.36061239 0.052469701
-0.22395112 -0.36067075 0.052519836
-0.22414371 -0.36074519 0.052443776
-0.22431894 -0.3608073 0.052426815
-0.22450881 -0.36087218 0.052430645
-0.22468002 -0.36092743 0.052464638
-0.22486059 -0.36100048 0.052363157
-0.22504431 -0.36106199 0.05237858
-0.22522013 -0.36112294 0.052374348
-0.22540869 -0.36119571 0.052300625
-0.22560726 -0.36126599 0.052282415
-0.22578242 -0.36132184 0.052323334
-0.22595936 -0.3613869 0.052284375
-0.2261432 -0.36145395 0.052248869
-0.22633126 -0.36152098 0.052227225
-0.22650881 -0.36157411 0.05230055
-0.22669242 -0.36164135 0.052262727
-0.22687179 -0.36170313 0.052261956
-0.22705115 -0.36177003 0.052213736
-0.22723521 -0.3618364 0.052185163
-0.22742043 -0.36190146 0.052172795
-0.22760703 -0.36196497 0.052178949
-0.22779402 -0.36203286 0.052145734
-0.22797441 -0.36209351 0.052158862
-0.22815923 -0.36215889 0.052141856
-0.22833346 -0.36221665 0.052161954
-0.22851253 -0.36229217 0.052032702
-0.22868977 -0.36236021 0.051967118
-0.22888777 -0.36241293 0.052109811
-0.2290538 -0.36248273 0.051992189
-0.22923452 -0.36254734 0.051969424
-0.22942182 -0.36261022 0.051983669
-0.22961588 -0.36267143 0.052034933
-0.22978695 -0.36273623 0.051979795
-0.22996531 -0.36280277 0.051931575
-0.23015206 -0.36287022 0.05190184
-0.23033208 -0.36293134 0.051909175
-0.23052713 -0.36299217 0.051967379
-0.23070963 -0.36305913 0.051928394
-0.23088762 -0.36312941 0.051844291
-0.23105088 -0.36320311 0.051681526
-0.23124607 -0.36326396 0.051739737
-0.23143618 -0.36332145 0.051813006
-0.23161048 -0.36338323 0.05179606
-0.23180313 -0.36345333 0.051760506
-0.23199758 -0.36351869 0.051774722
-0.23217666 -0.36357725 0.051802896
-0.23235135 -0.36363879 0.051789422
-0.23253645 -0.36370027 0.05180946
-0.23271401 -0.36377329 0.051698741
-0.23291051 -0.36383098 0.051790509
-0.23307534 -0.36390185 0.051658988
-0.23326223 -0.36397198 0.051604941
-0.23344332 -0.36402959 0.051648166
-0.233632 -0.36409545 0.051639251
-0.23381743 -0.36416629 0.05157363
-0.23399924 -0.36422679 0.051592544
-0.23418035 -0.3642908 0.051576719
-0.2343668 -0.36435789 0.051549301
-0.23454267 -0.3644217 0.051518448
-0.23472321 -0.364483 0.051525779
-0.23491402 -0.36454198 0.051587477
-0.23509772 -0.36460763 0.051564693
-0.23528802 -0.36468139 0.051487479
-0.23545265 -0.36473936 0.051475205
-0.23563527 -0.36480263 0.051470947
-0.23581277 -0.36486837 0.051427361
-0.23599172 -0.36493063 0.051420808
-0.23618336 -0.3649925 0.051458195
-0.23636164 -0.36505517 0.051445857
-0.23654056 -0.36512288 0.051388372
-0.23671006 -0.36518937 0.051312406
-0.23688827 -0.36525726 0.051251452
-0.2370708 -0.36531538 0.051294655
-0.23726037 -0.36538103 0.051290378
-0.23742698 -0.36544591 0.051220205
-0.23761722 -0.3655062 0.051268011
-0.23781998 -0.36556667 0.051353969
-0.23801659 -0.36563227 0.051372804
-0.23818462 -0.36570397 0.0512436
-0.23837422 -0.36576977 0.051238157
-0.23858762 -0.36582431 0.051413197
-0.2387528 -0.36589929 0.051244643
-0.23892881 -0.36596292 0.051216111
-0.23910446 -0.36602902 0.051163267
-0.23928618 -0.36608824 0.051193748
-0.23945263 -0.36615279 0.051125895
-0.23964602 -0.36621979 0.0511216
-0.23983835 -0.36628252 0.051153187
-0.24001481 -0.3663483 0.051106133
-0.24019569 -0.36641258 0.051086839
-0.24037203 -0.36647382 0.051081456
-0.24054329 -0.36653668 0.05104484
-0.24073824 -0.36660331 0.051048636
-0.24092543 -0.36667016 0.051025841
-0.24109803 -0.3667326 0.050997324
-0.24127853 -0.36679488 0.050995391
-0.24145524 -0.36686262 0.050930973
-0.24164636 -0.36692619 0.050950997
-0.24181236 -0.36699048 0.050884306
-0.24200341 -0.36705416 0.050903164
-0.24219818 -0.36711901 0.050923172
-0.24237043 -0.36718157 0.050892334
-0.24255031 -0.36724627 0.050866101
-0.24273805 -0.36731306 0.050845619
-0.24293327 -0.36737591 0.050885305
-0.24310862 -0.3674418 0.05083362
-0.24329087 -0.36750394 0.050838627
-0.24346703 -0.3675696 0.050791573
-0.24365108 -0.36763337 0.050787318
-0.24385026 -0.3676976 0.050826985
-0.24403894 -0.36776432 0.050809965
-0.24419993 -0.3678295 0.050718993
-0.24440336 -0.36789298 0.050779477
-0.24457642 -0.36795932 0.050716225
-0.24475102 -0.36802143 0.050696962
-0.2449321 -0.36808792 0.050657984
-0.24513449 -0.3681519 0.050710373
-0.24529649 -0.36821854 0.050608966
-0.24547917 -0.36828282 0.050595455
-0.24566442 -0.36834663 0.050594658
-0.24585976 -0.36840853 0.050643608
-0.24605046 -0.36847511 0.050634686
-0.24620622 -0.36854273 0.050504375
-0.24640839 -0.36860535 0.050568335
-0.2466045 -0.36866742 0.050618432
-0.24677683 -0.36873376 0.050552871
-0.24694078 -0.36880508 0.050414421
-0.24713199 -0.36886629 0.050456434
-0.24734667 -0.36892903 0.0505597
-0.24751943 -0.36899525 0.050496452
-0.24770465 -0.36906642 0.050427359
-0.24789347 -0.36912832 0.050455492
-0.24807768 -0.36919102 0.050461654
-0.24825993 -0.36926091 0.050394893
-0.24844705 -0.36932322 0.05041378
-0.24860716 -0.36938784 0.050325118
-0.24879412 -0.36945361 0.050311588
-0.24898735 -0.36951855 0.050325807
-0.24916998 -0.36958331 0.050307661
-0.2493756 -0.36964503 0.050391287
-0.24955618 -0.36971346 0.050332643
-0.24973796 -0.36977682 0.050324917
-0.24989963 -0.3698411 0.050244346
-0.2500793 -0.36990961 0.050182234
-0.25027534 -0.36997125 0.050235804
-0.25047421 -0.37003589 0.050270837
-0.25066 -0.37010211 0.050249211
-0.25084183 -0.37016723 0.050225276
-0.25101078 -0.37023377 0.050147001
-0.25121039 -0.37029853 0.050183196
-0.25138167 -0.37036327 0.050129209
-0.25155944 -0.37042573 0.050116874
-0.25172752 -0.37049386 0.050021231
-0.25189278 -0.37055913 0.049942974
-0.25211456 -0.37062043 0.050082088
-0.25228107 -0.37068713 0.049994562
-0.25248206 -0.37075061 0.050046958
-0.25265712 -0.37081653 0.049994119
-0.2528761 -0.3708801 0.050103147
-0.25301066 -0.37094951 0.049888425
-0.25321949 -0.37101108 0.049983606
-0.25339258 -0.37107718 0.049922679
-0.25359657 -0.37114084 0.049983159
-0.25378388 -0.37120736 0.049963836
-0.25396803 -0.37127265 0.049945682
-0.25414211 -0.3713387 0.04988822
-0.25434017 -0.37140307 0.049923256
-0.25451791 -0.37146887 0.049879666
-0.2547175 -0.37153327 0.049919333
-0.25488618 -0.3715997 0.04984105
-0.2550796 -0.37166458 0.049856436
-0.25527301 -0.37173095 0.049857918
-0.25544897 -0.37179554 0.049820133
-0.25563031 -0.37186125 0.049789254
-0.25580826 -0.37192714 0.049745664
-0.25601265 -0.37199169 0.049799196
-0.25619423 -0.37205884 0.049755592
-0.25636911 -0.37212357 0.049713172
-0.25655615 -0.3721891 0.049701959
-0.25675768 -0.37225538 0.049730033
-0.25695044 -0.37232077 0.049738478
-0.25710869 -0.37238765 0.049623199
-0.25728366 -0.37245378 0.049568042
-0.25750241 -0.37251824 0.049667817
-0.25766572 -0.37258485 0.049571041
-0.25785893 -0.37265038 0.049579483
-0.25808042 -0.37271509 0.04968619
-0.25824642 -0.3727816 0.049598657
-0.25841755 -0.37284929 0.049516901
-0.25860518 -0.37291515 0.049504522
-0.25879979 -0.3729848 0.049479384
-0.25903118 -0.37305102 0.04960341
-0.25917089 -0.3731181 0.049426861
-0.25938967 -0.37318346 0.049518541
-0.25957078 -0.37325096 0.049470298
-0.25975284 -0.37331715 0.049437113
-0.25994384 -0.37338194 0.049445562
-0.26012224 -0.37344825 0.049399652
-0.26033273 -0.37352049 0.049401071
-0.26050866 -0.37358433 0.049370218
-0.26068985 -0.37364689 0.049368285
-0.26086983 -0.37371323 0.049327005
-0.26105234 -0.37377831 0.049305383
-0.2612417 -0.37384465 0.049294163
-0.26140422 -0.37391236 0.049184654
-0.26159087 -0.37397504 0.049198903
-0.26182267 -0.37404513 0.049288206
-0.26197633 -0.37410793 0.049196102
-0.26220998 -0.37417454 0.049323589
-0.26238078 -0.37424472 0.049217526
-0.26258239 -0.37431502 0.049208555
-0.26277018 -0.37438044 0.049200814
-0.26295793 -0.37444711 0.049181491
-0.26314431 -0.3745138 0.049157541
-0.26333928 -0.3745842 0.049126614
-0.26352412 -0.37464973 0.049108464
-0.26372376 -0.37471786 0.049113393
-0.26389667 -0.37477854 0.049102236
-0.26409608 -0.37484795 0.049094439
-0.26428428 -0.3749184 0.049041551
-0.26447466 -0.37498185 0.049060412
-0.26466966 -0.37505013 0.049049165
-0.26481563 -0.37511039 0.048955929
-0.26502705 -0.37518257 0.048960816
-0.26524514 -0.37524921 0.049038604
-0.26542139 -0.37531602 0.048981123
-0.265641 -0.37539092 0.048987135
-0.26580647 -0.37545401 0.048929706
-0.26598948 -0.37551993 0.048902303
-0.26620966 -0.37558815 0.048971973
-0.26639184 -0.37565637 0.048920266
-0.26658288 -0.37572378 0.048904397
-0.2667442 -0.37578797 0.04882383
-0.26693696 -0.37585548 0.048812591
-0.26712865 -0.37592411 0.048787467
-0.2673274 -0.37599194 0.048792399
-0.26753488 -0.37606016 0.048821613
-0.26771113 -0.37612498 0.048782669
-0.26789099 -0.37619218 0.048733279
-0.26810235 -0.37626073 0.048771728
-0.26830134 -0.376331 0.048754681
-0.26848274 -0.37639835 0.048708759
-0.26866499 -0.37646574 0.048665151
-0.26887211 -0.37653431 0.048689723
-0.26905656 -0.37660298 0.048641481
-0.26923385 -0.37666801 0.048603676
-0.26945326 -0.37673846 0.048650205
-0.2696377 -0.37680611 0.048611216
-0.26985699 -0.37688315 0.048596382
-0.27005357 -0.3769547 0.048559666
-0.27023283 -0.37701896 0.048535742
-0.27042371 -0.37708494 0.048532613
-0.27061734 -0.37715325 0.048516743
-0.27080259 -0.37722003 0.048488166
-0.27099991 -0.37729076 0.048461862
-0.27120832 -0.37735692 0.048513059
-0.27139372 -0.3774249 0.048474066
-0.27157888 -0.37749076 0.048453595
-0.17019495 -0.34207511 0.053503744
-0.17042294 -0.34215876 0.053455304
-0.17065416 -0.34224615 0.053382538
-0.1708878 -0.34233397 0.05331324
-0.17112699 -0.34242445 0.053236965
-0.17135593 -0.34251341 0.053142212
-0.17160159 -0.34260875 0.053041603
-0.17184144 -0.34270436 0.05292017
-0.17205429 -0.34277964 0.052900746
-0.17226969 -0.34285545 0.052884776
-0.17249605 -0.34294054 0.052817814
-0.17271729 -0.34302211 0.052767098
-0.17293558 -0.34310028 0.052738383
-0.17315485 -0.34318066 0.052692294
-0.17338699 -0.34326896 0.052613735
-0.17361256 -0.34335417 0.052543305
-0.17384358 -0.34344196 0.052465916
-0.17405817 -0.34351948 0.052431427
-0.17428021 -0.34360108 0.052383013
-0.17451026 -0.34369004 0.052291736
-0.17473453 -0.34377351 0.052232895
-0.17495403 -0.34385511 0.052176382
-0.17517731 -0.34393811 0.0521187
-0.17539743 -0.34402043 0.052057564
-0.17562352 -0.34410578 0.051987134
-0.17584898 -0.3441923 0.051903978
-0.17607178 -0.3442755 0.051842824
-0.17628986 -0.34435686 0.051784009
-0.1765251 -0.34444961 0.051674172
-0.17673251 -0.34452328 0.051652454
-0.17695145 -0.34460419 0.051600579
-0.17716728 -0.34468439 0.051545247
-0.17738834 -0.34476715 0.051482946
-0.17760602 -0.34484747 0.051432244
-0.17782339 -0.3449277 0.051381528
-0.17804065 -0.34500954 0.051315777
-0.17825499 -0.34508771 0.051274341
-0.17846803 -0.34516656 0.051222492
-0.17868742 -0.34524888 0.051159039
-0.17890264 -0.34532812 0.051110655
-0.17911875 -0.34540817 0.051057637
-0.17932676 -0.34548366 0.051020861
-0.17953733 -0.34555969 0.050987542
-0.17975485 -0.34564123 0.050925255
-0.17996719 -0.34571886 0.050882675
-0.18017641 -0.34579578 0.05083663
-0.18038818 -0.34587321 0.05079405
-0.18059997 -0.34595239 0.050735265
-0.18081005 -0.34602875 0.050697323
-0.18101931 -0.34610456 0.050661702
-0.18122721 -0.3461794 0.050630711
-0.18143454 -0.34625554 0.050585836
-0.18169352 -0.34636483 0.050398335
-0.18186899 -0.34641078 0.050531887
-0.18202339 -0.34644973 0.050663218
-0.18224421 -0.34653714 0.050556917
-0.18253435 -0.34668088 0.050149307
-0.18272911 -0.3467477 0.050150797
-0.1829077 -0.34679461 0.050285488
-0.18309256 -0.34685853 0.050282385
-0.18330196 -0.34693578 0.050234027
-0.18350899 -0.34701118 0.050194945
-0.18371472 -0.34708568 0.050160494
-0.1839169 -0.34715903 0.050124906
-0.18413293 -0.34723881 0.050074201
-0.18432415 -0.34730506 0.050069913
-0.18453175 -0.34738153 0.050022718
-0.18474141 -0.34745812 0.049981304
-0.18493491 -0.34752476 0.04998048
-0.18513621 -0.34759808 0.049942579
-0.18534061 -0.34767234 0.049905814
-0.1855485 -0.34774607 0.049885243
-0.18574142 -0.34781438 0.04986706
-0.1859425 -0.34788615 0.049843047
-0.18614578 -0.34795991 0.049807452
-0.18633959 -0.34802926 0.049782313
-0.18653317 -0.34809482 0.049791913
-0.1867269 -0.34816054 0.049800344
-0.18691771 -0.34822375 0.049822696
-0.18709704 -0.34827691 0.049901813
-0.18727747 -0.34832907 0.049993664
-0.18742749 -0.34835804 0.050203737
-0.18701285 -0.34742212 0.057562999
-0.18710916 -0.34738752 0.058191247
-0.18732627 -0.34747115 0.058108121
-0.18781458 -0.34756333 0.058811113
-0.18963195 -0.34856403 0.055326652
-0.18984221 -0.34864256 0.055269029
-0.19005446 -0.34870517 0.055365384
-0.19029859 -0.34880087 0.055256668
-0.19049013 -0.34886622 0.055261634
-0.19068068 -0.34892836 0.05529324
-0.19089726 -0.3490068 0.055256434
-0.19109552 -0.34908134 0.055197697
-0.19127655 -0.3491483 0.055154093
-0.19149813 -0.34922275 0.055170521
-0.19169937 -0.3492983 0.055111766
-0.19188716 -0.34936285 0.055112135
-0.19210556 -0.34943432 0.055145934
-0.1922943 -0.34949508 0.055184495
-0.19247022 -0.34955254 0.055212684
-0.19269165 -0.34964454 0.055065867
-0.19287692 -0.34971932 0.054963201
-0.19307443 -0.34977698 0.055058442
-0.19330375 -0.34985521 0.055064417
-0.1934832 -0.34991926 0.055042818
-0.19370832 -0.35000354 0.054979339
-0.19390379 -0.35006937 0.054992404
-0.19407254 -0.35013011 0.054967374
-0.19426273 -0.35019299 0.054990873
-0.19449301 -0.35027817 0.054935478
-0.19468817 -0.35034662 0.054923072
-0.19490154 -0.35042712 0.054857321
-0.19509768 -0.35049692 0.054835655
