# .PCD v0.7 - Point Cloud Data file format
VERSION 0.7
FIELDS x y z
SIZE 4 4 4
TYPE F F F
COUNT 1 1 1
WIDTH 1251
HEIGHT 1
VIEWPOINT 0 0 0 1 0 0 0
POINTS 1251
DATA ascii
-0.066502936 -0.30220374 0.05885984
-0.066679828 -0.30231497 0.058833919
-0.066847593 -0.3024143 0.058848388
-0.067033581 -0.30253232 0.058814354
-0.067192152 -0.302623 0.058848459
-0.067334339 -0.30271789 0.058792651
-0.067535326 -0.30284807 0.058738969
-0.067709021 -0.30295172 0.058748797
-0.067870349 -0.30304754 0.058760986
-0.068024442 -0.30315 0.058702826
-0.068200693 -0.30325955 0.058684975
-0.068371043 -0.30336228 0.058687907
-0.068555705 -0.30348328 0.058629654
-0.068719856 -0.30358136 0.058638372
-0.068859473 -0.30366272 0.058658693
-0.069054797 -0.30377787 0.058678839
-0.069218256 -0.30388021 0.058657564
-0.06937851 -0.30396053 0.058764324
-0.06953752 -0.30406868 0.058688857
-0.069705062 -0.30418548 0.058591455
-0.069867566 -0.30429104 0.058545955
-0.070046388 -0.30441812 0.058426604
-0.070233561 -0.30452052 0.058496371
-0.070403464 -0.30462262 0.058501601
-0.070561111 -0.30471674 0.058510341
-0.070743144 -0.30482709 0.058509767
-0.070911109 -0.30493671 0.058459643
-0.071077414 -0.30503842 0.058453359
-0.071238577 -0.30514571 0.05839172
-0.071405612 -0.30524427 0.058408502
-0.071580298 -0.30535397 0.058383733
-0.071747586 -0.30545157 0.058407433
-0.071922317 -0.30556074 0.058386121
-0.072082452 -0.30565783 0.058385614
-0.072234675 -0.30575645 0.058344774
-0.072408773 -0.30585581 0.058383442
-0.072562948 -0.30596974 0.058252633
-0.072747245 -0.30607188 0.058313176
-0.072926223 -0.3061887 0.058259562
-0.073085085 -0.3062785 0.058300592
-0.073242478 -0.30638188 0.058249347
-0.073404238 -0.30648357 0.058225773
-0.073588528 -0.30658638 0.058281712
-0.073733643 -0.30667254 0.058292784
-0.073892511 -0.3067984 0.058104292
-0.074090689 -0.30691382 0.058133658
-0.074233308 -0.30699646 0.058157429
-0.074421637 -0.30710793 0.058174137
-0.074610002 -0.30722755 0.058138948
-0.074763447 -0.30732074 0.05813732
-0.074934438 -0.30742675 0.058121778
-0.075097233 -0.30753288 0.05807399
-0.075262614 -0.30764148 0.058020413
-0.07545682 -0.30774942 0.058082089
-0.075602502 -0.30784154 0.058057405
-0.075765602 -0.30794638 0.058018841
-0.07592389 -0.308038 0.058046013
-0.076097466 -0.308153 0.057983194
-0.076282479 -0.3082628 0.057997614
-0.076439254 -0.30835691 0.058002882
-0.07659433 -0.30846035 0.057942428
-0.076763824 -0.30856764 0.057913054
-0.07693442 -0.30866671 0.0579402
-0.077100091 -0.30876675 0.057941988
-0.077253774 -0.30887768 0.057828479
-0.077434465 -0.30898106 0.057867125
-0.077606454 -0.30908442 0.057872351
-0.07777454 -0.30919302 0.057829157
-0.077947296 -0.3093012 0.057806693
-0.078100778 -0.3093935 0.057810836
-0.078274086 -0.30949512 0.057832204
-0.078434236 -0.30959618 0.057806328
-0.07859619 -0.30970052 0.057766601
-0.07878454 -0.3098118 0.057784468
-0.078956902 -0.30992553 0.057725109
-0.079108678 -0.3100197 0.057710785
-0.079280578 -0.31012303 0.057716012
-0.07944373 -0.31022555 0.057692438
-0.079611927 -0.31032768 0.057690755
-0.079786047 -0.31043887 0.057654448
-0.079961777 -0.31054321 0.057667747
-0.080107436 -0.31063351 0.057654601
-0.080280498 -0.31074059 0.057640217
-0.080455221 -0.31085086 0.057611987
-0.080609173 -0.31095704 0.057529617
-0.080790512 -0.31106082 0.057568263
-0.080940492 -0.31116098 0.057508968
-0.081110306 -0.31126609 0.057494596
-0.081295796 -0.31137094 0.057542458
-0.081450462 -0.31146216 0.057558123
-0.081599087 -0.31156763 0.057459619
-0.081779435 -0.31168151 0.057430223
-0.08194489 -0.31177691 0.057460837
-0.082119219 -0.31187823 0.057487976
-0.08227554 -0.31198552 0.057407904
-0.082446992 -0.31209344 0.057381988
-0.082618222 -0.31219724 0.057381459
-0.08278735 -0.31229848 0.057388999
-0.082934543 -0.31239134 0.057365473
-0.083114132 -0.31251362 0.057279557
-0.083279759 -0.31261331 0.057283655
-0.083458334 -0.31271991 0.057293467
-0.08361458 -0.3128103 0.057320658
-0.083782688 -0.31291237 0.057318978
-0.083960131 -0.31302774 0.057268832
-0.084114745 -0.31312707 0.057232596
-0.084283389 -0.31322879 0.057235524
-0.084445357 -0.31332713 0.057233859
-0.08461123 -0.31343439 0.057190668
-0.08479102 -0.31354049 0.05720856
-0.084944814 -0.31363642 0.057190772
-0.085109137 -0.31373712 0.05718334
-0.085280202 -0.31384483 0.057157423
-0.085445136 -0.31394517 0.057154603
-0.085626431 -0.3140578 0.057136733
-0.085780174 -0.3141537 0.057118956
-0.085942872 -0.31425178 0.057121899
-0.086106829 -0.31435969 0.057067186
-0.086266473 -0.31445593 0.05707014
-0.086433232 -0.31455883 0.057058081
-0.086605303 -0.31466585 0.057040241
-0.086782135 -0.31477052 0.057055842
-0.086926073 -0.31486449 0.057012714
-0.087104648 -0.31497836 0.056976397
-0.087260798 -0.31506974 0.05699667
-0.087428436 -0.31517553 0.056969613
-0.087593876 -0.31527257 0.056989856
-0.087758772 -0.31537959 0.056944359
-0.087920137 -0.3154785 0.056936935
-0.088083267 -0.31558302 0.056900665
-0.088243455 -0.31570131 0.056765221
-0.088411629 -0.3157973 0.056802753
-0.088570975 -0.31589696 0.056782648
-0.088729784 -0.31599993 0.056739479
-0.088906445 -0.31610197 0.056771219
-0.089075997 -0.31620076 0.056796063
-0.089259461 -0.31630346 0.056849688
-0.089432679 -0.3164041 0.056876831
-0.089593679 -0.31650934 0.056827884
-0.089756735 -0.31661668 0.056773163
-0.089914069 -0.31671423 0.056758836
-0.090075649 -0.31681907 0.056714498
-0.090248898 -0.31692281 0.05672203
-0.090425223 -0.31703424 0.056692638
-0.090602845 -0.31713668 0.056725532
-0.090764567 -0.3172414 0.056682345
-0.090936027 -0.31734589 0.056678355
-0.091101855 -0.31745493 0.056623623
-0.091255896 -0.31755629 0.056572389
-0.091421574 -0.31765419 0.056588024
-0.091594115 -0.31775841 0.05658979
-0.091760993 -0.3178643 0.056559272
-0.091924794 -0.31796557 0.056546077
-0.092092246 -0.31807399 0.05650172
-0.092254102 -0.31816775 0.056528896
-0.092428952 -0.31827953 0.056491435
-0.092590205 -0.31838417 0.056447111
-0.092772305 -0.31849149 0.056466147
-0.092917927 -0.31858683 0.056420706
-0.093075164 -0.31868196 0.056421362
-0.093246073 -0.3187843 0.056428902
-0.093402624 -0.31888482 0.056392659
-0.093580216 -0.31899086 0.056402478
-0.093754165 -0.31909522 0.05640886
-0.093907386 -0.31919897 0.056339178
-0.094084516 -0.31930274 0.05636169
-0.094262362 -0.31939894 0.056434941
-0.094418272 -0.31950957 0.056331806
-0.094582252 -0.31961605 0.056286313
-0.094741374 -0.3197087 0.056310032
-0.094920948 -0.31981719 0.056311779
-0.095069207 -0.31991923 0.056234032
-0.095235273 -0.32002768 0.056183919
-0.095419243 -0.32013068 0.056237549
-0.095583305 -0.32022995 0.056238189
-0.095745824 -0.32033429 0.056200776
-0.095885016 -0.32043278 0.056110378
-0.096061327 -0.32052553 0.056199785
-0.096254051 -0.3206324 0.056262612
-0.09640611 -0.32074758 0.056115665
-0.096571341 -0.32084921 0.056105912
-0.09674418 -0.32094982 0.056131903
-0.096897312 -0.32105768 0.056035697
-0.09706001 -0.3211574 0.056028262
-0.097235531 -0.32126236 0.056036938
-0.097400203 -0.32136416 0.056023736
-0.097559966 -0.32146209 0.056016311
-0.097721182 -0.32156438 0.055986971
-0.097892612 -0.32166773 0.055989899
-0.098060295 -0.32177156 0.05597553
-0.098242216 -0.32188058 0.055983037
-0.098413363 -0.32198414 0.055983648
-0.098570853 -0.3220847 0.055950861
-0.098728821 -0.32218951 0.055892695
-0.098887756 -0.32229638 0.055825308
-0.099056751 -0.32239592 0.05584323
-0.099234916 -0.32249269 0.055914182
-0.099408537 -0.32260484 0.05586981
-0.099548295 -0.32270458 0.055773642
-0.099713907 -0.32280877 0.055748899
-0.099882886 -0.32290652 0.055778362
-0.10005498 -0.3230083 0.055793967
-0.10024177 -0.32311139 0.055857964
-0.10041256 -0.32321963 0.055827446
-0.10059272 -0.32332739 0.055836111
-0.10074316 -0.32343054 0.055759519
-0.10090885 -0.32353497 0.055733625
-0.1010693 -0.32364166 0.055673145
-0.10122167 -0.32373855 0.05564383
-0.10140938 -0.3238422 0.055707835
-0.10159029 -0.32395026 0.055717643
-0.10175021 -0.32406098 0.055629484
-0.10191473 -0.32415763 0.055648573
-0.10209101 -0.32426393 0.055651486
-0.10223182 -0.32435927 0.055587612
-0.10241088 -0.32446364 0.055613577
-0.10255159 -0.32456869 0.055487417
-0.10273743 -0.32467499 0.055527199
-0.10291021 -0.32478157 0.055515125
-0.10310324 -0.32489187 0.055557195
-0.10327042 -0.32499665 0.055534758
-0.10342566 -0.32509765 0.055490442
-0.10358253 -0.32520053 0.055440355
-0.10376466 -0.32530731 0.055462852
-0.10391612 -0.32541019 0.055392027
-0.10407601 -0.32550749 0.055389218
-0.10425337 -0.32561064 0.055416338
-0.10441111 -0.32571733 0.055345494
-0.10459284 -0.32581699 0.055411816
-0.10477091 -0.32592964 0.055381268
-0.10491284 -0.32602492 0.05532201
-0.1050994 -0.32613963 0.055311032
-0.10525919 -0.32623723 0.055305928
-0.10542128 -0.32633856 0.055285804
-0.10560431 -0.32644245 0.055330217
-0.10576749 -0.32654935 0.055278953
-0.10592879 -0.32665256 0.055243846
-0.10611095 -0.32675666 0.055283647
-0.10627802 -0.32686555 0.055234686
-0.10643739 -0.32696342 0.05522611
-0.10659325 -0.32706118 0.055204857
-0.10677324 -0.32717425 0.055178922
-0.10695009 -0.32728019 0.055186436
-0.10711052 -0.32738706 0.055124812
-0.1072785 -0.32749432 0.055089686
-0.10743207 -0.32759032 0.055070747
-0.10760339 -0.3276909 0.055090975
-0.10779712 -0.3278051 0.055111125
-0.10794825 -0.32790795 0.055039141
-0.10811973 -0.32801044 0.055047829
-0.10829554 -0.32811502 0.055059962
-0.10845824 -0.32821873 0.055027161
-0.10862631 -0.32832116 0.055023171
-0.10879596 -0.3284305 0.05498112
-0.10896236 -0.32853121 0.054981753
-0.10912068 -0.32863298 0.054944351
-0.10929331 -0.32873765 0.054943807
-0.1094561 -0.32884485 0.054889087
-0.10963269 -0.32894826 0.054911599
-0.10981517 -0.32905561 0.054931793
-0.10997989 -0.32916471 0.054872457
-0.11013815 -0.32926664 0.054833896
-0.11030246 -0.32936752 0.054825306
-0.11048861 -0.32947546 0.054855861
-0.11063881 -0.32957828 0.054780431
-0.11081517 -0.32968539 0.054778714
-0.11101015 -0.329788 0.054877292
-0.11115713 -0.32989377 0.054770723
-0.11132833 -0.33000207 0.054741357
-0.1115049 -0.33010623 0.054759257
-0.11163774 -0.33020395 0.054649271
-0.11184286 -0.33030984 0.054766268
-0.11203519 -0.33043185 0.05473106
-0.11220126 -0.33053976 0.054684408
-0.11234771 -0.33063436 0.054647047
-0.11253735 -0.33074513 0.054672979
-0.11269683 -0.33085233 0.054605581
-0.11285418 -0.33095768 0.054541655
-0.11302733 -0.33105412 0.054595314
-0.11320545 -0.33116373 0.054584384
-0.11338292 -0.33127639 0.054551527
-0.11356067 -0.33138758 0.05452906
-0.11373223 -0.33149031 0.054536588
-0.11391021 -0.33159858 0.054533727
-0.1140445 -0.33169174 0.054458342
-0.11422248 -0.33179858 0.054464702
-0.11439607 -0.33190179 0.054476842
-0.11460096 -0.33202165 0.05450388
-0.11476663 -0.33213297 0.054434162
-0.11493458 -0.33223858 0.054409415
-0.11509804 -0.33234057 0.054390449
-0.11525367 -0.33244145 0.054348439
-0.11543287 -0.33254737 0.054365173
-0.11564276 -0.33266842 0.054403733
-0.11582959 -0.33278459 0.05438469
-0.11596367 -0.33287781 0.054308154
-0.11615135 -0.33299124 0.054309867
-0.11632773 -0.33309853 0.05430701
-0.11648048 -0.3331933 0.054292686
-0.11666901 -0.33330703 0.054295562
-0.11682697 -0.33341148 0.054239698
-0.11697632 -0.33351016 0.054187335
-0.11717547 -0.33362439 0.054228228
-0.11734966 -0.33373886 0.054171167
-0.11751248 -0.33383557 0.054183349
-0.11772494 -0.33396381 0.054186136
-0.11788923 -0.33406523 0.054174088
-0.11802158 -0.33415398 0.054119468
-0.11820781 -0.33427212 0.054085433
-0.11839965 -0.33438134 0.05412982
-0.11856797 -0.33448792 0.05410045
-0.1187645 -0.33460525 0.054111373
-0.11892409 -0.3347103 0.054057814
-0.11908495 -0.33481002 0.054043472
-0.11926038 -0.33492506 0.053987559
-0.1194514 -0.33503741 0.054008875
-0.11960453 -0.33513439 0.05398187
-0.11977249 -0.33524257 0.053940974
-0.11985398 -0.33532602 0.05372389
-0.12005171 -0.33543429 0.053797081
-0.12031139 -0.33557394 0.053909302
-0.12049405 -0.33567962 0.053941015
-0.12065151 -0.33578593 0.053871319
-0.12085214 -0.33590212 0.05390529
-0.12102372 -0.33601266 0.053863235
-0.12119487 -0.33611494 0.053871922
-0.040180989 -0.29089567 0.029348761
-0.040350638 -0.29101589 0.029237548
-0.04051999 -0.29113194 0.029151712
-0.040683825 -0.29124287 0.029077429
-0.040847424 -0.29135162 0.029015826
-0.041002855 -0.29145363 0.028965786
-0.041166246 -0.29156047 0.028915714
-0.041319761 -0.29166022 0.0288726
-0.041476611 -0.29176056 0.028838694
-0.041629121 -0.29185718 0.028811719
-0.041779332 -0.29195076 0.028795132
-0.041932639 -0.29204875 0.028762396
-0.042081129 -0.29214022 0.028752733
-0.042228326 -0.29223001 0.028748844
-0.042379465 -0.29232323 0.028738022
-0.042528898 -0.29241854 0.028707599
-0.042676792 -0.29250747 0.028711775
-0.042820316 -0.29259247 0.028724045
-0.04296216 -0.29267737 0.028730549
-0.04310555 -0.29276013 0.028756645
-0.043251235 -0.29284844 0.02875622
-0.043391868 -0.29292732 0.028796174
-0.043530878 -0.29300618 0.028830364
-0.043672543 -0.29308662 0.028864544
-0.043807853 -0.29316011 0.028918343
-0.043951176 -0.29324302 0.028943291
-0.044080596 -0.29330787 0.029029414
-0.044211924 -0.29337081 0.029135119
-0.044345915 -0.29343989 0.029211998
-0.044478931 -0.29350984 0.029279642
-0.044610821 -0.29357332 0.029384203
-0.044740736 -0.29363847 0.029470315
-0.044868998 -0.29369867 0.029581798
-0.044999417 -0.29376194 0.029681746
-0.045129381 -0.29382443 0.029785156
-0.045258887 -0.2938861 0.029892024
-0.045387767 -0.29394662 0.030003507
-0.045512553 -0.29400325 0.030124228
-0.04563944 -0.29406044 0.030249562
-0.045770183 -0.29412338 0.030352971
-0.045886427 -0.29415852 0.030577507
-0.046002932 -0.29420397 0.030737467
-0.046122413 -0.2942512 0.030897412
-0.04624106 -0.29429686 0.031064278
-0.046360478 -0.29434082 0.031244989
-0.043266866 -0.28778547 0.061048813
-0.04345379 -0.28790203 0.061027497
-0.043645129 -0.28802615 0.060975045
-0.043798614 -0.28809765 0.06111183
-0.04400919 -0.28824741 0.060970519
-0.044199064 -0.28836975 0.060923837
-0.044381443 -0.2884832 0.060904846
-0.044559922 -0.2885901 0.060912393
-0.044744369 -0.28870374 0.060900323
-0.044931538 -0.28882226 0.060867481
-0.045109645 -0.28892896 0.060875028
-0.045297883 -0.28904977 0.060831815
-0.045473874 -0.28915301 0.060853206
-0.045661442 -0.28927305 0.060812287
-0.045825757 -0.28935561 0.06092022
-0.046028078 -0.28950253 0.060765095
-0.046197187 -0.28960577 0.060759977
-0.04635042 -0.28970027 0.060749151
-0.046579406 -0.28985286 0.060660832
-0.046758618 -0.28995895 0.060676455
-0.046941258 -0.29007566 0.060637861
-0.047119252 -0.29017973 0.060661562
-0.047303863 -0.29029635 0.060631029
-0.047486603 -0.29040965 0.060614347
-0.047666192 -0.29052141 0.060595378
-0.047847122 -0.29063165 0.060591388
-0.048027113 -0.29074454 0.060566634
-0.048210889 -0.29086065 0.060536116
-0.048383333 -0.29095921 0.06057366
-0.048559368 -0.29106936 0.060551237
-0.048749641 -0.2911945 0.060488407
-0.04892616 -0.29129696 0.060516715
-0.049106553 -0.29141194 0.060480442
-0.049283691 -0.29151586 0.060501833
-0.049468428 -0.29164016 0.060422868
-0.049647946 -0.29174933 0.060420036
-0.04982724 -0.2918582 0.06041836
-0.050006911 -0.29196802 0.060412064
-0.050180569 -0.29207021 0.060431153
-0.050365508 -0.29219157 0.060371801
-0.050542854 -0.29230195 0.060352832
-0.05072134 -0.29240996 0.060353458
-0.05089774 -0.29251871 0.060341407
-0.051076099 -0.29263717 0.060275152
-0.051239468 -0.2927331 0.060294278
-0.051435798 -0.29285538 0.060272947
-0.051592447 -0.29294708 0.060293246
-0.051780779 -0.29307318 0.060216576
-0.051975317 -0.29319763 0.060174488
-0.052144654 -0.29328597 0.060265094
-0.05231062 -0.29339999 0.060179278
-0.052480966 -0.29349637 0.060222596
-0.052677251 -0.29362023 0.060190886
-0.052860938 -0.29374316 0.060116544
-0.053032182 -0.29384208 0.06014717
-0.053212844 -0.29395831 0.060103975
-0.053388476 -0.2940684 0.060080394
-0.053541191 -0.29416403 0.060060341
-0.05369059 -0.29425767 0.060040303
-0.053894922 -0.29437917 0.060054697
-0.054088194 -0.29449126 0.060086414
-0.05427029 -0.29461306 0.060013235
-0.054446965 -0.29472089 0.060008094
-0.054623194 -0.29483441 0.059964914
-0.054793268 -0.29492465 0.060046285
-0.054975986 -0.29504973 0.059954651
-0.055150036 -0.29515812 0.059935682
-0.055327483 -0.29526931 0.059912108
-0.055499144 -0.29537138 0.059924282
-0.055678636 -0.29548904 0.059867244
-0.055852041 -0.29559669 0.0598506
-0.056023121 -0.29570529 0.059818961
-0.056179892 -0.29579398 0.059858859
-0.056377359 -0.2959213 0.059809845
-0.056549177 -0.2960251 0.059811644
-0.056728188 -0.29614374 0.059746545
-0.056880992 -0.29623672 0.059743792
-0.057069719 -0.29634571 0.059777834
-0.057243943 -0.29645836 0.059732348
-0.057417732 -0.29656118 0.059747979
-0.057576686 -0.29665807 0.059744053
-0.057763647 -0.29677975 0.059690461
-0.057939053 -0.29688898 0.059671488
-0.058114775 -0.29699966 0.059644446
-0.058274988 -0.29710239 0.059608236
-0.058457986 -0.29720119 0.059684962
-0.058633588 -0.29732266 0.059588723
-0.058807783 -0.29742897 0.059583604
-0.058980912 -0.29754207 0.059531197
-0.059140194 -0.29764315 0.059501901
-0.05932346 -0.29775462 0.059499055
-0.059496835 -0.2978588 0.059504319
-0.059643339 -0.29794073 0.059547707
-0.059837397 -0.29806453 0.059507929
-0.060010843 -0.29818234 0.059426691
-0.060159497 -0.29827482 0.059411272
-0.060354844 -0.29839358 0.059408389
-0.060520068 -0.29850045 0.059365239
-0.060686536 -0.29860008 0.05937282
-0.060868118 -0.29870617 0.059397656
-0.061026245 -0.29880637 0.059369516
-0.061200734 -0.29892027 0.059317112
-0.061363306 -0.29901484 0.059342004
-0.061540004 -0.29912648 0.059312649
-0.061710656 -0.29923645 0.059270635
-0.06188193 -0.29933286 0.059317417
-0.062041134 -0.29944384 0.059224691
-0.062230557 -0.29954726 0.059296791
-0.062394641 -0.29965416 0.059249029
-0.06257654 -0.29976586 0.059239261
-0.062712505 -0.29985806 0.059176594
-0.062915139 -0.29997474 0.059215203
-0.063084982 -0.30008513 0.059167434
-0.063256368 -0.30018339 0.059202679
-0.063424215 -0.30027536 0.059264459
-0.063579015 -0.3003853 0.059161365
-0.06376002 -0.30049267 0.059175827
-0.063912749 -0.3005811 0.059201907
-0.064103916 -0.30070549 0.059147142
-0.064266473 -0.30080748 0.059124749
-0.064438455 -0.30091786 0.059085041
-0.064616568 -0.30103254 0.059041843
-0.064778991 -0.30113861 0.058992937
-0.064953387 -0.30124325 0.058999341
-0.065121382 -0.30133909 0.059036911
-0.065283462 -0.30144277 0.059001837
-0.065454729 -0.30155021 0.058978267
-0.065619752 -0.30166167 0.058905132
-0.065796971 -0.30176276 0.05894497
-0.065971114 -0.3018665 0.058955997
-0.066120282 -0.30196252 0.058919806
-0.066275582 -0.30206102 0.058891676
-0.066449255 -0.30217698 0.058823124
-0.0666233 -0.30227616 0.05886298
-0.066790625 -0.30238518 0.058814056
-0.066977113 -0.30249116 0.058858477
-0.067150466 -0.30260348 0.058811843
-0.067321405 -0.30270115 0.058849398
-0.067457795 -0.30278489 0.058842082
-0.067642733 -0.30291113 0.058751591
-0.06781891 -0.30302283 0.058719937
-0.067980513 -0.30311462 0.058758669
-0.068137988 -0.30321479 0.058728222
-0.068311132 -0.30332193 0.058713876
-0.068487003 -0.30343324 0.058683377
-0.068662778 -0.30354449 0.05865287
-0.068820536 -0.30363977 0.058654718
-0.068964273 -0.30371565 0.058725793
-0.069166213 -0.30385345 0.058627181
-0.069314338 -0.30394471 0.058617521
-0.069503993 -0.30405205 0.058665402
-0.069661409 -0.30414858 0.058658019
-0.069814444 -0.30424985 0.058603369
-0.069967359 -0.30435088 0.058549866
-0.07012599 -0.30445719 0.05848483
-0.07031785 -0.30457023 0.058505014
-0.070490912 -0.30467349 0.058514886
-0.070653968 -0.30477434 0.058501728
-0.070841581 -0.30489025 0.058487333
-0.070998013 -0.30498868 0.058463819
-0.07116776 -0.30509049 0.058470234
-0.071315251 -0.30518171 0.058458272
-0.071478739 -0.30529276 0.05838168
-0.071650714 -0.30539882 0.05836964
-0.071832664 -0.30550784 0.058377184
-0.071998693 -0.30560923 0.05837208
-0.072176315 -0.30572015 0.058350801
-0.072315991 -0.30580047 0.058378071
-0.072500408 -0.30591297 0.058372915
-0.072643176 -0.30600587 0.058332138
-0.072818197 -0.3061232 0.058260128
-0.072984241 -0.30622366 0.058260787
-0.073162965 -0.30633056 0.058269486
-0.073317453 -0.30642167 0.05828518
-0.073480532 -0.30651999 0.058288164
-0.073654838 -0.30663741 0.05821269
-0.073813811 -0.30671802 0.058312558
-0.073965833 -0.30681488 0.058282122
-0.074128255 -0.30694902 0.058054462
-0.074311651 -0.30704516 0.058149643
-0.07447274 -0.3071388 0.058174539
-0.074660085 -0.30726832 0.058072515
-0.074824899 -0.30736244 0.058108926
-0.075006552 -0.30747092 0.058118775
-0.075165577 -0.30756858 0.058110241
-0.075309508 -0.30766398 0.058057915
-0.075507022 -0.30778804 0.058029659
-0.075668208 -0.30788159 0.058055714
-0.075803466 -0.30796993 0.058014952
-0.075988099 -0.3080802 0.05802479
-0.076156929 -0.308182 0.058027759
-0.076305427 -0.30828941 0.057916604
-0.076491863 -0.30839664 0.057952963
-0.07664153 -0.30848175 0.057988271
-0.076819152 -0.3085961 0.057945088
-0.076988079 -0.30869761 0.057950355
-0.07715138 -0.30880094 0.057922199
-0.077302359 -0.30889064 0.057933297
-0.077451915 -0.30900684 0.057770245
-0.07765948 -0.30912161 0.057839982
-0.077822097 -0.30921948 0.057844125
-0.077971682 -0.30932266 0.057764105
-0.078141034 -0.30941752 0.057813205
-0.078320056 -0.30952892 0.057794221
-0.078481756 -0.30962223 0.057823736
-0.078640833 -0.30971885 0.057822108
-0.078801997 -0.30982941 0.057739768
-0.078981146 -0.30994579 0.057689648
-0.07915207 -0.31004468 0.057719134
-0.079315998 -0.31014624 0.057704818
-0.079478338 -0.31024426 0.057706643
-0.079645403 -0.31034753 0.057693463
-0.079806656 -0.31045181 0.057651475
-0.079987727 -0.31056556 0.057625577
-0.08015009 -0.31065854 0.057659701
-0.080299303 -0.31075495 0.057621196
-0.080485582 -0.31087315 0.057587214
-0.080635637 -0.31096375 0.057589076
-0.080801956 -0.31107217 0.057540156
-0.080956087 -0.31116831 0.057522405
-0.081131458 -0.31126827 0.057562247
-0.081315972 -0.31138775 0.057513274
-0.081475928 -0.31148323 0.057522036
-0.081637576 -0.31158629 0.057489265
-0.081789494 -0.31168419 0.057451915
-0.081962593 -0.31179073 0.05744103
-0.082143202 -0.31189552 0.057470486
-0.08230371 -0.311995 0.05745618
-0.082464457 -0.31210276 0.057389975
-0.082630195 -0.31220648 0.057368722
-0.082805082 -0.31230742 0.05740051
-0.082964145 -0.31241199 0.057348147
-0.083119839 -0.31251073 0.057320006
-0.083265476 -0.31261259 0.057233088
-0.083463728 -0.31272116 0.057306312
-0.083646171 -0.31283304 0.057297707
-0.083804861 -0.3129296 0.057294935
-0.083960727 -0.31302807 0.057269111
-0.084133275 -0.31313482 0.057254765
-0.084288791 -0.31323344 0.057226624
-0.084457956 -0.31333852 0.057209991
-0.08461529 -0.3134397 0.057172623
-0.084793694 -0.31354275 0.057204388
-0.084962554 -0.31364802 0.057185445
-0.085121289 -0.3137446 0.057182673
-0.085299924 -0.31385869 0.057145242
-0.085448436 -0.31394309 0.057180554
-0.085644782 -0.31406865 0.057138465
-0.085791484 -0.31416482 0.05709191
-0.085953131 -0.31426334 0.057087969
-0.086123906 -0.31436053 0.057127833
-0.086285658 -0.314466 0.057080075
-0.086449787 -0.3145633 0.057093434
-0.086607747 -0.31466722 0.057041079
-0.086784601 -0.31477514 0.057035938
-0.086957023 -0.31487858 0.057042353
-0.087114885 -0.31498566 0.05696924
-0.087276801 -0.31508744 0.0569457
-0.087438017 -0.31518626 0.056938305
-0.087614566 -0.31529111 0.056951631
-0.08777602 -0.31538987 0.056945387
-0.087938517 -0.31548822 0.056946073
-0.088096522 -0.31559485 0.056876406
-0.08824873 -0.31569436 0.056829836
-0.088403583 -0.31579584 0.056780949
-0.088588648 -0.31589425 0.056868047
-0.088755228 -0.31599414 0.05687448
-0.088919647 -0.31609797 0.056847472
-0.089092746 -0.31620455 0.056836586
-0.089270651 -0.3163093 0.056855664
-0.089454226 -0.31642401 0.056833219
-0.089613006 -0.31652099 0.056828145
-0.089753114 -0.31662169 0.056727394
-0.089922965 -0.31672645 0.056715369
-0.090100825 -0.31682268 0.056788653
-0.090259299 -0.31692272 0.056762822
-0.090435602 -0.31703413 0.056733467
-0.090613432 -0.31714499 0.056713339
-0.090782717 -0.31724724 0.056715153
-0.090941586 -0.3173528 0.056655876
-0.09110681 -0.31745911 0.056616176
-0.091261908 -0.31755728 0.056589194
-0.09141735 -0.31765261 0.056581818
-0.091595925 -0.31775776 0.056600906
-0.091764599 -0.31786853 0.056546208
-0.091907762 -0.31796998 0.056452379
-0.092091791 -0.31807375 0.056501426
-0.092243999 -0.31817001 0.05647561
-0.092414156 -0.31827223 0.056480873
-0.092592135 -0.31838048 0.056478042
-0.0927414 -0.31847748 0.056436092
-0.09290687 -0.31858358 0.056398712
-0.093082264 -0.3186821 0.056447782
-0.093248531 -0.3187829 0.056447297
-0.093407489 -0.31888795 0.056391466
-0.093580127 -0.31898481 0.056440555
-0.093752928 -0.31909445 0.056408912
-0.093912266 -0.31919938 0.056355394
-0.094079368 -0.31930012 0.056358363
-0.094260946 -0.3194055 0.056387808
-0.094404452 -0.31950605 0.056300897
-0.094583482 -0.31961694 0.056285385
-0.094751894 -0.3197127 0.056325249
-0.094917312 -0.31981641 0.056302857
-0.095072046 -0.31991962 0.056242429
-0.095241085 -0.32002026 0.056253474
-0.095405415 -0.32012659 0.056210317
-0.095575288 -0.32022721 0.056224808
-0.095739365 -0.32033119 0.056195501
-0.095915556 -0.32043564 0.056209974
-0.096068047 -0.32052734 0.056214139
-0.096266344 -0.32062399 0.056363482
-0.096411057 -0.32074723 0.056137022
-0.096549273 -0.32084334 0.056058198
-0.096742094 -0.32095262 0.056106068
-0.096891716 -0.32105398 0.056037586
-0.097055465 -0.32115579 0.05602096
-0.097203597 -0.321255 0.055960562
-0.097395472 -0.32136244 0.056016505
-0.0975575 -0.32146227 0.056005649
-0.097734526 -0.32156271 0.056048959
-0.097903416 -0.32166636 0.056040384
-0.098063506 -0.32177535 0.055963807
-0.098236986 -0.32187417 0.056003664
-0.098420262 -0.32198963 0.055975441
-0.098569378 -0.32208654 0.055933487
-0.098738439 -0.32219246 0.055911086
-0.098883003 -0.32229403 0.055821862
-0.0990545 -0.32239544 0.055837497
-0.099231996 -0.32249436 0.055892333
-0.099403903 -0.32260653 0.055841096
-0.099541247 -0.32270429 0.055748433
-0.099718139 -0.32280552 0.055785973
-0.09987402 -0.32291034 0.05571977
-0.100067 -0.32300866 0.055837996
-0.1002259 -0.32311749 0.055757958
-0.10041629 -0.3232204 0.055836972
-0.10058501 -0.32332665 0.0558111
-0.10075217 -0.32343504 0.055765636
-0.10090847 -0.32353577 0.055727124
-0.10107169 -0.32364431 0.055665523
-0.10122961 -0.32374293 0.055646602
-0.1014178 -0.32384452 0.055725623
-0.10158728 -0.32394889 0.055714749
-0.10175281 -0.32406136 0.055637002
-0.10191865 -0.32416189 0.055636518
-0.10208474 -0.32427034 0.055586435
-0.10224443 -0.32436717 0.055585969
-0.10239804 -0.32446605 0.055548612
-0.10255631 -0.32457268 0.055480108
-0.10269817 -0.32467172 0.055396661
-0.1028968 -0.32477981 0.055474501
-0.10309491 -0.32489192 0.055524655
-0.10328046 -0.32500422 0.055525273
-0.10341948 -0.32510135 0.055442985
-0.10359334 -0.32520041 0.055482831
-0.10376428 -0.3253071 0.055462725
-0.10392843 -0.32541567 0.055404589
-0.10407284 -0.32550901 0.055367261
-0.10425648 -0.32561779 0.055382863
-0.10440373 -0.32571864 0.055308629
-0.10459573 -0.32582396 0.055378411
-0.10478271 -0.32593858 0.055369794
-0.10493702 -0.32603592 0.055345125
-0.10510932 -0.32614109 0.055339999
-0.10529117 -0.32625204 0.055334859
-0.10545006 -0.32634965 0.055326313
-0.10562103 -0.32645491 0.055315435
-0.10578921 -0.32656193 0.055282649
-0.1059422 -0.32666117 0.055240683
-0.10612392 -0.326767 0.055267829
-0.10629669 -0.32687607 0.055239648
-0.10646769 -0.32698154 0.055227619
-0.10662699 -0.32708117 0.055207543
-0.10678513 -0.32717901 0.055194393
-0.10697014 -0.3272959 0.055163864
-0.10712762 -0.32739553 0.055136874
-0.10728721 -0.32749879 0.055094894
-0.10745741 -0.32760268 0.055089787
-0.10763186 -0.32770514 0.05511003
-0.10780931 -0.32781309 0.055107202
-0.10796788 -0.32792154 0.055028319
-0.1081413 -0.32802412 0.055043958
-0.10832018 -0.328134 0.055034205
-0.1084891 -0.3282364 0.055033714
-0.10864142 -0.32833761 0.054976754
-0.10883458 -0.32844871 0.055014245
-0.10899521 -0.32855061 0.054984946
-0.10914888 -0.3286503 0.054942969
-0.10930222 -0.32874992 0.054899856
-0.10948938 -0.32886249 0.054905068
-0.1096561 -0.32896337 0.054905742
-0.10983333 -0.32907516 0.054877535
-0.10999496 -0.32917565 0.054860923
-0.11017941 -0.32928818 0.054855764
-0.11034939 -0.32939121 0.054855265
-0.11052908 -0.32950342 0.054833982
-0.1106846 -0.32960185 0.054807
-0.11085053 -0.32970622 0.054782297
-0.11103636 -0.32981274 0.054820959
-0.11120099 -0.32991868 0.054781273
-0.11136279 -0.33002272 0.054742742
-0.11153866 -0.33013314 0.054718003
-0.11168532 -0.33023238 0.054651838
-0.11189401 -0.33034021 0.054770015
-0.11208478 -0.33046836 0.054689877
-0.11223026 -0.33056432 0.054639865
-0.11239757 -0.33066449 0.054647446
-0.11258478 -0.33077651 0.054656126
-0.11274274 -0.33087879 0.054614138
-0.11289571 -0.3309851 0.054527201
-0.11304863 -0.33108053 0.054509453
-0.11326208 -0.33119613 0.054596469
-0.11342579 -0.33130389 0.054541796
-0.11362046 -0.33142188 0.054541215
-0.1137841 -0.33152509 0.054515369
-0.11396115 -0.33163929 0.054471027
-0.1141058 -0.33173075 0.054446384
-0.11429252 -0.33183724 0.054488506
-0.1144674 -0.33194217 0.054494914
-0.11466499 -0.33206248 0.054490875
-0.1148234 -0.3321712 0.054409679
-0.11498266 -0.33227101 0.054388456
-0.1151673 -0.33238056 0.054402903
-0.11532964 -0.3324824 0.054380521
-0.11552273 -0.33259639 0.054399565
-0.11571393 -0.33271608 0.054374777
-0.11589983 -0.33283058 0.054362707
-0.11604924 -0.33292913 0.054311521
-0.11621329 -0.33303291 0.054283366
-0.11638035 -0.3331416 0.054235592
-0.1165501 -0.33324051 0.054260463
-0.11677304 -0.33337149 0.054286338
-0.11691696 -0.33346635 0.054237481
-0.11705104 -0.33355957 0.054160975
-0.11726706 -0.33368093 0.054221459
-0.11743334 -0.3337926 0.054151781
-0.11760733 -0.33389261 0.054185867
-0.11779194 -0.33401176 0.054139189
-0.11797312 -0.33412179 0.054137509
-0.11815862 -0.33422264 0.054210771
-0.11830762 -0.33432999 0.054101937
-0.11849971 -0.33444351 0.054119822
-0.11865161 -0.3345443 0.054064021
-0.11887183 -0.33467436 0.054085284
-0.11902492 -0.33477259 0.054050244
-0.1192028 -0.33487678 0.054072779
-0.11936457 -0.33498788 0.053989276
-0.11953332 -0.33509469 0.053959955
-0.11970976 -0.33520022 0.053968657
-0.1198855 -0.33530983 0.053948537
-0.11997648 -0.33539087 0.053783357
-0.1202075 -0.33550972 0.053917605
-0.12040749 -0.33563656 0.053881273
-0.1206221 -0.33575669 0.05394407
-0.12078723 -0.33586314 0.053903218
-0.12098695 -0.33598602 0.053891107
-0.1211496 -0.33609203 0.053843345
-0.040292665 -0.29096717 0.029324207
-0.040457219 -0.29108086 0.029234905
-0.040627334 -0.29120028 0.0291306
-0.040793259 -0.29131228 0.029057441
-0.040954445 -0.29142013 0.028992366
-0.041111033 -0.29152194 0.028948072
-0.041263953 -0.29162097 0.02890726
-0.041421507 -0.29172444 0.028856045
-0.041576456 -0.29182455 0.028816365
-0.041729696 -0.29192033 0.028797459
-0.041881897 -0.29201695 0.028769325
-0.042030279 -0.2921105 0.028745826
-0.042178664 -0.29220209 0.028735001
-0.042326227 -0.29229262 0.028727639
-0.04247478 -0.29238468 0.028714517
-0.042623412 -0.29247695 0.028700233
-0.042766739 -0.29256183 0.028712504
-0.042913537 -0.29265171 0.028706305
-0.043055288 -0.29273674 0.028711651
-0.043197673 -0.29282051 0.028727381
-0.043337788 -0.2929011 0.028754648
-0.043478724 -0.29298291 0.028777294
-0.043618187 -0.29306039 0.028821871
-0.043758601 -0.29314151 0.028846826
-0.043895263 -0.29321495 0.028906401
-0.044032026 -0.29329076 0.028950986
-0.044165 -0.29336107 0.029016331
-0.044297971 -0.29342663 0.029111668
-0.044426315 -0.29348993 0.029203564
-0.044560537 -0.29355952 0.029278144
-0.044689722 -0.29362151 0.029381573
-0.04482083 -0.29368868 0.029459612
-0.044946376 -0.29374737 0.029569972
-0.045077164 -0.29381144 0.029666472
-0.045204706 -0.29387045 0.029782593
-0.045332894 -0.29393277 0.02988025
-0.045459837 -0.29399306 0.029985998
-0.045587666 -0.29405206 0.030103261
-0.045711063 -0.29410654 0.030232085
-0.0458408 -0.29416564 0.030356273
-0.045956507 -0.29420009 0.030583151
-0.046072982 -0.29424822 0.030725833
-0.046190143 -0.2942946 0.030882355
-0.046312671 -0.29434133 0.031057306
-0.046429586 -0.29438412 0.031235745
-0.043343503 -0.28783363 0.061037716
-0.043526575 -0.28794768 0.061017573
-0.043718934 -0.2880775 0.060932796
-0.043880299 -0.28815541 0.061059199
-0.044077594 -0.28829038 0.060960576
-0.044265445 -0.28841332 0.06090235
-0.044452585 -0.28853166 0.060870655
-0.044625845 -0.28862998 0.060912818
-0.044810496 -0.28874806 0.060873061
-0.044993352 -0.28886327 0.060844835
-0.045176178 -0.28897482 0.060839683
-0.045357123 -0.28908703 0.060822994
-0.04553967 -0.2891984 0.060817841
-0.045723714 -0.28931651 0.060775779
-0.045891225 -0.28940517 0.060857177
-0.046085417 -0.2895419 0.060735494
-0.046252407 -0.28963771 0.060769603
-0.046399087 -0.28972861 0.060756482
-0.046635292 -0.28988683 0.060660053
-0.046810031 -0.28998914 0.060682595
-0.046993222 -0.29010725 0.060637079
-0.047166206 -0.29020649 0.060672317
-0.047354326 -0.29033011 0.060610633
-0.047532752 -0.2904399 0.060599722
-0.047711834 -0.29054683 0.060609579
-0.047892768 -0.29066178 0.06057559
-0.048076116 -0.29077727 0.060547367
-0.048256151 -0.29089093 0.060518004
-0.048431687 -0.29099154 0.060554385
-0.04860555 -0.29109782 0.060548108
-0.048798896 -0.29122952 0.060455263
-0.048970912 -0.29132801 0.060491666
-0.049149439 -0.29143965 0.060469225
-0.04932452 -0.29154453 0.06047678
-0.049503408 -0.29166204 0.060418583
-0.049687497 -0.29177633 0.060400739
-0.049868912 -0.29189011 0.060375981
-0.050040387 -0.29198807 0.060413532
-0.050216414 -0.2920908 0.060438387
-0.050400648 -0.29221606 0.060351335
-0.050580565 -0.29232746 0.060335808
-0.050755493 -0.29243332 0.060336448
-0.05093056 -0.29253963 0.060334776
-0.051112425 -0.2926611 0.060262725
-0.051268689 -0.29275221 0.060285334
-0.051466469 -0.29287827 0.060245536
-0.051627547 -0.29296973 0.060284272
-0.051802643 -0.29308784 0.060207628
-0.051972929 -0.29318979 0.060215201
-0.052170821 -0.29330611 0.060237687
-0.052333988 -0.29341972 0.060143769
-0.052515067 -0.29351932 0.060207833
-0.052706189 -0.29364297 0.060157672
-0.052883133 -0.29375604 0.060120236
-0.053060472 -0.29386443 0.060113948
-0.053236134 -0.29397491 0.060088053
-0.053411558 -0.29408506 0.060063317
-0.053565245 -0.2941775 0.060067475
-0.053706534 -0.29425716 0.060105115
-0.053910907 -0.29438558 0.06007567
-0.054109365 -0.29450533 0.060078554
-0.054287072 -0.29462266 0.0600169
-0.054462634 -0.29473469 0.05998062
-0.054633714 -0.29484165 0.059959352
-0.054799572 -0.2949346 0.060007311
-0.054985605 -0.29505569 0.059953701
-0.055161998 -0.29516426 0.059942797
-0.05533696 -0.29527611 0.059905369
-0.05551232 -0.29538223 0.059906006
-0.055688016 -0.29549688 0.059853587
-0.055862203 -0.29560754 0.059820771
-0.056021925 -0.29570565 0.059812225
-0.056197617 -0.29580596 0.059850924
-0.056382041 -0.29592538 0.059801929
-0.056558557 -0.29603654 0.059774887
-0.05673112 -0.29614368 0.059758224
-0.056883968 -0.29623744 0.059750855
-0.057077207 -0.29635349 0.059757203
-0.057250351 -0.29646331 0.059725545
-0.057422824 -0.29657131 0.059703127
-0.057591751 -0.29666737 0.059742995
-0.057768166 -0.29678047 0.059703253
-0.05794441 -0.29689348 0.059663523
-0.058117338 -0.29700446 0.059623793
-0.058272727 -0.29709992 0.059615258
-0.058449171 -0.29719493 0.059690863
-0.0586349 -0.29732543 0.059576124
-0.058805056 -0.2974273 0.059583701
-0.058981933 -0.29754558 0.059512816
-0.059139132 -0.29763907 0.059523884
-0.059320148 -0.29775333 0.059494518
-0.059496354 -0.29785904 0.059500918
-0.059664398 -0.29795295 0.059551172
-0.059835322 -0.29805964 0.059531055
-0.060013473 -0.29818755 0.059403658
-0.060161687 -0.29826599 0.059475884
-0.060355704 -0.29839265 0.059417635
-0.060518119 -0.29850033 0.059358336
-0.060687818 -0.29860356 0.05935552
-0.060862161 -0.29870218 0.059399992
-0.061028879 -0.2988047 0.059390269
-0.061188333 -0.29891405 0.059309058
-0.061369948 -0.29902267 0.05931776
-0.061539743 -0.29912832 0.059299953
-0.061705932 -0.29922962 0.059295997
-0.061868653 -0.29932716 0.059302438
-0.062046703 -0.29945159 0.059196949
-0.06221595 -0.29953587 0.05931294
-0.062401563 -0.29965472 0.059272021
-0.062574521 -0.29976609 0.059229992
-0.062727623 -0.29985818 0.059234153
-0.062896542 -0.29996166 0.059226736
-0.063087694 -0.30008224 0.059196182
-0.063256837 -0.30018932 0.059166841
-0.063427322 -0.30028105 0.059240162
-0.063593276 -0.30038673 0.059207372
-0.063765213 -0.3004944 0.059184954
-0.063937433 -0.30060694 0.059132542
-0.064108595 -0.30070689 0.059156246
-0.064277217 -0.30081362 0.059126921
-0.064448744 -0.3009207 0.059106812
-0.064617209 -0.30102861 0.059069403
-0.064785749 -0.30114073 0.059005462
-0.06494429 -0.30123466 0.059018828
-0.065124661 -0.30134365 0.059020609
-0.065277047 -0.30143729 0.059012085
-0.065457419 -0.30155206 0.058976948
-0.065615915 -0.30165356 0.058941878
-0.065789826 -0.30176243 0.058919445
-0.065969869 -0.3018705 0.058925837
-0.066134393 -0.30196804 0.058939196
-0.066289417 -0.30206853 0.058897205
-0.066441342 -0.3021628 0.058882922
-0.066630349 -0.30228135 0.058856979
-0.06678842 -0.30237681 0.058858827
-0.066964641 -0.30249232 0.05880294
-0.067150772 -0.30259937 0.058839299
-0.067317531 -0.30270806 0.058790367
-0.067485318 -0.30280054 0.058848694
-0.067630604 -0.30289149 0.058829807
-0.067817986 -0.30302176 0.058723141
-0.067984849 -0.30312398 0.058715723
-0.068145961 -0.30321804 0.058738317
-0.068308949 -0.30332482 0.058687087
-0.068476297 -0.30342171 0.058715425
-0.068659879 -0.30354786 0.058620311
-0.068821609 -0.30363646 0.058679808
-0.068982363 -0.30373248 0.058688559
-0.069164753 -0.30384141 0.058698401
-0.069320083 -0.30394968 0.058607969
-0.069474012 -0.30404499 0.05859483
-0.069666192 -0.3041555 0.058632322
-0.06981343 -0.30424947 0.058601905
-0.069966532 -0.30434826 0.058563381
-0.070132121 -0.30445316 0.05853406
-0.070294298 -0.30455726 0.058496669
-0.070479535 -0.3046672 0.058511116
-0.070648007 -0.30477366 0.058482938
-0.070824251 -0.30487689 0.058505487
-0.070998281 -0.30498889 0.058463451
-0.071148477 -0.30508247 0.058446854
-0.071336739 -0.30519405 0.058462452
-0.071475171 -0.30527797 0.058462035
-0.071643181 -0.30539685 0.058353126
-0.071809284 -0.30549699 0.058356091
-0.071986854 -0.30560717 0.058339424
-0.072162077 -0.30571303 0.058341213
-0.072327606 -0.30581465 0.058332648
-0.07247705 -0.30589816 0.058377184
-0.072659791 -0.30601436 0.058342043
-0.072802834 -0.30610543 0.058313936
-0.072969481 -0.30621371 0.058267303
-0.073133849 -0.30631769 0.058239136
-0.073315158 -0.30642667 0.058244377
-0.073477007 -0.30651772 0.05828888
-0.073642723 -0.30661818 0.058288395
-0.073802456 -0.30673239 0.058177188
-0.073964514 -0.30681431 0.05828052
-0.074118286 -0.30690646 0.05828698
-0.074270673 -0.30703542 0.058053538
-0.074462712 -0.30714604 0.058089882
-0.074631073 -0.30724031 0.058138985
-0.074802645 -0.30736026 0.058036976
-0.07497289 -0.30745873 0.058066465
-0.075155236 -0.30756509 0.058092445
-0.075314268 -0.30766204 0.058088522
-0.075457074 -0.30775133 0.058070794
-0.075650059 -0.30787539 0.058025248
-0.075797834 -0.30796298 0.05803749
-0.075942159 -0.30805644 0.057999004
-0.076122627 -0.30816603 0.057997316
-0.07629554 -0.30826738 0.058018718
-0.076446734 -0.30836973 0.057950221
-0.076622382 -0.30847999 0.057925481
-0.076776586 -0.30856425 0.057983853
-0.076941654 -0.308671 0.057940684
-0.077117398 -0.30877465 0.057958618
-0.077268854 -0.30887568 0.057899352
-0.077426232 -0.30896819 0.057917342
-0.07757239 -0.30907616 0.057793494
-0.07776349 -0.30919474 0.057775628
-0.077938825 -0.30929285 0.057827011
-0.078079887 -0.30938327 0.05779545
-0.078264482 -0.3094928 0.057809897
-0.078428328 -0.30959991 0.057759821
-0.078599438 -0.30969802 0.05779507
-0.078754067 -0.30979392 0.057780769
-0.078907341 -0.3098968 0.057716876
-0.079079829 -0.31000951 0.057664469
-0.079257011 -0.31011149 0.057698544
-0.079413831 -0.31020474 0.057709616
-0.079580754 -0.31030774 0.057697587
-0.079737619 -0.31040609 0.05767636
-0.079905018 -0.31051353 0.057637807
-0.080069616 -0.31061876 0.057602718
-0.080237739 -0.31072029 0.057604525
-0.080384172 -0.31080925 0.057602938
-0.080556765 -0.31092092 0.057557449
-0.080725551 -0.3110171 0.057596169
-0.080883853 -0.31111848 0.0575611
-0.081041649 -0.31121558 0.057551399
-0.081218064 -0.3113189 0.057573952
-0.081384949 -0.31143075 0.057505399
-0.081543162 -0.3115319 0.057471491
-0.081705905 -0.31162912 0.057480231
-0.081862874 -0.31172681 0.057463624
-0.082037866 -0.31183141 0.057472333
-0.082204729 -0.31193838 0.057434928
-0.082375452 -0.31203789 0.057459794
-0.08252345 -0.31213829 0.057391308
-0.082677253 -0.31223404 0.057374712
-0.082860775 -0.31234476 0.057377625
-0.083010793 -0.31244329 0.057328738
-0.083166838 -0.31253734 0.057331741
-0.083326399 -0.31263697 0.057312809
-0.083503425 -0.31274825 0.057286914
-0.083687365 -0.31286266 0.057267919
-0.08384338 -0.31296068 0.057245541
-0.083999164 -0.31305492 0.057246238
-0.084185496 -0.31316769 0.05724683
-0.084326357 -0.31325254 0.057249878
-0.084495269 -0.31336129 0.057209011
-0.084642887 -0.31345692 0.057169363
-0.084818512 -0.31356138 0.057181526
-0.08499293 -0.313674 0.05713718
-0.085146606 -0.31376225 0.057167865
-0.085312575 -0.31386521 0.057152383
-0.085480876 -0.31396326 0.057177257
-0.08566162 -0.31407934 0.057135202
-0.085811295 -0.31417713 0.057089783
-0.085963219 -0.31427014 0.057083569
-0.086129084 -0.31436616 0.057111908
-0.08630085 -0.314473 0.057094097
-0.086457163 -0.31457064 0.05707518
-0.086610362 -0.31466985 0.057034358
-0.08678437 -0.31477553 0.057032689
-0.086949885 -0.31488201 0.056992989
-0.087109677 -0.31498122 0.056977525
-0.087267816 -0.31508452 0.056929767
-0.087429777 -0.31518269 0.056929283
-0.087592416 -0.31528708 0.056891888
-0.087761849 -0.3153916 0.056879856
-0.08791548 -0.31548709 0.056864407
-0.088059425 -0.31558359 0.056805164
-0.088224761 -0.31568035 0.056826584
-0.088395894 -0.31577793 0.056865301
-0.088565193 -0.31587639 0.056891322
-0.088735491 -0.31597763 0.056903515
-0.088901863 -0.31608048 0.056890327
-0.08906053 -0.31618935 0.05680912
-0.089229614 -0.31629109 0.056813236
-0.089406997 -0.31640479 0.056773491
-0.089568213 -0.31650651 0.056747641
-0.089711092 -0.31659999 0.056703389
-0.089879103 -0.31670222 0.056700587
-0.090053037 -0.31679949 0.056751981
-0.090221576 -0.31689876 0.056769937
-0.090383023 -0.31700331 0.05672678
-0.090553991 -0.31711331 0.056685906
-0.090736583 -0.31723088 0.056641534
-0.090875521 -0.31731981 0.056611143
-0.091054194 -0.31743011 0.056597922
-0.091209359 -0.31752524 0.05659055
-0.091364503 -0.31761765 0.056600463
-0.091538116 -0.31772128 0.056610331
-0.0916963 -0.31782657 0.056549888
-0.091853783 -0.31793201 0.056485981
-0.092018247 -0.31803006 0.056495879
-0.092182636 -0.31813625 0.056453872
-0.092340142 -0.31823352 0.056441873
-0.092507601 -0.3183336 0.056450605
-0.09268751 -0.31843847 0.056476604
-0.092837572 -0.3185403 0.056406952
-0.093007028 -0.31863743 0.056442201
-0.093179375 -0.31874171 0.056442849
-0.093331411 -0.31883785 0.056417026
-0.093504056 -0.31894216 0.056418821
-0.093666002 -0.31904629 0.056380279
-0.09384156 -0.31915507 0.056364767
-0.093987226 -0.31924754 0.056337804
-0.094171949 -0.31935698 0.056353413
-0.094321258 -0.31945619 0.0562976
-0.094476841 -0.31955412 0.056274079
-0.094658986 -0.31966418 0.056275845
-0.094839416 -0.31976485 0.056330673
-0.094981067 -0.31986538 0.056236826
-0.095145047 -0.31996188 0.056254804
-0.095312364 -0.3200675 0.056227781
-0.095479175 -0.32017076 0.056213442
-0.095650256 -0.3202734 0.056219861
-0.095800094 -0.32037708 0.056137521
-0.095977709 -0.32046935 0.056235041
-0.096152425 -0.32056692 0.056287583
-0.096320026 -0.32068428 0.056186736
-0.096455842 -0.32078293 0.056082528
-0.096630782 -0.32088751 0.056091234
-0.096791953 -0.32099172 0.056049239
-0.096946046 -0.32109004 0.056017641
-0.097104453 -0.32119003 0.055991799
-0.097277366 -0.32129505 0.055990133
-0.097453602 -0.32139969 0.056003459
-0.097623259 -0.32150072 0.056014489
-0.097789653 -0.32159996 0.056024373
-0.097962342 -0.32170302 0.056034245
-0.098112881 -0.3218084 0.055943836
-0.098294407 -0.321915 0.055965211
-0.098466001 -0.32202482 0.055927791
-0.098622106 -0.32212088 0.055918109
-0.098775804 -0.32222366 0.055856522
-0.098926917 -0.32232231 0.055811096
-0.099107601 -0.32242498 0.055854384
-0.099286005 -0.32253003 0.055873469
-0.099422365 -0.32263407 0.055736966
-0.099596612 -0.32273316 0.055777971
-0.099764429 -0.32283491 0.055777479
-0.099914633 -0.3229399 0.055688217
-0.10011198 -0.32304195 0.055799522
-0.10026379 -0.32314685 0.055717174
-0.1004617 -0.32325122 0.055815786
-0.10062076 -0.32335779 0.055750724
-0.10078128 -0.32346016 0.055717949
-0.10094809 -0.32356834 0.055672478
-0.10109817 -0.32366711 0.055622432
-0.10127836 -0.32376873 0.055670351
-0.10146158 -0.32387239 0.055717099
-0.1016291 -0.32397863 0.055686612
-0.10177466 -0.32408553 0.05556738
-0.10195358 -0.32419145 0.055582993
-0.10210679 -0.32429409 0.055520263
-0.10228088 -0.32439238 0.055565886
-0.10243053 -0.32448927 0.055526223
-0.10256813 -0.32459405 0.055389717
-0.10273984 -0.32469833 0.055388056
-0.10293885 -0.32480627 0.055468202
-0.10314314 -0.32492396 0.055506822
-0.10330353 -0.32503042 0.055447519
-0.10345238 -0.32512355 0.055428624
-0.10363903 -0.32522815 0.055482283
-0.10381207 -0.32533851 0.055447169
-0.10395902 -0.32543737 0.055384446
-0.1041263 -0.3255364 0.055398945
-0.10429169 -0.32564482 0.055346556
-0.10444343 -0.32574186 0.055313814
-0.10465372 -0.32585666 0.055393934
-0.10481425 -0.32596502 0.055323102
-0.10498048 -0.32606435 0.055331834
-0.10514941 -0.3261711 0.055303652
-0.10533819 -0.32628208 0.055325009
-0.10549054 -0.32637569 0.055316482
-0.10566345 -0.3264845 0.055290598
-0.10581671 -0.32658899 0.055216327
-0.10598794 -0.3266888 0.055241194
-0.10616429 -0.32679427 0.055249907
-0.10634117 -0.32690692 0.055214774
-0.10650996 -0.32701212 0.055195823
-0.10666063 -0.32710946 0.055157315
-0.10682753 -0.32720935 0.055164896
