# .PCD v0.7 - Point Cloud Data file format
VERSION 0.7
FIELDS x y z
SIZE 4 4 4
TYPE F F F
COUNT 1 1 1
WIDTH 1290
HEIGHT 1
VIEWPOINT 0 0 0 1 0 0 0
POINTS 1290
DATA ascii
-0.29677075 -0.16364455 0.051400766
-0.29696128 -0.16360143 0.051401462
-0.29713497 -0.16356735 0.05136415
-0.29732889 -0.16352361 0.051363692
-0.29751581 -0.16348432 0.051342487
-0.29768705 -0.16344459 0.051350154
-0.29786432 -0.163407 0.051332437
-0.29804155 -0.16337752 0.051255912
-0.29821533 -0.16334343 0.051218599
-0.29841289 -0.16329108 0.051274627
-0.29858804 -0.16326097 0.051206183
-0.29879484 -0.16319987 0.051310629
-0.29898402 -0.16316913 0.051223684
-0.29915765 -0.16313013 0.051222119
-0.29935837 -0.1630882 0.051197432
-0.29955003 -0.1630372 0.051253475
-0.29974157 -0.16299909 0.051216125
-0.29992336 -0.1629627 0.051182251
-0.30009198 -0.16293119 0.051134568
-0.30026916 -0.16289665 0.051094946
-0.30046839 -0.16285139 0.051096782
-0.30067185 -0.16280234 0.051119357
-0.30085406 -0.16276808 0.051069338
-0.30104661 -0.16272196 0.051088482
-0.3012228 -0.1626908 0.051025797
-0.30139875 -0.16265033 0.051031142
-0.3016054 -0.1626012 0.051049098
-0.30177206 -0.16257395 0.050973751
-0.30195472 -0.16253465 0.050959475
-0.30215657 -0.16248532 0.050986677
-0.30235845 -0.16244076 0.050979279
-0.30255181 -0.16239683 0.05098113
-0.30271846 -0.16236497 0.050939217
-0.30288321 -0.16233703 0.050871942
-0.30310604 -0.16228123 0.050911769
-0.30328828 -0.16224268 0.050892886
-0.30346131 -0.16220985 0.050847512
-0.3036595 -0.16216436 0.050852805
-0.3038227 -0.16213773 0.050778616
-0.30401188 -0.16208903 0.050821982
-0.30422983 -0.16203798 0.050835304
-0.30441558 -0.16200323 0.050782967
-0.30459908 -0.16195963 0.050798677
-0.30477154 -0.16192742 0.050749835
-0.30495977 -0.16188639 0.050739013
-0.30518407 -0.16183265 0.050761543
-0.30536598 -0.16179273 0.050753038
-0.30555415 -0.16175619 0.050709922
-0.30574277 -0.16171508 0.0506991
-0.30591702 -0.1616753 0.05070214
-0.30611378 -0.16162983 0.050709751
-0.30627871 -0.16159979 0.050657466
-0.30647105 -0.16155387 0.050675455
-0.30665395 -0.16152167 0.050609298
-0.3068603 -0.1614769 0.050596122
-0.30704218 -0.16143747 0.05058416
-0.30722123 -0.16140233 0.050545681
-0.3074024 -0.16136354 0.050530255
-0.30759859 -0.16132693 0.050474439
-0.30780774 -0.16126642 0.050570812
-0.30799758 -0.16123092 0.050517313
-0.30818245 -0.16119146 0.050500732
-0.30836192 -0.16115813 0.05044841
-0.30855986 -0.16111064 0.050468694
-0.30875471 -0.16106367 0.050490141
-0.30893737 -0.16102996 0.050435513
-0.3091352 -0.16098662 0.050425816
-0.30933911 -0.16094254 0.050411496
-0.30954269 -0.16089123 0.050450217
-0.30972311 -0.16085929 0.050386369
-0.30992287 -0.16081661 0.0503686
-0.31012586 -0.1607772 0.050321985
-0.31029731 -0.16073711 0.050331958
-0.31049952 -0.16068356 0.050389133
-0.31067982 -0.16064815 0.050350655
-0.31085846 -0.16061215 0.050319098
-0.31107801 -0.16056265 0.050318573
-0.31127605 -0.16052164 0.050291583
-0.3114551 -0.16048364 0.050273858
-0.31164581 -0.16044445 0.050245728
-0.31183249 -0.16040283 0.050241828
-0.3120397 -0.16035722 0.050233267
-0.31221896 -0.16032457 0.050176326
-0.31240693 -0.16028045 0.050188567
-0.31262177 -0.16023311 0.050179988
-0.31280577 -0.16019368 0.050164558
-0.31298795 -0.16015562 0.050142217
-0.31320581 -0.16008727 0.050281234
-0.31339872 -0.16006775 0.050106645
-0.31357253 -0.16003397 0.050067034
-0.31376386 -0.15998796 0.050087333
-0.31396249 -0.15995063 0.05003266
-0.31417829 -0.15989974 0.050048295
-0.31437358 -0.15985635 0.050043214
-0.31455803 -0.15982047 0.050001267
-0.31474176 -0.15978174 0.049981222
-0.31491971 -0.15974368 0.04996581
-0.31511667 -0.15970434 0.049928445
-0.31530303 -0.15966232 0.049927998
-0.31550604 -0.15961733 0.049921755
-0.31571323 -0.15956633 0.049952399
-0.31591672 -0.15952775 0.049898863
-0.31611645 -0.15948191 0.049904156
-0.31630138 -0.15944767 0.049849521
-0.31648076 -0.15940422 0.049871001
-0.31668118 -0.15936457 0.049830172
-0.31686723 -0.15932326 0.049825113
-0.31709534 -0.15926863 0.049847636
-0.31727037 -0.1592395 0.049772266
-0.31747562 -0.15919051 0.049791377
-0.31767404 -0.15915085 0.049754012
-0.31787521 -0.15910469 0.049759299
-0.31806386 -0.15906835 0.04971388
-0.31826234 -0.15902406 0.049709942
-0.31845188 -0.15898719 0.049666829
-0.31866053 -0.1589365 0.049692851
-0.31884888 -0.15889895 0.049656659
-0.31905234 -0.15885021 0.049676936
-0.22510377 -0.18220469 0.034157306
-0.22525786 -0.18216056 0.034224976
-0.22540624 -0.18211566 0.034307651
-0.22556859 -0.18207143 0.034362607
-0.22571357 -0.18202603 0.034454517
-0.22585936 -0.18197949 0.034553345
-0.22600541 -0.18193416 0.034642946
-0.22615227 -0.1818877 0.034739461
-0.22628599 -0.18184054 0.034862541
-0.22642842 -0.18179333 0.034971755
-0.2265595 -0.18174566 0.035102908
-0.22669287 -0.181697 0.035237525
-0.22683197 -0.1816491 0.035357133
-0.22695903 -0.1816006 0.035500981
-0.22707582 -0.18155043 0.035673697
-0.22720003 -0.18149874 0.035845242
-0.22730911 -0.18144713 0.03604104
-0.22742443 -0.18139507 0.036229912
-0.22145773 -0.17979768 0.057605159
-0.22168106 -0.17975287 0.05756424
-0.22190648 -0.17970856 0.057516385
-0.2220958 -0.17965809 0.057572436
-0.22233689 -0.17961517 0.057488795
-0.22253427 -0.1795662 0.057520594
-0.22273034 -0.17952487 0.057499349
-0.22296251 -0.17947759 0.057461862
-0.22318658 -0.17942898 0.05744746
-0.22339475 -0.17938696 0.057411186
-0.22363031 -0.1793391 0.05737254
-0.22382443 -0.17928992 0.057411276
-0.22404645 -0.17924446 0.057377275
-0.22425213 -0.17920396 0.057334084
-0.22447678 -0.17915283 0.057336994
-0.22469953 -0.17910944 0.057286836
-0.22491372 -0.17906289 0.057273619
-0.22511452 -0.17901538 0.057289265
-0.22533128 -0.17897111 0.057255276
-0.22553037 -0.17892177 0.057287082
-0.22573824 -0.17888078 0.057243884
-0.22594249 -0.17883424 0.057246834
-0.22617036 -0.17878938 0.057198986
-0.22638768 -0.17874244 0.057183448
-0.22661045 -0.17869841 0.05713791
-0.22679655 -0.17864834 0.057196271
-0.22701998 -0.17860463 0.057147272
-0.22722641 -0.17855905 0.057139844
-0.22743297 -0.17851692 0.057107031
-0.22759713 -0.1784807 0.057100855
-0.22782286 -0.17843457 0.057065696
-0.22803986 -0.1783815 0.05709514
-0.22826652 -0.17834771 0.056968857
-0.22847921 -0.17829213 0.057023685
-0.22866893 -0.17825013 0.057017449
-0.22890104 -0.17820431 0.056969587
-0.22912724 -0.17815378 0.056965567
-0.22933351 -0.17810903 0.056952357
-0.22954983 -0.17806502 0.056917224
-0.22971694 -0.17801796 0.056984857
-0.22994709 -0.177981 0.056875866
-0.23012626 -0.17793345 0.056927323
-0.23038107 -0.17788346 0.056872476
-0.2305859 -0.17783886 0.056860432
-0.23079494 -0.17779364 0.056846078
-0.23100054 -0.177753 0.056804046
-0.23118663 -0.17771104 0.056803577
-0.23139954 -0.17765985 0.056826118
-0.23162118 -0.17761464 0.056790959
-0.2318348 -0.17757107 0.056756981
-0.23203917 -0.17752881 0.056728795
-0.23223351 -0.17748943 0.05669602
-0.23246075 -0.17745361 0.056583576
-0.23266363 -0.17739832 0.056652274
-0.23284906 -0.17735493 0.056663342
-0.2330604 -0.1773095 0.056646675
-0.23325981 -0.17726454 0.056646168
-0.23346397 -0.17721723 0.056654889
-0.23365828 -0.1771785 0.056617506
-0.23384258 -0.17714457 0.056561682
-0.23408797 -0.17709242 0.056538004
-0.23429945 -0.17704569 0.056530554
-0.23451741 -0.17700098 0.056497723
-0.23467271 -0.17696072 0.056535389
-0.23492098 -0.17690793 0.056511708
-0.23512909 -0.1768683 0.05645813
-0.23533645 -0.17682076 0.056463383
-0.23553252 -0.17678353 0.056412149
-0.23573574 -0.17673087 0.056461237
-0.23590089 -0.17669792 0.056429684
-0.23614934 -0.17664587 0.056400232
-0.2363494 -0.17660236 0.056388199
-0.2365472 -0.17655617 0.056399249
-0.23676404 -0.17651632 0.056332964
-0.23696384 -0.17647097 0.056334767
-0.23716329 -0.17642964 0.056307744
-0.23735388 -0.17638746 0.056301504
-0.23752645 -0.17635776 0.056234177
-0.23773937 -0.17630896 0.056239419
-0.23794404 -0.1762636 0.056233142
-0.23814234 -0.17621189 0.056283399
-0.23830625 -0.17617112 0.056310669
-0.23853803 -0.17613141 0.056218974
-0.23877232 -0.17607795 0.056223005
-0.23894806 -0.17604166 0.056198347
-0.23917697 -0.17599067 0.056193165
-0.23937903 -0.17594925 0.056162678
-0.23958592 -0.17590974 0.056110263
-0.23978536 -0.17586319 0.056121297
-0.23997906 -0.17581888 0.056125425
-0.24018793 -0.17577828 0.056077626
-0.24037494 -0.17573151 0.056110598
-0.24049847 -0.17568651 0.056234855
-0.24072573 -0.17566465 0.056020923
-0.2409475 -0.17561845 0.055992682
-0.24113002 -0.1755746 0.056011844
-0.24137986 -0.17551732 0.056018136
-0.24157672 -0.1754726 0.056019958
-0.24177866 -0.17543469 0.05596409
-0.2419764 -0.1753882 0.055977434
-0.24216712 -0.17535044 0.055938907
-0.24233997 -0.17531449 0.055916563
-0.24258804 -0.17526411 0.055875577
-0.24274479 -0.17522129 0.055929393
-0.24297726 -0.17518096 0.055841155
-0.24316891 -0.17513219 0.055881046
-0.24335341 -0.17509709 0.055833302
-0.243563 -0.17506143 0.055748586
-0.24377821 -0.17501147 0.055758424
-0.2439582 -0.17495993 0.05583756
-0.24416022 -0.17491867 0.055805922
-0.24435805 -0.17487803 0.055776596
-0.2445589 -0.17484148 0.055712663
-0.24474479 -0.17480035 0.055706423
-0.24493501 -0.17475635 0.055714034
-0.24513358 -0.17471142 0.055714689
-0.24534415 -0.17466998 0.055670336
-0.24553461 -0.17463148 0.055637565
-0.2457339 -0.17458718 0.055632457
-0.2459425 -0.17454253 0.055614632
-0.24613164 -0.17449574 0.055644155
-0.24631786 -0.1744501 0.055670213
-0.24651788 -0.17440914 0.055639729
-0.24672775 -0.17437357 0.055553861
-0.24692364 -0.17433067 0.055544142
-0.24711961 -0.17429061 0.055513669
-0.24731058 -0.17424516 0.0555305
-0.24750802 -0.17420891 0.055470027
-0.24771188 -0.17416532 0.055452216
-0.24790207 -0.17412244 0.055451747
-0.24807352 -0.17407727 0.055498607
-0.24828416 -0.17403501 0.055460021
-0.24847181 -0.17398793 0.055494152
-0.24867198 -0.17395122 0.055432532
-0.24886771 -0.173912 0.055396292
-0.24905831 -0.17386395 0.055432726
-0.24926069 -0.1738261 0.055375706
-0.24944906 -0.17378268 0.055382159
-0.24964477 -0.17374092 0.05536437
-0.24983263 -0.17369729 0.055373125
-0.25003198 -0.17365806 0.055331107
-0.25023276 -0.17361994 0.055278711
-0.25042886 -0.1735789 0.055255152
-0.25061008 -0.1735374 0.055259317
-0.25080675 -0.17349067 0.055276133
-0.25100449 -0.17345418 0.055216815
-0.2511926 -0.17341447 0.05519674
-0.25138032 -0.17337134 0.055202033
-0.25157046 -0.17332673 0.055214249
-0.25177479 -0.17328574 0.055176836
-0.25196797 -0.17324345 0.055167124
-0.25216106 -0.17320453 0.055133201
-0.25234208 -0.17316689 0.055109683
-0.2525337 -0.17312033 0.055133432
-0.25272849 -0.17307276 0.055159468
-0.2529248 -0.17303675 0.055099003
-0.25311777 -0.17299484 0.055086993
-0.25330496 -0.172952 0.055091139
-0.25350332 -0.17291456 0.055037588
-0.2536974 -0.17287748 0.054988667
-0.2538864 -0.1728328 0.055003185
-0.25407752 -0.17279352 0.054975033
-0.25426748 -0.17274973 0.054981481
-0.25445303 -0.17270598 0.054994859
-0.25463071 -0.17267053 0.054960966
-0.25483885 -0.17262375 0.054959301
-0.25503102 -0.17258598 0.054918449
-0.25521964 -0.17254521 0.054905292
-0.25540128 -0.17249821 0.054948665
-0.25559437 -0.17245768 0.054926276
-0.25577873 -0.1724212 0.054888908
-0.25596929 -0.17238666 0.054827303
-0.25616905 -0.17234892 0.054773755
-0.25636226 -0.17230503 0.054775577
-0.25654575 -0.17226 0.054801647
-0.25673589 -0.17222159 0.054768879
-0.25692999 -0.17218305 0.054730333
-0.25711644 -0.17214118 0.054728717
-0.25729513 -0.17209564 0.054766342
-0.25748807 -0.17205626 0.054735865
-0.25766385 -0.17201202 0.054768879
-0.25785065 -0.17198882 0.054631162
-0.25805882 -0.17193933 0.0546491
-0.25824323 -0.17190029 0.054630183
-0.25842831 -0.17185745 0.054637801
-0.25862095 -0.17181861 0.054603867
-0.25880456 -0.17177419 0.054625329
-0.25899491 -0.17173286 0.054613322
-0.25918582 -0.17169236 0.05459439
-0.25936592 -0.17165366 0.0545801
-0.2595543 -0.1716153 0.054549649
-0.2597439 -0.1715735 0.054542251
-0.25993541 -0.17152905 0.054551005
-0.26011109 -0.17149024 0.054544795
-0.26031613 -0.17145862 0.054438181
-0.26050186 -0.17141753 0.054431953
-0.26068991 -0.17137417 0.054438405
-0.26087382 -0.17133063 0.054452941
-0.2610611 -0.1712919 0.054427095
-0.26123396 -0.1712496 0.054450892
-0.26141497 -0.17121355 0.054415841
-0.26158231 -0.17118677 0.05433584
-0.2618095 -0.17113158 0.054364104
-0.2619943 -0.17108974 0.054364797
-0.26218075 -0.17105056 0.054343577
-0.26236436 -0.17100693 0.054359268
-0.26255453 -0.17096771 0.054332267
-0.26274183 -0.1709304 0.054296039
-0.26292643 -0.17088862 0.054296736
-0.26310989 -0.17084487 0.054313585
-0.2632941 -0.17080937 0.054269299
-0.26346734 -0.17077523 0.054233108
-0.26364705 -0.170739 0.054201528
-0.2638551 -0.17069145 0.054205619
-0.26403835 -0.17065506 0.054169413
-0.26422274 -0.17060585 0.054224305
-0.26441586 -0.1705666 0.054192692
-0.26460195 -0.17052877 0.054162245
-0.26476339 -0.17049491 0.054143388
-0.26496997 -0.1704445 0.054170553
-0.26515374 -0.1704018 0.054179318
-0.26534045 -0.17036606 0.054132715
-0.26552507 -0.17032555 0.054124184
-0.26571274 -0.17028354 0.054121412
-0.26589125 -0.17023709 0.054165956
-0.26606902 -0.17020798 0.054085929
-0.26626098 -0.17017788 0.053989723
-0.26645795 -0.17013171 0.054001909
-0.26661611 -0.17009002 0.054045346
-0.26679349 -0.17005081 0.054039143
-0.26699373 -0.1700144 0.05397521
-0.26719838 -0.16996953 0.053965468
-0.26737639 -0.16993289 0.053939652
-0.26754317 -0.16989528 0.053939242
-0.26774317 -0.16984716 0.053960659
-0.26792997 -0.16980346 0.053971723
-0.26811266 -0.16977148 0.053904369
-0.26827207 -0.16973346 0.053918973
-0.26846984 -0.1697057 0.053796224
-0.26866984 -0.16965806 0.05381418
-0.26884818 -0.16960897 0.053878326
-0.26904649 -0.16956949 0.053839769
-0.26922432 -0.1695348 0.053800106
-0.26941448 -0.16950986 0.053669311
-0.26958179 -0.16945767 0.05377385
-0.26978523 -0.1694088 0.053795256
-0.26996666 -0.16937646 0.053732522
-0.27015013 -0.16933525 0.053730913
-0.27034068 -0.16929451 0.05371429
-0.27052444 -0.16925578 0.053694222
-0.27070817 -0.16921705 0.053674158
-0.27089176 -0.16917756 0.05365986
-0.27107874 -0.16913794 0.053640947
-0.27123541 -0.16910785 0.053602491
-0.27139652 -0.16909122 0.053459074
-0.27159333 -0.16904876 0.053444743
-0.27180886 -0.16897553 0.053622976
-0.27197868 -0.16893804 0.053616792
-0.27217546 -0.16889112 0.053634755
-0.2723591 -0.16885798 0.05357432
-0.27252543 -0.16882126 0.053568143
-0.27269167 -0.1687779 0.053610399
-0.27286491 -0.16874933 0.053533845
-0.27310577 -0.16870756 0.053442128
-0.2732856 -0.16866304 0.053470515
-0.27347225 -0.16861889 0.053485047
-0.27365544 -0.16857886 0.053475361
-0.27384213 -0.16853517 0.053486437
-0.27399823 -0.16849981 0.053487193
-0.27420834 -0.16845736 0.053450927
-0.27439126 -0.16842072 0.05341702
-0.27456751 -0.16838305 0.053401582
-0.27475724 -0.16834313 0.053380352
-0.27494019 -0.1683041 0.053363748
-0.2751064 -0.16826677 0.05336218
-0.27529177 -0.16823547 0.053285606
-0.27549547 -0.16818747 0.053300083
-0.27566499 -0.16814989 0.05329505
-0.27583504 -0.1681082 0.053318854
-0.27600604 -0.16808283 0.053222694
-0.27621713 -0.16802998 0.053260233
-0.27641454 -0.16798165 0.053287424
-0.27657977 -0.16795012 0.053245485
-0.27673823 -0.16791964 0.053207032
-0.27694485 -0.16787449 0.053196136
-0.27712923 -0.16784324 0.05312071
-0.27731264 -0.16780044 0.053130634
-0.27750912 -0.16775709 0.053123221
-0.2776863 -0.16771381 0.053147007
-0.27786934 -0.16767317 0.053141937
-0.27805677 -0.16762772 0.053164534
-0.27821341 -0.16760321 0.053085715
-0.27842245 -0.16756085 0.0530506
-0.27862671 -0.16751224 0.053068534
-0.27880242 -0.16747516 0.05304965
-0.2789644 -0.16744167 0.053027332
-0.2791656 -0.16739312 0.053049896
-0.27934107 -0.16735673 0.053026393
-0.27953207 -0.16732113 0.052971713
-0.27969852 -0.16728312 0.052974753
-0.27990815 -0.16723824 0.052956931
-0.28008029 -0.16720212 0.052936897
-0.28026116 -0.1671588 0.052954905
-0.28045759 -0.16711593 0.052944034
-0.28063977 -0.16708662 0.052858226
-0.2808111 -0.16704401 0.052886635
-0.28101468 -0.16699858 0.052882671
-0.2811785 -0.16696784 0.052837279
-0.2813715 -0.16692574 0.052826416
-0.2815547 -0.16688491 0.052822508
-0.28173885 -0.16684942 0.052778222
-0.28193495 -0.16680728 0.052762739
-0.28211218 -0.16676603 0.05277152
-0.28228068 -0.16673107 0.052749187
-0.28244635 -0.16669546 0.052736089
-0.28264123 -0.16665612 0.052702159
-0.28282207 -0.16661392 0.05271209
-0.28300413 -0.1665692 0.05273816
-0.28321078 -0.16651769 0.052773401
-0.28340405 -0.16647537 0.052763689
-0.28359395 -0.16644019 0.052707862
-0.2837669 -0.16639611 0.052744333
-0.2839458 -0.1663707 0.052635476
-0.28414065 -0.16633122 0.052602697
-0.28430638 -0.16629559 0.052589595
-0.28448471 -0.16624728 0.052647974
-0.284657 -0.16622226 0.052547202
-0.28483465 -0.16620365 0.052391056
-0.28502086 -0.16616309 0.052380212
-0.28524828 -0.1661018 0.052452303
-0.28541923 -0.16606215 0.052459951
-0.28557423 -0.16602448 0.052479178
-0.28579035 -0.16597353 0.052494783
-0.28599128 -0.16592854 0.052491978
-0.28616753 -0.1658853 0.052516915
-0.28634053 -0.16584772 0.052506104
-0.28652853 -0.16580978 0.052473344
-0.28671807 -0.16576926 0.052456722
-0.2869077 -0.16572857 0.052441258
-0.287067 -0.16569901 0.052394725
-0.28727502 -0.16564305 0.052459955
-0.28745207 -0.16561313 0.05238685
-0.2876167 -0.16557966 0.052359909
-0.2878035 -0.16553898 0.052349068
-0.2879914 -0.1654966 0.052348595
-0.28816101 -0.16546886 0.052272052
-0.28835279 -0.16542943 0.052243896
-0.28857037 -0.1653775 0.052264117
-0.28876665 -0.16533577 0.05224517
-0.28894013 -0.16529365 0.052266654
-0.2891041 -0.16525286 0.052293923
-0.28928784 -0.16522509 0.052194282
-0.28947815 -0.16518377 0.052182272
-0.2896812 -0.16513275 0.052219827
-0.28985065 -0.16510454 0.05214674
-0.29001138 -0.16508038 0.052058689
-0.2901974 -0.16502938 0.052123964
-0.2903887 -0.16498306 0.052146554
-0.29056928 -0.16493981 0.052164562
-0.29075998 -0.16490586 0.052098349
-0.29094726 -0.16486888 0.052059822
-0.29114377 -0.16481979 0.052093931
-0.2913208 -0.16477782 0.052108482
-0.29152101 -0.16473521 0.052089531
-0.29170513 -0.16470227 0.052026793
-0.29189032 -0.16466083 0.052024029
-0.2920531 -0.16462635 0.052007474
-0.29222748 -0.16458799 0.05200012
-0.29242235 -0.16454516 0.05199156
-0.2926172 -0.16450582 0.051957622
-0.29279739 -0.16446392 0.051966406
-0.29299346 -0.16442321 0.051940542
-0.29316854 -0.16438422 0.051936641
-0.29336143 -0.16434072 0.051936164
-0.29355171 -0.16430686 0.051869951
-0.29374003 -0.16426551 0.051861409
-0.29392916 -0.16421366 0.051927835
-0.29410273 -0.1641831 0.051865116
-0.29428723 -0.16414626 0.051830065
-0.29447407 -0.16410683 0.051809989
-0.29466283 -0.16406523 0.051802598
-0.29484853 -0.16402097 0.051819433
-0.29501918 -0.16398741 0.051783256
-0.29521435 -0.16395104 0.051727407
-0.2954106 -0.16390742 0.051722303
-0.29559052 -0.16386971 0.051701099
-0.2957685 -0.16382529 0.051731799
-0.29595304 -0.1637886 0.051695578
-0.29613248 -0.16374862 0.051691677
-0.29630086 -0.16371462 0.051662419
-0.29650775 -0.16366877 0.051656134
-0.29669815 -0.16362885 0.051633753
-0.29687485 -0.16359472 0.051591787
-0.29707229 -0.1635448 0.051630512
-0.2972666 -0.16350098 0.051630031
-0.29745233 -0.16346881 0.05155921
-0.2976141 -0.16343343 0.051550739
-0.29782033 -0.16336963 0.051675938
-0.29800448 -0.16333906 0.051595896
-0.29819939 -0.16330035 0.051557347
-0.29836911 -0.16327067 0.051494647
-0.29857334 -0.16322541 0.051488373
-0.29872483 -0.16319776 0.051440716
-0.29894835 -0.16314164 0.051481672
-0.29912993 -0.16309005 0.051558502
-0.29931054 -0.16306792 0.051423103
-0.29951346 -0.16302423 0.051407605
-0.29967719 -0.16299 0.051387593
-0.29986981 -0.16294611 0.051390573
-0.30006945 -0.16290314 0.051375076
-0.30025959 -0.1628617 0.051364232
-0.30043626 -0.16282298 0.05135572
-0.30062383 -0.16278403 0.051331028
-0.30080706 -0.16274668 0.051301736
-0.3010141 -0.16270444 0.051268924
-0.30119357 -0.16266334 0.051273093
-0.30137199 -0.16262564 0.051254191
-0.30152825 -0.16260567 0.051143084
-0.30173427 -0.16254079 0.05127636
-0.30192056 -0.16250561 0.051226299
-0.30213168 -0.16244832 0.051296137
-0.30231518 -0.16241106 0.051265687
-0.30248708 -0.16238406 0.051179908
-0.30268583 -0.16234259 0.051155195
-0.30287123 -0.16230142 0.051150121
-0.30306393 -0.16225621 0.051162329
-0.30323735 -0.16222331 0.051116914
-0.30341828 -0.1621884 0.051073793
-0.30362159 -0.16213205 0.051149409
-0.30383143 -0.1620903 0.051108513
-0.30400577 -0.16205449 0.051082704
-0.30418375 -0.16201563 0.051073041
-0.30436897 -0.16197942 0.051032212
-0.30457255 -0.16193002 0.051057078
-0.30475134 -0.16189496 0.051018573
-0.30494392 -0.16185915 0.050962728
-0.30513293 -0.16181353 0.05098417
-0.30532974 -0.16176581 0.051007904
-0.30551079 -0.16172689 0.050993614
-0.30570996 -0.16168372 0.050980426
-0.3059082 -0.16164348 0.050947636
-0.30610096 -0.16160144 0.050936788
-0.30626652 -0.16157317 0.050870627
-0.30646133 -0.16153163 0.050852843
-0.30662119 -0.16149971 0.050822455
-0.3068684 -0.16141854 0.051006384
-0.30704132 -0.16140275 0.050837554
-0.30721813 -0.16137162 0.050773684
-0.30742487 -0.16132294 0.050788164
-0.3076258 -0.16127096 0.050836109
-0.30779719 -0.16124216 0.050764166
-0.30798474 -0.16120273 0.050742943
-0.30819672 -0.16115621 0.050733186
-0.30840841 -0.16110609 0.050749958
-0.30855876 -0.16107599 0.050721902
-0.30875167 -0.16103075 0.05073411
-0.30894846 -0.16099417 0.050677106
-0.30915147 -0.16094711 0.050685827
-0.30935049 -0.1609032 0.050678417
-0.30953407 -0.16086338 0.050666422
-0.30971918 -0.16082627 0.050632518
-0.30991304 -0.16078636 0.050604351
-0.31009293 -0.16074945 0.050577376
-0.31028596 -0.16070466 0.050586127
-0.31047535 -0.16066448 0.050567195
-0.31066337 -0.16061987 0.050582875
-0.31087291 -0.16057786 0.050544288
-0.31105936 -0.16053456 0.050553057
-0.31124967 -0.16049577 0.050522596
-0.31145093 -0.16045086 0.050518632
-0.31164926 -0.16040455 0.050529674
-0.31183839 -0.16035064 0.050611097
-0.31202525 -0.16031994 0.050527588
-0.31221962 -0.1602874 0.05044521
-0.31240943 -0.16024745 0.05042398
-0.31259373 -0.16020796 0.050408531
-0.31278375 -0.16016972 0.050374605
-0.31298572 -0.16012307 0.050382182
-0.31316209 -0.1600841 0.050375968
-0.3133713 -0.16003771 0.05036968
-0.31359327 -0.15998766 0.050369129
-0.31375623 -0.15995823 0.050315671
-0.31398079 -0.15990822 0.050310493
-0.31416395 -0.15986994 0.05028813
-0.31433797 -0.15983802 0.050234646
-0.31456354 -0.15978414 0.050255992
-0.31475261 -0.15974532 0.050227836
-0.31495076 -0.15970032 0.050229657
-0.31511807 -0.15966974 0.050177336
-0.31533322 -0.15961996 0.050186027
-0.3154929 -0.1595946 0.050108358
-0.31568897 -0.15954132 0.050173607
-0.31592163 -0.15949315 0.05014189
-0.31611821 -0.15944962 0.050135635
-0.31628069 -0.15941918 0.050090246
-0.31651765 -0.15936019 0.050130028
-0.31669745 -0.15932156 0.050115742
-0.31690055 -0.15927719 0.050104849
-0.31707594 -0.15924639 0.050040986
-0.31728882 -0.15919568 0.050060056
-0.31748125 -0.15915689 0.050026134
-0.31765938 -0.15912277 0.049981855
-0.31786615 -0.15907313 0.050003264
-0.31806761 -0.15902388 0.050030444
-0.3182475 -0.15899031 0.04997924
-0.31847936 -0.15893565 0.049995963
-0.31865686 -0.15890214 0.049948238
-0.31883979 -0.15886359 0.049928173
-0.31906623 -0.15881111 0.049937993
-0.31925669 -0.15877403 0.04989484
-0.22488259 -0.18222032 0.034406375
-0.22504757 -0.18217629 0.034455523
-0.225207 -0.18213272 0.034510463
-0.22536021 -0.18208832 0.034581572
-0.22552139 -0.182045 0.034631889
-0.22567143 -0.18199892 0.034720302
-0.22582999 -0.18195523 0.034777552
-0.22597855 -0.18191014 0.034861356
-0.22612374 -0.18186453 0.034954399
-0.22627106 -0.18181796 0.035050895
-0.22641388 -0.18177195 0.03515086
-0.22656271 -0.18172552 0.035243891
-0.22670361 -0.18167913 0.03534963
-0.22683868 -0.18163055 0.035480764
-0.22697145 -0.18158282 0.035609603
-0.22710148 -0.18153332 0.035755746
-0.22723635 -0.18148449 0.035889179
-0.22736309 -0.18143557 0.036036488
-0.22748013 -0.18138503 0.036211502
-0.22760583 -0.18133317 0.036381882
-0.22771735 -0.18128148 0.036574215
-0.22207367 -0.17962813 0.057826165
-0.22228311 -0.17958106 0.057824455
-0.22250217 -0.17953423 0.057805408
-0.22273204 -0.17949098 0.057742499
-0.22292709 -0.17944001 0.057792727
-0.22310883 -0.17940079 0.057779554
-0.22335644 -0.1793564 0.057695836
-0.22358544 -0.17930397 0.057700984
-0.22378618 -0.17925903 0.057698138
-0.22401091 -0.17921233 0.057668701
-0.22421479 -0.17916335 0.057690065
-0.22442476 -0.17912523 0.0576226
-0.22465381 -0.17907485 0.057612754
-0.22485964 -0.17903131 0.057591438
-0.22507536 -0.17898172 0.057597771
-0.22525376 -0.17894262 0.057589218
-0.22547808 -0.17889491 0.057567853
-0.22571877 -0.17884572 0.057530299
-0.22586226 -0.1788013 0.057617575
-0.22615592 -0.1787567 0.057459906
-0.22635496 -0.17871405 0.05744322
-0.22657314 -0.17866391 0.057449557
-0.2267682 -0.17861389 0.057492867
-0.2270073 -0.17857507 0.057382643
-0.22721067 -0.178527 0.057398241
-0.22741619 -0.17848113 0.057394236
-0.22762534 -0.17843446 0.057390206
-0.22784609 -0.17839216 0.057335399
-0.22799201 -0.17835353 0.057376526
-0.22823575 -0.17831495 0.057257064
-0.22845742 -0.17826466 0.057258781
-0.22864476 -0.17821337 0.057324022
-0.22888181 -0.17817025 0.057248414
-0.22904786 -0.17812788 0.057283722
-0.22929358 -0.17808186 0.057215005
-0.22950959 -0.17803237 0.057220183
-0.22974268 -0.17799412 0.057115741
-0.22991039 -0.17794709 0.057182197
-0.23011565 -0.17790224 0.057171263
-0.23030749 -0.17785946 0.057167292
-0.23054084 -0.17781115 0.057135519
-0.23073815 -0.17777349 0.057085391
-0.23098181 -0.17771728 0.057093956
-0.23117474 -0.17767331 0.057096899
-0.23136957 -0.17763352 0.057066381
-0.23157895 -0.17759219 0.057023145
-0.23180602 -0.17753924 0.057035215
-0.23199883 -0.17749736 0.057023164
-0.23221588 -0.17744923 0.057016816
-0.23242238 -0.17740569 0.056994341
-0.23262478 -0.17735925 0.056999568
-0.23284416 -0.1773195 0.056928612
-0.23305042 -0.17727807 0.056891143
-0.23321803 -0.17723711 0.056913763
-0.23342818 -0.17719132 0.056901667
-0.23363844 -0.17713994 0.056929935
-0.23383568 -0.17710389 0.05686827
-0.23404524 -0.17707159 0.056759283
-0.23423545 -0.17701647 0.056847587
-0.23441201 -0.17697458 0.056862108
-0.23467116 -0.17692855 0.056771435
-0.23488645 -0.17687525 0.056805465
-0.2351011 -0.17683353 0.056756441
-0.23530531 -0.17679067 0.056732815
-0.23551801 -0.17674859 0.05668956
-0.23570289 -0.17670183 0.056725983
-0.23589824 -0.17665841 0.056720842
-0.23611161 -0.17661285 0.056701809
-0.23631546 -0.17656833 0.056690879
-0.23652352 -0.17652729 0.056647636
-0.23667535 -0.17648606 0.056697987
-0.23688871 -0.17644289 0.056661651
-0.23708959 -0.17640999 0.056571141
-0.23733523 -0.17635953 0.056534722
-0.23753546 -0.17633918 0.056354247
-0.23770112 -0.17626974 0.056586798
-0.23793861 -0.17623559 0.056445431
-0.23812339 -0.1761747 0.056584511
-0.2383233 -0.17613597 0.056537837
-0.23847759 -0.17609373 0.056591626
-0.23864354 -0.17605567 0.056595802
-0.23891169 -0.17602716 0.056363229
-0.23910898 -0.17596647 0.056480352
-0.23932515 -0.17592138 0.056453235
-0.23953144 -0.17587487 0.056452684
-0.23973176 -0.17583273 0.056430228
-0.23993607 -0.17579223 0.056389306
-0.24013554 -0.17575441 0.056336865
-0.24032885 -0.17570987 0.056343265
-0.24054313 -0.17566696 0.056303468
-0.24073601 -0.17562014 0.056327172
-0.24087502 -0.17557657 0.056415621
-0.24111021 -0.17555374 0.056195818
-0.24130338 -0.17549126 0.056332566
-0.24149463 -0.1754669 0.056195941
-0.2417006 -0.17542125 0.056189623
-0.24191549 -0.17536549 0.056242108
-0.24212869 -0.17532538 0.056183849
-0.24231564 -0.17528355 0.05618104
-0.24247377 -0.17524344 0.05621291
-0.24270004 -0.17520943 0.056088887
-0.24290289 -0.17515576 0.056146011
-0.24308057 -0.17511728 0.056134
-0.24330236 -0.17506489 0.056150712
-0.2435012 -0.17502403 0.056121327
-0.24371007 -0.17498791 0.056041181
-0.24389738 -0.17493948 0.056085661
-0.24410398 -0.17490259 0.056014746
-0.24429625 -0.17485909 0.056015383
-0.24448548 -0.17481419 0.056031018
-0.24468316 -0.17477091 0.056021255
-0.24488273 -0.17473115 0.055982657
-0.24508257 -0.17468911 0.055960201
-0.24527235 -0.17464474 0.055971228
-0.24546243 -0.17460315 0.05596149
-0.24564649 -0.17456117 0.055964455
-0.24586304 -0.17452285 0.055887736
-0.24605288 -0.17447877 0.055896454
-0.24623975 -0.17443585 0.055901725
-0.24642828 -0.17439923 0.055858538
-0.24661352 -0.17436096 0.055832658
-0.24677117 -0.17431873 0.055880684
-0.24696463 -0.17427416 0.055887084
-0.24721685 -0.17422636 0.055820659
-0.24741086 -0.1741823 0.055822439
-0.24760388 -0.17414053 0.055809237
-0.2478075 -0.17410208 0.055754475
-0.24797828 -0.1740647 0.055745937
-0.24819033 -0.17401721 0.055743061
-0.2483893 -0.17397934 0.055691771
-0.24858327 -0.17393577 0.055690091
-0.2487727 -0.17389242 0.0556942
-0.24896072 -0.17384829 0.055706382
-0.24912272 -0.1738089 0.055726711
-0.24928398 -0.17376904 0.055751648
-0.24953751 -0.1737211 0.055684067
-0.24974005 -0.1736864 0.055603936
-0.2499328 -0.17364565 0.055583809
-0.25012803 -0.17360353 0.05556944
-0.25032055 -0.17356284 0.055549316
-0.25052392 -0.17352636 0.055480707
-0.25070092 -0.17347549 0.055559821
-0.25089699 -0.17343748 0.055514306
-0.2510812 -0.17339785 0.055499963
-0.25129297 -0.17336139 0.0554175
-0.25147977 -0.17331737 0.055430848
-0.25166368 -0.1732713 0.055463802
-0.25186071 -0.17323467 0.055406746
-0.25205618 -0.17319377 0.055383153
-0.25224155 -0.17315228 0.055380344
-0.25242785 -0.17310473 0.05542022
-0.25262013 -0.17306852 0.055367798
-0.2527999 -0.17302641 0.055378839
-0.25300854 -0.17298573 0.055332139
-0.2531983 -0.17294453 0.055320095
-0.25337771 -0.17289518 0.055384211
-0.2535786 -0.17285943 0.055314459
-0.25377223 -0.17282164 0.05527126
-0.25393501 -0.1727805 0.055303119
-0.25414628 -0.17273922 0.055256411
-0.25434071 -0.17269507 0.0552582
-0.25453281 -0.17265652 0.05522307
-0.25472799 -0.17261697 0.05519025
-0.2549035 -0.17257565 0.055202466
-0.25509611 -0.17252634 0.055244632
-0.25529248 -0.17249209 0.055171434
-0.25548539 -0.17245097 0.055153605
-0.25567678 -0.17241259 0.055118486
-0.25585246 -0.17237172 0.055127241
-0.25604755 -0.17232487 0.05514748
-0.25623667 -0.17228049 0.055159658
-0.25643218 -0.17224658 0.055085316
-0.25662053 -0.17220585 0.055072114
-0.2568002 -0.17216073 0.055105083
-0.25699705 -0.17212446 0.055045728
-0.25719228 -0.17208681 0.054999061
-0.2573815 -0.17204303 0.055006623
-0.25756136 -0.17199819 0.05503729
-0.25774136 -0.17197159 0.054935295
-0.25793326 -0.17192641 0.054948628
-0.25814074 -0.17188473 0.054911159
-0.2583302 -0.1718463 0.054879501
-0.25851008 -0.17179701 0.054942455
-0.25867754 -0.17175703 0.054958157
-0.25885075 -0.17172877 0.054879256
-0.25908068 -0.17168044 0.054853261
-0.25926855 -0.17163569 0.05487005
-0.25941309 -0.17158769 0.054981545
-0.25963795 -0.17155877 0.054822918
-0.25983021 -0.17151463 0.054828174
-0.2600193 -0.17147167 0.054829963
-0.26020983 -0.17143603 0.054776397
-0.26040134 -0.17139651 0.054749355
-0.26058838 -0.17135656 0.054732699
-0.26077947 -0.17131682 0.054707956
-0.26096407 -0.1712736 0.054718997
-0.26114616 -0.17123255 0.054718509
-0.26133966 -0.17119083 0.054704145
-0.26151305 -0.17114872 0.054725591
-0.26168197 -0.17111175 0.054717064
-0.2618669 -0.1710753 0.0546785
-0.26206902 -0.17103529 0.054637589
-0.26223564 -0.17098866 0.054702882
-0.26241994 -0.17095809 0.054622799
-0.26260763 -0.17091401 0.054634985
-0.26280242 -0.17088218 0.054546796
-0.26301107 -0.17084117 0.054502405
-0.26321471 -0.17079844 0.054478779
-0.26338062 -0.17075007 0.054557923
-0.26359469 -0.17071992 0.054425854
-0.26376584 -0.17066671 0.054531515
-0.26397684 -0.17063138 0.054442134
-0.26416624 -0.17059138 0.054422013
-0.26433831 -0.17054717 0.054460768
-0.2645306 -0.17050542 0.054448716
-0.26470917 -0.1704669 0.054435544
-0.26488671 -0.1704345 0.054379698
-0.26505017 -0.17041323 0.054266214
-0.2652649 -0.17036369 0.054273717
-0.26547292 -0.17030695 0.054344673
-0.2656332 -0.17027001 0.054350011
-0.26584882 -0.17022252 0.054341357
-0.26601166 -0.17018262 0.054363981
-0.26622254 -0.17014238 0.054310359
-0.26638868 -0.17011176 0.05426031
-0.26654494 -0.17007415 0.054277193
-0.2667602 -0.17002641 0.054270841
-0.26695672 -0.16998862 0.054223023
-0.26713637 -0.16995575 0.054167174
-0.26733986 -0.1699059 0.054195456
-0.26753008 -0.1698603 0.054214559
-0.26770285 -0.1698169 0.054246396
-0.26788133 -0.16979414 0.054119028
-0.26808181 -0.1697464 0.054136943
-0.26825881 -0.16970554 0.054143384
-0.26845977 -0.1696596 0.054147467
-0.26864737 -0.16961794 0.054142345
-0.26881024 -0.16957772 0.054167286
-0.26902243 -0.16953416 0.054135561
-0.26920402 -0.16949831 0.05409817
-0.26939547 -0.16945881 0.054071117
-0.26957861 -0.16941275 0.054105233
-0.26976842 -0.1693849 0.053996298
-0.26995531 -0.16934037 0.054013092
-0.27013224 -0.16929969 0.054018386
-0.27032745 -0.16926426 0.053955577
-0.27051392 -0.16921633 0.053997751
-0.27069834 -0.16917968 0.053961501
-0.27088267 -0.16914321 0.053924091
-0.27106956 -0.16909838 0.053943191
-0.27125713 -0.16906069 0.053909242
-0.27141756 -0.16903119 0.053860359
-0.27160466 -0.16898917 0.053858701
-0.27180597 -0.16895396 0.053784341
-0.27198887 -0.16889952 0.053879581
-0.27216905 -0.16885573 0.053902172
-0.27234614 -0.16881977 0.053872857
-0.27254355 -0.16877908 0.053844638
-0.2727375 -0.16874075 0.053804904
-0.27292457 -0.16870287 0.053773254
-0.2730878 -0.16866273 0.053797036
-0.27328157 -0.16862571 0.053748067
-0.2734651 -0.16858719 0.053726815
-0.27366242 -0.16853921 0.053751655
-0.27381891 -0.16850235 0.053762771
-0.27401605 -0.1684598 0.053748399
-0.27421257 -0.16842757 0.053660206
-0.27439952 -0.16838527 0.053660858
-0.27456945 -0.16834743 0.053656943
-0.27474824 -0.16832286 0.053542268
-0.27497375 -0.16825882 0.053637397
-0.27515021 -0.16822189 0.053616162
-0.27533332 -0.16818458 0.053586822
-0.27552345 -0.1681433 0.053574778
-0.27571315 -0.1681053 0.053539664
-0.27590019 -0.16806251 0.053543784
-0.276086 -0.16802776 0.053491376
-0.27627054 -0.16797996 0.053535864
-0.27642044 -0.16794425 0.053549293
-0.2766107 -0.16790214 0.053543016
-0.27680722 -0.16786149 0.05351596
-0.27697787 -0.16782001 0.053537413
-0.27716845 -0.16779245 0.053425018
-0.27736035 -0.16774219 0.053475253
-0.27756247 -0.1677049 0.053414725
-0.27774152 -0.16766912 0.053380802
-0.27792487 -0.16762875 0.053373381
-0.27811623 -0.16758178 0.053400546
-0.2782999 -0.16754021 0.053401206
-0.2784746 -0.16749638 0.053433035
-0.27863848 -0.16745752 0.053446438
-0.27886474 -0.16742383 0.053320095
-0.2790474 -0.16738583 0.053296532
-0.27922469 -0.16734442 0.053306445
-0.27941209 -0.16730122 0.05331286
-0.27960205 -0.16726014 0.053299654
-0.2797848 -0.1672218 0.053278405
-0.27996662 -0.16718622 0.05323869
-0.28015825 -0.16714936 0.053192038
-0.28034016 -0.16711311 0.053156942
-0.28053033 -0.1670623 0.05321411
-0.28069597 -0.1670278 0.053192906
-0.28088754 -0.16698223 0.053209685
-0.28106335 -0.16694562 0.053187303
-0.28125256 -0.16690645 0.053161412
-0.2814365 -0.16687277 0.053104393
-0.28161353 -0.16683286 0.05310392
-0.281795 -0.16679735 0.05306422
-0.2819958 -0.16675223 0.053062521
-0.28219363 -0.16670699 0.0530666
-0.28238672 -0.16666569 0.053049929
-0.2825515 -0.16663298 0.053017192
-0.28274244 -0.16658962 0.053018987
-0.28293049 -0.16654594 0.053027712
-0.28312308 -0.16650586 0.053002965
-0.28329226 -0.1664701 0.052985206
-0.28346425 -0.16642846 0.053005509
-0.28367427 -0.16639002 0.05294035
-0.28384942 -0.16634831 0.052956026
-0.28404868 -0.1662948 0.05301778
-0.28421926 -0.16626841 0.052929655
-0.28440434 -0.16623114 0.052896861
-0.28460959 -0.16618979 0.052860547
-0.28479394 -0.16614807 0.052861203
-0.28496501 -0.16610886 0.05286536
-0.28514686 -0.16607739 0.05279566
-0.28533873 -0.16603303 0.052803215
-0.28552222 -0.16599308 0.052792348
-0.28571421 -0.16594869 0.052799899
-0.28589404 -0.16591005 0.052785575
-0.28609461 -0.1658715 0.052736588
-0.28625014 -0.1658439 0.052681956
-0.28644118 -0.1657913 0.052750647
-0.28662768 -0.1657564 0.05269824
-0.28683373 -0.16570868 0.052706916
-0.28702587 -0.16566934 0.052677564
-0.28721043 -0.16563265 0.052641314
-0.28736413 -0.16560769 0.052570537
-0.28754741 -0.16556367 0.052589647
-0.28773183 -0.16552256 0.052585695
-0.2879644 -0.16546138 0.052648507
-0.2881555 -0.16541925 0.052641071
-0.28834012 -0.16538256 0.052604821
-0.28850719 -0.16535029 0.052565146
-0.28867966 -0.16531856 0.052512784
-0.28887817 -0.16527413 0.052509934
-0.28906822 -0.16523778 0.052462135
-0.28923976 -0.16519482 0.05249282
-0.28941193 -0.16515522 0.052498117
-0.28961152 -0.16512166 0.052414536
-0.28979182 -0.16507877 0.052430198
-0.28999361 -0.16503407 0.052423887
-0.29016244 -0.16500317 0.052371524
-0.2903806 -0.16495192 0.052385937
-0.29056722 -0.16490856 0.052394662
-0.29073474 -0.16487557 0.052359607
-0.29090855 -0.16483797 0.052347597
-0.29109758 -0.16479169 0.052373618
-0.29128468 -0.16475174 0.052356973
-0.29148743 -0.16469903 0.052407183
-0.29168341 -0.16466597 0.052325908
-0.2918596 -0.16463277 0.052278135
-0.29203051 -0.1645955 0.052268449
-0.29224139 -0.16454366 0.052299023
-0.29241973 -0.16451474 0.052216649
-0.29260644 -0.16447201 0.052220766
-0.29277092 -0.16444272 0.052163795
-0.29297745 -0.1643998 0.052136716
-0.29317418 -0.16435196 0.052161559
-0.29332009 -0.16433796 0.052023899
-0.2934961 -0.16429812 0.052024588
-0.29370046 -0.16423504 0.052147452
-0.29390615 -0.16417722 0.052229948
-0.29410845 -0.16413638 0.0521948
-0.29427806 -0.16411388 0.052080151
-0.29446927 -0.16406982 0.052086554
-0.29465899 -0.16402751 0.052082591
-0.29485473 -0.16398163 0.05209475
-0.29503807 -0.16394046 0.0520931
-0.29522046 -0.16390951 0.052018791
-0.29541352 -0.16386677 0.052012503
-0.2956048 -0.16382906 0.051972769
-0.29580814 -0.16377829 0.052007981
-0.29598954 -0.16373946 0.051992498
-0.29617104 -0.16370346 0.051956248
-0.29636636 -0.16365863 0.051961493
-0.2965464 -0.16362709 0.051895257
-0.29673219 -0.16358377 0.051905144
-0.2969282 -0.16353275 0.05195421
-0.29710791 -0.16349033 0.051967572
-0.29730141 -0.16345893 0.051878229
-0.29748708 -0.16341881 0.051865049
-0.29766825 -0.16338608 0.051805727
-0.29785517 -0.16334203 0.051819067
-0.29803607 -0.16330141 0.051817425
-0.2982263 -0.16325963 0.051808838
-0.29841736 -0.16321972 0.051785257
-0.29862055 -0.16317058 0.051808931
-0.29880768 -0.16313729 0.051743835
-0.29900274 -0.16309363 0.051741004
-0.29916379 -0.16306479 0.051686354
-0.29936579 -0.16301194 0.051738873
-0.29953131 -0.16298908 0.051633459
-0.29972771 -0.16294178 0.051654845
-0.29994527 -0.16288972 0.051676176
-0.3001354 -0.16285606 0.051608764
-0.30031595 -0.16281393 0.051618665
-0.30051014 -0.1627641 0.051661968
-0.30068901 -0.16273601 0.051572673
-0.30087 -0.16269124 0.051601015
-0.30105457 -0.16266027 0.051523242
-0.3012574 -0.1626174 0.05150193
-0.30143565 -0.16257292 0.051532596
-0.3016265 -0.16253148 0.051520549
-0.30183813 -0.16247852 0.05155804
-0.30203182 -0.1624347 0.051558673
-0.30220625 -0.1624011 0.051516682
-0.30241066 -0.16235484 0.051517282
-0.30259219 -0.16232425 0.051441815
-0.30277881 -0.16227995 0.051457472
-0.30297902 -0.16223527 0.051453464
-0.30316168 -0.1622014 0.051399916
-0.30334723 -0.16216053 0.051392492
-0.3035326 -0.16212207 0.051367775
-0.30372232 -0.16208215 0.051346496
-0.30392879 -0.16203688 0.051336717
-0.30408478 -0.1620103 0.051274013
-0.30430225 -0.16195141 0.051344942
-0.30448356 -0.1619188 0.05128447
-0.30468446 -0.1618654 0.051342759
-0.30489466 -0.16181308 0.051377952
-0.30508676 -0.16178232 0.051286306
-0.30527833 -0.16174342 0.051254645
-0.30544376 -0.16171122 0.051217295
-0.30564228 -0.16166455 0.051230598
-0.3058514 -0.16161565 0.051242724
-0.30603993 -0.16157521 0.051227227
-0.30620912 -0.16154008 0.051204849
-0.30637783 -0.16150539 0.051180176
-0.30658135 -0.16146538 0.051136948
-0.30678782 -0.16141485 0.051165227
-0.30699325 -0.16136123 0.051217735
-0.3071824 -0.16132875 0.051143408
-0.30737072 -0.16128884 0.051124439
-0.30755374 -0.16125314 0.051083576
-0.3077442 -0.16121162 0.051072679
-0.30793849 -0.16117115 0.05104794
-0.30812895 -0.16113171 0.051022049
-0.30831507 -0.16109373 0.050992712
-0.30850619 -0.1610519 0.050982963
-0.30869019 -0.16100979 0.050987091
-0.30889624 -0.16096635 0.050964616
-0.30908269 -0.16093019 0.050921433
-0.30928019 -0.16088375 0.050934751
-0.30946377 -0.16084412 0.050921563
-0.30965945 -0.16080302 0.050899118
-0.3098529 -0.16075797 0.050908975
-0.31005305 -0.16071364 0.050902672
-0.31025663 -0.1606687 0.050895199
-0.31041333 -0.1606437 0.05081981
-0.31056738 -0.16062248 0.050721344
-0.31081188 -0.16054748 0.050864875
-0.31101212 -0.16051076 0.050803203
-0.31120765 -0.16047017 0.050777301
-0.31139606 -0.16042754 0.050777946
-0.31159046 -0.16038243 0.050786652
-0.31177887 -0.16034536 0.050746921
-0.31196553 -0.16030598 0.050726809
-0.31214896 -0.16026716 0.050707866
-0.31237018 -0.16021204 0.050745331
-0.31255013 -0.16018116 0.050674483
-0.31273586 -0.16014263 0.050649766
-0.31294546 -0.16009426 0.050657272
-0.31312546 -0.16005462 0.050649874
-0.31331748 -0.16001706 0.050607827
-0.31351224 -0.15997586 0.050587691
-0.31371847 -0.1599284 0.050594058
-0.31390023 -0.15988949 0.050578576
-0.31409597 -0.15984949 0.050548054
-0.31429195 -0.15980594 0.050542913
-0.31448695 -0.15975975 0.050558545
-0.31467524 -0.15972334 0.050514195
-0.31486017 -0.15968418 0.050495248
-0.31505746 -0.15964335 0.050468192
-0.31524715 -0.15960106 0.050464213
-0.31547281 -0.15954939 0.05046938
-0.31565854 -0.15951324 0.050427347
-0.31585956 -0.1594668 0.050434887
-0.31605864 -0.15942669 0.050399747
-0.31625426 -0.15938401 0.050388839
-0.31644684 -0.15933853 0.050403319
-0.31662658 -0.15930007 0.05038783
-0.31681359 -0.15926331 0.050348118
-0.31703264 -0.15921503 0.050339445
-0.31722596 -0.15917099 0.050342385
-0.31739998 -0.15913969 0.050284252
-0.31758913 -0.15909848 0.050273359
-0.31783509 -0.15902966 0.050369583
-0.31803429 -0.15899636 0.050284844
-0.31822687 -0.15895468 0.050271645
-0.3184225 -0.15891743 0.05022151
-0.31861824 -0.15887694 0.050194457
-0.31881189 -0.15883629 0.050172016
-0.31900442 -0.15879178 0.050179578
-0.31916833 -0.15876102 0.050134145
-0.22485027 -0.18218172 0.034739569
-0.22501972 -0.1821405 0.034761019
-0.22518271 -0.18209723 0.034807842
-0.22534567 -0.18205398 0.034854673
-0.22550976 -0.18200968 0.034907274
-0.22566858 -0.18196467 0.034973722
-0.22581537 -0.18191917 0.035063278
-0.22597525 -0.1818755 0.035118189
-0.22612682 -0.18182941 0.035204265
-0.22628285 -0.18178518 0.03526957
-0.22643539 -0.18173918 0.035353336
-0.2265783 -0.18169299 0.035454433
-0.22672468 -0.18164727 0.035546292
-0.2268703 -0.18160014 0.035649687
-0.22701102 -0.18155348 0.035757706
-0.22715104 -0.1815054 0.035877261
-0.2272841 -0.18145743 0.036007222
-0.22742116 -0.18140875 0.036136009
-0.22755386 -0.18135929 0.036277507
-0.22768056 -0.18131006 0.036427084
-0.22780553 -0.18125917 0.036591664
-0.22792464 -0.18120721 0.036773559
-0.22803873 -0.18115559 0.036961235
-0.22815493 -0.18110286 0.037153512
-0.22250783 -0.17949237 0.058099933
-0.2227259 -0.17944527 0.058084335
-0.22292934 -0.17939718 0.058099918
-0.22316527 -0.17935352 0.058030054
-0.2233637 -0.17930466 0.058059491
-0.22356358 -0.17926086 0.058049709
-0.2238117 -0.1792151 0.057975199
-0.22399688 -0.17917351 0.057973534
-0.22419499 -0.17912965 0.057967216
-0.22440603 -0.1790819 0.057967782
-0.22462238 -0.17903042 0.057986785
-0.22481465 -0.17898723 0.05798509
-0.22506849 -0.17893684 0.057934795
-0.22529416 -0.17889073 0.057899565
-0.22549093 -0.17885035 0.057870179
-0.22572097 -0.17880866 0.057795726
-0.2259167 -0.17876166 0.057815935
-0.2261695 -0.17871007 0.057776026
-0.22635154 -0.1786703 0.057766292
-0.22659308 -0.17861824 0.057748314
-0.2268014 -0.17857255 0.057738502
-0.22699949 -0.17852472 0.057761021
-0.22720034 -0.17847753 0.057774298
-0.22741839 -0.17843249 0.05774371
-0.22763596 -0.17838916 0.057701584
-0.22784004 -0.17834634 0.057677947
-0.22804122 -0.1782978 0.057700451
-0.22825441 -0.17824863 0.057707928
-0.22841991 -0.17820576 0.057747841
-0.22863457 -0.17817086 0.057649203
-0.22886863 -0.17812684 0.057585113
-0.22905745 -0.17807919 0.057621494
-0.22928108 -0.17803465 0.057578206
-0.22949398 -0.17798062 0.057621438
-0.22973642 -0.17794263 0.057499662
-0.22994612 -0.1778933 0.057514064
-0.23018306 -0.17785433 0.057408452
-0.23036538 -0.17780545 0.057464462
-0.23054534 -0.17776313 0.057476643
-0.23074737 -0.17772108 0.057450704
-0.23093326 -0.17767678 0.05746749
-0.23119219 -0.1776243 0.057424098
-0.23140188 -0.17757909 0.057408512
-0.23160052 -0.17753287 0.057418346
-0.23181564 -0.17749295 0.057355467
-0.23201498 -0.17746183 0.057254564
-0.23222539 -0.17740057 0.057354324
-0.2324222 -0.17735414 0.05736877
-0.23262808 -0.17731027 0.057349734
-0.2328507 -0.17726929 0.057282228
-0.23305053 -0.17722394 0.057283971
-0.23322454 -0.17718263 0.057298481
-0.23346525 -0.17713773 0.057229765
-0.23368128 -0.17709731 0.057169192
-0.23383178 -0.17705701 0.057214901
-0.23403081 -0.17701563 0.057188977
-0.23421478 -0.17696987 0.057219602
-0.2344441 -0.17692803 0.057147458
-0.23464011 -0.17688797 0.057116926
-0.23486888 -0.17683846 0.057101291
-0.23508061 -0.17679755 0.057051104
-0.23528713 -0.17674924 0.057063218
-0.23548827 -0.1766993 0.057096105
-0.23570415 -0.17665206 0.057085123
-0.23587032 -0.17660904 0.057125032
-0.23607735 -0.17656712 0.05708985
-0.23626077 -0.17652372 0.057104334
-0.23648077 -0.17649032 0.056986082
-0.23668602 -0.17643595 0.05704432
-0.23692161 -0.17639174 0.056979079
-0.23712422 -0.17634891 0.056957755
-0.23731601 -0.17630249 0.056980293
-0.23752141 -0.1762608 0.056946266
-0.23771232 -0.17622046 0.056926135
-0.23788297 -0.17617309 0.05699024
-0.23809312 -0.17613333 0.056934301
-0.23833676 -0.1760951 0.056812517
-0.23853542 -0.1760473 0.056833878
-0.23870789 -0.17600714 0.056842625
-0.23888002 -0.1759669 0.056852527
-0.23904125 -0.17592484 0.056893598
-0.23930025 -0.17590187 0.056635678
-0.23948663 -0.17583889 0.056787401
-0.23971659 -0.17579673 0.056716405
-0.23990963 -0.17575163 0.056727402
-0.24011011 -0.17570722 0.056721076
-0.24032512 -0.17566636 0.056665115
-0.24053536 -0.17561929 0.056662224
-0.24071175 -0.17557682 0.056681335
-0.24088332 -0.17553926 0.056672789
-0.24111229 -0.17548859 0.056665231
-0.24126782 -0.17545146 0.056679785
-0.24143624 -0.17541046 0.056701235
-0.24169117 -0.17536858 0.056587491
