# .PCD v0.7 - Point Cloud Data file format
VERSION 0.7
FIELDS x y z
SIZE 4 4 4
TYPE F F F
COUNT 1 1 1
WIDTH 1281
HEIGHT 1
VIEWPOINT 0 0 0 1 0 0 0
POINTS 1281
DATA ascii
-0.31807372 -0.10396856 0.056553777
-0.31826785 -0.10388395 0.056541689
-0.31844461 -0.10379826 0.056589607
-0.31863821 -0.10371 0.056604043
-0.31881049 -0.1036434 0.056535523
-0.3189905 -0.10356186 0.056545388
-0.31917265 -0.10349089 0.056476831
-0.31935745 -0.10341959 0.056402512
-0.31953672 -0.10333956 0.056404307
-0.31970063 -0.10326941 0.05638539
-0.31990555 -0.10317475 0.056409016
-0.32004592 -0.10315219 0.056137655
-0.32017964 -0.10310479 0.056055412
-0.32040343 -0.10297614 0.056253087
-0.32060555 -0.10287357 0.056338981
-0.32079563 -0.10279264 0.056314226
-0.32094991 -0.10272659 0.056296486
-0.32114345 -0.1026397 0.056301706
-0.32132724 -0.10256546 0.056250446
-0.32149467 -0.10249392 0.056230363
-0.32167038 -0.10241665 0.056224097
-0.32186121 -0.10233876 0.056176275
-0.32202801 -0.10226428 0.0561781
-0.32221931 -0.10218161 0.056161419
-0.32238916 -0.10210628 0.056159776
-0.3225612 -0.10203929 0.056094706
-0.32274109 -0.10194779 0.056172602
-0.32293028 -0.10187658 0.056084435
-0.32308391 -0.10181201 0.05605863
-0.32327509 -0.10172601 0.056064997
-0.32347393 -0.10163184 0.056103636
-0.32363898 -0.10157204 0.056010921
-0.32380611 -0.10149401 0.056035802
-0.32397494 -0.10142456 0.055997275
-0.3241657 -0.10133602 0.056022089
-0.32434791 -0.10125706 0.056007739
-0.32453972 -0.10116009 0.056086738
-0.32472503 -0.10108382 0.056044701
-0.32489797 -0.10101897 0.05596235
-0.32507637 -0.100939 0.055966444
-0.32526165 -0.10086273 0.055924408
-0.32542953 -0.10079489 0.055877812
-0.32561731 -0.1007048 0.055922236
-0.32580107 -0.10062073 0.055937849
-0.32599056 -0.10054192 0.05590041
-0.32615855 -0.10047403 0.055853814
-0.32633704 -0.10039774 0.05583255
-0.32651824 -0.10032091 0.055806667
-0.32670403 -0.1002312 0.055854559
-0.32688519 -0.100161 0.055783704
-0.32707784 -0.10006841 0.055830427
-0.32724631 -0.099999964 0.055786133
-0.32742226 -0.099927515 0.055746429
-0.32761565 -0.099840514 0.055752788
-0.32780457 -0.099759758 0.055730343
-0.32796976 -0.099695824 0.055665303
-0.32815123 -0.099606842 0.055721283
-0.32833719 -0.099524178 0.055720747
-0.32852116 -0.099453233 0.055646427
-0.3286998 -0.099371456 0.055662055
-0.32889453 -0.09928336 0.055671878
-0.32907584 -0.099210046 0.055621777
-0.32925349 -0.099132769 0.055609737
-0.32944694 -0.099043719 0.055629939
-0.32963556 -0.098961055 0.05562133
-0.32980248 -0.098892115 0.055585112
-0.32998475 -0.098817691 0.055539615
-0.33015659 -0.098750979 0.05547341
-0.33032906 -0.098674983 0.055468302
-0.33052534 -0.098585695 0.055481568
-0.33069655 -0.09851145 0.055468399
-0.33088109 -0.098434329 0.055434432
-0.33109286 -0.098339669 0.055437289
-0.3312605 -0.098259218 0.055477165
-0.33146232 -0.098177135 0.055424698
-0.33164924 -0.098099969 0.055383809
-0.33180904 -0.09802945 0.055379894
-0.33201891 -0.097934961 0.055387367
-0.33219212 -0.097864062 0.055345364
-0.33234537 -0.097804248 0.055288427
-0.33251756 -0.097721599 0.055329438
-0.33272824 -0.097618781 0.055391103
-0.33292714 -0.097540542 0.055321351
-0.33310583 -0.097465843 0.055288546
-0.33327499 -0.097397432 0.05524195
-0.33344695 -0.097323194 0.055226468
-0.33362415 -0.09725035 0.055185605
-0.3338185 -0.097164981 0.055178128
-0.33401147 -0.097076304 0.055197179
-0.33418274 -0.097005606 0.055159792
-0.33435971 -0.096928276 0.055150066
-0.33456767 -0.096820235 0.055255547
-0.33474511 -0.096754752 0.055163946
-0.33492354 -0.096680865 0.055126537
-0.3351174 -0.0965918 0.055145588
-0.33530116 -0.096519098 0.055083957
-0.33548543 -0.096436329 0.055089191
-0.33568051 -0.096343838 0.055127829
-0.33586794 -0.096267134 0.055082329
-0.33603513 -0.096199073 0.055039193
-0.33621967 -0.096123323 0.054995999
-0.33639583 -0.096045353 0.05499319
-0.33659509 -0.095957957 0.054984551
-0.33675012 -0.095898874 0.054917231
-0.33694077 -0.09580972 0.054946657
-0.33714452 -0.095717601 0.054956455
-0.33734709 -0.095631465 0.054929353
-0.33750612 -0.095565856 0.054894306
-0.33768469 -0.095487997 0.054883424
-0.33788395 -0.095396698 0.054901302
-0.33805767 -0.095324218 0.054868516
-0.33825135 -0.09523914 0.05486105
-0.33842793 -0.095163688 0.05483979
-0.33863047 -0.095073655 0.054839201
-0.33881178 -0.09499763 0.054807555
-0.33899841 -0.094916023 0.054797798
-0.33919567 -0.094829693 0.054788005
-0.33936214 -0.094765179 0.054722961
-0.33955371 -0.094676465 0.054746628
-0.33976269 -0.094584405 0.054740269
-0.33993113 -0.094520047 0.054668292
-0.3401131 -0.094439484 0.054665469
-0.34031567 -0.09434808 0.054674119
-0.34049621 -0.094269171 0.054664373
-0.3406764 -0.094194844 0.054624658
-0.34085426 -0.094120853 0.054589562
-0.34102955 -0.094045475 0.054571763
-0.34123817 -0.093944259 0.054628812
-0.34143698 -0.09385927 0.054605179
-0.34160313 -0.093795419 0.054536682
-0.34177801 -0.093718685 0.054529257
-0.34197882 -0.093625866 0.054552898
-0.34218472 -0.093533985 0.054554611
-0.34236503 -0.093461968 0.054498758
-0.34254509 -0.093384296 0.054482095
-0.34272614 -0.093301773 0.054495413
-0.34292009 -0.093226075 0.054423377
-0.34311146 -0.093139306 0.054434359
-0.3433044 -0.093053028 0.054437261
-0.34347382 -0.092991948 0.054339923
-0.34365496 -0.092909731 0.054350935
-0.34385073 -0.092818968 0.054375738
-0.34404254 -0.09273795 0.054346368
-0.34424019 -0.092651278 0.054337732
-0.34443417 -0.092570119 0.054302588
-0.34459904 -0.092502259 0.054265216
-0.34480906 -0.092403814 0.054299206
-0.34500176 -0.09231475 0.054321721
-0.34515649 -0.092258677 0.054234799
-0.24537545 -0.1354233 0.062629476
-0.24557137 -0.13533062 0.062666953
-0.24578184 -0.13523705 0.062666342
-0.2459967 -0.13514477 0.062643811
-0.24619968 -0.13505182 0.062661663
-0.24640441 -0.13496029 0.062664524
-0.24662676 -0.13486637 0.062630437
-0.2468555 -0.13477367 0.06256865
-0.24707291 -0.13468026 0.062546104
-0.24726419 -0.13458981 0.062582441
-0.2474734 -0.13449697 0.062580675
-0.24771208 -0.13440274 0.062499247
-0.24794391 -0.13430901 0.06243515
-0.24816477 -0.13421744 0.06238953
-0.24836412 -0.13412848 0.062391251
-0.24857798 -0.13403291 0.062394083
-0.24875836 -0.13394187 0.062467366
-0.249001 -0.13384978 0.062359408
-0.24919498 -0.13375829 0.062394593
-0.24940848 -0.1336661 0.062375516
-0.2496126 -0.13357434 0.062381845
-0.24984139 -0.13348332 0.06230852
-0.25004756 -0.13339168 0.062307917
-0.25027901 -0.13329929 0.062235743
-0.25047243 -0.13320822 0.062269766
-0.25068489 -0.13311818 0.06223917
-0.2508817 -0.13302714 0.062262811
-0.25108764 -0.13293746 0.062249523
-0.25130677 -0.13284597 0.062208518
-0.25151628 -0.13275641 0.062183686
-0.2517342 -0.13266361 0.062155373
-0.25193483 -0.13257441 0.062154781
-0.25213468 -0.13248372 0.062166892
-0.25232601 -0.13239798 0.062170945
-0.25257134 -0.13230197 0.062081434
-0.25272822 -0.13222325 0.062142089
-0.25293764 -0.13213593 0.062102273
-0.25420833 -0.13158497 0.062003996
-0.25444624 -0.13149515 0.06189489
-0.25463682 -0.13141687 0.061850511
-0.25482205 -0.13133538 0.061844207
-0.25505972 -0.13124108 0.061766241
-0.2551994 -0.1311561 0.061921522
-0.2554726 -0.13104907 0.061822705
-0.25568292 -0.13096151 0.061781727
-0.25588477 -0.13087228 0.061777674
-0.25609386 -0.13078493 0.061739009
-0.25626212 -0.13070539 0.061770808
-0.25650218 -0.13060699 0.061713595
-0.25670767 -0.13051818 0.061695699
-0.25691041 -0.1304345 0.061651282
-0.2570931 -0.130347 0.061693415
-0.25731039 -0.13025364 0.06167087
-0.25751263 -0.13016509 0.061661065
-0.25771254 -0.13007827 0.061646633
-0.25789067 -0.12998907 0.061714154
-0.25811997 -0.12990342 0.061602779
-0.25829199 -0.12982628 0.061606888
-0.25847432 -0.12975132 0.06156484
-0.25870824 -0.12965056 0.061542246
-0.25886351 -0.1295729 0.061600611
-0.25906658 -0.12947972 0.061619613
-0.25931337 -0.12937631 0.061576225
-0.25953382 -0.12928951 0.061499462
-0.25970817 -0.12920402 0.061553165
-0.25988841 -0.12912422 0.061550327
-0.26012135 -0.12902951 0.061489679
-0.26033735 -0.12894298 0.061424471
-0.26050746 -0.12885922 0.061479323
-0.26073587 -0.12877007 0.061394475
-0.26093015 -0.12868251 0.061401978
-0.26112276 -0.12859672 0.061402574
-0.26128832 -0.1285238 0.061397478
-0.26154 -0.12842584 0.061302166
-0.26174182 -0.12833731 0.061293505
-0.26191849 -0.12825061 0.061348349
-0.26214272 -0.12816587 0.061246216
-0.26233375 -0.12807858 0.061261795
-0.26253107 -0.12799188 0.061254296
-0.26273459 -0.12790768 0.061211027
-0.26293126 -0.1278211 0.061204694
-0.26313311 -0.12773697 0.061166048
-0.2633329 -0.12765086 0.061147012
-0.26352808 -0.12756631 0.061131455
-0.26372132 -0.12747973 0.061135497
-0.26391587 -0.12739529 0.061121091
-0.26412091 -0.12731007 0.061080128
-0.26431817 -0.1272261 0.061054181
-0.26450321 -0.12713893 0.061087091
-0.26469716 -0.12705475 0.061072677
-0.26489702 -0.12697133 0.061035197
-0.26509538 -0.12688586 0.061016165
-0.2652753 -0.12680623 0.061013326
-0.26549143 -0.12671915 0.060951583
-0.26566893 -0.12664938 0.06088879
-0.26585495 -0.12655872 0.060942445
-0.26606759 -0.12645945 0.060974117
-0.26626331 -0.12638229 0.060906652
-0.26643285 -0.12630166 0.060941905
-0.26662648 -0.1262183 0.060922898
-0.26683164 -0.12612845 0.060913067
-0.26704147 -0.12604144 0.060869783
-0.26722535 -0.12596107 0.060860027
-0.26734543 -0.12589395 0.060953081
-0.26758182 -0.12580922 0.060814008
-0.26780632 -0.12571451 0.060778745
-0.26800776 -0.12562886 0.060751636
-0.26816353 -0.12555487 0.060783468
-0.26837319 -0.12546436 0.060764417
-0.2685836 -0.12536982 0.060770713
-0.26879194 -0.12528789 0.060697448
-0.26897448 -0.1252037 0.06071768
-0.26917589 -0.12512298 0.060657118
-0.26936713 -0.12504052 0.060639262
-0.26956138 -0.12495653 0.060622551
-0.26975125 -0.124874 0.060609307
-0.26994604 -0.12479029 0.060589135
-0.27014524 -0.12472311 0.060443245
-0.27033064 -0.12462661 0.060538426
-0.27051339 -0.12454521 0.060539037
-0.27064949 -0.12447894 0.060577855
-0.27089262 -0.12437645 0.060539082
-0.27108085 -0.12429413 0.060529314
-0.27127612 -0.12421344 0.060487229
-0.27146167 -0.12412841 0.060503982
-0.27165836 -0.12404826 0.060453821
-0.27184927 -0.12396459 0.060445182
-0.27203012 -0.12388097 0.060466573
-0.27222311 -0.12380027 0.06043141
-0.27239424 -0.1237191 0.060465507
-0.27260411 -0.12363564 0.060398005
-0.27278221 -0.12355631 0.060398638
-0.27292591 -0.12349463 0.06038323
-0.27314848 -0.12340282 0.060334139
-0.27336407 -0.12330935 0.060317367
-0.27354121 -0.12322517 0.060353756
-0.27373302 -0.123145 0.060318597
-0.27389851 -0.12307737 0.060277753
-0.27408358 -0.12299306 0.060291048
-0.27428389 -0.12291063 0.060245492
-0.27448711 -0.12282419 0.060218364
-0.27466035 -0.12274668 0.060221326
-0.27484122 -0.12266643 0.060219642
-0.27499846 -0.1225918 0.060251474
-0.27523789 -0.12249892 0.060158513
-0.27539808 -0.12242789 0.060156893
-0.27560019 -0.12234432 0.060113639
-0.27580184 -0.12225552 0.060107283
-0.27599126 -0.1221759 0.060075589
-0.27618599 -0.1220929 0.060050797
-0.2763527 -0.12201913 0.060048006
-0.27655801 -0.12193193 0.060019735
-0.27671704 -0.12185292 0.060075779
-0.27689335 -0.12177726 0.060056806
-0.27711672 -0.12168593 0.060001947
-0.27730584 -0.12160695 0.059966799
-0.27749237 -0.12152437 0.059963949
-0.27766296 -0.12144973 0.059955381
-0.27785361 -0.12136887 0.059928305
-0.27803773 -0.12128838 0.059918538
-0.27822471 -0.12120628 0.059911069
-0.27841574 -0.12112017 0.059918582
-0.27859887 -0.12104809 0.059854627
-0.27876434 -0.12097183 0.059872586
-0.27895924 -0.12089332 0.05981667
-0.27913529 -0.12081286 0.059831142
-0.27930009 -0.12074231 0.059812214
-0.27951589 -0.12065554 0.059749313
-0.27972361 -0.12056541 0.059733711
-0.27988732 -0.12048568 0.059780516
-0.28003508 -0.12041678 0.059801996
-0.28024653 -0.12032548 0.059782922
-0.28041196 -0.12025263 0.059777826
-0.28061101 -0.12017109 0.059729964
-0.28078577 -0.12009358 0.059728298
-0.28097928 -0.12000959 0.059713896
-0.28115517 -0.11993276 0.059704155
-0.28133196 -0.11986281 0.059644818
-0.28154156 -0.11977457 0.059610769
-0.28172734 -0.1196935 0.059599847
-0.28188211 -0.11962216 0.059616692
-0.28206283 -0.11954504 0.059594251
-0.28226095 -0.11946426 0.05954409
-0.28245032 -0.1193855 0.059506632
-0.28263462 -0.11930069 0.059525698
-0.28281841 -0.11921899 0.059525162
-0.282996 -0.11914057 0.059521176
-0.28317675 -0.11906751 0.059471067
-0.28334948 -0.11898986 0.059476323
-0.28355002 -0.11890802 0.059426151
-0.28373536 -0.11882766 0.059411772
-0.2839103 -0.11875158 0.059399731
-0.28408033 -0.11866532 0.059471883
-0.28425565 -0.11859314 0.059432164
-0.28446284 -0.11850901 0.059377354
-0.28464347 -0.1184333 0.059345696
-0.28483301 -0.11834887 0.059346288
-0.28501585 -0.11826742 0.059346907
-0.28518304 -0.11819784 0.059314132
-0.28535327 -0.11811912 0.05933439
-0.28555575 -0.1180364 0.059284206
-0.2857281 -0.11795928 0.059287168
-0.28592783 -0.1178788 0.059230074
-0.28611732 -0.11779881 0.059200693
-0.28628609 -0.11771921 0.059231333
-0.28646502 -0.11763933 0.059233122
-0.28665578 -0.11756063 0.059191041
-0.28683427 -0.11748875 0.059139777
-0.2870127 -0.11740045 0.059200384
-0.28719217 -0.11732541 0.059167571
-0.28739762 -0.11723408 0.059166968
-0.28754687 -0.11715941 0.059223033
-0.28772643 -0.11710198 0.059070289
-0.28793016 -0.11701821 0.059023567
-0.28810292 -0.1169336 0.059076108
-0.28828385 -0.11686064 0.059024841
-0.28847754 -0.11678165 0.058975831
-0.2886461 -0.11670215 0.059006482
-0.28882983 -0.11662777 0.058956355
-0.28902227 -0.11653408 0.059011154
-0.28919962 -0.11645371 0.059021004
-0.28937015 -0.11637604 0.059033193
-0.28953591 -0.1163032 0.059026949
-0.2897388 -0.11622488 0.05894563
-0.28991422 -0.11614266 0.058973946
-0.29011333 -0.11607077 0.058860347
-0.29029712 -0.11598771 0.058869042
-0.29048443 -0.11590343 0.058875408
-0.29064131 -0.11581589 0.058996037
-0.29080945 -0.11575148 0.058925204
-0.29099852 -0.11567456 0.058876209
-0.29117903 -0.11560924 0.058774203
-0.29135558 -0.11551769 0.058862481
-0.29153073 -0.11544069 0.058856208
-0.29171678 -0.11537189 0.058761094
-0.29190958 -0.11530653 0.058622144
-0.29209802 -0.11520139 0.058766901
-0.29224974 -0.11512869 0.058802214
-0.29244384 -0.11506598 0.058641352
-0.29265398 -0.1149902 0.058520798
-0.29285976 -0.11489041 0.058576699
-0.29302067 -0.11481871 0.058577381
-0.29321778 -0.11473109 0.058576815
-0.29339233 -0.11464146 0.058658183
-0.2935715 -0.1145652 0.058634594
-0.29370809 -0.11449499 0.058698773
-0.29392692 -0.11440839 0.058625482
-0.29408187 -0.11433376 0.05866424
-0.29427469 -0.11426685 0.058535665
-0.29443055 -0.11420096 0.058512144
-0.294651 -0.11408973 0.058601454
-0.29483256 -0.11401853 0.058536343
-0.29501358 -0.11393924 0.058527745
-0.29519615 -0.11387064 0.058441866
-0.29537722 -0.11379183 0.058429807
-0.29555374 -0.11371201 0.058438521
-0.29573458 -0.11363281 0.058429912
-0.29591143 -0.11355368 0.058432862
-0.2960887 -0.11347539 0.05842888
-0.29627338 -0.11340482 0.058349922
-0.29645342 -0.11332428 0.058352858
-0.29661959 -0.11324786 0.058369674
-0.29680419 -0.11316886 0.058348376
-0.29698586 -0.11309233 0.058319002
-0.29713759 -0.11302795 0.058297805
-0.29734647 -0.11293288 0.058312196
-0.29753032 -0.11286268 0.058233231
-0.29770705 -0.11278395 0.058233868
-0.29788655 -0.1127023 0.058246031
-0.29806298 -0.11262267 0.05825359
-0.29824498 -0.11254839 0.058208086
-0.29842302 -0.11247382 0.058176428
-0.29860315 -0.11239426 0.058172435
-0.29877749 -0.11232015 0.058148861
-0.29893699 -0.11224602 0.058170311
-0.29913461 -0.11216327 0.058135137
-0.29931888 -0.11208576 0.058104619
-0.29949442 -0.11200297 0.058136396
-0.29967558 -0.11192786 0.058098957
-0.29985279 -0.11185163 0.058081143
-0.30002761 -0.11178088 0.058033351
-0.30020967 -0.11169468 0.058068566
-0.30039027 -0.11161797 0.05804383
-0.30056265 -0.11153607 0.058079071
-0.30073592 -0.11145821 0.058084328
-0.30092537 -0.11139196 0.057961538
-0.30110618 -0.11131787 0.057918336
-0.30128229 -0.11123687 0.057936277
-0.30143249 -0.11119197 0.057787072
-0.3016389 -0.11108037 0.057921395
-0.30181819 -0.11099659 0.057948552
-0.3019948 -0.11091809 0.057948031
-0.30217576 -0.11084782 0.057878308
-0.30232483 -0.11076866 0.057965517
-0.30247065 -0.11068892 0.058066573
-0.30265388 -0.11060628 0.058074113
-0.30282897 -0.11054846 0.057937518
-0.30356643 -0.11024963 0.057738163
-0.30375618 -0.1101702 0.057704166
-0.30392283 -0.11009611 0.057703678
-0.30409274 -0.1100177 0.057722785
-0.30428249 -0.10994438 0.057647273
-0.30447203 -0.10986012 0.057646725
-0.30466482 -0.10977662 0.057631165
-0.30483806 -0.10969909 0.057634123
-0.3049815 -0.10965399 0.057506844
-0.30515406 -0.10959593 0.057379484
-0.30538997 -0.10946935 0.05752641
-0.30556649 -0.10938987 0.057532813
-0.30574471 -0.10933813 0.057345465
-0.30591002 -0.10923259 0.057562947
-0.30607256 -0.10917355 0.057472516
-0.3062793 -0.10907147 0.05754111
-0.30645931 -0.10899027 0.057548653
-0.30662549 -0.10892335 0.057500884
-0.30679578 -0.10884579 0.057513077
-0.30697659 -0.1087576 0.0575656
-0.30716011 -0.1086745 0.057575442
-0.30735016 -0.10858882 0.05758296
-0.30749884 -0.10851324 0.057647109
-0.30770528 -0.10844386 0.057494275
-0.30788371 -0.10837504 0.057422251
-0.3080394 -0.10831466 0.05736183
-0.30819285 -0.10824848 0.05734754
-0.30839235 -0.10816064 0.057341196
-0.30859759 -0.10807449 0.057305999
-0.30877429 -0.10799628 0.057303172
-0.30894738 -0.10792136 0.057288826
-0.30912367 -0.10784555 0.057271015
-0.30928808 -0.10776924 0.05729245
-0.30944547 -0.10771301 0.057198577
-0.30965492 -0.10762023 0.057195652
-0.30983141 -0.10753009 0.057274714
-0.30999041 -0.10746568 0.057231586
-0.31017795 -0.10737942 0.057250634
-0.31037012 -0.10731079 0.057135902
-0.31054121 -0.10723219 0.057152711
-0.31073299 -0.10714117 0.057191357
-0.31090868 -0.10706782 0.057158556
-0.31108546 -0.10699025 0.057151116
-0.3112455 -0.10692131 0.05713566
-0.31139627 -0.1068548 0.057131752
-0.31156918 -0.10677098 0.057178531
-0.31174761 -0.10668828 0.057201076
-0.31193405 -0.1065981 0.057250123
-0.31212717 -0.10652378 0.057171144
-0.31231561 -0.10645493 0.057069104
-0.31249103 -0.10635559 0.057213902
-0.31267425 -0.10629398 0.057078436
-0.31284004 -0.10622504 0.057045661
-0.31304267 -0.10614615 0.056968961
-0.31319115 -0.10608675 0.05692355
-0.31337067 -0.10600187 0.056957614
-0.31353655 -0.10593236 0.056928299
-0.31372175 -0.10586293 0.056840114
-0.31392586 -0.10575642 0.056946777
-0.31411219 -0.10567631 0.056927774
-0.31430656 -0.10559668 0.056881078
-0.31448036 -0.10552077 0.056871347
-0.31466696 -0.10544004 0.056855805
-0.31484082 -0.1053641 0.056846075
-0.31502202 -0.10529017 0.056800567
-0.31519449 -0.10521774 0.05677123
-0.31538007 -0.10513304 0.056785688
-0.31554809 -0.10507124 0.056697551
-0.31570649 -0.10500032 0.056700539
-0.31587589 -0.10492246 0.056717351
-0.31606558 -0.10484102 0.05669719
-0.31623012 -0.1047806 0.056610219
-0.31640014 -0.10470755 0.056592423
-0.31660193 -0.10461091 0.056639109
-0.31680265 -0.10452271 0.056631602
-0.3169634 -0.10445293 0.056619603
-0.31714162 -0.10438506 0.056541823
-0.3172965 -0.10431673 0.056537904
-0.31748593 -0.10422505 0.056588095
-0.31767276 -0.10414456 0.056570254
-0.31787074 -0.10405179 0.056601964
-0.31803507 -0.10396467 0.056697205
-0.31824383 -0.10388713 0.056592803
-0.31841832 -0.10382634 0.05647812
-0.31858081 -0.10375361 0.056481108
-0.31876761 -0.10367837 0.056427516
-0.31894499 -0.10359663 0.056446601
-0.31914261 -0.10350556 0.056467932
-0.31931117 -0.10343131 0.056462824
-0.31949458 -0.10334826 0.05647267
-0.31967533 -0.10327028 0.056455996
-0.31983823 -0.10320668 0.056395553
-0.32000276 -0.10313541 0.056382392
-0.32019004 -0.10305928 0.056333404
-0.32038337 -0.10297672 0.056309775
-0.32054487 -0.10289764 0.056358896
-0.32071289 -0.10282923 0.056315728
-0.32088566 -0.10276548 0.056226432
-0.32109964 -0.10266867 0.056237336
-0.32126838 -0.10259467 0.056229923
-0.32145491 -0.10250717 0.056260519
-0.32164392 -0.102424 0.056254197
-0.32182693 -0.10234689 0.05622483
-0.32197514 -0.10228711 0.05618288
-0.32215449 -0.10221602 0.056123547
-0.32234564 -0.10212953 0.056133363
-0.32254511 -0.10203746 0.056155846
-0.32270509 -0.10197432 0.056101177
-0.32287794 -0.10189036 0.056149106
-0.32307014 -0.10181034 0.056111649
-0.32325065 -0.10174129 0.056035001
-0.32339764 -0.10168342 0.055983827
-0.32360128 -0.10158916 0.056008607
-0.3237884 -0.10150225 0.056033436
-0.32396439 -0.10142163 0.05604906
-0.32416183 -0.10133743 0.056024272
-0.32434946 -0.10125741 0.056000661
-0.32453069 -0.10117278 0.056027804
-0.3246966 -0.10110073 0.05601579
-0.324873 -0.10103061 0.055958763
-0.32504818 -0.10094833 0.055988234
-0.32523736 -0.10087322 0.055926565
-0.32541353 -0.10079999 0.055891454
-0.32558516 -0.10072319 0.055894416
-0.32577163 -0.10064521 0.055860423
-0.3259517 -0.10056315 0.055873737
-0.32614064 -0.10047508 0.055900857
-0.32631212 -0.10040546 0.055855382
-0.32649079 -0.10034198 0.055746455
-0.32666069 -0.10026475 0.055757489
-0.32685146 -0.10017452 0.05579384
-0.32704276 -0.10008694 0.055810578
-0.32723063 -0.10001054 0.055761591
-0.32741642 -0.099927619 0.05576336
-0.32758921 -0.099859454 0.055704039
-0.32775223 -0.099785961 0.055710483
-0.3279486 -0.099698171 0.055713367
-0.32811147 -0.099634245 0.05565523
-0.32832024 -0.099532962 0.055712283
-0.32848141 -0.099474378 0.055623017
-0.32866776 -0.099391192 0.055624776
-0.3288734 -0.099294528 0.055659927
-0.32904631 -0.099226311 0.055600606
-0.32922789 -0.099137954 0.055651963
-0.32942694 -0.099053197 0.055626012
-0.32962507 -0.098969698 0.055594295
-0.32979527 -0.098902181 0.055538449
-0.32994884 -0.09883035 0.055562221
-0.3301318 -0.098752253 0.055539772
-0.33032772 -0.09865769 0.055589944
-0.33050379 -0.098599605 0.05545219
-0.33068907 -0.098515883 0.055460878
-0.33086282 -0.098438472 0.055461526
-0.33106261 -0.098345086 0.055492077
-0.3312543 -0.098261908 0.055477679
-0.33144543 -0.098182201 0.055441372
-0.33162591 -0.098107561 0.055402789
-0.33178696 -0.098035462 0.055405773
-0.33196843 -0.097959712 0.055371802
-0.33213297 -0.097894035 0.05532058
-0.33230656 -0.097817369 0.055316608
-0.33250576 -0.09772034 0.055373687
-0.33268154 -0.097656786 0.055273995
-0.33287293 -0.097566783 0.055306889
-0.33305269 -0.097490773 0.055279829
-0.333233 -0.097404011 0.055324286
-0.33343303 -0.097324416 0.055260271
-0.33362231 -0.097237393 0.055279322
-0.33381015 -0.097167119 0.055188823
-0.33396995 -0.097097263 0.055180285
-0.33413401 -0.097029939 0.055141747
-0.33436212 -0.096910559 0.055263322
-0.33454019 -0.096844278 0.055175159
-0.33470863 -0.096774496 0.055140067
-0.33489302 -0.096693717 0.055131458
-0.33508438 -0.096609831 0.05512283
-0.33525839 -0.096533835 0.055113092
-0.33545396 -0.09645012 0.055090606
-0.33563602 -0.096374616 0.055053178
-0.33581156 -0.0962971 0.055049203
-0.33600044 -0.096216343 0.055026736
-0.33618647 -0.096136533 0.05500659
-0.33637333 -0.096051268 0.05502104
-0.33655944 -0.095969208 0.055015884
-0.33675531 -0.095887899 0.054976098
-0.3369194 -0.095818862 0.054949097
-0.33710659 -0.095735818 0.054947399
-0.33728951 -0.095657557 0.054926105
-0.33748376 -0.095575951 0.05489324
-0.33764577 -0.095511571 0.054840878
-0.33783951 -0.095419504 0.054880667
-0.33801797 -0.095346287 0.054838631
-0.33821452 -0.095253654 0.054873809
-0.33843684 -0.095146671 0.054928523
-0.33860868 -0.095087253 0.054812688
-0.33877838 -0.09501487 0.054791436
-0.33894908 -0.094939321 0.054788634
-0.33915654 -0.094846413 0.054792643
-0.33933178 -0.094774798 0.054749459
-0.3395251 -0.094690546 0.054737363
-0.33970159 -0.094613448 0.054727618
-0.3398999 -0.094522074 0.054748956
-0.34007239 -0.09445557 0.05467926
-0.34026018 -0.094369046 0.054699466
-0.34044233 -0.094296709 0.054640118
-0.34062445 -0.094207957 0.054692637
-0.34082928 -0.094120629 0.054666668
-0.34103224 -0.094039395 0.054604951
-0.34118587 -0.093978062 0.054557219
-0.34137189 -0.093893841 0.054567054
-0.34157485 -0.093804635 0.054559544
-0.34176111 -0.09372437 0.054541703
-0.34195074 -0.093642786 0.054522693
-0.34211919 -0.093572661 0.054489911
-0.34232685 -0.093475096 0.054525055
-0.34250605 -0.093396276 0.054518759
-0.34270331 -0.09331131 0.054499738
-0.34290239 -0.093226537 0.054473788
-0.34307209 -0.093157366 0.054430615
-0.34326911 -0.093068935 0.054435812
-0.34346426 -0.092984393 0.054420248
-0.34365013 -0.092903301 0.054409325
-0.34383011 -0.092828035 0.054376513
-0.34402731 -0.092743598 0.054354023
-0.34421119 -0.092660837 0.054360408
-0.34440735 -0.092575677 0.054345999
-0.3445791 -0.092510521 0.054269377
-0.34476724 -0.092421964 0.054302268
-0.3449778 -0.09233243 0.054273985
-0.34515852 -0.092258722 0.054228473
-0.24529389 -0.1354498 0.062696122
-0.24550597 -0.13535602 0.062692031
-0.24572095 -0.13526216 0.062679872
-0.2459403 -0.13516957 0.062645771
-0.24615568 -0.13507587 0.062631294
-0.24638224 -0.1349816 0.062586799
-0.24660686 -0.13488904 0.062536545
-0.24681707 -0.13479593 0.062533617
-0.24701588 -0.13470501 0.062550321
-0.24721013 -0.1346129 0.06258896
-0.24742767 -0.13452111 0.062554866
-0.2476483 -0.13442779 0.062521927
-0.24785629 -0.13433668 0.062512085
-0.24809647 -0.13424262 0.06242488
-0.24827841 -0.13415293 0.062484305
-0.24849297 -0.1340618 0.062454842
-0.24868825 -0.1339716 0.062477328
-0.24892256 -0.13387829 0.06240283
-0.24914095 -0.13378732 0.062360659
-0.24933526 -0.13369586 0.062394679
-0.24956982 -0.13360447 0.062306345
-0.2497554 -0.1335196 0.062321931
-0.24997494 -0.1334244 0.062305138
-0.25019619 -0.13333231 0.062261812
-0.25037938 -0.13324308 0.062314317
-0.25060993 -0.13315247 0.062232912
-0.25080392 -0.13306148 0.062264629
-0.25103143 -0.1329712 0.062190145
-0.25124317 -0.13288148 0.062159531
-0.25144392 -0.13279055 0.062170476
-0.25165784 -0.13270411 0.062111028
-0.25186062 -0.13261329 0.06211504
-0.2532765 -0.1319876 0.062085465
-0.2534228 -0.13192037 0.062100023
-0.25370121 -0.13180712 0.0620277
-0.25392202 -0.13171864 0.061961316
-0.25412107 -0.13163033 0.061959572
-0.25430417 -0.13154045 0.062016685
-0.25454357 -0.13145234 0.061891437
-0.25475568 -0.13136435 0.061848134
-0.25490707 -0.13128601 0.06192264
-0.25517216 -0.13118699 0.061793849
-0.25538051 -0.1310993 0.061759781
-0.25557113 -0.13101152 0.061779983
-0.25578275 -0.13092405 0.061734375
-0.25596786 -0.13083464 0.061782263
-0.25613901 -0.13074669 0.061862484
-0.25638306 -0.13066009 0.061712991
-0.25657007 -0.13057254 0.061742418
-0.25678498 -0.13048396 0.061694499
-0.25700104 -0.13039725 0.061630435
-0.25714919 -0.13032426 0.061678432
-0.25737411 -0.13022257 0.061689302
-0.2575863 -0.13013434 0.061647147
-0.25775272 -0.13006547 0.061612062
-0.25791615 -0.1299862 0.06165655
-0.25813466 -0.129895 0.061615538
-0.25837976 -0.12978928 0.061592903
-0.25857422 -0.12970962 0.061546195
-0.25879508 -0.12961364 0.061530553
-0.25898719 -0.12952706 0.061538056
-0.25918758 -0.12943916 0.061529391
-0.25937909 -0.12935267 0.061538044
-0.25958726 -0.1292671 0.061490148
-0.25979787 -0.12918177 0.061433017
-0.25998843 -0.12909368 0.061455518
-0.26019344 -0.12901187 0.061391473
-0.2603986 -0.12892118 0.061387412
-0.26058483 -0.12883483 0.061411075
-0.26078799 -0.12874961 0.061375871
-0.26099327 -0.12866464 0.061332602
-0.26119459 -0.12857768 0.061314702
-0.26137382 -0.12849292 0.061348766
-0.26155037 -0.128408 0.061392076
-0.26175809 -0.12831803 0.061375313
-0.26196635 -0.12823376 0.061318181
-0.26216817 -0.12814914 0.061282992
-0.26236337 -0.12806219 0.061283559
-0.26256227 -0.12797751 0.061257608
-0.26276448 -0.12789322 0.06121894
-0.26296139 -0.12780857 0.061198764
-0.26316735 -0.12772295 0.061157785
-0.26334658 -0.12763682 0.061201081
-0.26354304 -0.12755238 0.061180893
-0.26374283 -0.12747221 0.061121482
-0.26394081 -0.12738234 0.061133578
-0.26413798 -0.12729825 0.061108775
-0.26434171 -0.12721887 0.061032057
-0.26453316 -0.12712853 0.061067246
-0.26472858 -0.12704454 0.061047062
-0.26490861 -0.12696281 0.061058059
-0.26511762 -0.12687466 0.06102515
-0.26531136 -0.12679073 0.061009586
-0.265488 -0.12671475 0.060991764
-0.26569226 -0.12662633 0.060975011
-0.26588333 -0.12654835 0.06092716
-0.26606441 -0.12646514 0.060945071
-0.26626033 -0.12638195 0.060917966
-0.26647216 -0.12628677 0.060924262
-0.26662469 -0.12621403 0.060957257
-0.26684424 -0.12613036 0.060862035
-0.26703486 -0.12604885 0.060839556
-0.2672466 -0.12595606 0.060829714
-0.26745144 -0.12586857 0.060804881
-0.26764026 -0.12578498 0.06080202
-0.26783893 -0.12570091 0.060772598
-0.26802945 -0.12561774 0.060761653
-0.26822248 -0.12553294 0.060754158
-0.2683883 -0.12545855 0.060758285
-0.26860565 -0.12536736 0.060720738
-0.26877624 -0.12528102 0.060791731
-0.26900125 -0.12520219 0.060646914
-0.26918525 -0.12511836 0.060660198
-0.26937699 -0.12503602 0.06064003
-0.26956671 -0.12495337 0.060627937
-0.26976055 -0.12486941 0.060612373
-0.26995292 -0.12478745 0.060587578
-0.27013963 -0.12470224 0.060602013
-0.27033463 -0.12462099 0.060564537
-0.27052265 -0.12453843 0.06055706
-0.27070308 -0.12445433 0.060583055
-0.27087989 -0.12439896 0.060424536
-0.27108389 -0.12430421 0.060451604
-0.27126029 -0.12421715 0.060509898
-0.27149338 -0.12412896 0.060404263
-0.27166924 -0.12405571 0.060370296
-0.27186415 -0.12396143 0.060421616
-0.27204242 -0.12387489 0.060470678
-0.27226189 -0.12380056 0.06031204
-0.27243531 -0.12371296 0.060383014
-0.27264038 -0.12363554 0.060288996
-0.2728135 -0.12354789 0.060361139
-0.27300194 -0.12346651 0.060344435
-0.2731798 -0.12338728 0.060345061
-0.27337515 -0.1233006 0.060343325
-0.27351207 -0.12321294 0.060525134
-0.27363306 -0.12314525 0.060619347
-0.27394566 -0.12305394 0.06029436
-0.27413946 -0.12297458 0.060247652
-0.27432773 -0.12289377 0.060227491
-0.27452135 -0.12281211 0.060196936
-0.27469957 -0.1227361 0.060174488
-0.27487427 -0.12266167 0.060152065
-0.27508089 -0.12256643 0.060174517
-0.27526674 -0.12248534 0.060163587
-0.27545154 -0.12240658 0.060139976
-0.27564362 -0.12231984 0.060148634
-0.27582657 -0.12224326 0.060115799
-0.27602187 -0.12216035 0.060088687
-0.27619338 -0.12208546 0.060078956
-0.27637658 -0.12200928 0.060042664
-0.27657387 -0.12191667 0.060075529
-0.27677104 -0.1218375 0.06001728
-0.27694279 -0.12175759 0.060040992
-0.27712759 -0.12168239 0.059993155
-0.27730805 -0.12160301 0.05998686
-0.27752727 -0.12151049 0.059952766
-0.27769718 -0.12143563 0.059947643
-0.27788085 -0.12135212 0.059959788
-0.27805665 -0.12127686 0.05993966
-0.27823424 -0.1212052 0.059889548
-0.27841604 -0.12112965 0.059853259
-0.2786079 -0.12104402 0.059854995
-0.27879915 -0.12096392 0.059820987
-0.27897364 -0.12088279 0.05984468
-0.27916104 -0.12080713 0.059792235
-0.27936831 -0.12071957 0.059760481
-0.27954102 -0.12064076 0.059773806
-0.27971193 -0.12056121 0.059797518
-0.27992079 -0.12047464 0.059754238
-0.28010648 -0.12039583 0.059728313
-0.28028327 -0.12031607 0.059735857
-0.28046873 -0.1202404 0.059689187
-0.28065705 -0.12016008 0.059665561
-0.28084093 -0.12007461 0.05969039
-0.28102845 -0.11999719 0.059649467
-0.28121921 -0.11991204 0.059651215
-0.28140199 -0.11983249 0.05963913
-0.28157431 -0.11975725 0.059629396
-0.28177544 -0.11967123 0.059605736
-0.28196415 -0.1195853 0.059619017
-0.28213108 -0.11950737 0.059643891
-0.28231257 -0.11943738 0.0595707
-0.28249949 -0.11935394 0.059572451
-0.28269094 -0.11927309 0.059543058
-0.28288743 -0.11918845 0.059524022
-0.2830607 -0.11912126 0.05945662
-0.28324857 -0.11904216 0.059426084
-0.28345314 -0.1189419 0.059488904
-0.28363052 -0.11886711 0.059460692
-0.28379732 -0.11880009 0.059411764
-0.2839897 -0.11870999 0.059442334
-0.284172 -0.11863505 0.059400275
-0.28435397 -0.1185528 0.059408966
-0.28454912 -0.11848284 0.059294216
-0.28472722 -0.11839825 0.059330594
-0.28488567 -0.11831526 0.059415463
-0.28507999 -0.11824907 0.05927765
-0.2852779 -0.11816312 0.059263222
-0.28545737 -0.11807571 0.05931459
-0.28561801 -0.11799786 0.059357934
-0.28580344 -0.11791849 0.059336629
-0.28601426 -0.11783834 0.059243746
-0.28617591 -0.11776529 0.059251346
-0.28635171 -0.11768697 0.059251972
-0.2865417 -0.11760759 0.059216812
-0.28672984 -0.11752278 0.059224322
-0.28691888 -0.11745113 0.05913958
-0.28708771 -0.11737168 0.059169065
-0.28726232 -0.11730117 0.059120111
-0.28746277 -0.11721002 0.059133358
-0.28762805 -0.1171447 0.059077505
-0.28781909 -0.11706724 0.059026197
-0.28798509 -0.11698107 0.059109896
-0.28817815 -0.11690559 0.059038974
-0.28838444 -0.11681558 0.059026834
-0.28856444 -0.11673302 0.059043594
-0.2887131 -0.11665761 0.059106585
-0.28890884 -0.11658536 0.059005678
-0.28910106 -0.11650075 0.058999337
-0.28927794 -0.11642468 0.058981508
-0.2894589 -0.11635762 0.058889866
-0.28964654 -0.11627354 0.058893926
-0.28981879 -0.11618815 0.05895339
-0.28999522 -0.11610701 0.058971308
-0.29017591 -0.1160355 0.058910806
-0.29038998 -0.1159551 0.058809847
-0.29057714 -0.11586563 0.058851965
-0.29073626 -0.11578064 0.05894836
-0.29088342 -0.11570793 0.058997512
-0.29109907 -0.11564091 0.05880082
-0.29130521 -0.11555791 0.058741406
-0.29149115 -0.11547238 0.058760457
-0.29166174 -0.11538994 0.058804922
-0.29185227 -0.11531015 0.058770917
-0.29203293 -0.11523493 0.05873578
-0.29220948 -0.11515442 0.058749095
-0.29238564 -0.11507933 0.058726668
-0.29255736 -0.11500419 0.058718085
-0.29274467 -0.11492669 0.058678322
-0.29293355 -0.11485171 0.058616631
-0.29311863 -0.11476519 0.058644913
-0.29328781 -0.11467388 0.058753975
-0.29347962 -0.11460371 0.058650769
-0.29364946 -0.11452617 0.058664098
-0.29383993 -0.11444794 0.058619712
-0.29402339 -0.11437216 0.058579959
-0.29419908 -0.11429066 0.058602512
-0.29438162 -0.11422072 0.058525845
-0.29455599 -0.11413693 0.058568001
-0.29474038 -0.11405616 0.058559384
-0.29492477 -0.113983 0.058498871
-0.29510698 -0.11390607 0.058470655
-0.29528362 -0.11382637 0.058478203
-0.29546288 -0.11374397 0.058496125
-0.29564086 -0.11366689 0.058481757
-0.29582557 -0.11359563 0.0584074
-0.29600239 -0.11351652 0.058410335
-0.29634368 -0.11332206 0.058699943
-0.29648498 -0.11325943 0.058698371
-0.29668218 -0.11326334 0.058075044
-0.29705477 -0.11308754 0.058143124
-0.29723182 -0.11300019 0.058201417
-0.29739445 -0.11292484 0.058221698
-0.29757455 -0.11284495 0.058220007
-0.29775843 -0.11277559 0.058135271
-0.29793307 -0.11266964 0.058327347
-0.29809546 -0.11258168 0.058434118
-0.29827535 -0.11251172 0.058365539
-0.29850036 -0.11243153 0.058229946
-0.29869628 -0.11235479 0.058159024
-0.29887336 -0.1122776 0.058148116
-0.29902816 -0.11221286 0.058119979
-0.29920268 -0.11212663 0.058178276
-0.29940087 -0.11203226 0.058220364
-0.2995792 -0.11195993 0.058172554
-0.29974371 -0.1118907 0.058145538
-0.29990712 -0.11183264 0.058045872
-0.30008551 -0.11173011 0.05820334
-0.3003059 -0.11165436 0.058051609
-0.30048293 -0.11157788 0.058036093
-0.30064371 -0.11150945 0.058014866
-0.30084336 -0.11142172 0.058007352
-0.30101937 -0.11133991 0.058031045
-0.30119896 -0.11125805 0.058044348
-0.30135706 -0.11119523 0.057993144
-0.30155689 -0.11110878 0.057976406
-0.30170038 -0.1110421 0.057995588
-0.30188662 -0.11095746 0.058007717
-0.3020772 -0.11088036 0.057955258
-0.3022466 -0.11079862 0.057998579
-0.30243456 -0.11073066 0.057891924
-0.30258453 -0.11065891 0.057926074
-0.30278838 -0.11058186 0.05783321
-0.30296692 -0.11057626 0.057331026
-0.30314571 -0.11043862 0.057726055
-0.30334806 -0.11034493 0.057750829
-0.30352449 -0.11026566 0.057756066
-0.30369765 -0.11018631 0.057771698
-0.30386746 -0.11010405 0.057817325
-0.3040213 -0.11004192 0.057774201
-0.3042177 -0.10996887 0.057676747
-0.3044138 -0.10987831 0.057699233
-0.30458385 -0.10978576 0.057814054
-0.30473107 -0.10972286 0.057796314
-0.3049531 -0.10964739 0.057637669
-0.3051331 -0.10956042 0.057684418
-0.30530953 -0.10948709 0.057649296
-0.30547598 -0.10942021 0.057600364
-0.30566564 -0.10933591 0.057599805
-0.30584544 -0.10925683 0.05759351
-0.30601856 -0.10918292 0.057572238
-0.30618176 -0.10911444 0.057544068
-0.30637825 -0.10902422 0.057563093
-0.30655196 -0.10894343 0.0575868
-0.3067342 -0.10887226 0.057519376
-0.30691066 -0.10879568 0.057506159
-0.30708829 -0.10870875 0.05755984
-0.30723488 -0.10864918 0.057521343
-0.30740884 -0.10859254 0.057380136
-0.30761939 -0.10849047 0.057437174
-0.30780548 -0.10841063 0.057417013
-0.30798578 -0.10832861 0.057429168
-0.30816206 -0.10825313 0.057409048
-0.30834347 -0.10816485 0.057460397
-0.3085013 -0.10810929 0.057360757
-0.30869099 -0.10802598 0.057353273
-0.30886728 -0.10795033 0.0573343
-0.30904585 -0.10786264 0.057390276
-0.30921534 -0.10779136 0.057362102
-0.30938083 -0.10771051 0.057411198
-0.3095516 -0.10763341 0.057418764
-0.30973327 -0.10756079 0.057362869
-0.30991718 -0.10747785 0.057370398
-0.3101114 -0.10740134 0.057302937
-0.31027076 -0.10734781 0.05718483
-0.31042901 -0.10728594 0.057126701
-0.31059307 -0.10722387 0.057052407
-0.31079376 -0.10712041 0.057148684
-0.3109774 -0.10701672 0.057298064
-0.31115773 -0.10694792 0.057220258
-0.31134573 -0.10686147 0.057239305
-0.31155586 -0.10676806 0.057238679
-0.31171432 -0.10670508 0.057187475
-0.31187969 -0.10663767 0.057145465
-0.31207696 -0.1065493 0.057149492
-0.31226391 -0.10646705 0.057143178
-0.31244263 -0.10639304 0.057105739
-0.31262079 -0.10632062 0.057059083
-0.31279632 -0.10624751 0.057025123
-0.31295088 -0.10619526 0.056912795
-0.31314996 -0.10610167 0.056946807
-0.31333047 -0.10602193 0.056942806
-0.31349418 -0.10595068 0.056931946
-0.31366768 -0.10587525 0.056919899
-0.31386155 -0.10578942 0.056917019
-0.31401876 -0.10571359 0.056956917
-0.31422356 -0.10562815 0.056918256
-0.31437579 -0.10557303 0.056832463
-0.31458279 -0.10547456 0.056875665
-0.31476226 -0.10539818 0.056852076
-0.31491846 -0.10533943 0.05677896
-0.31509012 -0.10526889 0.056739241
-0.31525144 -0.10519056 0.056783743
-0.31542835 -0.10510734 0.056814346
-0.31563365 -0.10502065 0.056782611
-0.3158246 -0.10494256 0.05673591
-0.31600794 -0.10486343 0.056719214
-0.31618601 -0.10479037 0.05667717
-0.31634155 -0.10473819 0.056561396
-0.3165395 -0.10463817 0.056642685
-0.31671599 -0.10455682 0.056661766
-0.316903 -0.10446996 0.056686584
-0.31707937 -0.10439494 0.056662992
-0.31725094 -0.10432462 0.056622125
-0.31743252 -0.10424406 0.056620434
-0.31759417 -0.10417272 0.056616496
-0.31776905 -0.1041116 0.056502961
-0.31793791 -0.10403603 0.056505922
-0.3181341 -0.10393135 0.056624122
-0.31831098 -0.10386596 0.056533642
-0.31847543 -0.10378928 0.056557372
-0.3186579 -0.10370257 0.056594886
-0.31882915 -0.10362797 0.056583997
-0.31904009 -0.10355066 0.056471512
-0.31920657 -0.10347547 0.056479096
-0.31938586 -0.1033905 0.056514312
-0.31954551 -0.1033331 0.056421582
-0.31972173 -0.10325409 0.056425668
-0.31988364 -0.10317839 0.056450561
-0.3201049 -0.10309071 0.056377254
-0.32027602 -0.10301668 0.056362908
-0.32045612 -0.10294002 0.056339309
-0.32063085 -0.10285522 0.056387231
-0.32080853 -0.10275233 0.0565493
-0.32099041 -0.10270336 0.056331955
-0.32115579 -0.10263527 0.056294564
-0.32131663 -0.10257072 0.056246798
-0.32153377 -0.10247301 0.05625423
-0.32170141 -0.10239697 0.056264121
-0.32189399 -0.10231204 0.056258935
-0.32204276 -0.10225132 0.056221593
-0.32220671 -0.10218167 0.056199186
-0.32241192 -0.10209214 0.056187052
-0.32258615 -0.10201367 0.056193456
-0.32278728 -0.10191137 0.056280505
-0.32295886 -0.10184138 0.056237329
-0.32314658 -0.10177251 0.056137592
-0.32329848 -0.10171076 0.056097928
-0.32347715 -0.10162947 0.056110088
-0.32366461 -0.10154953 0.056086466
-0.32384464 -0.10147373 0.056057099
-0.32400811 -0.10139786 0.056078523
-0.32419866 -0.10131331 0.056076817
-0.32437465 -0.10124746 0.055992104
-0.32455271 -0.10117119 0.055971973
-0.32473743 -0.10108501 0.055999104
-0.32492706 -0.10099511 0.056036599
-0.32509297 -0.10093018 0.055976138
-0.32527879 -0.10085657 0.055914458
-0.32544431 -0.1007818 0.055922046
-0.32563648 -0.10069214 0.055950306
-0.325827 -0.10061847 0.05587478
-0.32600322 -0.10053861 0.055884637
-0.32616299 -0.10046911 0.055873789
-0.32636243 -0.10037944 0.055880111
-0.32651842 -0.10032197 0.055798925
-0.32668912 -0.10025015 0.055770744
-0.32686305 -0.10017707 0.055741396
-0.32705933 -0.10007931 0.055812314
-0.3272472 -0.10000291 0.055763327
-0.32742488 -0.099921733 0.055777784
-0.32763389 -0.099822715 0.055818684
-0.32779396 -0.099768855 0.055700585
-0.32797098 -0.099688806 0.05570928
-0.32813948 -0.09962035 0.05566496
-0.32832476 -0.099532381 0.05570247
-0.32851222 -0.099450752 0.055690382
-0.32869253 -0.099375695 0.055655248
-0.32888415 -0.099294581 0.055626996
-0.32904747 -0.099230126 0.055571161
-0.3292422 -0.099139139 0.055600576
-0.32941246 -0.099065661 0.055585068
-0.32960096 -0.098980173 0.05559605
-0.32978198 -0.098901577 0.055582821
-0.32995474 -0.098833591 0.055522338
-0.33015463 -0.098730996 0.055615161
-0.33032602 -0.098667711 0.055527013
-0.33051121 -0.098589614 0.055497631
-0.33071053 -0.098504916 0.055470519
-0.33087364 -0.098432578 0.05546888
-0.33106938 -0.098338783 0.055514432
-0.33124831 -0.09826874 0.055449314
-0.33142638 -0.098197043 0.055398043
-0.3315998 -0.098122999 0.055376772
-0.33178809 -0.098038793 0.055379678
-0.33199227 -0.097948536 0.05537561
-0.33214745 -0.097886346 0.055329021
-0.33233675 -0.097795911 0.055371135
-0.33252853 -0.097710498 0.055371709
-0.33269489 -0.097647905 0.055293955
-0.33289289 -0.097552598 0.055342961
-0.33307156 -0.09747792 0.055310138
-0.33325255 -0.097405612 0.055254243
-0.33342886 -0.097323678 0.05527794
-0.33358881 -0.09726359 0.055202514
-0.33378053 -0.097171247 0.055250376
-0.33398753 -0.097081088 0.055237077
-0.33417395 -0.09700264 0.055206541
-0.33435801 -0.096926913 0.055164479
-0.33453292 -0.096852057 0.055144351
-0.33474258 -0.096754268 0.055174872
-0.33491173 -0.096690953 0.055093639
-0.33508885 -0.096618488 0.055050448
-0.33525854 -0.096540168 0.055069551
-0.33544889 -0.096455216 0.055071287
-0.33563638 -0.096373573 0.055059202
-0.33582121 -0.096294962 0.05503444
-0.33600318 -0.096217297 0.055011984
-0.33619797 -0.096130028 0.055016018
-0.33637872 -0.096051551 0.055002801
-0.33656162 -0.095975325 0.05496766
-0.3367393 -0.095902614 0.054924466
-0.33691922 -0.095818408 0.054952763
-0.33712032 -0.09572918 0.054951012
-0.33730775 -0.095648244 0.054934308
-0.3374812 -0.095578082 0.05488652
-0.3376618 -0.095497973 0.054884829
-0.33785701 -0.095415428 0.054855417
-0.33805421 -0.095324211 0.054879047
-0.33823282 -0.095244311 0.054881979
-0.33842325 -0.095164903 0.054845668
-0.33859092 -0.095096812 0.054801352
-0.33879042 -0.09501221 0.054773077
-0.3389816 -0.094925694 0.054782894
-0.33917755 -0.094842836 0.054753482
-0.33934623 -0.094769537 0.05474145
-0.33953032 -0.094690762 0.054720148
-0.33974695 -0.094588518 0.054759864
-0.33991572 -0.094525881 0.054675177
-0.34009346 -0.094445512 0.054683875
-0.3403078 -0.094352275 0.054669406
-0.34048828 -0.094273403 0.05465965
-0.34066889 -0.094194472 0.054649882
-0.34085548 -0.094113559 0.054635487
-0.34105512 -0.094027519 0.054616451
-0.34123904 -0.093947463 0.054604374
-0.34143716 -0.093863115 0.054578416
-0.34160334 -0.093793154 0.054551397
-0.34178951 -0.093704961 0.054587752
-0.34199947 -0.093616888 0.054551374
-0.34218252 -0.093538068 0.054533534
-0.34235403 -0.093466908 0.05449843
-0.34254962 -0.093383536 0.054473627
-0.34276807 -0.093285225 0.054481056
-0.34294373 -0.093212068 0.054447092
-0.34313536 -0.093132824 0.054406159
-0.34333241 -0.093044378 0.054411337
-0.34348625 -0.092985146 0.05434861
-0.34367469 -0.092891887 0.054412637
-0.34391046 -0.092792511 0.054375034
-0.34407121 -0.092728503 0.054323811
-0.34427437 -0.092630737 0.054373953
-0.34446523 -0.092556402 0.054301884
-0.34465432 -0.092470653 0.054312855
-0.34482479 -0.092404872 0.054244313
-0.34504509 -0.092300333 0.054288637
-0.24541463 -0.13540034 0.062667161
-0.24561019 -0.13530916 0.062695399
-0.24581762 -0.13521729 0.062692493
-0.24605489 -0.13512369 0.062611088
-0.24626182 -0.13503204 0.062608175
-0.24646986 -0.1349404 0.062601805
-0.24665844 -0.13484997 0.06264621
-0.24687995 -0.13475624 0.062613286
-0.24711084 -0.1346636 0.062544584
-0.24732277 -0.1345721 0.062525511
-0.24754047 -0.13448042 0.062490292
-0.24775964 -0.13438876 0.06245045
-0.24795839 -0.13429821 0.062464848
-0.24817654 -0.13420528 0.062436543
-0.24901384 -0.13384224 0.062371828
-0.24923411 -0.13375127 0.062323917
-0.24945076 -0.13366055 0.06228523
-0.25212729 -0.13249296 0.062126353
-0.25233462 -0.13240385 0.062104993
-0.25254765 -0.13231474 0.062066317
-0.2527549 -0.13222583 0.062043812
-0.25295568 -0.13213709 0.062039763
-0.25316018 -0.13204838 0.062024169
-0.25335672 -0.13195983 0.062031671
-0.25358155 -0.13186955 0.061965294
-0.25380042 -0.13178107 0.061904699
-0.25398794 -0.1316928 0.061937578
-0.25420058 -0.13160455 0.061894298
-0.25439504 -0.1315164 0.061905265
-0.25462088 -0.13142839 0.061820433
-0.25479421 -0.13134031 0.061894864
-0.25500369 -0.13125245 0.061858505
-0.25518063 -0.13116278 0.061932933
-0.25540355 -0.1310752 0.061853874
-0.25561276 -0.13098763 0.061816372
-0.25580034 -0.13090323 0.061822746
-0.25597155 -0.13083203 0.061788805
-0.25620273 -0.13073672 0.061737396
-0.25638509 -0.13065244 0.061758764
-0.25658262 -0.13056175 0.061777785
-0.25680688 -0.1304751 0.061688356
-0.25702295 -0.13037652 0.061705008
-0.25723475 -0.13028814 0.0616652
-0.25743797 -0.13020135 0.061640382
-0.25763533 -0.13011447 0.061634045
-0.25785452 -0.13002838 0.061556153
-0.25802562 -0.12994079 0.061634049
-0.25823271 -0.1298545 0.061594252
-0.25844169 -0.12976839 0.061547518
-0.25862035 -0.12968117 0.061600029
-0.25884259 -0.12959407 0.061519824
-0.25903147 -0.12950739 0.061537713
-0.259242 -0.12942179 0.06148291
-0.25942954 -0.12933519 0.061504267
-0.25964645 -0.12925014 0.06142639
-0.25983304 -0.12916362 0.061450049
-0.26003888 -0.12907822 0.061407935
-0.26023066 -0.12899213 0.061413139
-0.26044872 -0.12890586 0.061339878
-0.26066291 -0.12882133 0.061266609
-0.26081675 -0.12873852 0.061364152
-0.2610122 -0.12865843 0.061317466
-0.26119956 -0.12856141 0.0614103
-0.26139551 -0.12847599 0.061398201
-0.2616201 -0.12839092 0.06129723
-0.26179671 -0.12830426 0.061352052
-0.26201585 -0.12822092 0.061255727
-0.26221943 -0.12813652 0.06121362
-0.26241606 -0.12804979 0.061208434
-0.26261157 -0.12796493 0.061194025
-0.26281258 -0.12788251 0.06114617
-0.26299164 -0.12779444 0.061203286
-0.2631692 -0.12771195 0.061226971
-0.26340398 -0.12762538 0.061105229
-0.26359865 -0.12754089 0.061090827
-0.2637884 -0.12745789 0.061081044
-0.26398301 -0.12736969 0.061092004
-0.26416647 -0.12728812 0.061091464
