# .PCD v0.7 - Point Cloud Data file format
VERSION 0.7
FIELDS x y z
SIZE 4 4 4
TYPE F F F
COUNT 1 1 1
WIDTH 1235
HEIGHT 1
VIEWPOINT 0 0 0 1 0 0 0
POINTS 1235
DATA ascii
-0.32895866 -0.10422555 0.055341888
-0.32913497 -0.10414943 0.055350624
-0.32931498 -0.10407695 0.055323623
-0.32950082 -0.10400286 0.055290841
-0.32967436 -0.10393818 0.055229269
-0.32986894 -0.10385111 0.055259861
-0.33003169 -0.10378361 0.055249043
-0.330217 -0.10371544 0.05517707
-0.33040351 -0.10364072 0.055146597
-0.33056593 -0.10357117 0.055150766
-0.3307564 -0.10348686 0.055174455
-0.33096793 -0.10339344 0.055199232
-0.33113089 -0.10333358 0.055135388
-0.33131802 -0.10325843 0.055106059
-0.33151525 -0.10317175 0.055126272
-0.33170068 -0.10309867 0.055087734
-0.33188266 -0.10302703 0.055049196
-0.33207616 -0.10293757 0.05509939
-0.33225819 -0.10286845 0.055043563
-0.33243147 -0.10279226 0.05506153
-0.33261892 -0.10271715 0.055031054
-0.3327975 -0.10264477 0.05500751
-0.33296257 -0.10258032 0.054969016
-0.33316404 -0.10249454 0.054970775
-0.33336392 -0.10241296 0.05494833
-0.33351406 -0.10235333 0.054920256
-0.33371341 -0.10226777 0.054926626
-0.33391446 -0.10218974 0.054876506
-0.334108 -0.10210378 0.054902498
-0.33429691 -0.10202754 0.054875474
-0.33447599 -0.10195513 0.054850776
-0.3346501 -0.10188584 0.054819178
-0.3348318 -0.10180844 0.054820992
-0.33502203 -0.10172877 0.054813553
-0.33519924 -0.1016563 0.054794628
-0.33539718 -0.10157085 0.054804463
-0.33557868 -0.1015006 0.05475786
-0.33576506 -0.1014187 0.054776952
-0.33594078 -0.10135242 0.054719992
-0.33610684 -0.10128754 0.054681495
-0.33630395 -0.10120765 0.0546556
-0.33650401 -0.10111187 0.054729976
-0.33669984 -0.10102494 0.05475596
-0.33688328 -0.10095944 0.05467131
-0.33707976 -0.10088047 0.054640803
-0.33725414 -0.10081157 0.054605745
-0.33744562 -0.10072733 0.054625973
-0.3376348 -0.10065182 0.054593179
-0.33781752 -0.10057668 0.054576542
-0.33800039 -0.1005035 0.054546073
-0.33820653 -0.10041102 0.054580092
-0.33836427 -0.10035709 0.054490909
-0.33856663 -0.10026453 0.054536462
-0.33876255 -0.10018262 0.05452786
-0.33895007 -0.10010915 0.05448585
-0.33914268 -0.10003066 0.054463424
-0.3393307 -0.099952772 0.054450236
-0.33950877 -0.099880792 0.054425541
-0.33968306 -0.09981057 0.054399706
-0.33988941 -0.099718854 0.054427959
-0.34008029 -0.099640429 0.054410156
-0.34026486 -0.099568203 0.054368153
-0.34046185 -0.099487856 0.054345712
-0.34065256 -0.099407814 0.054339424
-0.34083325 -0.099329844 0.054348156
-0.34101903 -0.099247009 0.054375317
-0.3412362 -0.099164844 0.054306716
-0.34141585 -0.099084273 0.054336201
-0.34160572 -0.099011146 0.054284956
-0.34178662 -0.098935276 0.054278705
-0.34197754 -0.098859347 0.054243598
-0.34216297 -0.098783068 0.054226961
-0.34234917 -0.098707967 0.054199934
-0.34252185 -0.098643824 0.054137215
-0.34272254 -0.098557018 0.054148197
-0.34291202 -0.098479025 0.054131549
-0.34310293 -0.098397881 0.054132175
-0.34329829 -0.098316386 0.054122426
-0.34348387 -0.098242223 0.054090794
-0.25484571 -0.13795264 0.039822761
-0.25505877 -0.1378803 0.039698854
-0.25526482 -0.1378057 0.039610699
-0.25546134 -0.13773143 0.039547928
-0.25566086 -0.13765725 0.039475936
-0.25585714 -0.13758326 0.039412018
-0.25604528 -0.13750952 0.039370034
-0.2562311 -0.13743593 0.039333813
-0.25641263 -0.13736248 0.039309129
-0.25659147 -0.13728915 0.039291382
-0.25677615 -0.13721453 0.039265536
-0.25694656 -0.13714275 0.039261635
-0.25711393 -0.13706839 0.039284259
-0.25728369 -0.13699675 0.039281517
-0.25745326 -0.13692246 0.039297219
-0.25762072 -0.13685094 0.039300244
-0.25777978 -0.13677539 0.039355177
-0.25793758 -0.13670392 0.039385892
-0.25808591 -0.13663107 0.039453533
-0.25823784 -0.13655823 0.039510783
-0.25839531 -0.13648269 0.03957032
-0.25853792 -0.13640974 0.039655264
-0.25868061 -0.13633677 0.039740212
-0.25882417 -0.13626376 0.039822843
-0.25896752 -0.13618934 0.039915863
-0.25911364 -0.1361149 0.0400008
-0.25925401 -0.13604173 0.040093817
-0.25939411 -0.13596851 0.040187996
-0.25953549 -0.13589525 0.040278703
-0.25968012 -0.13582061 0.04036941
-0.25981081 -0.135747 0.040493581
-0.25993907 -0.13567324 0.040625826
-0.26007038 -0.13559803 0.040759221
-0.26019758 -0.13552403 0.040896088
-0.26032659 -0.13544711 0.041047942
-0.26044694 -0.13537267 0.041207876
-0.26055992 -0.13529782 0.041392047
-0.26067394 -0.13522285 0.041573912
-0.26078635 -0.13514471 0.041782286
-0.25642368 -0.13412234 0.061468646
-0.25664979 -0.13403924 0.061380446
-0.2568529 -0.13395663 0.06135571
-0.25703397 -0.13387091 0.061416335
-0.25724363 -0.1337889 0.061368532
-0.25744388 -0.1337117 0.061314981
-0.2576617 -0.13362336 0.061286744
-0.25786203 -0.13354462 0.061243575
-0.25804317 -0.13346274 0.061277695
-0.25824657 -0.133379 0.061259866
-0.2584492 -0.13329712 0.061231673
-0.25862429 -0.13321123 0.061310772
-0.25881714 -0.13314694 0.061190382
-0.25903925 -0.13304499 0.061242834
-0.25925097 -0.13296059 0.061205402
-0.2594507 -0.1328789 0.061184123
-0.25965646 -0.13279787 0.06114094
-0.25984696 -0.13272482 0.061087415
-0.26004127 -0.13264291 0.061083451
-0.26026753 -0.13255115 0.061054043
-0.26043287 -0.13247396 0.06110204
-0.26066402 -0.13238668 0.061027661
-0.26084247 -0.13230528 0.061066397
-0.26101437 -0.13223271 0.061063647
-0.26118037 -0.13215759 0.061095495
-0.26143584 -0.13206978 0.060954183
-0.26160321 -0.13198534 0.061045986
-0.26181886 -0.13190666 0.060957804
-0.26199061 -0.13182859 0.060993098
-0.26219472 -0.13174875 0.060946465
-0.26236725 -0.13167086 0.060978301
-0.26259562 -0.13158259 0.060918909
-0.26277855 -0.13150619 0.060910363
-0.26297143 -0.13142724 0.060890265
-0.26320636 -0.13133232 0.060857385
-0.26340142 -0.13126592 0.060745038
-0.26358065 -0.13118133 0.060803376
-0.26380694 -0.13109359 0.060746297
-0.26398945 -0.13102578 0.06068011
-0.26417959 -0.1309389 0.060722284
-0.26436925 -0.13086015 0.060710259
-0.26457947 -0.13078681 0.060601354
-0.2647807 -0.13068952 0.060682684
-0.26495984 -0.13061135 0.060697209
-0.26515633 -0.1305403 0.060612537
-0.26535761 -0.13044097 0.060707703
-0.26556674 -0.13035765 0.060670279
-0.26574868 -0.13028654 0.060628302
-0.26593503 -0.13020785 0.060625512
-0.2661173 -0.13012633 0.060653862
-0.26631454 -0.13004336 0.060648747
-0.26656055 -0.12995903 0.060510911
-0.26672837 -0.12987491 0.060599253
-0.2669093 -0.12979984 0.060587257
-0.26709798 -0.12973076 0.060511835
-0.26727915 -0.12966032 0.060467549
-0.26748011 -0.12956987 0.060502771
-0.26769006 -0.12949462 0.060407691
-0.26785746 -0.1294238 0.060406104
-0.26806495 -0.12933496 0.060411334
-0.26826173 -0.12924829 0.060432728
-0.26842827 -0.12917969 0.060418472
-0.2686283 -0.12909839 0.060393743
-0.2688238 -0.12901159 0.060419746
-0.26899907 -0.12893608 0.060427364
-0.26919025 -0.12886442 0.060362313
-0.26938742 -0.12878282 0.060347971
-0.26960659 -0.12869744 0.060295522
-0.26979795 -0.1286146 0.060306553
-0.26999742 -0.12853858 0.060247242
-0.27018908 -0.12845358 0.060272109
-0.27038282 -0.12837394 0.060254317
-0.27057543 -0.12829646 0.060224995
-0.27077591 -0.12821883 0.06017375
-0.27095634 -0.12814063 0.06018481
-0.27113149 -0.12807073 0.060154386
-0.27134085 -0.12797891 0.060174592
-0.27154234 -0.12789713 0.060148712
-0.27172634 -0.12782516 0.060106732
-0.27190077 -0.12774798 0.060128186
-0.27210668 -0.12766284 0.06011267
-0.27230743 -0.12758376 0.060070649
-0.2724933 -0.12750778 0.060050569
-0.27263704 -0.12744395 0.060069792
-0.27284476 -0.12735721 0.060060039
-0.27303648 -0.12728077 0.060026109
-0.27324107 -0.12719838 0.059995599
-0.27343214 -0.12711936 0.059981279
-0.27360108 -0.12705123 0.059956625
-0.27381623 -0.12695967 0.059958376
-0.27397946 -0.12688705 0.059981011
-0.27417687 -0.12681326 0.059912484
-0.27435669 -0.12674138 0.059882037
-0.27455539 -0.12665761 0.059878066
-0.27475649 -0.12657483 0.059860252
-0.27493536 -0.12650016 0.059851721
-0.2751154 -0.12641774 0.059892759
-0.27529705 -0.12634978 0.059830032
-0.27549577 -0.12627476 0.059766117
-0.27566195 -0.12620378 0.059769146
-0.27585647 -0.12611891 0.059784785
-0.27604684 -0.12604372 0.059746243
-0.27623764 -0.12596601 0.05972385
-0.27641413 -0.12589385 0.059704948
-0.27662233 -0.12580352 0.05971824
-0.27679524 -0.12573287 0.059699349
-0.27698627 -0.1256527 0.059693091
-0.27713147 -0.12556687 0.059858728
-0.27737284 -0.12549162 0.05967249
-0.27754968 -0.12542014 0.059647821
-0.27772665 -0.12535182 0.059601251
-0.27793786 -0.12526643 0.059571885
-0.27811116 -0.12519665 0.059546072
-0.27830192 -0.12511387 0.059558257
-0.27848524 -0.12503681 0.059553169
-0.278649 -0.12496248 0.059586179
-0.27884978 -0.1248849 0.059533782
-0.27904037 -0.12480541 0.059524067
-0.27923155 -0.12473593 0.059444018
-0.27942032 -0.1246525 0.059466593
-0.27957854 -0.12458507 0.059468493
-0.27976555 -0.12450726 0.059457637
-0.27992952 -0.12443653 0.059465278
-0.28012487 -0.12435689 0.059442863
-0.28029767 -0.12428124 0.059458569
-0.28050762 -0.12420684 0.059357718
-0.28068706 -0.12413527 0.059326135
-0.28086185 -0.12405761 0.059349887
-0.2810472 -0.12398287 0.059322894
-0.28124169 -0.12389988 0.059325852
-0.28142235 -0.12382595 0.059306934
-0.28160802 -0.12375528 0.059251115
-0.28177804 -0.12367476 0.05930832
-0.28195798 -0.12359338 0.059342448
-0.28216299 -0.12352125 0.05924046
-0.28234357 -0.1234514 0.059193879
-0.28252763 -0.12336929 0.059221067
-0.28269073 -0.12329137 0.059280597
-0.28288054 -0.12323206 0.059134845
-0.28306928 -0.12314579 0.059177019
-0.28326541 -0.12306479 0.059161521
-0.28344876 -0.12299393 0.059113778
-0.28362173 -0.12291939 0.059121408
-0.28380856 -0.12284353 0.059097856
-0.28398284 -0.12277011 0.059093952
-0.2841607 -0.12269551 0.05908772
-0.28435203 -0.12261537 0.05908031
-0.28451949 -0.12254485 0.059076428
-0.28470933 -0.12247192 0.059024051
-0.28490177 -0.12239719 0.058976289
-0.28507531 -0.12231939 0.059004661
-0.28525558 -0.12223451 0.059061833
-0.28544536 -0.1221621 0.059006013
-0.28562358 -0.12209275 0.058962896
-0.28578678 -0.12202774 0.058933645
-0.28598738 -0.1219435 0.058927368
-0.28617033 -0.12186103 0.058960326
-0.28636035 -0.12178969 0.058896426
-0.28655225 -0.12170661 0.058907457
-0.28672302 -0.12163553 0.058897793
-0.2869125 -0.12156897 0.058802769
-0.28709799 -0.12148441 0.058842637
-0.28725761 -0.12141183 0.058875658
-0.28744 -0.1213434 0.058814086
-0.28762606 -0.12126431 0.05881476
-0.28779006 -0.12119643 0.058802806
-0.2879889 -0.12112137 0.058738884
-0.28815317 -0.12104379 0.058792643
-0.28834662 -0.12096813 0.058748335
-0.28854853 -0.12088671 0.058718994
-0.28871128 -0.12081785 0.058717415
-0.28888139 -0.12074166 0.058744647
-0.28903267 -0.12066421 0.058835335
-0.28923213 -0.1205966 0.058718376
-0.28941694 -0.12053338 0.058614135
-0.28959095 -0.1204567 0.058633283
-0.28978062 -0.12037744 0.05862473
-0.2899614 -0.12030396 0.058602355
-0.29014325 -0.12023205 0.058566146
-0.29031849 -0.12016918 0.058487296
-0.29050568 -0.12008087 0.058547918
-0.29068935 -0.1199996 0.058570493
-0.29087311 -0.11993109 0.058505461
-0.29104513 -0.11985796 0.058506176
-0.29122853 -0.11978287 0.058487251
-0.29140741 -0.11970735 0.058484487
-0.29159126 -0.11963324 0.058457486
-0.29177612 -0.1195609 0.05841551
-0.29194793 -0.11948078 0.058464639
-0.29212496 -0.11940941 0.058438819
-0.29230729 -0.11934033 0.058381855
-0.29249445 -0.11925825 0.058399819
-0.29268101 -0.11917492 0.058428157
-0.29284245 -0.11911284 0.058383927
-0.29300946 -0.11905396 0.058301643
-0.29319847 -0.11898356 0.058234286
-0.29339501 -0.1188965 0.058259144
-0.29356033 -0.1188188 0.058310594
-0.29374692 -0.11874388 0.058281288
-0.2939204 -0.11867502 0.058248561
-0.29410478 -0.11859563 0.058256157
-0.29428247 -0.11851876 0.058266077
-0.29446802 -0.11844208 0.058251765
-0.29465935 -0.1183606 0.058253571
-0.29485771 -0.11828724 0.058179274
-0.29504037 -0.11821347 0.058153436
-0.29520258 -0.11813643 0.058209509
-0.29535052 -0.118072 0.058220655
-0.29554498 -0.11799961 0.058150984
-0.29572463 -0.11792864 0.058114778
-0.29590836 -0.11785896 0.058057815
-0.2960647 -0.11778609 0.058102369
-0.29624346 -0.11771297 0.058083463
-0.29642668 -0.11764249 0.058033414
-0.29660267 -0.11756028 0.058084842
-0.29678854 -0.11748651 0.058049772
-0.29696909 -0.11740706 0.058068909
-0.29714918 -0.1173396 0.058007337
-0.29733947 -0.11725536 0.058031056
-0.29754761 -0.11716945 0.058014371
-0.29772639 -0.11709766 0.057986245
-0.29790583 -0.11702929 0.057932749
-0.29809013 -0.1169503 0.057938036
-0.29826927 -0.11688138 0.057889149
-0.29845062 -0.11680581 0.057879459
-0.29862908 -0.116734 0.057852484
-0.29880506 -0.11664791 0.057930421
-0.29895961 -0.11658052 0.057942703
-0.29915127 -0.11650326 0.057914544
-0.29932621 -0.11643175 0.057895645
-0.29952067 -0.11635012 0.057889376
-0.29968596 -0.11628474 0.057856675
-0.29984722 -0.11621533 0.057863172
-0.30000791 -0.11614011 0.057911173
-0.30020806 -0.11608148 0.057730809
-0.30039611 -0.11600677 0.057695732
-0.30059314 -0.11591732 0.057735574
-0.30076164 -0.11585477 0.057674035
-0.30093634 -0.11578522 0.057642464
-0.30111045 -0.11570565 0.05768121
-0.30131102 -0.11561436 0.057723343
-0.30148876 -0.11553628 0.057741329
-0.30166003 -0.11546364 0.057740893
-0.30184799 -0.11539385 0.057672381
-0.30200931 -0.11532056 0.057705395
-0.3021872 -0.11525705 0.057623081
-0.30237493 -0.11517373 0.057647966
-0.30254295 -0.11509808 0.057677504
-0.30270737 -0.11504266 0.057579085
-0.30287215 -0.11496874 0.057606325
-0.30305588 -0.11490933 0.057479031
-0.3032499 -0.11483091 0.057452012
-0.3034274 -0.1147595 0.057425041
-0.30359823 -0.11469209 0.057390012
-0.30377579 -0.11461898 0.057374567
-0.30395344 -0.11454464 0.057367194
-0.30413792 -0.11446454 0.057379395
-0.30433187 -0.11438532 0.057358146
-0.30450913 -0.11431484 0.057325408
-0.3046931 -0.11424036 0.057300717
-0.3048839 -0.11416044 0.057293307
-0.30504248 -0.11408915 0.057320565
-0.30522346 -0.11401357 0.057312027
-0.30541107 -0.113935 0.057304624
-0.30559149 -0.11386354 0.057269581
-0.30575252 -0.11379761 0.057253018
-0.30593413 -0.11371804 0.057269834
-0.30612409 -0.11364405 0.057224389
-0.3063131 -0.11357482 0.057148967
-0.30648968 -0.11349 0.057216525
-0.30667168 -0.11340944 0.057239115
-0.30683938 -0.1133405 0.057223689
-0.30702969 -0.11326399 0.057194382
-0.30720562 -0.11319864 0.057130512
-0.30737662 -0.11312796 0.057117391
-0.3075344 -0.11304977 0.057194225
-0.3077395 -0.11297355 0.05711991
-0.30790347 -0.11290772 0.057094127
-0.30806196 -0.11283998 0.057097174
-0.30825326 -0.11275919 0.057094373
-0.3084285 -0.11268386 0.057100832
-0.30861276 -0.11260772 0.057086527
-0.30878595 -0.11254016 0.057045724
-0.30897731 -0.11245951 0.057041772
-0.30916408 -0.11238484 0.057010166
-0.30934006 -0.11230733 0.057029307
-0.30952063 -0.11223412 0.057005785
-0.30970204 -0.11215819 0.056998394
-0.30988395 -0.11208978 0.056937978
-0.31005749 -0.11202055 0.056907557
-0.31023183 -0.11194881 0.056892119
-0.3104004 -0.11187731 0.05689168
-0.31059095 -0.11179952 0.056870438
-0.31076851 -0.11172675 0.056852683
-0.31092244 -0.11166517 0.056826919
-0.31110919 -0.11158226 0.056851808
-0.31131148 -0.11151094 0.05675213
-0.31149229 -0.1114292 0.05678625
-0.31167409 -0.1113526 0.056782328
-0.31182694 -0.11129383 0.056740422
-0.31201631 -0.11121199 0.056750309
-0.31216559 -0.11115525 0.056704964
-0.31235141 -0.1110756 0.056710247
-0.31252453 -0.11100721 0.056675211
-0.31271768 -0.11093002 0.056642428
-0.31288227 -0.1108491 0.056718096
-0.31307834 -0.11077805 0.056634586
-0.31323418 -0.11071836 0.056590363
-0.31342381 -0.11063036 0.056641765
-0.31361729 -0.11055251 0.056612439
-0.31382325 -0.11045858 0.056656875
-0.31399837 -0.11038583 0.056646042
-0.31416902 -0.11032894 0.056539536
-0.31433472 -0.11025916 0.056535646
-0.31450555 -0.11018419 0.056552492
-0.31469822 -0.11010247 0.056551997
-0.314854 -0.11003152 0.056585029
-0.31501624 -0.10996389 0.056576543
-0.31520289 -0.10989499 0.056505736
-0.3154228 -0.10980104 0.056509778
-0.31559721 -0.1097355 0.056451682
-0.31575423 -0.10966789 0.05645819
-0.31595501 -0.10958104 0.056469206
-0.31613481 -0.10951506 0.05639841
-0.31631684 -0.10943954 0.056386407
-0.3164714 -0.10938189 0.056331825
-0.31665215 -0.10929413 0.056407444
-0.31684285 -0.10921712 0.056380436
-0.31702676 -0.10913356 0.056418009
-0.31721282 -0.10906054 0.05637718
-0.31736937 -0.1090039 0.056309905
-0.31754819 -0.10892537 0.056327887
-0.31774449 -0.10883386 0.056383874
-0.31793138 -0.10875494 0.056381088
-0.31812465 -0.10868273 0.056313716
-0.31830338 -0.10860929 0.05629712
-0.31849036 -0.10853469 0.056264352
-0.31867173 -0.10845675 0.056270804
-0.31885046 -0.10838348 0.056253046
-0.31901169 -0.10832284 0.056199595
-0.31916445 -0.10825956 0.056188826
-0.31934816 -0.10819882 0.05607076
-0.31954211 -0.10811269 0.056096777
-0.31972659 -0.10803007 0.056126267
-0.31987765 -0.10796969 0.056100521
-0.32004121 -0.10790117 0.05609433
-0.32024601 -0.1078022 0.056176811
-0.32043666 -0.10773784 0.056063332
-0.32062545 -0.10766061 0.056043245
-0.32080123 -0.10758472 0.056052011
-0.32099614 -0.10750576 0.05602615
-0.32116675 -0.10743424 0.056019939
-0.32134852 -0.10737179 0.05591917
-0.3215262 -0.10729694 0.055915255
-0.32169804 -0.10722002 0.055942476
-0.32190502 -0.10713039 0.05595462
-0.3220861 -0.10705797 0.055924185
-0.32224712 -0.10699387 0.055894941
-0.3224138 -0.10692857 0.055857621
-0.32260504 -0.1068483 0.055851363
-0.32280514 -0.10676916 0.055811644
-0.32298952 -0.1066886 0.055827312
-0.32316861 -0.1066192 0.055781886
-0.32335436 -0.10653688 0.055805616
-0.32352409 -0.10646407 0.055810943
-0.32368919 -0.10640447 0.055739038
-0.32384154 -0.10634288 0.055717893
-0.32403451 -0.106241 0.055854581
-0.32423571 -0.10616729 0.055774517
-0.32441607 -0.10609635 0.055736005
-0.32459858 -0.10601929 0.055733226
-0.32480004 -0.10593551 0.055721171
-0.32496828 -0.10586534 0.05571267
-0.32515413 -0.10579965 0.055622265
-0.32535422 -0.10570855 0.055664405
-0.32552731 -0.10563514 0.055663954
-0.32568988 -0.10557579 0.055597823
-0.32588384 -0.1054932 0.05559963
-0.32605827 -0.10542123 0.055585343
-0.32623321 -0.10534266 0.055614863
-0.32639712 -0.10528156 0.055556793
-0.32660583 -0.10518025 0.055643879
-0.32677794 -0.10512038 0.055553503
-0.32694244 -0.10505851 0.055498891
-0.32713813 -0.10498007 0.055467263
-0.32734025 -0.10489064 0.055492103
-0.32750097 -0.10483072 0.055435196
-0.32767242 -0.10475447 0.055458967
-0.32784408 -0.10468655 0.055425085
-0.32802159 -0.10462254 0.05534739
-0.32824636 -0.10451947 0.055399835
-0.32842696 -0.10444336 0.055395916
-0.32858503 -0.10438677 0.055324018
-0.32876414 -0.10430171 0.055385813
-0.32895941 -0.1042189 0.055385306
-0.32914233 -0.10414837 0.055336423
-0.32932964 -0.10406995 0.055329014
-0.32951081 -0.10399361 0.055325091
-0.32971162 -0.10390979 0.055315346
-0.32988912 -0.10383014 0.055344868
-0.33004668 -0.10377678 0.055252224
-0.33024684 -0.1036939 0.055237871
-0.33043307 -0.10361458 0.055239704
-0.33059502 -0.10355599 0.055170104
-0.33075482 -0.10349478 0.05512473
-0.33095181 -0.10340568 0.055162266
-0.33114067 -0.1033286 0.055141028
-0.33134145 -0.10324042 0.05516126
-0.33153182 -0.10316674 0.055112351
-0.33170763 -0.10308747 0.055144176
-0.33189732 -0.10301711 0.055074513
-0.33207482 -0.10294099 0.055079814
-0.33227527 -0.10285126 0.05511158
-0.33244702 -0.10278178 0.055088073
-0.33263069 -0.10270624 0.055071458
-0.33279952 -0.10264491 0.055000704
-0.33297765 -0.10257794 0.054941446
-0.33317658 -0.10248331 0.05501125
-0.33337894 -0.10240152 0.054983057
-0.33354065 -0.10233865 0.054943446
-0.33372658 -0.10226098 0.054934893
-0.33392134 -0.10217837 0.05493439
-0.33412635 -0.10209394 0.054916568
-0.33431056 -0.1020138 0.054929927
-0.33449519 -0.1019424 0.054882184
-0.33467841 -0.10187024 0.054843664
-0.33484238 -0.1018007 0.054843236
-0.33504105 -0.10171442 0.054856557
-0.33521271 -0.101648 0.054812312
-0.33539709 -0.10156593 0.054838344
-0.3355923 -0.10148802 0.054804407
-0.33577329 -0.10141632 0.054769348
-0.3359538 -0.10133857 0.054776952
-0.33612412 -0.10127594 0.054710798
-0.33633304 -0.10119253 0.054674521
-0.33648917 -0.10113171 0.054637227
-0.33668715 -0.10103831 0.054701276
-0.33689517 -0.10094757 0.054718036
-0.33710456 -0.10085977 0.054710574
-0.33726203 -0.10079988 0.054662902
-0.33745208 -0.10071725 0.054676246
-0.33764592 -0.10063925 0.054646917
-0.3378284 -0.10056657 0.054614164
-0.33801791 -0.10048889 0.054595225
-0.33819574 -0.10041481 0.054585546
-0.3383916 -0.10033292 0.054576974
-0.33855942 -0.10026696 0.054540794
-0.33876055 -0.10018199 0.054537974
-0.33894473 -0.10010791 0.054509826
-0.33915058 -0.10002246 0.054496616
-0.33934921 -0.09994024 0.05448227
-0.33952487 -0.099866748 0.054474894
-0.33969551 -0.099800259 0.054434098
-0.3398903 -0.099712089 0.054471646
-0.34007648 -0.099640369 0.054421593
-0.34026983 -0.099559709 0.054411866
-0.34045208 -0.099487968 0.054373346
-0.34065199 -0.099403009 0.054373991
-0.34083554 -0.099328198 0.05435276
-0.3410055 -0.09925881 0.054333873
-0.34123963 -0.099158496 0.054340187
-0.34139776 -0.099098668 0.054290202
-0.34158939 -0.099018231 0.054283939
-0.34177896 -0.098939851 0.054269619
-0.34197065 -0.098861411 0.054249525
-0.34216607 -0.098781392 0.05422942
-0.34235442 -0.098704368 0.054209333
-0.34253836 -0.098633423 0.054160435
-0.34273928 -0.098544665 0.054184131
-0.34292933 -0.0984644 0.054181334
-0.34310219 -0.098392941 0.054168198
-0.34328526 -0.098319337 0.054140061
-0.34349108 -0.098235577 0.054115321
-0.25487828 -0.13793963 0.039817229
-0.25508681 -0.13786601 0.039715223
-0.2552973 -0.1377912 0.039615523
-0.25549534 -0.1377168 0.03954928
-0.25569054 -0.13764259 0.039489973
-0.2558834 -0.13756855 0.039436441
-0.25607386 -0.13749467 0.039388672
-0.25625834 -0.13742097 0.039357074
-0.25643891 -0.13734742 0.039335851
-0.25661886 -0.13727397 0.03931579
-0.25679699 -0.13720059 0.039300341
-0.25697616 -0.13712731 0.039281432
-0.25714222 -0.13705283 0.039308675
-0.25731105 -0.13698106 0.039309397
-0.25747293 -0.13690802 0.039338954
-0.25763756 -0.13683499 0.039360445
-0.25779894 -0.13676067 0.03940038
-0.25795865 -0.1366877 0.039435718
-0.25811133 -0.13661335 0.039501045
-0.25826591 -0.13654038 0.039551381
-0.25841478 -0.13646461 0.03963748
-0.25856084 -0.13639155 0.039713211
-0.25870824 -0.13631709 0.039794695
-0.25885022 -0.13624391 0.039883118
-0.25899559 -0.13616794 0.039980751
-0.259137 -0.13609466 0.040071476
-0.25927851 -0.13602135 0.040162202
-0.25942013 -0.13594797 0.040252939
-0.25956389 -0.1358732 0.040347118
-0.25969633 -0.13579953 0.040466696
-0.25983623 -0.13572453 0.040573567
-0.25996304 -0.13565055 0.040711604
-0.26009402 -0.13557513 0.040847328
-0.26021793 -0.13550085 0.040995758
-0.26034445 -0.13542362 0.041156854
-0.26046526 -0.13534898 0.041316826
-0.26058224 -0.13527261 0.041499861
-0.26069409 -0.13519587 0.041700199
-0.26080239 -0.1351188 0.041913241
-0.25650811 -0.13408887 0.061452404
-0.25672615 -0.13400516 0.061391883
-0.25692227 -0.13392197 0.061391376
-0.25711226 -0.13383669 0.061423171
-0.25731745 -0.13375957 0.061354622
-0.25753513 -0.13367097 0.061328694
-0.2577374 -0.13358854 0.061305113
-0.25790924 -0.13351296 0.061323114
-0.25813994 -0.13342202 0.061275251
-0.25833654 -0.13333762 0.061281659
-0.25851554 -0.13326643 0.061248917
-0.2586495 -0.1331916 0.061371952
-0.25891906 -0.13310252 0.061198294
-0.25911766 -0.13300937 0.061258893
-0.25933653 -0.1329236 0.061209902
-0.25954109 -0.13284038 0.061185166
-0.25975227 -0.13275973 0.061123513
-0.25995055 -0.132678 0.061106861
-0.26016352 -0.13259593 0.061049812
-0.26034573 -0.13251275 0.061089694
-0.26055124 -0.13243012 0.061058037
-0.26074255 -0.13234799 0.061064459
-0.26093078 -0.13226748 0.061068594
-0.26108468 -0.1321985 0.061093565
-0.26132402 -0.13211432 0.060974192
-0.26152125 -0.13202932 0.060982898
-0.26168308 -0.13195564 0.061017081
-0.26190084 -0.13186935 0.060975
-0.26208487 -0.13179263 0.060965307
-0.26230007 -0.13171214 0.060890958
-0.26250741 -0.13162488 0.060885813
-0.2626991 -0.13154155 0.060899161
-0.26288363 -0.1314712 0.060844496
-0.26307011 -0.13137932 0.060931642
-0.26331428 -0.13128552 0.060864143
-0.26348487 -0.13120946 0.060889065
-0.26368815 -0.1311342 0.060813591
-0.26389888 -0.131046 0.060804989
-0.26410779 -0.13096985 0.060719125
-0.26427311 -0.13088711 0.060805179
-0.2645027 -0.13081448 0.060635082
-0.26470914 -0.13071986 0.060682986
-0.26487017 -0.13064887 0.06070102
-0.26504067 -0.13057116 0.060737479
-0.26527661 -0.1304795 0.060679216
-0.26544559 -0.13040581 0.060692623
-0.26565725 -0.13031437 0.060703605
-0.2658267 -0.13024721 0.06067089
-0.26602 -0.1301696 0.060640413
-0.26621392 -0.13008365 0.06066528
-0.26642072 -0.13000014 0.060635917
-0.26664221 -0.1299153 0.060573086
-0.26681462 -0.12984487 0.060554199
-0.26703104 -0.12975931 0.060510974
-0.26720345 -0.12968686 0.060505915
-0.26738676 -0.12960793 0.060513519
-0.26762542 -0.1295163 0.060447186
-0.26780403 -0.12944543 0.060413286
-0.26795861 -0.12936944 0.06048438
-0.26817694 -0.12928273 0.060443461
-0.26834831 -0.12921274 0.060424574
-0.2685335 -0.12913689 0.060405649
-0.26874164 -0.12905046 0.060392424
-0.26890928 -0.12897298 0.060435802
-0.26909465 -0.12889738 0.060414579
-0.2693136 -0.12881613 0.060334455
-0.26951793 -0.12873149 0.060320091
-0.26971769 -0.12865047 0.060294218
-0.26991925 -0.12857004 0.0602591
-0.27009001 -0.12849121 0.060302485
-0.27029306 -0.12840895 0.060275443
-0.27050284 -0.12832622 0.060232237
-0.27068776 -0.12825133 0.060207542
-0.27086467 -0.12817191 0.060237065
-0.2710616 -0.12810051 0.060153544
-0.27126479 -0.128014 0.060155325
-0.27145171 -0.1279327 0.060168684
-0.27164236 -0.12785251 0.06016358
-0.27181935 -0.12777829 0.060157362
-0.2720167 -0.12769778 0.06013494
-0.27220291 -0.12761897 0.060133316
-0.27240118 -0.12753892 0.060105123
-0.27259007 -0.12746873 0.060036615
-0.27276775 -0.12738749 0.060076516
-0.27294734 -0.12731199 0.060071439
-0.27314201 -0.12723634 0.060023665
-0.27334684 -0.12714861 0.060028903
-0.27349627 -0.12708406 0.060036585
-0.27372259 -0.1269933 0.060000263
-0.27389318 -0.12691504 0.060040176
-0.27407801 -0.12684979 0.059949778
-0.27426934 -0.12677099 0.059933141
-0.27446994 -0.12669028 0.059902646
-0.27463561 -0.1266185 0.059912588
-0.27485076 -0.12652978 0.059894748
-0.27502537 -0.12645875 0.059873544
-0.27520651 -0.12638479 0.059853464
-0.27542081 -0.12630165 0.05979988
-0.2755942 -0.12623602 0.059745237
-0.27577841 -0.1261552 0.059763215
-0.27596143 -0.12607674 0.059768513
-0.27616161 -0.12599687 0.059733402
-0.27635285 -0.12591913 0.059709847
-0.27654523 -0.12583621 0.059718579
-0.2767123 -0.12576568 0.059715845
-0.27690536 -0.12568313 0.059719965
-0.27704865 -0.12560214 0.059857953
-0.27719921 -0.12552719 0.05993367
-0.27747554 -0.12544668 0.059681594
-0.27765158 -0.12538363 0.059601583
-0.27784097 -0.12530281 0.059604552
-0.27803877 -0.12521689 0.059617884
-0.27822548 -0.12514409 0.059573583
-0.27840468 -0.12506776 0.059575435
-0.27858078 -0.12499306 0.059574984
-0.27875903 -0.12491948 0.059560686
-0.27896905 -0.12483058 0.059558988
-0.27914605 -0.12475972 0.059529714
-0.27934051 -0.12468532 0.059473865
-0.27951756 -0.12460501 0.059509158
-0.27969494 -0.12453466 0.059475258
-0.2798619 -0.12446857 0.05944255
-0.28004143 -0.12438972 0.059460532
-0.28023383 -0.12431149 0.059436977
-0.28042343 -0.12423176 0.059431881
-0.28061473 -0.12415988 0.05936797
-0.28079161 -0.12408654 0.059355982
-0.28098086 -0.12401032 0.059327826
-0.2811583 -0.12393051 0.0593585
-0.28134701 -0.12385064 0.059356865
-0.28152123 -0.12378298 0.059313748
-0.28171858 -0.12370163 0.059297096
-0.28188509 -0.12363286 0.059283987
-0.28208861 -0.12354486 0.059294999
-0.28226367 -0.12346725 0.059317611
-0.28245386 -0.12338877 0.059302129
-0.28262702 -0.12331735 0.05928785
-0.28279936 -0.12324544 0.059279338
-0.28301263 -0.12316457 0.059213061
-0.28318915 -0.12309206 0.059196465
-0.28338704 -0.12301201 0.059169438
-0.28357011 -0.12293673 0.059152819
-0.28374261 -0.12286542 0.059139691
-0.28392565 -0.12279031 0.059121929
-0.2841157 -0.12270868 0.059128359
-0.28428957 -0.12263461 0.059130214
-0.28447109 -0.12256671 0.059067488
-0.28465477 -0.12249251 0.059041649
-0.28485906 -0.12241041 0.059009984
-0.28503129 -0.12234376 0.058965724
-0.28520539 -0.12226184 0.059020624
-0.28539315 -0.12217867 0.059044361
-0.28559163 -0.12210492 0.058972359
-0.28577167 -0.12204137 0.058884259
-0.28595752 -0.12196119 0.05889301
-0.28614095 -0.12186976 0.058985934
-0.28632402 -0.12180507 0.058896687
-0.28649622 -0.1217211 0.058971193
-0.28667468 -0.12165231 0.058923446
-0.28688237 -0.121575 0.058849126
-0.2870588 -0.12149511 0.058883257
-0.2871989 -0.12142139 0.058980912
-0.28739622 -0.12135807 0.058840889
-0.28758857 -0.12128019 0.058815025
-0.2877571 -0.12121174 0.058793835
-0.28795028 -0.12112998 0.058792189
-0.28813037 -0.12104905 0.058822852
-0.28831413 -0.12098256 0.058743976
-0.28850225 -0.12090042 0.058759637
-0.28868985 -0.12082303 0.058744159
-0.28885716 -0.12075915 0.058695309
-0.2890321 -0.12068294 0.058708683
-0.28920361 -0.120608 0.058723241
-0.28940478 -0.12053127 0.05866392
-0.28958574 -0.12046293 0.058605798
-0.28976542 -0.1203874 0.058600724
-0.28994733 -0.12030906 0.058608323
-0.29013395 -0.12023716 0.058558267
-0.29032761 -0.12016327 0.058501273
-0.29049388 -0.12008131 0.058579244
-0.29066908 -0.12000582 0.058586873
-0.29085636 -0.11992925 0.058566779
-0.29104504 -0.11985494 0.058527093
-0.29122505 -0.11978045 0.058513947
-0.2914111 -0.11970238 0.058507703
-0.29158735 -0.11962881 0.058499187
-0.29177377 -0.11955143 0.058487169
-0.29194421 -0.11948217 0.05846598
-0.29212072 -0.11940932 0.058451686
-0.29231623 -0.11933381 0.058400452
-0.29249427 -0.11925662 0.058411524
-0.29268026 -0.11917907 0.058401819
-0.29285654 -0.11910617 0.058388684
-0.29303142 -0.1190463 0.058290225
-0.29321802 -0.11897037 0.058267836
-0.29339847 -0.11888222 0.058346935
-0.29356632 -0.11880883 0.058361493
-0.29375353 -0.11873432 0.058327578
-0.29394111 -0.11866082 0.058285583
-0.29411769 -0.11858946 0.058260914
-0.29429677 -0.11851502 0.058250081
-0.29447925 -0.11843947 0.058236919
-0.29466125 -0.11836279 0.058232993
-0.29486012 -0.11828013 0.058220953
-0.29505277 -0.11820129 0.058200859
-0.29522875 -0.11811906 0.058252294
-0.29538113 -0.11806589 0.0581735
-0.29555419 -0.11799654 0.058145378
-0.29574981 -0.11791608 0.058127571
-0.29593432 -0.11783631 0.058137484
-0.29608771 -0.11777632 0.058102496
-0.29626033 -0.11770646 0.058078986
-0.29644492 -0.117627 0.058086589
-0.29661921 -0.11755038 0.058104582
-0.29680532 -0.11747616 0.058071822
-0.29697859 -0.1173956 0.058119807
-0.29716557 -0.11732489 0.058060512
-0.2973541 -0.1172466 0.058048502
-0.29755941 -0.11716238 0.05802837
-0.29773861 -0.11709093 0.057996776
-0.29792482 -0.11701886 0.057949029
-0.2981064 -0.11694252 0.057943948
-0.29828435 -0.11686587 0.057951555
-0.29846299 -0.11679263 0.057933807
-0.29864609 -0.1167249 0.05786531
-0.29880294 -0.11664911 0.057928316
-0.29898885 -0.11657784 0.057875954
-0.29915693 -0.11650538 0.05788359
-0.29933491 -0.11642871 0.057891205
-0.2995283 -0.11633626 0.057962202
-0.29967585 -0.11626525 0.058019474
-0.29984668 -0.11621436 0.057871439
-0.30002302 -0.11615387 0.057772983
-0.3002446 -0.11606696 0.057723977
-0.30042851 -0.11598037 0.057782318
-0.30058947 -0.11590302 0.057844162
-0.30078495 -0.11583156 0.057765253
-0.30095693 -0.11576653 0.057710622
-0.30112484 -0.11569009 0.057745937
-0.30129632 -0.11561552 0.057758175
-0.30148456 -0.11554089 0.057721946
-0.30164304 -0.11547906 0.057684645
-0.30185094 -0.1153951 0.057655279
-0.30201253 -0.11532622 0.057657167
-0.30217749 -0.1152635 0.057607163
-0.3023721 -0.11517878 0.057621654
-0.30252731 -0.11509964 0.05771235
-0.30272797 -0.11504332 0.057514664
-0.30288619 -0.11497808 0.057501569
-0.30307364 -0.11491053 0.057419218
-0.3032783 -0.1148175 0.057461359
-0.30345577 -0.11475216 0.057392873
-0.30364388 -0.11466901 0.057415448
-0.30381921 -0.11458655 0.057470344
-0.30398706 -0.11452025 0.057436474
-0.30416554 -0.11444069 0.057462536
-0.3043589 -0.11437198 0.05737095
-0.30452386 -0.11430133 0.05737514
-0.30471489 -0.11422284 0.057357345
-0.30489314 -0.11414657 0.057361506
-0.30506378 -0.11408109 0.057313785
-0.30524236 -0.11400232 0.057334088
-0.30542722 -0.11392358 0.057335913
-0.30560431 -0.11385571 0.057285883
-0.30577245 -0.11378541 0.057278529
-0.3059243 -0.11372083 0.057279289
-0.30611342 -0.11363541 0.057314545
-0.30631393 -0.11355525 0.057280593
-0.30649924 -0.11347497 0.057291649
-0.30667579 -0.11340884 0.057231236
-0.30685371 -0.1133354 0.05721695
-0.30703306 -0.11325496 0.057246465
-0.30721489 -0.1131775 0.057248298
-0.30739033 -0.11311573 0.057161368
-0.30753478 -0.11305816 0.057135634
-0.30772859 -0.11296755 0.057192788
-0.30791631 -0.1129029 0.057089679
-0.30806929 -0.11284661 0.057030484
-0.30825338 -0.11276012 0.057087664
-0.30842 -0.11268491 0.057118367
-0.30860436 -0.11260958 0.057098292
-0.30878693 -0.11254072 0.057039011
-0.30896628 -0.1124623 0.057054695
-0.30917075 -0.11237761 0.05704033
-0.30933321 -0.11230768 0.057046838
-0.30950731 -0.11223771 0.057019867
-0.30967784 -0.11216994 0.056988295
-0.30988458 -0.1120873 0.056953177
-0.31006342 -0.11201129 0.056953866
-0.31023988 -0.11194268 0.056910746
-0.31041095 -0.11187297 0.056890711
-0.31059039 -0.11179536 0.056900628
-0.3107653 -0.11172286 0.056888647
-0.31094161 -0.11165448 0.056844376
-0.31110951 -0.11158579 0.056826647
-0.31131518 -0.11149031 0.056882616
-0.31149292 -0.11141795 0.056861401
-0.31167009 -0.11134718 0.056830972
-0.31184882 -0.11127222 0.056824747
-0.31200552 -0.11121131 0.056786291
-0.31218645 -0.11113796 0.05676277
-0.31236759 -0.11106399 0.056742705
-0.31254929 -0.11099551 0.056683425
-0.31273711 -0.11091854 0.056664489
-0.31287643 -0.11085962 0.056662984
-0.31307927 -0.11075995 0.056755856
-0.31326565 -0.1106868 0.056715026
-0.31341276 -0.11064175 0.056595884
-0.31361943 -0.11054651 0.056647234
-0.313795 -0.11046094 0.056722891
-0.31397289 -0.11039475 0.056659013
-0.31417421 -0.11031223 0.056638893
-0.31434894 -0.11024098 0.056618847
-0.31450513 -0.1101867 0.05653657
-0.31468797 -0.11010376 0.056573004
-0.31483781 -0.11004575 0.056534566
-0.31499562 -0.10998776 0.056473047
-0.31519434 -0.10990515 0.056461006
-0.31540114 -0.10981155 0.056500833
-0.31558195 -0.10973352 0.056509584
-0.31574997 -0.10967068 0.056451507
-0.31594351 -0.10957798 0.056523651
-0.31613648 -0.10949697 0.056517389
-0.31631774 -0.10942869 0.056458119
-0.31649172 -0.1093692 0.056359664
-0.31663847 -0.10931202 0.056324691
-0.31682053 -0.10922722 0.056376111
-0.31701058 -0.10914713 0.056372162
-0.31720111 -0.10906143 0.056405105
-0.31735989 -0.10900115 0.056356277
-0.31754491 -0.10893044 0.056302756
-0.31771874 -0.10885216 0.056333441
-0.31790808 -0.10876916 0.056351405
-0.31810975 -0.10868699 0.056327824
-0.31827503 -0.10861976 0.0563078
-0.318468 -0.10854397 0.056265794
-0.31863669 -0.10847092 0.05627574
-0.31882128 -0.10839228 0.056277566
-0.3189874 -0.10833227 0.056205649
-0.31914592 -0.10827228 0.056155659
-0.31936339 -0.10818896 0.056093991
-0.31954077 -0.10811003 0.056118906
-0.3197155 -0.10803154 0.056148436
-0.31986561 -0.10798118 0.056056954
-0.32001978 -0.10792807 0.055972386
-0.3202278 -0.10782016 0.056106761
-0.32044399 -0.10773503 0.056061238
-0.3206096 -0.10766765 0.056041211
-0.32077861 -0.10759883 0.056021169
-0.32097706 -0.10751466 0.056020662
-0.32115945 -0.10744033 0.055999435
-0.32135525 -0.10736419 0.055951662
-0.32152498 -0.10729439 0.055936228
-0.32169127 -0.10722251 0.055945031
-0.32189888 -0.10712504 0.056009062
-0.32208017 -0.10705269 0.055977471
-0.32224479 -0.10699078 0.055922851
-0.32240376 -0.10693363 0.0558521
-0.32261834 -0.10684061 0.055865388
-0.32280266 -0.10676041 0.055878758
-0.32299286 -0.10667872 0.055885185
-0.32317117 -0.10661084 0.055831682
-0.32335109 -0.10653387 0.055835828
-0.32352024 -0.10646548 0.05581234
-0.32368812 -0.10639226 0.055825748
-0.32383516 -0.10634842 0.055698529
-0.32401654 -0.1062597 0.055778779
-0.3242324 -0.10616917 0.055771306
-0.32442284 -0.1060911 0.055752367
-0.32459709 -0.1060224 0.055716168
-0.32478768 -0.10593466 0.055762954
-0.32496148 -0.10586987 0.055701401
-0.32517147 -0.10578451 0.055675495
-0.32535046 -0.10570338 0.055710781
-0.32552591 -0.10563336 0.055680349
-0.32568723 -0.10557285 0.055625737
-0.32589096 -0.10548373 0.055643659
-0.32606858 -0.10541093 0.055625912
-0.32623836 -0.10533639 0.055642772
-0.32640406 -0.10527621 0.055573165
-0.3265987 -0.10518155 0.055655681
-0.32679898 -0.10510638 0.055588286
-0.32696557 -0.10504211 0.055544041
-0.32716459 -0.10495686 0.055549297
-0.32736257 -0.10487306 0.055547632
-0.32752222 -0.10481764 0.05546305
-0.32768771 -0.10474913 0.055451095
-0.32785535 -0.10468645 0.055393007
-0.32807338 -0.10458353 0.055463944
-0.32826737 -0.10450227 0.055456527
-0.32844874 -0.10443106 0.055416852
-0.32861841 -0.10436601 0.055369142
-0.3287845 -0.1042944 0.055376787
-0.32898501 -0.10420817 0.055384345
-0.32916203 -0.10413965 0.055338923
-0.32935482 -0.10405754 0.055340733
-0.32952884 -0.10398476 0.055333365
-0.32973203 -0.10389571 0.055352438
-0.32990703 -0.10382452 0.055331241
-0.33007109 -0.10376368 0.055270854
-0.33027312 -0.10367632 0.055281863
-0.33045888 -0.1036004 0.055261787
-0.3306213 -0.10354918 0.055140302
-0.33081162 -0.10346544 0.055160571
-0.33099911 -0.10338255 0.05518315
-0.33118328 -0.10330864 0.05515385
-0.33138192 -0.10322069 0.055178702
-0.33157161 -0.1031431 0.055158615
-0.33173954 -0.10307306 0.055150114
-0.33194411 -0.10299101 0.055117294
-0.33212066 -0.10291865 0.055099543
-0.3323251 -0.1028247 0.055148602
-0.33249062 -0.10276006 0.055110127
-0.33267295 -0.10268626 0.055085443
-0.33285892 -0.10261563 0.055028468
-0.33303547 -0.10255069 0.054959983
-0.33323252 -0.10245365 0.055051718
-0.33341989 -0.10238159 0.055000499
-0.33358818 -0.10231408 0.054973554
-0.333785 -0.10222943 0.054981112
-0.33397681 -0.10215262 0.054949492
-0.33418822 -0.10205926 0.05497431
-0.33436379 -0.10198412 0.054978482
-0.33455271 -0.10191292 0.054916885
-0.33473969 -0.10183697 0.054893333
-0.334912 -0.10176776 0.054866377
-0.33509159 -0.10168638 0.054901659
-0.33526918 -0.10162284 0.054820485
-0.33546492 -0.10153343 0.054863799
-0.33566591 -0.10145189 0.05483792
-0.3358292 -0.10139239 0.054770619
-0.33602929 -0.10130096 0.054815076
-0.33620077 -0.10123732 0.054752372
-0.33642349 -0.1011464 0.05472758
-0.33656392 -0.1010956 0.054667257
-0.33675218 -0.10101037 0.054703675
-0.33696344 -0.10091436 0.054746948
-0.3371748 -0.10082269 0.05476024
-0.33732802 -0.1007695 0.054679133
-0.33751675 -0.10069264 0.054656737
-0.33772558 -0.10060173 0.054672349
-0.33791512 -0.10052419 0.054652259
-0.33809543 -0.10045194 0.054622971
-0.33827007 -0.10037921 0.054613292
-0.33847079 -0.10029475 0.054608162
-0.33865011 -0.10021953 0.054601938
-0.33883849 -0.10014553 0.054561101
-0.33903432 -0.10006618 0.054535225
-0.33923826 -0.099980861 0.054526631
-0.33942604 -0.099903569 0.054510005
-0.33961609 -0.099822126 0.054515284
-0.33978385 -0.099756695 0.054475646
-0.33997303 -0.09967427 0.054490153
-0.34017745 -0.099594809 0.054440044
-0.34035838 -0.099520609 0.054422278
-0.34055105 -0.099440902 0.05440795
-0.34073219 -0.099366598 0.054390192
-0.3409273 -0.099284694 0.054383922
-0.34110728 -0.099213578 0.054347716
-0.34133402 -0.099114887 0.054364424
-0.34148166 -0.099063382 0.05428794
-0.34169745 -0.098965794 0.0543289
-0.34188312 -0.098893285 0.054285765
-0.34207755 -0.098814353 0.054261044
-0.3422716 -0.098730192 0.054273237
-0.34245622 -0.098656945 0.054238167
-0.34266081 -0.098572358 0.054222655
-0.34284067 -0.098498091 0.054208353
-0.34302363 -0.098421 0.054204423
-0.34320933 -0.098345108 0.054184347
-0.34339154 -0.098268829 0.054176949
-0.34360075 -0.098185822 0.054137215
-0.25479859 -0.1379654 0.039872382
-0.25501275 -0.13789023 0.039764553
-0.25521818 -0.13781676 0.039670583
-0.25541854 -0.13774222 0.039598539
-0.25561774 -0.13766783 0.039528806
-0.2558206 -0.13759223 0.039456755
-0.25600511 -0.13751836 0.039426275
-0.25619143 -0.13744456 0.039390024
-0.25637382 -0.13737091 0.039364159
-0.25656164 -0.13729598 0.039331362
-0.2567375 -0.13722256 0.039322816
-0.25691563 -0.13714921 0.039307337
-0.25708106 -0.13707602 0.039327659
-0.25724924 -0.13700284 0.039339885
-0.25741607 -0.13693106 0.03934636
-0.257586 -0.13685665 0.039362047
-0.25774512 -0.1367836 0.03939968
-0.25790104 -0.13670923 0.039455771
-0.25805616 -0.1366362 0.039504945
-0.25821954 -0.13656186 0.039539106
-0.25836647 -0.13648742 0.039621741
-0.25851503 -0.13641296 0.039699774
-0.25865698 -0.13633978 0.03978819
-0.25880444 -0.13626665 0.039860446
-0.25894743 -0.13619202 0.039955787
-0.2590898 -0.13611734 0.040053438
-0.25922909 -0.13604394 0.040151086
-0.25937155 -0.13597056 0.040239509
-0.259516 -0.13589717 0.040322162
-0.25965634 -0.13582082 0.04043711
-0.25979012 -0.13574708 0.040553235
-0.25992388 -0.13567182 0.040679738
-0.26004946 -0.13559768 0.040822405
-0.26018363 -0.13552225 0.040948905
-0.26030624 -0.13544634 0.041112341
-0.26043242 -0.13537043 0.041265391
-0.26054472 -0.13529536 0.041453075
-0.26066524 -0.13521747 0.041636128
-0.26077202 -0.13514036 0.041853812
-0.25644755 -0.13411519 0.061448306
-0.25665182 -0.13403057 0.061433911
-0.25686076 -0.13394633 0.061403364
-0.25704521 -0.13386238 0.061442077
-0.25724211 -0.13378106 0.061426558
-0.25746757 -0.13369824 0.061338298
-0.25766298 -0.13361166 0.061363142
-0.2578662 -0.13352749 0.061348766
-0.25806892 -0.13345061 0.061285935
-0.25827521 -0.13336144 0.061296917
-0.25847137 -0.13328245 0.061267555
-0.25861484 -0.13321202 0.061332904
-0.25880581 -0.13313454 0.061308175
-0.25903857 -0.13304055 0.061275251
-0.25927728 -0.13294537 0.061233092
-0.25946602 -0.13286616 0.061226819
-0.25968689 -0.13278075 0.06116971
-0.25988334 -0.13270433 0.061121903
-0.26009822 -0.13261673 0.061097108
-0.26029441 -0.13253488 0.061087355
-0.26047045 -0.13245669 0.061111093
-0.26068005 -0.1323688 0.061103612
-0.26087245 -0.13229056 0.061080027
-0.26104999 -0.13221459 0.061084159
-0.26122332 -0.13214396 0.061064087
-0.26146588 -0.13204865 0.061011545
-0.26162937 -0.1319751 0.06103994
-0.26185891 -0.1318882 0.06096781
-0.26202106 -0.13181067 0.061027341
-0.26223367 -0.13173364 0.060936823
-0.26243255 -0.13165501 0.060897075
-0.26264066 -0.1315639 0.060916115
-0.2628206 -0.13148689 0.060920253
-0.26300994 -0.13140526 0.060928959
-0.26321831 -0.13131233 0.060959544
-0.26344067 -0.13122949 0.060880519
-0.26361278 -0.13115564 0.060885821
-0.26383197 -0.13106656 0.060858712
-0.26406103 -0.13098927 0.060722005
-0.26421151 -0.13091031 0.0608254
-0.26440373 -0.13082962 0.060819112
-0.26466608 -0.13074377 0.060644262
-0.26482049 -0.13066752 0.06071765
-0.26498321 -0.13059261 0.060757581
-0.26523024 -0.13050064 0.060669269
-0.26538917 -0.13042516 0.060724191
-0.26561531 -0.13033193 0.06070514
-0.26578113 -0.13026196 0.06070238
-0.26595232 -0.13018447 0.060735371
-0.26616701 -0.13010436 0.060659826
-0.26634037 -0.13002309 0.060712408
-0.26659441 -0.12993354 0.060587175
-0.26676553 -0.12985843 0.060604014
-0.26695362 -0.12978238 0.06057813
-0.2671636 -0.12970208 0.060517594
-0.26733333 -0.12962908 0.060524058
-0.26757061 -0.12953484 0.060479596
-0.26776046 -0.12945735 0.060458325
-0.26791814 -0.12938644 0.060485587
-0.26812294 -0.12929891 0.060489647
-0.26830649 -0.12922476 0.060463775
-0.26849344 -0.12915373 0.060406759
-0.26869783 -0.12906638 0.060410827
-0.26885498 -0.12898406 0.060517661
-0.26905116 -0.1289086 0.06046408
-0.26926878 -0.12883383 0.060343549
-0.26945856 -0.1287525 0.060348809
-0.26967406 -0.12866363 0.060330927
-0.26986986 -0.12858395 0.060307339
-0.27006179 -0.1285034 0.060301058
-0.27024868 -0.12842396 0.060301706
-0.27046162 -0.12833719 0.060276914
-0.27065802 -0.12826046 0.06023141
-0.27083087 -0.12818228 0.060264386
-0.27102935 -0.12810634 0.060207345
-0.27122581 -0.12802757 0.060175672
-0.27141422 -0.12794414 0.060199387
-0.27161142 -0.12786083 0.060196549
-0.27179107 -0.1277848 0.06019491
-0.27198771 -0.12770647 0.060159788
-0.27218023 -0.12762448 0.060161572
-0.27237266 -0.12754504 0.060146064
-0.2725732 -0.12746826 0.060089011
-0.27274728 -0.12739341 0.060095463
-0.2729314 -0.12731415 0.060103048
-0.273123 -0.12723996 0.060054086
-0.27332953 -0.1271527 0.060051233
-0.27348861 -0.12708086 0.060080785
-0.27370429 -0.12699948 0.060011007
-0.27388439 -0.12691386 0.060073957
-0.27406007 -0.12685062 0.05999621
-0.27425629 -0.12677078 0.059972614
-0.27446261 -0.12668933 0.059930541
-0.27463204 -0.12661614 0.059939317
