# .PCD v0.7 - Point Cloud Data file format
VERSION 0.7
FIELDS x y z
SIZE 4 4 4
TYPE F F F
COUNT 1 1 1
WIDTH 517
HEIGHT 1
VIEWPOINT 0 0 0 1 0 0 0
POINTS 517
DATA ascii
-0.24519326 -0.26494518 0.062483128
-0.24537972 -0.26490879 0.062583864
-0.24563898 -0.26489019 0.062489413
-0.24589346 -0.26487064 0.062406518
-0.24610682 -0.2648395 0.062444858
-0.24633549 -0.26481372 0.062430106
-0.2465346 -0.26477912 0.062506571
-0.2467937 -0.26476118 0.062407505
-0.24703507 -0.26473895 0.062355801
-0.24722841 -0.26470456 0.062435739
-0.24743839 -0.26467288 0.062481023
-0.24770229 -0.26465672 0.062364649
-0.24795857 -0.26463723 0.062279433
-0.24817327 -0.26460862 0.062298171
-0.24840626 -0.26458329 0.062276483
-0.24862184 -0.26455504 0.062291756
-0.24885637 -0.26453188 0.062252764
-0.2490752 -0.26450464 0.062257655
-0.24931245 -0.26448083 0.062220946
-0.24955897 -0.26446128 0.062145002
-0.24978796 -0.2644355 0.062130239
-0.25001103 -0.26440978 0.062120117
-0.25022241 -0.26438093 0.062143482
-0.25044313 -0.26435474 0.062139139
-0.25066656 -0.26432773 0.062138241
-0.25089586 -0.2643041 0.062107332
-0.2511352 -0.26428178 0.062057935
-0.25136125 -0.26425746 0.062035121
-0.25156832 -0.26423275 0.062031981
-0.25181237 -0.26420718 0.062002171
-0.25204611 -0.2641854 0.061953947
-0.252249 -0.26415473 0.06199811
-0.25249195 -0.26413417 0.061932556
-0.25271085 -0.26410836 0.061927058
-0.25292754 -0.26408026 0.061940029
-0.25315392 -0.26405683 0.061910283
-0.25337514 -0.26403028 0.061908245
-0.25361925 -0.26401243 0.06182193
-0.25384334 -0.26398864 0.061796814
-0.25405025 -0.26395968 0.061824813
-0.25427133 -0.26393345 0.061820459
-0.25449407 -0.26391125 0.061784972
-0.25471511 -0.26388341 0.061792158
-0.25493416 -0.26385853 0.061779745
-0.25516632 -0.26383615 0.061737292
-0.25539529 -0.2638146 0.061691396
-0.25561866 -0.26378965 0.061675504
-0.2558336 -0.26376382 0.061673492
-0.25604597 -0.26373547 0.061692238
-0.25628483 -0.26371762 0.061610561
-0.25650173 -0.26369095 0.06161315
-0.25671452 -0.26366475 0.061615754
-0.2569474 -0.26364353 0.061564073
-0.2571584 -0.26361692 0.0615713
-0.25739142 -0.263596 0.061517313
-0.25760412 -0.26357013 0.061517619
-0.25783116 -0.26354742 0.061482102
-0.25804788 -0.26352313 0.061467402
-0.25826362 -0.26349673 0.061468832
-0.2584669 -0.26346791 0.061499152
-0.25867504 -0.26343897 0.061525993
-0.25890374 -0.26341918 0.061467413
-0.25914267 -0.26340133 0.061385736
-0.25934967 -0.26337412 0.061401047
-0.25956768 -0.26334903 0.061390944
-0.25979006 -0.26332751 0.061350841
-0.26001054 -0.26330352 0.061330356
-0.2602205 -0.26327768 0.061332963
-0.26042652 -0.26324853 0.06136328
-0.2606442 -0.26322567 0.061337031
-0.26088238 -0.26320872 0.061249584
-0.26108658 -0.26318103 0.061270677
-0.26130781 -0.2631579 0.061243258
-0.2615099 -0.26312953 0.061271273
-0.26173478 -0.26310804 0.061228864
-0.26194656 -0.26308355 0.061219938
-0.2621682 -0.26306102 0.061187916
-0.26238441 -0.26303646 0.06117551
-0.26260954 -0.26301554 0.061128482
-0.26282361 -0.26299235 0.061108012
-0.26299757 -0.26295918 0.061196111
-0.26323614 -0.2629379 0.0611398
-0.26345176 -0.26291358 0.06112624
-0.26368472 -0.2628985 0.061029594
-0.2638931 -0.26287141 0.061042592
-0.26410842 -0.26284933 0.061012894
-0.26432997 -0.2628279 0.060972795
-0.26452798 -0.26279879 0.061010063
-0.26473907 -0.2627731 0.061010361
-0.2649473 -0.26274839 0.061006069
-0.26517296 -0.26272917 0.060946345
-0.26538083 -0.26270452 0.060942054
-0.26559693 -0.26268139 0.060919277
-0.26581657 -0.26266208 0.060865343
-0.2660183 -0.26263282 0.060900286
-0.26623997 -0.26261249 0.06085211
-0.26646221 -0.26259255 0.060800474
-0.26665461 -0.26256803 0.060808927
-0.26685706 -0.2625415 0.060823109
-0.26707843 -0.26251712 0.060804918
-0.26729769 -0.26249409 0.06077867
-0.26750353 -0.26246935 0.060776688
-0.26771438 -0.26244482 0.060768917
-0.26791391 -0.26242182 0.060760051
-0.2681216 -0.26240048 0.060731534
-0.26833525 -0.26237985 0.060692616
-0.26855636 -0.26235378 0.060687117
-0.26876768 -0.26232994 0.060673587
-0.26896319 -0.26230538 0.060679723
-0.26918221 -0.26228788 0.060613111
-0.26935539 -0.26225701 0.060685057
-0.26960176 -0.26224175 0.060577974
-0.26981357 -0.2622163 0.060575977
-0.27001032 -0.26219755 0.060538277
-0.27019987 -0.26217037 0.060568653
-0.27042386 -0.26215151 0.060507782
-0.27063432 -0.262133 0.060456205
-0.2708573 -0.26210415 0.060469143
-0.27106032 -0.26207456 0.060505226
-0.27127191 -0.26205704 0.060445562
-0.2714636 -0.26203385 0.060444795
-0.27167633 -0.26200721 0.060450859
-0.27189338 -0.26198554 0.060416546
-0.27211356 -0.26196066 0.060402974
-0.27230218 -0.26194116 0.060377996
-0.27252135 -0.26191595 0.06036789
-0.27272806 -0.26189661 0.060325544
-0.2729257 -0.26187226 0.060328208
-0.27310607 -0.26184842 0.060342483
-0.27332914 -0.26182318 0.060328893
-0.27349278 -0.26179489 0.06039051
-0.27374518 -0.26177919 0.060281098
-0.27394891 -0.26175615 0.060268752
-0.27416191 -0.26173338 0.060245976
-0.2743758 -0.26171401 0.060197845
-0.27459222 -0.26168814 0.060194664
-0.27476582 -0.26166889 0.060181279
-0.27498487 -0.26163927 0.06020347
-0.2751773 -0.26161808 0.060187697
-0.27538678 -0.26159936 0.060138427
-0.27559173 -0.2615779 0.060113385
-0.27581936 -0.26155415 0.060084794
-0.27603084 -0.26152861 0.060083944
-0.27623644 -0.26151085 0.06003122
-0.27642283 -0.2614921 0.0600028
-0.27662364 -0.26146263 0.060040042
-0.27685454 -0.26143581 0.060031042
-0.27705342 -0.26141098 0.060036011
-0.27724442 -0.2613838 0.060065232
-0.2774424 -0.2613706 0.05998601
-0.27764174 -0.26134634 0.05998636
-0.27785376 -0.26132196 0.059976287
-0.27805907 -0.26130834 0.059893586
-0.27828234 -0.26127994 0.059903063
-0.27847072 -0.26125431 0.059923068
-0.27865794 -0.26123422 0.05990386
-0.27886406 -0.26120913 0.059904184
-0.27910486 -0.26119423 0.059799429
-0.27930108 -0.26116514 0.059837852
-0.2794857 -0.26114675 0.059808284
-0.27970573 -0.26111969 0.059810854
-0.2798731 -0.26110798 0.059747912
-0.28011647 -0.26107949 0.059740018
-0.28027758 -0.26104617 0.059840854
-0.28047377 -0.26104105 0.059703983
-0.28071228 -0.26101583 0.059676506
-0.28091246 -0.26099733 0.059634186
-0.28110728 -0.26096746 0.059679531
-0.28131151 -0.26094908 0.059632577
-0.28152657 -0.26091868 0.059664004
-0.28173497 -0.26090419 0.059584744
-0.28193477 -0.26087877 0.059593167
-0.28210765 -0.26085538 0.059610933
-0.28231865 -0.26084372 0.059508599
-0.2825231 -0.2608116 0.059561983
-0.28273433 -0.26078561 0.05956459
-0.28293386 -0.26077172 0.059488818
-0.28311664 -0.26073089 0.059625328
-0.28331262 -0.26072168 0.059518442
-0.28353158 -0.26070341 0.059457593
-0.28374049 -0.26067564 0.059475206
-0.28392446 -0.26065153 0.059488304
-0.28412491 -0.26062351 0.059515178
-0.2843399 -0.26061013 0.059422053
-0.28454208 -0.2605882 0.059402794
-0.28473532 -0.26056972 0.059366271
-0.28491548 -0.26054624 0.059378222
-0.28510889 -0.26052821 0.059338242
-0.28533152 -0.26050273 0.059326973
-0.28552175 -0.26047719 0.059344649
-0.2857227 -0.26045907 0.059298873
-0.2859174 -0.26042968 0.05934076
-0.2861166 -0.26040986 0.059308819
-0.28631768 -0.26038778 0.059291869
-0.28651467 -0.26036569 0.059278391
-0.28669038 -0.26035628 0.059191197
-0.28690726 -0.26032972 0.059192635
-0.28711236 -0.26029864 0.059237935
-0.28728309 -0.26028383 0.05919458
-0.28749883 -0.26026595 0.059133746
-0.2876839 -0.26022971 0.059234485
-0.28791142 -0.26021197 0.059162077
-0.28811067 -0.26019388 0.059117451
-0.28827894 -0.2601715 0.059131764
-0.28847879 -0.26014924 0.059117123
-0.28867686 -0.26012465 0.059120938
-0.28886887 -0.26010805 0.059071735
-0.28905424 -0.26008788 0.059054844
-0.28924704 -0.26006725 0.059034467
-0.28946409 -0.26004228 0.059024367
-0.28965601 -0.26002064 0.059012067
-0.28986996 -0.25999716 0.058993906
-0.29005301 -0.25997409 0.05900009
-0.2902346 -0.25995481 0.058979757
-0.29044122 -0.25993234 0.058960479
-0.290629 -0.25991091 0.058950495
-0.29080677 -0.25988582 0.0589763
-0.2910178 -0.25987101 0.058897041
-0.29121238 -0.25984845 0.058889344
-0.29139623 -0.25982732 0.058880523
-0.29160208 -0.25980449 0.058864705
-0.29181522 -0.25978801 0.058795817
-0.29200798 -0.25976267 0.058810029
-0.29221699 -0.25973913 0.058796506
-0.29238796 -0.25971594 0.058814265
-0.29257864 -0.25969401 0.058805428
-0.29277995 -0.25967818 0.058742344
-0.29296979 -0.25966263 0.058687385
-0.29316813 -0.25963363 0.058723494
-0.29335433 -0.25960276 0.058783866
-0.29356241 -0.25958627 0.058719598
-0.29375035 -0.2595675 0.058690012
-0.29395512 -0.25954431 0.058677655
-0.29413527 -0.25951657 0.058720753
-0.29432705 -0.25949842 0.058683075
-0.29452649 -0.25948092 0.058633845
-0.29472953 -0.25946349 0.05858114
-0.29491395 -0.25944671 0.058540035
-0.29511464 -0.25941393 0.058601499
-0.29529342 -0.259372 0.058749542
-0.29547432 -0.25934541 0.058783412
-0.29568362 -0.25933602 0.058666095
-0.29587469 -0.25931767 0.058630731
-0.296069 -0.25930962 0.058516946
-0.296271 -0.25931528 0.058295868
-0.29646328 -0.25927898 0.058390815
-0.29665136 -0.25925261 0.058416579
-0.29685721 -0.25923672 0.058350019
-0.29704657 -0.25920168 0.058438055
-0.29728746 -0.25916564 0.058487825
-0.29747307 -0.25911391 0.058701579
-0.29767039 -0.25906265 0.058901437
-0.29786178 -0.25901523 0.059078258
-0.29805014 -0.25896868 0.05925164
-0.29823926 -0.25892362 0.059413478
-0.29842901 -0.25887957 0.059567243
-0.29862204 -0.25883132 0.059748672
-0.29881409 -0.25879535 0.059841305
-0.29900807 -0.25874782 0.06001696
-0.2991991 -0.25870171 0.060184568
-0.29938942 -0.25864816 0.060407527
-0.29958072 -0.25859728 0.060609721
-0.24497998 -0.26496503 0.06252744
-0.24519651 -0.26493585 0.062548444
-0.24545634 -0.26491582 0.062464304
-0.24568489 -0.26488978 0.062451817
-0.2459062 -0.26486051 0.062469333
-0.24610005 -0.26482448 0.062560782
-0.24637723 -0.26480925 0.062425822
-0.24660778 -0.26478407 0.062405244
-0.24682786 -0.2647548 0.06242393
-0.24705791 -0.26472968 0.062403344
-0.24729769 -0.26470557 0.062366579
-0.24753425 -0.26468077 0.062337901
-0.24777423 -0.26465696 0.062298834
-0.24799326 -0.26462939 0.062305979
-0.24821581 -0.26460126 0.062314272
-0.24845579 -0.26457778 0.062272899
-0.24868321 -0.26455107 0.062266167
-0.24892013 -0.26452857 0.062220193
-0.24914341 -0.26450098 0.062223867
-0.24936362 -0.26447421 0.06222409
-0.24958572 -0.26444641 0.062230065
-0.24982402 -0.26442313 0.0621887
-0.25006118 -0.26439968 0.062149644
-0.25029755 -0.26437771 0.062100198
-0.25053015 -0.26435325 0.062072694
-0.25073645 -0.26432312 0.06210988
-0.25095725 -0.26429549 0.06211587
-0.25119776 -0.26427352 0.062062956
-0.25142354 -0.26424748 0.062052786
-0.25165474 -0.26422474 0.062013745
-0.25188968 -0.26420155 0.061974701
-0.25210214 -0.26417193 0.062002629
-0.25233009 -0.26414692 0.061983213
-0.25253096 -0.26412407 0.061972
-0.2527869 -0.26409912 0.061927088
-0.25300997 -0.26407295 0.061920386
-0.25323322 -0.26404691 0.061912522
-0.2534638 -0.26402488 0.061868876
-0.2536903 -0.26400003 0.061849467
-0.25390702 -0.26397401 0.061847396
-0.25414407 -0.26395258 0.061793342
-0.25436327 -0.26392579 0.061794728
-0.25458157 -0.26390052 0.061785739
-0.25480694 -0.26387581 0.061766334
-0.25504324 -0.26385465 0.061711133
-0.25525945 -0.26382726 0.061719447
-0.2554701 -0.26379991 0.061732396
-0.25569209 -0.26377451 0.061721079
-0.25592944 -0.26375416 0.061658956
-0.2561425 -0.26372606 0.061675351
-0.2563546 -0.2636995 0.061681375
-0.25658274 -0.26367649 0.061646968
-0.25682232 -0.26365921 0.061560608
-0.25703326 -0.26363072 0.061581641
-0.25723791 -0.26360014 0.061623447
-0.25748739 -0.26358482 0.061513983
-0.25771505 -0.26356408 0.061463431
-0.25791752 -0.263533 0.061511017
-0.25814021 -0.26350892 0.061489321
-0.25836641 -0.26348615 0.061454922
-0.25858337 -0.26346213 0.06143786
-0.25879142 -0.26343322 0.06146466
-0.25901893 -0.26341122 0.061423335
-0.25923824 -0.26338646 0.061409723
-0.25946626 -0.26336679 0.061351098
-0.25968611 -0.26334241 0.061334021
-0.25989991 -0.26331595 0.061337732
-0.26008675 -0.26327968 0.061437279
-0.26031676 -0.26326117 0.061368264
-0.26053944 -0.26323819 0.061338492
-0.26076922 -0.26321799 0.061282169
-0.26098192 -0.26319149 0.061287034
-0.26121008 -0.26317292 0.061220333
-0.26142243 -0.26314646 0.061225206
-0.26163989 -0.26312208 0.06121045
-0.26186216 -0.26309964 0.061177216
-0.26204145 -0.26307243 0.061216831
-0.26227251 -0.26304168 0.061236616
-0.26249707 -0.26302242 0.061177999
-0.26270783 -0.26300183 0.061141361
-0.26293099 -0.26297423 0.06114503
-0.26315802 -0.26295438 0.061088718
-0.26337761 -0.26293367 0.061045118
-0.2635785 -0.26290339 0.061088089
-0.26379183 -0.26287824 0.061082579
-0.26402643 -0.26286203 0.060992781
-0.26423195 -0.26283595 0.061001144
-0.26443976 -0.26280877 0.061015263
-0.2646648 -0.26278898 0.060960107
-0.2648775 -0.26276407 0.060953446
-0.26509279 -0.26274246 0.060920238
-0.26529321 -0.26271242 0.060962074
-0.26551509 -0.26269174 0.060916156
-0.26572913 -0.26266778 0.060901415
-0.26594001 -0.26264465 0.06088322
-0.26612702 -0.26261747 0.060915887
-0.26633143 -0.26259813 0.060875811
-0.26652932 -0.26257816 0.060846142
-0.26676652 -0.26254982 0.060842838
-0.26698694 -0.26253152 0.060780779
-0.26720506 -0.26249903 0.060824834
-0.26741475 -0.26247826 0.060790509
-0.26763314 -0.26245722 0.060750373
-0.26785249 -0.26243448 0.06072177
-0.26804933 -0.26241022 0.0607244
-0.26824513 -0.26238784 0.060714342
-0.26846617 -0.26236394 0.060692653
-0.2686986 -0.26234344 0.060636312
-0.26890162 -0.2623156 0.060659677
-0.26909429 -0.262292 0.060661174
-0.26932123 -0.26226914 0.060626768
-0.26953685 -0.2622478 0.060591262
-0.26975125 -0.26222834 0.060543068
-0.26995647 -0.26220196 0.060553737
-0.27015287 -0.2621735 0.060587518
-0.27036223 -0.26215419 0.0605428
-0.27057058 -0.26212966 0.060537305
-0.27078041 -0.26210353 0.060542189
-0.27099147 -0.26208794 0.060468636
-0.2711879 -0.2620672 0.060445901
-0.27140367 -0.26204205 0.060438067
-0.27159721 -0.2620174 0.060446478
-0.27182353 -0.26199573 0.060404003
-0.27202764 -0.26196697 0.060433127
-0.27223995 -0.26195046 0.060365342
-0.27243891 -0.26193428 0.06030684
-0.27265552 -0.2619051 0.060327835
-0.27286845 -0.26187906 0.060329251
-0.2730689 -0.26185894 0.060298413
-0.27327368 -0.26183358 0.060302161
-0.27345708 -0.26181424 0.060280629
-0.2736823 -0.26178515 0.060293518
-0.27388546 -0.26176438 0.060264982
-0.27404225 -0.26173469 0.060342748
-0.27428129 -0.2617304 0.060161822
-0.27452135 -0.26169711 0.060191959
-0.27471694 -0.26167491 0.06018075
-0.27489626 -0.26164821 0.060216896
-0.27514568 -0.26163208 0.060113207
-0.27531779 -0.26160371 0.06016783
-0.27551395 -0.2615737 0.060213141
-0.27575868 -0.26156083 0.060089853
-0.27596194 -0.26153848 0.060072854
-0.27616826 -0.2615211 0.060016617
-0.2763375 -0.26149389 0.0600655
-0.27655494 -0.26147249 0.060028836
-0.27678466 -0.26145071 0.059984036
-0.27696377 -0.26142135 0.060039788
-0.27719143 -0.2614044 0.059961557
-0.27739805 -0.2613821 0.059941079
-0.27759814 -0.26135841 0.059936784
-0.2778047 -0.26133627 0.059915144
-0.2780014 -0.26131031 0.059930466
-0.2781828 -0.26127955 0.059994292
-0.27836365 -0.26126084 0.059970461
-0.27859998 -0.26125467 0.059805691
-0.27882349 -0.26122987 0.0597886
-0.27903214 -0.26120687 0.059771571
-0.27922112 -0.26118198 0.059785768
-0.27942455 -0.26115188 0.059825283
-0.27961153 -0.2611255 0.059852172
-0.27982599 -0.26110399 0.059818968
-0.28003129 -0.26108548 0.05977197
-0.28022206 -0.26106226 0.059772328
-0.28044012 -0.26104411 0.059711434
-0.28063899 -0.26102087 0.059704822
-0.28084713 -0.26100186 0.059658971
-0.28102347 -0.26098448 0.059629396
-0.28124836 -0.26095527 0.059643432
-0.28145197 -0.26093286 0.059626438
-0.2816534 -0.2609123 0.059597902
-0.28183657 -0.26088685 0.059621349
-0.28202558 -0.26086652 0.059602097
-0.28219521 -0.26085123 0.059563324
-0.28242448 -0.26085615 0.05932362
-0.28262773 -0.26080811 0.059494611
-0.2827886 -0.26078141 0.059546985
-0.28299081 -0.26074326 0.059646472
-0.28324202 -0.26073939 0.059451655
-0.28343886 -0.26070395 0.059536166
-0.28360957 -0.26069057 0.059482388
-0.28383189 -0.26066384 0.059480306
-0.28405118 -0.26064634 0.059413642
-0.28425437 -0.26061705 0.059447378
-0.2844522 -0.26059473 0.05943501
-0.28466034 -0.26057887 0.059366096
-0.28483799 -0.26055694 0.059368804
-0.28503659 -0.26053575 0.059347201
-0.2852473 -0.26051471 0.059314024
-0.28541428 -0.26048586 0.059376746
-0.28562146 -0.26046115 0.059373569
-0.28582311 -0.26043928 0.059354268
-0.28600022 -0.2604171 0.05935929
-0.28620923 -0.26039469 0.059337646
-0.28642142 -0.26037613 0.059284851
-0.28661186 -0.26035106 0.059299044
-0.28684247 -0.2603358 0.059205808
-0.28702882 -0.26031566 0.059187718
-0.2872209 -0.26028803 0.059219204
-0.28739488 -0.26027235 0.059179254
-0.28762203 -0.26024899 0.059148308
-0.28781235 -0.26023436 0.059086382
-0.28799257 -0.26020187 0.059164047
-0.2881932 -0.2601907 0.059067477
-0.28841808 -0.2601651 0.059055001
-0.28861827 -0.26014343 0.0590357
-0.288791 -0.26011655 0.059078798
-0.2889826 -0.26009405 0.059073374
-0.2891821 -0.26007167 0.059059843
-0.28938815 -0.26005322 0.05901169
-0.28958043 -0.26003203 0.05899588
-0.2897729 -0.26000547 0.059019297
-0.28997383 -0.25998574 0.058985002
-0.29017982 -0.2599681 0.058931075
-0.29036555 -0.25994331 0.058947593
-0.29056132 -0.25991601 0.058973297
-0.29076394 -0.25990602 0.058866333
-0.29095837 -0.2598767 0.058908194
-0.29115015 -0.25985572 0.058891237
-0.29135555 -0.25984508 0.058786567
-0.29155004 -0.2598159 0.058827266
-0.29175714 -0.25979546 0.058792949
-0.29194269 -0.25977084 0.058808316
-0.29214808 -0.25974759 0.058795914
-0.2923525 -0.25972256 0.058797359
-0.29253504 -0.25969955 0.058803506
-0.29274112 -0.25968552 0.05872307
-0.29293546 -0.25966361 0.058710705
-0.29313087 -0.25963622 0.058737557
-0.29332393 -0.25961179 0.058744825
-0.29352024 -0.25958619 0.058757834
-0.29371268 -0.25956875 0.058714356
-0.29390725 -0.25954792 0.058693927
-0.29408789 -0.25952986 0.05866548
-0.29429802 -0.25951961 0.058553882
-0.29449299 -0.25949147 0.058586501
-0.29469651 -0.25947523 0.058524519
-0.29490981 -0.25944614 0.05854784
-0.29511389 -0.25942227 0.058541205
-0.29529637 -0.25941077 0.058463171
-0.29547855 -0.25937819 0.05853967
-0.29567695 -0.25935975 0.058498472
-0.29587483 -0.25934008 0.058466494
-0.29606628 -0.25931236 0.058499131
-0.29627913 -0.25928175 0.058533989
-0.29649845 -0.25922328 0.058767192
-0.29668272 -0.25918195 0.058905959
-0.2968739 -0.25913772 0.059059702
-0.29706833 -0.25909027 0.059234176
-0.29724666 -0.25903612 0.059472166
-0.29744729 -0.25899455 0.059598185
-0.2976371 -0.25895286 0.05973462
-0.29783261 -0.25890213 0.059932172
-0.29802623 -0.25885728 0.060088202
-0.29821652 -0.25881225 0.060248867
