# .PCD v0.7 - Point Cloud Data file format
VERSION 0.7
FIELDS x y z
SIZE 4 4 4
TYPE F F F
COUNT 1 1 1
WIDTH 1291
HEIGHT 1
VIEWPOINT 0 0 0 1 0 0 0
POINTS 1291
DATA ascii
-0.095537417 -0.46082655 0.051727366
-0.095704399 -0.46096778 0.051611125
-0.095849149 -0.46108055 0.051567651
-0.096038461 -0.46122235 0.051544692
-0.096189491 -0.46131837 0.051628049
-0.096342996 -0.46142492 0.051659495
-0.096493125 -0.46153969 0.051627539
-0.096646011 -0.46165511 0.051603623
-0.096785709 -0.46174943 0.051647827
-0.096949615 -0.46187308 0.051622707
-0.097099125 -0.46199089 0.051569983
-0.09725225 -0.46210048 0.051581822
-0.097382843 -0.4621965 0.051576495
-0.097551107 -0.46233171 0.051501755
-0.097704321 -0.46243921 0.051526286
-0.097855672 -0.46256167 0.051453941
-0.098005593 -0.46267045 0.051456571
-0.098158687 -0.46277824 0.051478799
-0.09830793 -0.4628914 0.051452607
-0.098461047 -0.46299881 0.051477127
-0.098609678 -0.46311483 0.051431328
-0.098761909 -0.46322724 0.051422425
-0.098912284 -0.46333227 0.051449269
-0.099063061 -0.46345198 0.051390767
-0.099205956 -0.46356264 0.05135192
-0.099355735 -0.46367016 0.051361479
-0.099495545 -0.46377933 0.051318035
-0.099641711 -0.46388832 0.051303387
-0.099812046 -0.4640182 0.05126901
-0.099963278 -0.46413243 0.051245101
-0.10010144 -0.46423322 0.051244341
-0.10026444 -0.46435213 0.051243443
-0.10041312 -0.46446273 0.051229943
-0.1005642 -0.46457642 0.051208347
-0.10071342 -0.4646847 0.051210981
-0.1008548 -0.46478531 0.0512252
-0.10101517 -0.46490115 0.051231228
-0.10116527 -0.46501726 0.051191188
-0.10131066 -0.46512643 0.051171936
-0.10144277 -0.46522379 0.051165439
-0.10158912 -0.46533987 0.051109277
-0.10174371 -0.46545169 0.051114187
-0.10190006 -0.46556824 0.051098332
-0.10205773 -0.46569046 0.051054791
-0.10219999 -0.46579736 0.051035553
-0.10235247 -0.4659051 0.051055476
-0.10250711 -0.46601635 0.051063851
-0.10264738 -0.46611908 0.051060766
-0.10277498 -0.46621761 0.051027767
-0.10293756 -0.46634379 0.050981898
-0.10310049 -0.46646884 0.050944094
-0.10325242 -0.46657756 0.05095594
-0.10339276 -0.46667954 0.050957479
-0.10355241 -0.46679544 0.050960049
-0.10368286 -0.46688712 0.050980091
-0.10384776 -0.46702236 0.050890379
-0.10399157 -0.4671393 0.050818082
-0.10413105 -0.46724242 0.050809242
-0.10427088 -0.46734482 0.050806161
-0.10443738 -0.46746862 0.050791405
-0.10457343 -0.46757758 0.050732993
-0.10472438 -0.46768072 0.050773673
-0.10486751 -0.46778396 0.050779801
-0.10502216 -0.46790087 0.050754733
-0.10517107 -0.46800116 0.050803505
-0.10531636 -0.46811375 0.050763488
-0.10546771 -0.4682292 0.050732668
-0.10560942 -0.46833453 0.050720356
-0.1057517 -0.46843889 0.050716113
-0.10590228 -0.46854916 0.050712969
-0.10604768 -0.46866086 0.050678726
-0.10617784 -0.46876454 0.050626107
-0.1063244 -0.46886855 0.050642602
-0.10647951 -0.46898383 0.050629053
-0.10663003 -0.46910509 0.050560184
-0.1067751 -0.46922201 0.050493646
-0.10690752 -0.46932194 0.05047331
-0.10704474 -0.46943736 0.050381441
-0.10720205 -0.46955991 0.050334442
-0.10736974 -0.4696593 0.050469607
-0.10751862 -0.46975529 0.050543748
-0.1076709 -0.46987337 0.050501388
-0.10781761 -0.46998739 0.050459057
-0.10796849 -0.47009164 0.050492831
-0.10812347 -0.47020647 0.050481591
-0.10826764 -0.47032291 0.05041391
-0.10840054 -0.47042179 0.050401639
-0.1085579 -0.47053874 0.050388087
-0.10871848 -0.47065237 0.050407965
-0.10884922 -0.4707627 0.050318442
-0.10900351 -0.47087315 0.050330274
-0.10915953 -0.47098657 0.050331719
-0.10930224 -0.47108969 0.0503367
-0.10944641 -0.47120053 0.050302457
-0.10959458 -0.47130764 0.050307404
-0.10975132 -0.47142044 0.050315768
-0.10989551 -0.47153106 0.050282679
-0.11004332 -0.4716385 0.050284173
-0.11018568 -0.4717505 0.050234951
-0.11032894 -0.47186163 0.050194953
-0.11047421 -0.47196683 0.050198756
-0.11061968 -0.47207606 0.050179504
-0.11077553 -0.47219363 0.05015558
-0.11093316 -0.47230572 0.050172005
-0.1110752 -0.47242546 0.050075497
-0.11123414 -0.47252858 0.050150741
-0.11138046 -0.47263709 0.050139561
-0.11152076 -0.47274584 0.050100721
-0.11166632 -0.47286251 0.050037641
-0.11181534 -0.47296134 0.05009564
-0.11194858 -0.4730632 0.050067231
-0.11211065 -0.47317639 0.050096318
-0.11225993 -0.47328663 0.050087422
-0.11239373 -0.4733955 0.050019789
-0.11254567 -0.4735077 0.050010879
-0.1126868 -0.47361553 0.04998127
-0.11284412 -0.47373536 0.049950421
-0.11297896 -0.47383955 0.049915079
-0.11313758 -0.47395137 0.049937267
-0.1132938 -0.47405407 0.050003298
-0.11342923 -0.47415793 0.049972564
-0.11355434 -0.47427773 0.049802337
-0.1137211 -0.47439221 0.049844086
-0.11387237 -0.47450122 0.049851328
-0.11401642 -0.47461057 0.049825165
-0.11418026 -0.4747268 0.049843863
-0.11432111 -0.47483769 0.049794648
-0.11446331 -0.47494125 0.049795024
-0.11461514 -0.47505668 0.049766503
-0.1147541 -0.47516173 0.049743827
-0.11490173 -0.47527254 0.049724553
-0.11504817 -0.47537744 0.049735282
-0.11519556 -0.47548515 0.049733318
-0.11534268 -0.47559616 0.049710594
-0.11549249 -0.47570604 0.049706306
-0.115628 -0.47581246 0.049660582
-0.11578001 -0.47592452 0.049652819
-0.11593505 -0.47602618 0.049720004
-0.11607832 -0.47614178 0.049653478
-0.11622463 -0.47624695 0.049661897
-0.11638203 -0.47636917 0.049617209
-0.11652271 -0.47647646 0.049588755
-0.11667836 -0.47658727 0.04960404
-0.11681888 -0.47669756 0.049557138
-0.11696697 -0.47681105 0.049524032
-0.11710227 -0.4769142 0.049496755
-0.11725675 -0.47702262 0.049521279
-0.11740395 -0.47713059 0.049517006
-0.1175561 -0.47724277 0.049509242
-0.1177012 -0.47735426 0.049474999
-0.11785875 -0.47746763 0.049483355
-0.11798983 -0.47757199 0.049430728
-0.11814212 -0.47768134 0.049440276
-0.11829019 -0.47778916 0.049440604
-0.11843157 -0.47790435 0.049368329
-0.11857026 -0.47800922 0.049345646
-0.11872558 -0.4781206 0.049356323
-0.11887191 -0.47823161 0.049330145
-0.11903051 -0.47834226 0.049359255
-0.11915819 -0.4784525 0.049257059
-0.11930412 -0.47856089 0.049244724
-0.11945969 -0.47866973 0.04927155
-0.11961596 -0.47877851 0.049301818
-0.11976231 -0.47888952 0.049275644
-0.11990823 -0.47900066 0.049247157
-0.12003889 -0.47910976 0.049164556
-0.12018955 -0.47922239 0.049147584
-0.12033409 -0.47933114 0.049127173
-0.12048434 -0.47943881 0.049137883
-0.12063529 -0.4795464 0.049152035
-0.12079459 -0.47965756 0.049181148
-0.12093534 -0.47976956 0.049125016
-0.12108835 -0.47987944 0.049134545
-0.12123106 -0.4799886 0.04910377
-0.12138931 -0.48010015 0.049125969
-0.12154029 -0.48021051 0.049123984
-0.12167131 -0.48032144 0.049032148
-0.12182287 -0.48042926 0.049047459
-0.12197129 -0.48054239 0.049017809
-0.12211374 -0.48065156 0.048985884
-0.12226233 -0.4807623 0.048971221
-0.12241755 -0.48087457 0.048976131
-0.12255451 -0.48098439 0.04891656
-0.12270682 -0.48109239 0.048934177
-0.12286378 -0.48120457 0.048947144
-0.12301026 -0.48131102 0.048948642
-0.12314722 -0.48142767 0.048848704
-0.1232776 -0.48153111 0.048798393
-0.12345087 -0.48163965 0.048903547
-0.12359722 -0.48175302 0.048863523
-0.12373816 -0.4818646 0.048810847
-0.12388674 -0.4819755 0.048795037
-0.12402571 -0.48208272 0.048759673
-0.1241768 -0.48218906 0.048781905
-0.1243153 -0.48229632 0.048744231
-0.1244696 -0.48240691 0.048754916
-0.12463246 -0.48252147 0.048779391
-0.12477282 -0.48263299 0.048724409
-0.12490113 -0.48274076 0.04863951
-0.12505384 -0.48284945 0.048654824
-0.12522097 -0.48296615 0.048685029
-0.12536603 -0.48307955 0.048639253
-0.12551548 -0.48318431 0.048663802
-0.1256565 -0.48329571 0.048612278
-0.12581316 -0.48340458 0.048643705
-0.12596197 -0.48351371 0.048639432
-0.12609652 -0.48362526 0.048559107
-0.12624109 -0.48373657 0.048523709
-0.12640058 -0.48384765 0.048553973
-0.12654479 -0.48395696 0.048528958
-0.12669444 -0.48406827 0.04851545
-0.12684798 -0.48417756 0.048530746
-0.12699386 -0.48429096 0.048488423
-0.12714219 -0.48440033 0.048480682
-0.12728788 -0.48450974 0.04846143
-0.12743731 -0.4846172 0.04846983
-0.12757775 -0.48473054 0.04840447
-0.1277246 -0.48483998 0.048389819
-0.12787591 -0.48495153 0.048382074
-0.12803471 -0.48506331 0.048405409
-0.12817593 -0.48517469 0.048355043
-0.12831458 -0.48528203 0.048317369
-0.12847082 -0.48539388 0.048329193
-0.12862045 -0.48550361 0.048324913
-0.1287653 -0.48561513 0.048289515
-0.12892182 -0.48572522 0.048312865
-0.12906885 -0.48583308 0.048308603
-0.12921745 -0.48594671 0.04827664
-0.1293665 -0.48605663 0.048268899
-0.12950477 -0.48616973 0.048195481
-0.12967008 -0.48628062 0.048252225
-0.12981439 -0.48639035 0.048224911
-0.12994537 -0.48649737 0.048156146
-0.13009655 -0.48660943 0.048144929
-0.13025029 -0.48672351 0.048132546
-0.13041271 -0.48683462 0.04817548
-0.13054794 -0.48694378 0.048112452
-0.13070773 -0.48705664 0.048133481
-0.13085912 -0.48716709 0.048132654
-0.13099465 -0.48727626 0.048070781
-0.13111906 -0.4873808 0.047988206
-0.13128398 -0.48749432 0.048027664
-0.13143133 -0.48760453 0.048010703
-0.1315849 -0.48771715 0.0480064
-0.13173634 -0.48782784 0.048004411
-0.13187985 -0.48793775 0.047972482
-0.13203327 -0.48804694 0.047987778
-0.13218933 -0.48816177 0.047981154
-0.13231921 -0.48827031 0.047898557
-0.13247158 -0.4883813 0.047898863
-0.13262373 -0.48849228 0.047898028
-0.13277496 -0.48860669 0.047872972
-0.13292982 -0.48871809 0.047881342
-0.13307557 -0.48882678 0.047866698
-0.13322933 -0.48893815 0.047870465
-0.13336034 -0.48904675 0.047792472
-0.13352519 -0.48915964 0.047835391
-0.13367383 -0.48927391 0.047799971
-0.13380986 -0.48937973 0.047760002
-0.13396268 -0.48949122 0.047759168
-0.13410804 -0.48960173 0.047731835
-0.13425922 -0.48971474 0.047714859
-0.13440037 -0.48982471 0.047672562
-0.13455777 -0.48993701 0.047686689
-0.13470966 -0.49004859 0.047681235
-0.1348601 -0.49015835 0.047680404
-0.13501029 -0.49027139 0.047658812
-0.13515396 -0.49038184 0.047624581
-0.1353085 -0.49049401 0.047627185
-0.13545057 -0.49060425 0.047587194
-0.13561176 -0.49071756 0.047611676
-0.13574809 -0.49082693 0.047552109
-0.13590434 -0.49093956 0.04755931
-0.13604069 -0.49104893 0.047499742
-0.13619536 -0.49116138 0.047501195
-0.13635501 -0.49127474 0.047518767
-0.13649316 -0.49138445 0.047464959
-0.13664426 -0.49149644 0.047453742
-0.13678172 -0.49160606 0.047397628
-0.13694453 -0.49171859 0.047433633
-0.1370973 -0.491831 0.047427025
-0.13725086 -0.49194363 0.047422726
-0.1374006 -0.49205714 0.047396518
-0.13754359 -0.49216631 0.047366899
-0.13770097 -0.49227977 0.047374107
-0.13785309 -0.49239227 0.047364041
-0.13799295 -0.49250248 0.047314834
-0.13814408 -0.49261642 0.047292091
-0.13829821 -0.49272946 0.047287773
-0.13846417 -0.49284488 0.047320299
-0.13860348 -0.49295506 0.047268793
-0.13876309 -0.49306935 0.047280598
-0.13891023 -0.49318117 0.047253266
-0.13906673 -0.49329495 0.047254708
-0.13920693 -0.4934054 0.047205497
-0.13934939 -0.4935163 0.047163192
-0.13951552 -0.49363226 0.047193408
-0.13966978 -0.49374574 0.047186792
-0.13981165 -0.49385664 0.047142182
-0.13996531 -0.4939701 0.047133271
-0.14011411 -0.49408254 0.047109377
-0.14026375 -0.49419519 0.047087789
-0.14042304 -0.49431005 0.047094986
-0.14056516 -0.49442109 0.047050383
-0.14073354 -0.49453813 0.047084045
-0.14087191 -0.4946484 0.047027923
-0.14102736 -0.49476257 0.047022454
-0.14117104 -0.49487555 0.046973221
-0.14131981 -0.49498969 0.04693896
-0.14148399 -0.49510461 0.046966888
-0.14162488 -0.49521556 0.046917673
-0.14179465 -0.4953334 0.046952486
-0.14194006 -0.49544549 0.046915933
-0.14209874 -0.49556223 0.046909291
-0.14224584 -0.49567479 0.046877339
-0.14239378 -0.49578756 0.046847694
-0.14254411 -0.49589956 0.046833023
-0.14270833 -0.49601647 0.046849418
-0.14285421 -0.49613026 0.046804786
-0.1429911 -0.49624041 0.046742905
-0.14316261 -0.49635932 0.046778865
-0.14329794 -0.49646911 0.046712387
-0.1434768 -0.49659145 0.046759836
-0.14362986 -0.49670446 0.046750918
-0.14376292 -0.49681512 0.046669461
-0.1439407 -0.49693879 0.046704225
-0.14409661 -0.4970541 0.046694141
-0.1442422 -0.49716672 0.046655279
-0.14436649 -0.49727371 0.046557713
-0.14454782 -0.49739861 0.046600539
-0.14471757 -0.49751642 0.04663536
-0.1448791 -0.49763212 0.046647154
-0.14502552 -0.49774653 0.046601366
-0.14519411 -0.49786562 0.046623506
-0.14532833 -0.49797538 0.046552412
-0.14548177 -0.49809179 0.046525043
-0.14564306 -0.49820772 0.046534527
-0.1457911 -0.4983227 0.046492189
-0.14594787 -0.49843881 0.04648095
-0.14610091 -0.49855259 0.046467423
-0.14626388 -0.49867323 0.04645614
-0.14642139 -0.49879104 0.046437975
-0.14657091 -0.49890265 0.046422157
-0.14671992 -0.49901679 0.046389036
-0.064289168 -0.43752602 0.054893725
-0.064495876 -0.43770325 0.05473572
-0.064670652 -0.43783212 0.054726686
-0.064837523 -0.437949 0.054754604
-0.065021351 -0.43809202 0.054700531
-0.065197736 -0.43822381 0.054681107
-0.065392457 -0.43838412 0.054571617
-0.065567851 -0.4385148 0.0545545
-0.065738335 -0.438638 0.054560479
-0.065887898 -0.43872866 0.054669242
-0.066057764 -0.43885103 0.054677539
-0.066236958 -0.43898815 0.054638479
-0.066420034 -0.43913162 0.054578651
-0.066610783 -0.43928477 0.054494552
-0.066779852 -0.43940654 0.054502849
-0.066952854 -0.43953469 0.054490365
-0.067138895 -0.43968382 0.05440975
-0.067297652 -0.43978953 0.054468855
-0.067471884 -0.43992016 0.054447137
-0.067643501 -0.4400467 0.054438122
-0.067811891 -0.44016817 0.054445274
-0.067995012 -0.4403109 0.054390054
-0.068157881 -0.4404237 0.054424904
-0.068335056 -0.44055995 0.05438241
-0.068508163 -0.44068974 0.054360695
-0.068675548 -0.44081029 0.054369003
-0.068851873 -0.44094571 0.054327663
-0.069023132 -0.441073 0.054312881
-0.069203779 -0.44121605 0.054244988
-0.069370523 -0.4413332 0.054270599
-0.069541663 -0.44146079 0.054253504
-0.069715261 -0.44159266 0.05422141
-0.069880962 -0.44171143 0.054233186
-0.070057809 -0.44184917 0.054180305
-0.070221007 -0.44196397 0.054204784
-0.07039398 -0.44209248 0.054189991
-0.070571348 -0.44223177 0.054130189
-0.070739225 -0.44235191 0.054143112
-0.070921764 -0.44250062 0.054049827
-0.071079455 -0.44260651 0.054103181
-0.071248636 -0.44273248 0.054087248
-0.071428142 -0.44287354 0.054026283
-0.071595043 -0.44299588 0.054021902
-0.071770117 -0.4431296 0.053985178
-0.071934089 -0.44324708 0.053996965
-0.072113395 -0.44338879 0.053931393
-0.072276883 -0.4435057 0.053944331
-0.072437182 -0.44361702 0.053976897
-0.072605923 -0.44374362 0.053955212
-0.072785079 -0.44388598 0.053885017
-0.072961956 -0.44402784 0.053807914
-0.073123202 -0.44413808 0.053850867
-0.073284507 -0.44425187 0.053873047
-0.073446795 -0.44436756 0.053888295
-0.073619381 -0.44450238 0.053834297
-0.073788397 -0.44462743 0.053822976
-0.073951676 -0.44474536 0.053828999
-0.074129865 -0.444888 0.053753048
-0.074297354 -0.44501427 0.05372791
-0.074461713 -0.44513124 0.053744305
-0.074623786 -0.44524753 0.053754941
-0.074795328 -0.44537851 0.053719398
-0.074963324 -0.44550651 0.053686179
-0.075129189 -0.44563061 0.053666815
-0.075292662 -0.44575027 0.053663608
-0.075465195 -0.44588411 0.053615358
-0.075638101 -0.44602266 0.053540587
-0.075799569 -0.44613522 0.053570852
-0.075962916 -0.44625536 0.053564183
-0.076132357 -0.44638401 0.053533264
-0.076292694 -0.44649845 0.053547371
-0.076463915 -0.44663113 0.053500291
-0.076625362 -0.44674814 0.05350402
-0.07679069 -0.44687322 0.053476576
-0.076950878 -0.44698793 0.053488385
-0.077122964 -0.44712338 0.053428609
-0.077256739 -0.44718349 0.053650498
-0.077451013 -0.44736561 0.053409506
-0.077615395 -0.44748983 0.053383224
-0.077786505 -0.44762436 0.053324617
-0.07794401 -0.44773442 0.053352579
-0.078109249 -0.4478569 0.053340141
-0.078268111 -0.44797006 0.053355418
-0.078435943 -0.44809851 0.053318735
-0.078594074 -0.44821039 0.053338625
-0.078761794 -0.44834343 0.053274266
-0.078916714 -0.44844848 0.053320706
-0.079088062 -0.44858572 0.053247098
-0.079249635 -0.44870591 0.053232361
-0.079414293 -0.44882876 0.053215306
-0.079578742 -0.44895592 0.053171724
-0.07975141 -0.4490976 0.053077348
-0.079900056 -0.44918895 0.053178038
-0.080055013 -0.44929481 0.053219855
-0.08022441 -0.44943452 0.053123191
-0.08038871 -0.44955787 0.053101525
-0.080554143 -0.44968906 0.053038329
-0.080711581 -0.44979653 0.053081296
-0.080868043 -0.44990659 0.053104654
-0.08102832 -0.45002604 0.053088777
-0.081192635 -0.45015562 0.053030208
-0.081348613 -0.45026493 0.053055879
-0.081501648 -0.45036182 0.053142693
-0.081678703 -0.45051897 0.052975629
-0.081832491 -0.45062318 0.053022072
-0.081998445 -0.45075318 0.052968103
-0.082141735 -0.4508684 0.052903865
-0.082306489 -0.4509851 0.052923728
-0.082480043 -0.45111948 0.052876636
-0.082640395 -0.45123607 0.052878063
-0.082807004 -0.45137531 0.052772172
-0.082964703 -0.45148528 0.052801296
-0.083121106 -0.45159763 0.052810818
-0.08327841 -0.45171258 0.052808806
-0.083433539 -0.45182168 0.052832175
-0.083598822 -0.45195332 0.052765518
-0.083758764 -0.45207641 0.052726574
-0.083916537 -0.45219365 0.052713018
-0.084073395 -0.45230848 0.052709848
-0.084231555 -0.45242095 0.05272628
-0.084385991 -0.45252895 0.052753109
-0.08454819 -0.45265368 0.05271415
-0.084707238 -0.45277593 0.052676372
-0.084868118 -0.45290416 0.052610893
-0.085019127 -0.45300227 0.05268158
-0.085183322 -0.45313472 0.052605692
-0.085340656 -0.45325297 0.052584071
-0.085494906 -0.45336163 0.052606296
-0.085650668 -0.45347524 0.052605432
-0.085814357 -0.45360789 0.052526094
-0.085936666 -0.45367807 0.052638467
-0.086066879 -0.45375925 0.052719645
-0.086237304 -0.45390031 0.052619513
-0.086438909 -0.45406368 0.052521512
-0.086598411 -0.4541921 0.052449122
-0.086754411 -0.45430863 0.052432116
-0.086909644 -0.45442265 0.052426644
-0.087064341 -0.45453492 0.052429259
-0.087219998 -0.454651 0.052413404
-0.087378219 -0.45476836 0.052400999
-0.08753404 -0.45488572 0.052378222
-0.087688893 -0.45499966 0.052371606
-0.087843962 -0.45511472 0.052359216
-0.088003293 -0.45523795 0.052316815
-0.088137574 -0.45533592 0.052316077
-0.088302188 -0.45546243 0.052277114
-0.088465169 -0.45557219 0.052330423
-0.088620529 -0.4557007 0.052239597
-0.088775799 -0.45581901 0.052208759
-0.088910699 -0.45592129 0.052184947
-0.089056686 -0.45601964 0.052232586
-0.089244127 -0.45616609 0.052173883
-0.08939828 -0.45628089 0.052159201
-0.089552209 -0.45639494 0.052147966
-0.08968661 -0.45649666 0.05212532
-0.089843459 -0.45661402 0.052107148
-0.090019435 -0.45675558 0.052027743
-0.09017095 -0.45685837 0.05207305
-0.090324849 -0.45697451 0.052049138
-0.090472296 -0.45706791 0.052132528
-0.090613022 -0.45718026 0.052074082
-0.090758897 -0.45729446 0.05202714
-0.090902343 -0.45740998 0.051961754
-0.091058649 -0.45752847 0.051934369
-0.091247164 -0.45766076 0.051964469
-0.091400422 -0.45777684 0.051938254
-0.091523722 -0.45787904 0.051864915
-0.091689296 -0.45801303 0.05178557
-0.091863491 -0.45815644 0.051687714
-0.092009179 -0.45827845 0.051593486
-0.092169903 -0.45837587 0.051710255
-0.092319414 -0.45846379 0.051835157
-0.092460074 -0.45856503 0.051842462
-0.092626147 -0.45868579 0.051843856
-0.092778087 -0.45879626 0.051845323
-0.092930749 -0.45891559 0.051797193
-0.093082994 -0.45903149 0.051767521
-0.093231842 -0.45913893 0.051773615
-0.093389578 -0.45925984 0.051738154
-0.09354113 -0.45936942 0.051743083
-0.093693055 -0.45948607 0.051707644
-0.093847319 -0.45959803 0.051710255
-0.093998656 -0.4597061 0.051723268
-0.094150431 -0.45982596 0.051668219
-0.09430185 -0.45993993 0.051646624
-0.094456047 -0.46005824 0.05161117
-0.094607271 -0.46017206 0.051589575
-0.094749987 -0.46027792 0.05157841
-0.094912209 -0.46039644 0.051576369
-0.095063195 -0.46050757 0.051569771
-0.095214114 -0.46061921 0.051559705
-0.095367797 -0.46073017 0.051565781
-0.095518507 -0.46084788 0.05151882
-0.095671996 -0.46096221 0.051504131
-0.095822364 -0.46108237 0.051441014
-0.095961951 -0.46118012 0.051464472
-0.096123949 -0.46129191 0.051501647
-0.096276961 -0.46141052 0.051459283
-0.096427314 -0.46152252 0.051444612
-0.096580602 -0.46163321 0.051450692
-0.096730329 -0.46175233 0.051391035
-0.096880332 -0.46186566 0.051367149
-0.097030707 -0.46197361 0.051376693
-0.097183242 -0.46209013 0.051344723
-0.097333714 -0.46219641 0.051364657
-0.097486459 -0.46230939 0.05135458
-0.097633302 -0.46242079 0.051328398
-0.097788528 -0.46253714 0.05130909
-0.097911566 -0.46259618 0.051490661
-0.098057494 -0.46271411 0.051421799
-0.098240629 -0.46287045 0.051285837
-0.098392814 -0.46298456 0.051266547
-0.098541982 -0.46309766 0.051240351
-0.098690748 -0.46321261 0.05120147
-0.098842405 -0.46332809 0.051171802
-0.09899056 -0.46344492 0.051119078
-0.099140137 -0.46355367 0.051120568
-0.099292353 -0.46366489 0.051118575
-0.099426821 -0.46375406 0.051170893
-0.09955962 -0.46383655 0.051255524
-0.099727206 -0.46399418 0.051044665
-0.099891782 -0.46412066 0.051005695
-0.10004282 -0.46422207 0.051056772
-0.10019504 -0.46433216 0.051061697
-0.10034053 -0.46445519 0.050960552
-0.1004883 -0.46456882 0.050925136
-0.10064186 -0.46467328 0.050969273
-0.10079303 -0.46478626 0.050952297
-0.10094347 -0.46489021 0.05098607
-0.10109384 -0.46500552 0.05095179
-0.1012433 -0.46511263 0.050962511
-0.10138499 -0.4652226 0.050922513
-0.10153931 -0.46534565 0.050859369
-0.10168578 -0.46545097 0.0508678
-0.10182741 -0.46554068 0.050947763
-0.10197059 -0.46565524 0.050886996
-0.10211936 -0.46576378 0.050886173
-0.10228854 -0.46590155 0.050799888
-0.10243286 -0.46601191 0.050769102
-0.10257064 -0.46611184 0.05077181
-0.1027144 -0.46622312 0.050732948
-0.10288306 -0.46634343 0.050748169
-0.10303479 -0.46645278 0.050755419
-0.10317963 -0.46656114 0.050738469
-0.10330755 -0.46666613 0.05066856
-0.10345388 -0.4667787 0.050633144
-0.10362957 -0.46688434 0.050765984
-0.10376678 -0.46697763 0.050805595
-0.10389674 -0.46706313 0.050860249
-0.10402738 -0.46717668 0.050751109
-0.10416484 -0.46730551 0.050580792
-0.10432187 -0.46740454 0.050672203
-0.10446499 -0.46752894 0.05055261
-0.1046224 -0.46764806 0.050526369
-0.1047591 -0.46778238 0.050320301
-0.1049194 -0.46790242 0.050300963
-0.10508177 -0.46801251 0.050349675
-0.10524773 -0.46811706 0.050446805
-0.10538542 -0.46820974 0.050492182
-0.10553046 -0.46830994 0.050524838
-0.10568327 -0.46842918 0.050477855
-0.10582051 -0.46854097 0.050407894
-0.10596988 -0.46864679 0.050425526
-0.10612293 -0.4687534 0.050454676
-0.10626284 -0.46886092 0.050421614
-0.10640907 -0.468954 0.050501551
-0.10655059 -0.46907628 0.050387736
-0.10669506 -0.46919975 0.050279666
-0.10683692 -0.46931508 0.050208528
-0.10699941 -0.46940973 0.050349504
-0.10713412 -0.46951228 0.050323386
-0.10727713 -0.46963117 0.050236091
-0.10742402 -0.46974513 0.050194912
-0.10757273 -0.46985167 0.050205629
-0.10772809 -0.46996596 0.050199006
-0.10787966 -0.47007442 0.050210867
-0.10803065 -0.47017854 0.050245788
-0.10818473 -0.47027948 0.050312996
-0.1083276 -0.47038275 0.050317977
-0.10846239 -0.47050402 0.050181124
-0.1086041 -0.47062251 0.05009038
-0.10874309 -0.47073868 0.050001949
-0.10888851 -0.47085759 0.049925022
-0.10904921 -0.47096163 0.050002571
-0.10919705 -0.47106889 0.050005224
-0.10935666 -0.47118786 0.04998935
-0.10948582 -0.47131199 0.049811013
-0.10963424 -0.47141406 0.049847096
-0.10978364 -0.4715285 0.049813982
-0.10994169 -0.47161815 0.049965374
-0.11009847 -0.47172222 0.050025642
-0.11024317 -0.47182798 0.05002369
-0.11039564 -0.47194424 0.049992867
-0.1105487 -0.47205999 0.049967803
-0.1106974 -0.4721708 0.04995314
-0.11084102 -0.47227734 0.049941964
-0.11097509 -0.4723829 0.049895093
-0.11112291 -0.47249424 0.049873516
-0.11127618 -0.47260159 0.049899206
-0.11142126 -0.47271091 0.049877644
-0.11156997 -0.47281379 0.049910277
-0.11171627 -0.47292227 0.04989909
-0.11186174 -0.47304276 0.049812932
-0.11199535 -0.47316703 0.049653027
-0.11216111 -0.47325882 0.049825132
-0.11230736 -0.47337094 0.049792025
-0.11245054 -0.47347754 0.049778555
-0.11259924 -0.47359902 0.049700458
-0.11272863 -0.47369924 0.049665138
-0.11286762 -0.47380453 0.049641304
-0.11302488 -0.47390994 0.049695808
-0.11317739 -0.47402528 0.049670745
-0.11333213 -0.47413582 0.049683735
-0.11347611 -0.47424883 0.049635652
-0.11361489 -0.47435415 0.049610667
-0.11375497 -0.47446215 0.049575288
-0.11389694 -0.47456574 0.049574513
-0.11404148 -0.47467816 0.04953219
-0.11419224 -0.47478408 0.049555581
-0.11432844 -0.47490713 0.049414113
-0.1144737 -0.47501233 0.049417928
-0.11462133 -0.47512954 0.049360596
-0.1147619 -0.47523364 0.049350601
-0.11490021 -0.47534522 0.049286392
-0.1150279 -0.4754518 0.049206108
-0.11518516 -0.47555485 0.049274448
-0.11534268 -0.47566432 0.049305882
-0.11549143 -0.47577131 0.04931429
-0.11564007 -0.47588149 0.049303085
-0.11580415 -0.47599167 0.049358711
-0.11595833 -0.4761059 0.049347475
-0.11610857 -0.47620946 0.049382411
-0.11623985 -0.47632331 0.049274415
-0.11639457 -0.47642529 0.049338154
-0.11653924 -0.47653705 0.049300447
-0.11668381 -0.47664583 0.049280051
-0.11682853 -0.4767516 0.049278099
-0.11697985 -0.47686392 0.049265731
-0.1171255 -0.47697812 0.049217641
-0.11728293 -0.4770827 0.049277902
-0.11742619 -0.47719479 0.049232133
-0.11757884 -0.47730672 0.049227826
-0.11772154 -0.47741607 0.049195901
-0.11786751 -0.4775216 0.049200866
-0.11801636 -0.47763193 0.049189672
-0.11816469 -0.47774518 0.049158864
-0.11829639 -0.47784925 0.049110841
-0.11844558 -0.47795671 0.049118105
-0.11860283 -0.47806755 0.049140301
-0.11874995 -0.47817835 0.049118739
-0.11888971 -0.47829372 0.049038373
-0.11903168 -0.47840041 0.049019139
-0.11917946 -0.47850567 0.049033321
-0.1193227 -0.47861737 0.048989855
-0.11947595 -0.47872412 0.049019001
-0.11963285 -0.47883275 0.049052749
-0.11976999 -0.47894058 0.049005855
-0.11991396 -0.47904947 0.048981991
-0.12006772 -0.47915894 0.048997298
-0.12021279 -0.47927019 0.048964199
-0.12035192 -0.47938004 0.048913836
-0.12050325 -0.47949007 0.048915304
-0.12065639 -0.4795948 0.048955996
-0.12079665 -0.47971189 0.048867557
-0.12093629 -0.4798215 0.048820648
-0.1210831 -0.47992745 0.048826765
-0.12123893 -0.48003685 0.048851281
-0.12138973 -0.4801496 0.048834305
-0.12152613 -0.48025724 0.048785109
-0.12167533 -0.48036298 0.048802741
-0.12182833 -0.48047304 0.048811134
-0.12197466 -0.48058408 0.048784956
-0.12212099 -0.4806951 0.048758768
-0.12226754 -0.48080611 0.048733737
-0.1224086 -0.48091307 0.048708741
-0.12256615 -0.48102278 0.048739016
-0.1227047 -0.48113239 0.048687503
-0.12285288 -0.48124555 0.048656695
-0.12300928 -0.48135322 0.048693907
-0.12314725 -0.48146513 0.04862624
-0.12328409 -0.48157254 0.048580509
-0.12343784 -0.48168063 0.048603885
-0.12359075 -0.48178887 0.048622657
-0.12372965 -0.48189837 0.048573442
-0.1238786 -0.48200703 0.04857263
-0.12403408 -0.48211968 0.048576385
-0.12418533 -0.4822349 0.048546709
-0.12432482 -0.48234206 0.048513651
-0.1244727 -0.48245093 0.048507065
-0.12462531 -0.48255953 0.048522379
-0.12478378 -0.48267224 0.048538808
-0.12492186 -0.48277956 0.048498828
-0.12507446 -0.48289263 0.048487615
-0.12521325 -0.48300207 0.0484384
-0.12536031 -0.48311538 0.04840184
-0.12550871 -0.48322439 0.048396409
-0.12565485 -0.48333353 0.048380613
-0.12581122 -0.48344451 0.048398204
-0.12594078 -0.48355824 0.048283301
-0.12610035 -0.48366922 0.04831472
-0.12624189 -0.48377851 0.048278183
-0.12639375 -0.48388559 0.04829926
-0.12655824 -0.48399881 0.048338734
-0.12670003 -0.48410612 0.048314881
-0.12685032 -0.48421344 0.048327897
-0.1270064 -0.4843269 0.048329342
-0.12715815 -0.48444441 0.048288133
-0.12728932 -0.48455369 0.04820668
-0.12744105 -0.48466516 0.048201226
-0.12757961 -0.48477051 0.048175085
-0.12774567 -0.48488232 0.048229538
-0.12788691 -0.48499373 0.048179161
-0.1280361 -0.48510334 0.048173726
-0.12818424 -0.48521492 0.048152156
-0.12831709 -0.48532405 0.048078753
-0.12847923 -0.48543614 0.048114777
-0.12862834 -0.48554587 0.048108183
-0.12879947 -0.48566043 0.048168376
-0.12898485 -0.48577002 0.048319615
-0.12915778 -0.48589075 0.04835096
-0.12932852 -0.48602092 0.048316572
-0.1294778 -0.48612729 0.048330747
-0.12961224 -0.48623663 0.04826311
-0.12975901 -0.48634294 0.048266917
-0.12990582 -0.4864549 0.048237268
-0.1300464 -0.486559 0.048227273
-0.13020827 -0.48667574 0.048234452
-0.13038385 -0.48680091 0.048250794
-0.1305439 -0.48691398 0.04827182
-0.13069227 -0.48702806 0.048236404
-0.13083223 -0.48713598 0.048201032
-0.13096225 -0.48724309 0.048127644
-0.13110548 -0.48735127 0.048104946
-0.13124384 -0.48746443 0.048031516
-0.13143355 -0.48758766 0.048120439
-0.13160187 -0.48771083 0.048117213
-0.1317333 -0.48780558 0.048123408
-0.13184263 -0.4878999 0.0480363
-0.13196567 -0.48800617 0.047937572
-0.13208519 -0.48811552 0.047805421
-0.13221419 -0.48822397 0.047719356
-0.1323694 -0.48833704 0.047719657
-0.13251495 -0.48844904 0.047684252
-0.132664 -0.48856145 0.047661521
-0.13283186 -0.4886744 0.047717113
-0.13296895 -0.48878548 0.047650613
-0.13310829 -0.48889509 0.047602557
-0.13328508 -0.48901281 0.047668483
-0.1334375 -0.48912245 0.047676869
-0.13358329 -0.48923635 0.047631085
-0.1337308 -0.48934883 0.047601443
-0.13388813 -0.48946264 0.047606338
-0.13403323 -0.48957315 0.047577858
-0.13417163 -0.48968443 0.04751597
-0.13432537 -0.48979619 0.047517426
-0.13449083 -0.48991302 0.047539584
-0.13464046 -0.4900243 0.047526076
-0.1347913 -0.49013746 0.047506794
-0.13494474 -0.4902494 0.047505945
-0.13509823 -0.49036467 0.047485493
-0.13525422 -0.49047709 0.047492709
-0.13539006 -0.49058804 0.047421604
-0.13553232 -0.49069998 0.047372371
-0.13569306 -0.49081492 0.047385328
-0.13584961 -0.49092603 0.04740293
-0.13600512 -0.49104023 0.047397457
-0.13614996 -0.4911527 0.047356289
-0.13628335 -0.49126324 0.047277119
-0.13644767 -0.49137747 0.047309663
-0.13660976 -0.49149299 0.047324922
-0.13673648 -0.49160233 0.047223873
-0.13689305 -0.4917154 0.047229934
-0.13704549 -0.49182776 0.047222178
-0.1372112 -0.49194574 0.047238566
-0.13735387 -0.49205798 0.047189333
-0.13750944 -0.49217108 0.047190789
-0.13767013 -0.49228674 0.047199134
-0.13781543 -0.49239957 0.047157966
-0.13796912 -0.49251246 0.047152504
-0.13812651 -0.49262765 0.04714933
-0.13828295 -0.4927412 0.047151931
-0.13842443 -0.49285334 0.047098093
-0.13858724 -0.49296981 0.047111038
-0.13874504 -0.49308529 0.047107864
-0.13889486 -0.49319771 0.047088586
-0.13905472 -0.49331373 0.047091167
-0.13921581 -0.49343011 0.047097202
-0.13935906 -0.49354276 0.047047962
-0.13950658 -0.49365485 0.047020629
-0.13965815 -0.49376932 0.04699672
-0.13981259 -0.49388295 0.046990104
-0.13996243 -0.49399713 0.046960447
-0.14010721 -0.49411169 0.04690659
-0.14027491 -0.49422836 0.046939116
-0.14042436 -0.49434108 0.046916381
-0.14059027 -0.494459 0.046933927
-0.14073122 -0.49457136 0.046876632
-0.14088689 -0.49468705 0.046863087
-0.14104286 -0.49480143 0.046858765
-0.14119524 -0.49491647 0.04683486
-0.14135081 -0.49503231 0.046820156
-0.14151198 -0.49514949 0.046821583
-0.14166841 -0.49526417 0.046817265
-0.14180408 -0.49537539 0.046743851
-0.14197512 -0.49549514 0.046772897
-0.14212692 -0.4956117 0.046737459
-0.14229055 -0.49572834 0.04675271
-0.14243385 -0.49584007 0.046709239
-0.14258486 -0.49595374 0.046687644
-0.14274624 -0.49607283 0.046678688
-0.14288726 -0.49618405 0.046628315
-0.14305526 -0.4963035 0.046645846
-0.14321274 -0.49641898 0.046641514
-0.14334378 -0.49652913 0.04655429
-0.14351511 -0.49665102 0.046571802
-0.14368945 -0.49677238 0.046605449
-0.14383912 -0.49688604 0.046578094
-0.1440022 -0.49700463 0.046579506
-0.14416498 -0.49712181 0.046587832
-0.14431374 -0.49723673 0.046548951
-0.14447933 -0.49735755 0.046548039
-0.14463198 -0.49747086 0.046535663
-0.14478308 -0.49758789 0.046494469
-0.1449461 -0.4977068 0.046493575
-0.14508459 -0.49782047 0.046417836
-0.14524908 -0.49793851 0.046428461
-0.14541802 -0.49805924 0.046442527
-0.14556785 -0.49817339 0.04641287
-0.14574011 -0.49829519 0.046434987
-0.14588284 -0.49840611 0.046393834
-0.14604795 -0.49852869 0.046380237
-0.14619766 -0.49864432 0.046341348
-0.14632502 -0.4987483 0.046274904
-0.1465203 -0.49887696 0.046355724
-0.14666265 -0.49899325 0.046281114
-0.064229444 -0.4374904 0.054846905
-0.064419165 -0.43764162 0.054769691
-0.06462048 -0.43781084 0.054635882
-0.064799011 -0.43794554 0.054608338
-0.06497328 -0.43807134 0.054615438
-0.065153062 -0.43820834 0.054579806
-0.065337375 -0.4383525 0.05452108
-0.065501258 -0.43846527 0.054560535
-0.065657049 -0.43856552 0.054639269
-0.065850824 -0.43872494 0.054530881
-0.066031136 -0.43886369 0.054487176
-0.06620124 -0.43898663 0.054493137
-0.066344216 -0.4390884 0.05450733
-0.066550218 -0.43924937 0.054442719
-0.066724211 -0.43938699 0.054378282
-0.066905111 -0.43951684 0.05438995
-0.067051202 -0.43961039 0.054466426
-0.067239933 -0.43975565 0.054420367
-0.067428507 -0.43990645 0.054340858
-0.067596547 -0.44003001 0.054334141
-0.067742795 -0.44013244 0.054358695
-0.067905754 -0.44026199 0.054294322
-0.068086438 -0.44040373 0.054234467
-0.068206519 -0.44046664 0.054380313
-0.068411618 -0.44062015 0.054356083
-0.068621099 -0.44078115 0.05430644
-0.068812482 -0.44094136 0.05418307
-0.068995461 -0.44108808 0.054103583
-0.069154799 -0.44119579 0.054153454
-0.069291838 -0.44129264 0.054171138
-0.069432929 -0.44139636 0.054165728
-0.069661438 -0.44156712 0.054140214
-0.069829203 -0.44168931 0.054140422
-0.070015855 -0.44184065 0.054049384
-0.070179842 -0.44195679 0.054069221
-0.070361823 -0.44210374 0.053983971
-0.070525289 -0.44221932 0.054004971
-0.070702031 -0.44235775 0.053947449
-0.070865244 -0.44247314 0.053968452
-0.071038216 -0.44260246 0.05394901
-0.071208522 -0.44273037 0.053926133
-0.071376711 -0.44285482 0.053914808
-0.071545705 -0.44298083 0.053897697
-0.071709633 -0.4430981 0.053910617
-0.071863942 -0.44319844 0.053982437
-0.072048411 -0.44334915 0.053885631
-0.072230391 -0.443499 0.053783081
-0.072374657 -0.44359142 0.053858411
-0.072565675 -0.44374827 0.053753499
-0.072730541 -0.44386816 0.053754881
-0.072889224 -0.44397691 0.053795516
-0.073059618 -0.44410375 0.053779561
-0.0732252 -0.44422534 0.05377401
-0.073396944 -0.44435841 0.053726897
-0.073567584 -0.44448969 0.053685561
-0.073739678 -0.44462049 0.053653434
-0.073900849 -0.44473457 0.053673297
-0.074069224 -0.44486228 0.053643502
-0.074240431 -0.44499552 0.053592931
-0.0744019 -0.44511059 0.053608175
-0.074568912 -0.44523633 0.053584158
-0.074725151 -0.44533807 0.053655956
-0.074904457 -0.44548774 0.053543031
-0.075068697 -0.44560871 0.053535189
-0.07523232 -0.44572866 0.053530812
-0.075397238 -0.44584763 0.053537954
-0.075560935 -0.44596803 0.053531263
-0.0757256 -0.44609049 0.053516489
-0.075896621 -0.44622573 0.053453222
-0.076059945 -0.44634217 0.053468451
-0.076228246 -0.44647253 0.053422511
-0.076388039 -0.44658601 0.053440072
-0.076550893 -0.44670579 0.053433385
-0.076723009 -0.44684067 0.053377032
-0.076882176 -0.4469533 0.053396907
-0.077050462 -0.44708481 0.053344041
-0.077211149 -0.44720086 0.053350061
-0.077379033 -0.447328 0.053321417
-0.077543467 -0.44745225 0.053295117
-0.077706747 -0.44757429 0.053276889
-0.077867374 -0.44769087 0.053279448
-0.078036264 -0.44782108 0.053236961
-0.078201011 -0.44794691 0.053202566
-0.078367338 -0.44807643 0.053153176
-0.078525811 -0.44818911 0.053169593
-0.078687727 -0.4483051 0.053181365
-0.078843042 -0.44841102 0.05322434
-0.079010837 -0.44854471 0.053156469
-0.079172581 -0.44866523 0.053140562
-0.079333946 -0.4487851 0.053126968
-0.079498321 -0.44891202 0.053084496
-0.079666972 -0.44904438 0.053028174
-0.079825267 -0.44915792 0.053038821
-0.079985194 -0.44927537 0.053033307
-0.080146104 -0.44939527 0.053017393
-0.08031103 -0.44952008 0.05298993
-0.080469996 -0.44963586 0.052990194
-0.080622904 -0.44973731 0.053049322
-0.08078976 -0.44987223 0.052969933
-0.080955029 -0.44999883 0.052933235
-0.081110723 -0.45010737 0.052962348
-0.081275247 -0.45023769 0.052900277
-0.081442252 -0.45037973 0.052779347
-0.081599995 -0.45048881 0.052814219
-0.081755318 -0.45059705 0.052843347
-0.08191441 -0.45070961 0.05286321
-0.082070947 -0.4508211 0.052878484
-0.082231283 -0.45094255 0.052851044
-0.082392707 -0.45106712 0.05280976
-0.082557485 -0.4511953 0.052761525
-0.082720652 -0.45132521 0.052695997
-0.082876354 -0.45143551 0.052714728
-0.08303386 -0.45155078 0.052711535
-0.083192445 -0.45166922 0.052694499
-0.083351284 -0.45178857 0.052672826
-0.083509512 -0.45190051 0.052692708
-0.083671562 -0.45202944 0.052628342
-0.083823688 -0.4521305 0.052686326
-0.08398091 -0.45224619 0.052679665
-0.08412759 -0.4523693 0.05258308
-0.084303409 -0.45249546 0.052594777
-0.084467009 -0.45263091 0.052498106
-0.08462026 -0.45273593 0.052537613
-0.084777892 -0.45285422 0.05251712
-0.084940188 -0.45298719 0.052429676
-0.085094765 -0.45308986 0.052488793
-0.085253157 -0.45321143 0.052452136
-0.08540532 -0.45331353 0.052504349
-0.085562021 -0.45343018 0.052489623
-0.085711852 -0.45353928 0.052489933
-0.085874304 -0.45365313 0.052516706
-0.086035535 -0.45378572 0.052426957
-0.086177133 -0.45389834 0.052370779
-0.086341791 -0.45402062 0.052357167
-0.08647123 -0.45409951 0.052448727
-0.08661069 -0.45422164 0.052326806
-0.086781688 -0.4543429 0.052346613
-0.08697325 -0.45448071 0.052357063
-0.087128639 -0.45459563 0.05234696
-0.087288186 -0.45471784 0.052311447
-0.087445095 -0.45483932 0.05226903
-0.087598309 -0.45494682 0.05229355
-0.087754615 -0.45506668 0.052258056
-0.08791475 -0.45519301 0.052200619
-0.088069133 -0.45530602 0.052197441
-0.088223383 -0.45541877 0.052195419
-0.088377513 -0.45553121 0.052194554
-0.088532805 -0.45564896 0.052167144
-0.08868672 -0.45576108 0.052167431
-0.088844597 -0.45588052 0.05214116
-0.089001238 -0.45600587 0.052074514
-0.089127302 -0.45608985 0.05212111
-0.089303061 -0.45622703 0.052067041
-0.089440957 -0.4563216 0.052102029
-0.089576788 -0.45640573 0.052190103
-0.089749672 -0.45655459 0.052054141
-0.089904711 -0.45667547 0.052007124
-0.090084001 -0.45680881 0.051991116
-0.09024024 -0.45693794 0.051900245
-0.090390414 -0.45703331 0.051983617
-0.090541124 -0.45713121 0.052054301
-0.090698615 -0.45727021 0.051910356
-0.090842843 -0.45737484 0.051913001
-0.09099561 -0.4574863 0.05191214
-0.091124587 -0.45757377 0.051950641
-0.091284677 -0.45768377 0.051990118
-0.091451183 -0.45782158 0.051892258
-0.091621689 -0.45795316 0.051848613
-0.091773853 -0.45806241 0.051858138
-0.091926746 -0.45817783 0.051834203
-0.092079081 -0.45828936 0.051831041
-0.092235424 -0.45841411 0.051766708
-0.092387125 -0.45852128 0.051786616
-0.092540793 -0.45864818 0.05169807
-0.092693098 -0.45876297 0.05167529
-0.092845142 -0.45887583 0.051662896
-0.092963576 -0.45896652 0.051636841
-0.093122222 -0.45906419 0.051743243
-0.093303092 -0.45920914 0.05166493
-0.093432382 -0.45930502 0.051654972
-0.09356685 -0.45939884 0.051679596
-0.093716107 -0.45951608 0.051629145
-0.093881667 -0.45963803 0.051621284
-0.094033442 -0.45975694 0.051571976
-0.094181947 -0.45986506 0.051572293
-0.09436471 -0.46002018 0.051442042
-0.094488055 -0.46011966 0.051384822
-0.094644397 -0.46022245 0.051450852
-0.094795085 -0.46030888 0.051589608
-0.094946235 -0.46042654 0.051544912
-0.095122412 -0.46056402 0.051490843
-0.09527047 -0.46067902 0.051448479
-0.095421195 -0.46079579 0.051407248
-0.095549636 -0.46088773 0.051416911
-0.095694624 -0.46099895 0.051383793
-0.095850766 -0.46111518 0.051369067
-0.096028924 -0.46125275 0.051323064
-0.096179508 -0.46136028 0.051336061
-0.096329734 -0.46147433 0.05130868
-0.096463725 -0.46156645 0.051341381
-0.09659408 -0.46167028 0.051288728
-0.09676335 -0.46180096 0.05124509
-0.096926905 -0.46192768 0.051200323
-0.097074352 -0.4620339 0.051207568
-0.097213797 -0.46213037 0.051237937
-0.097361006 -0.46223894 0.051230181
-0.097509526 -0.46233484 0.051303186
-0.097635433 -0.46241894 0.051348619
-0.097775772 -0.46253413 0.051271681
-0.097921737 -0.46267462 0.051068962
-0.098095216 -0.4628109 0.051010296
-0.098277681 -0.46292654 0.051113099
-0.098427564 -0.46303472 0.051119179
-0.098576039 -0.4631514 0.051068731
-0.098724686 -0.46324798 0.051138274
-0.098875791 -0.46334907 0.051191643
-0.099013828 -0.46346998 0.051070884
-0.099169455 -0.46358022 0.051089618
-0.09930516 -0.46367905 0.05109001
-0.099432111 -0.46375865 0.051166587
-0.099566065 -0.4638657 0.051110454
-0.099709146 -0.46400291 0.050914668
-0.099872515 -0.46410674 0.051004894
-0.10001564 -0.46424088 0.050827578
-0.10016268 -0.46439636 0.050540626
-0.10035376 -0.46449396 0.050787598
-0.10050677 -0.4645879 0.05089172
-0.10063715 -0.46465662 0.051047891
-0.10076933 -0.4647781 0.050898317
-0.10093478 -0.46492174 0.050761245
-0.10107759 -0.46498433 0.051007338
-0.10121083 -0.4650895 0.050959282
-0.10139598 -0.46524441 0.050840557
-0.10153114 -0.46535292 0.050780956
-0.10167086 -0.46545777 0.050762866
-0.10181081 -0.46557152 0.050692849
-0.10196052 -0.46568659 0.050657403
-0.10213496 -0.465801 0.050732564
-0.10228397 -0.46590856 0.05073864
-0.10242502 -0.46601826 0.050697464
-0.10257337 -0.46610978 0.050795846
-0.10269679 -0.46620992 0.050735164
-0.1028524 -0.46634403 0.050611988
-0.10300088 -0.46644402 0.050660763
-0.10316024 -0.46656066 0.050657559
-0.10329093 -0.46665969 0.050634902
-0.10344678 -0.46677572 0.05062018
-0.10358931 -0.46687308 0.050658599
-0.1037406 -0.46699065 0.050615065
-0.10389005 -0.46710417 0.05058768
-0.10402527 -0.46719387 0.050639991
-0.10415633 -0.46729881 0.050583873
-0.10431556 -0.46742916 0.050498758
-0.10446681 -0.46753871 0.05050252
-0.10461359 -0.46764249 0.050521307
-0.10476127 -0.46775821 0.050473172
-0.10489907 -0.4678638 0.050442394
-0.10502732 -0.46797192 0.050355148
-0.1051852 -0.4680768 0.050415408
-0.10534632 -0.46818948 0.05044334
-0.10547795 -0.46829796 0.05036876
-0.10562603 -0.46841803 0.050296396
-0.10577667 -0.46852189 0.050331309
-0.10593361 -0.46863467 0.050340809
-0.10608822 -0.46875075 0.050320324
-0.10622159 -0.46885562 0.050274573
-0.10635979 -0.46894228 0.050358012
-0.10649332 -0.46905816 0.050247669
-0.10665254 -0.46917897 0.050219074
-0.10679916 -0.46928826 0.050204404
-0.10695112 -0.46938533 0.050285466
-0.10709696 -0.46950105 0.050229266
-0.10722375 -0.46960774 0.050144326
-0.10736921 -0.46970764 0.050180428
-0.10753114 -0.46982479 0.050185278
-0.10767215 -0.46992999 0.050170641
-0.10781388 -0.47004446 0.050104085
-0.10795908 -0.47015488 0.050076723
-0.10810478 -0.47026467 0.050055139
-0.10825162 -0.47037315 0.050046239
-0.10840283 -0.47047704 0.050083458
-0.10856266 -0.47058666 0.050124086
-0.10869682 -0.470689 0.050096802
-0.10884334 -0.47080252 0.050056744
-0.10899043 -0.47092459 0.049968235
-0.10913581 -0.47102967 0.049973182
-0.1092822 -0.47114289 0.049934287
-0.10943847 -0.47124696 0.049992245
-0.1095856 -0.47134614 0.050039865
-0.10972795 -0.47145408 0.050014842
-0.10986495 -0.47156218 0.049965613
-0.11000413 -0.47167695 0.049886379
-0.11015246 -0.47179234 0.049842853
-0.11031411 -0.4718883 0.049972314
-0.11045158 -0.47198316 0.050003845
-0.11057829 -0.47210321 0.049839303
-0.11071465 -0.47222346 0.049715079
-0.11088152 -0.47233239 0.049790286
-0.1110284 -0.47244439 0.049760614
-0.11117361 -0.47254956 0.049764413
-0.11132403 -0.4726589 0.04976587
-0.11146913 -0.47276029 0.049791597
-0.11161482 -0.47287688 0.049729623
-0.11175773 -0.47298366 0.049713816
-0.11190951 -0.47309595 0.049703736
-0.11205883 -0.47320604 0.049695969
-0.11220828 -0.47331604 0.049689364
-0.11235272 -0.47342551 0.049664319
-0.11249626 -0.47353548 0.049632356
-0.11262999 -0.47363672 0.049609683
-0.11276793 -0.4737463 0.049555834
-0.11293168 -0.47385857 0.049597602
-0.11307713 -0.47396371 0.049602546
-0.11321509 -0.47407311 0.049549852
-0.11336144 -0.47417423 0.049582489
-0.11350052 -0.47428289 0.049539015
-0.11363958 -0.47440183 0.049434394
-0.11379694 -0.47450748 0.04948774
-0.11395994 -0.47460365 0.049621802
-0.11409644 -0.47471356 0.049559884
-0.11424287 -0.47482175 0.049550988
-0.11439317 -0.4749347 0.049530525
-0.11453058 -0.47504386 0.049476683
-0.11468038 -0.47515044 0.049491979
-0.11483368 -0.47525549 0.049531497
-0.11497977 -0.47537354 0.049462605
-0.11512497 -0.47547266 0.049502172
-0.11526586 -0.4755801 0.049473684
-0.11540073 -0.47569638 0.049366791
-0.11554387 -0.47580585 0.049335983
-0.11569056 -0.47591382 0.049329393
-0.11582883 -0.47602519 0.049266305
-0.11596815 -0.4761391 0.049192838
-0.1161041 -0.4762511 0.049115926
-0.11626138 -0.47635496 0.049179651
-0.11641422 -0.47646064 0.049213398
-0.116569 -0.47656867 0.049241371
-0.11671575 -0.4766767 0.04923477
-0.11685907 -0.47678593 0.049206279
-0.11700894 -0.47690168 0.049167361
-0.11715709 -0.47701794 0.049118064
-0.11731893 -0.47712395 0.049188692
-0.11745346 -0.47722733 0.049156774
-0.11760429 -0.47734553 0.04910747
-0.11775371 -0.47745281 0.049117014
-0.11789858 -0.47755304 0.0491485
-0.11803542 -0.47766685 0.049064662
-0.1181845 -0.47777155 0.049088046
-0.11833832 -0.47787502 0.049139101
-0.1184715 -0.47799239 0.049018364
-0.11861914 -0.47809759 0.049032528
-0.11877096 -0.47820717 0.049038596
-0.11891018 -0.47831729 0.048987053
-0.11906615 -0.47842059 0.049048472
-0.11921611 -0.47853076 0.049043011
-0.11935347 -0.47864127 0.048981089
-0.11948606 -0.47875276 0.048892658
-0.11964561 -0.47886857 0.048895221
-0.11980283 -0.47897977 0.048915096
-0.11995118 -0.47908005 0.048961561
-0.12009107 -0.47919238 0.048899636
-0.1202289 -0.4792949 0.048887316
-0.12036908 -0.47940707 0.048827685
-0.12051363 -0.47951582 0.04880726
-0.12066686 -0.47963053 0.048789091
-0.12081979 -0.47973782 0.048813611
-0.12096296 -0.47984439 0.048800111
-0.12110583 -0.47996089 0.048726618
-0.12125477 -0.48006895 0.048729245
-0.12139322 -0.48017383 0.048705392
-0.12155128 -0.48028061 0.048755262
-0.12169937 -0.48039135 0.048738275
-0.12183297 -0.48050418 0.048646387
-0.12198488 -0.48060724 0.048691671
-0.1221251 -0.48071906 0.04863435
-0.12228025 -0.48083127 0.048639242
-0.12242609 -0.48093998 0.048624575
-0.12257217 -0.4810487 0.048611067
-0.12269729 -0.48115748 0.048506521
-0.12284753 -0.4812634 0.048527598
-0.1230211 -0.48137155 0.04863622
-0.12318658 -0.4814876 0.048662979
-0.12332205 -0.48159751 0.048596457
-0.12345088 -0.4817057 0.048511505
-0.12360093 -0.48181418 0.048516437
-0.1237435 -0.48192558 0.048471779
-0.12389772 -0.48203382 0.048496295
-0.12405181 -0.48214215 0.048519656
-0.12420405 -0.48225069 0.048533794
-0.12434252 -0.48236239 0.048469566
-0.12448037 -0.48247191 0.04841572
-0.12461439 -0.48257938 0.048357274
-0.12477723 -0.48268965 0.048407115
-0.12493001 -0.48280266 0.048397031
-0.12507655 -0.48290956 0.0483962
-0.12520625 -0.48301935 0.048305485
-0.12536268 -0.4831259 0.048349593
-0.12551004 -0.48323709 0.048326839
-0.12564677 -0.48334441 0.048281081
-0.12580082 -0.48345542 0.048288286
-0.12596083 -0.48356846 0.048309304
-0.1261037 -0.48367777 0.048278507
-0.12624817 -0.48378703 0.048254613
-0.12639356 -0.48389834 0.04822265
-0.12654857 -0.48400757 0.048244849
-0.12669469 -0.48411688 0.048227873
-0.12682596 -0.48422626 0.048146367
-0.12697794 -0.48433557 0.048154745
-0.12712716 -0.48444092 0.048174668
-0.1272682 -0.4845483 0.048147339
-0.12742373 -0.48465982 0.048157997
-0.12804924 -0.48503202 0.048654031
