# .PCD v0.7 - Point Cloud Data file format
VERSION 0.7
FIELDS x y z
SIZE 4 4 4
TYPE F F F
COUNT 1 1 1
WIDTH 1311
HEIGHT 1
VIEWPOINT 0 0 0 1 0 0 0
POINTS 1311
DATA ascii
-0.10356469 -0.33122751 0.054853901
-0.10373744 -0.33135584 0.054733373
-0.10390833 -0.33146581 0.054721281
-0.10408188 -0.33156794 0.054769188
-0.10426746 -0.3316896 0.054742064
-0.10442379 -0.3317931 0.054712728
-0.1045972 -0.33190519 0.054697171
-0.10473911 -0.33200049 0.054662108
-0.10493545 -0.33212361 0.054668412
-0.10510312 -0.33223191 0.054654028
-0.10524082 -0.33232674 0.054605141
-0.1054416 -0.33245543 0.054594111
-0.10559943 -0.33255455 0.054598227
-0.10577173 -0.33266523 0.054587293
-0.10595709 -0.33277777 0.054616705
-0.10609792 -0.33287784 0.054547027
-0.10629054 -0.33299628 0.054568339
-0.10646215 -0.33310705 0.054553948
-0.10661414 -0.33321348 0.054488856
-0.10678495 -0.33332887 0.054442156
-0.10695207 -0.33343133 0.054462396
-0.1071405 -0.33354947 0.054468721
-0.10730046 -0.33366331 0.054388598
-0.10749018 -0.33377713 0.054427229
-0.10764829 -0.33387846 0.054418646
-0.10782517 -0.33399349 0.054398466
-0.10798967 -0.33410051 0.054379486
-0.10815889 -0.33420834 0.05437433
-0.10832672 -0.33432204 0.054326497
-0.10851472 -0.33443606 0.054357044
-0.10869095 -0.33455122 0.054333407
-0.10884 -0.33465287 0.054286785
-0.1090149 -0.33476189 0.05429662
-0.10919299 -0.33487749 0.054277588
-0.10937183 -0.33498883 0.054288562
-0.1095296 -0.33509508 0.054247674
-0.10970312 -0.33520707 0.054233275
-0.10986269 -0.33531663 0.054178551
-0.1100449 -0.33543321 0.054169893
-0.11021749 -0.33554077 0.054179728
-0.11040607 -0.33566889 0.054123744
-0.1105838 -0.33578044 0.054128945
-0.11074948 -0.33588547 0.054127268
-0.11092337 -0.33599788 0.054111719
-0.11108677 -0.33610401 0.05409389
-0.1112481 -0.33621269 0.054051839
-0.11143191 -0.33632571 0.05407203
-0.11159793 -0.33643678 0.054033425
-0.11174822 -0.3365348 0.054014485
-0.1119665 -0.33666909 0.054038018
-0.11210983 -0.33677295 0.053954497
-0.1122723 -0.3368721 0.05397705
-0.11246827 -0.3369965 0.053974122
-0.11265689 -0.33710814 0.054021977
-0.11282142 -0.3372291 0.053915307
-0.11295769 -0.33732593 0.053847965
-0.11316334 -0.33745533 0.053851917
-0.11332551 -0.33756179 0.053827174
-0.11352195 -0.33767548 0.053893473
-0.11369898 -0.33778659 0.05389867
-0.11386998 -0.33790064 0.053861212
-0.11401626 -0.33800527 0.053784601
-0.11422207 -0.33813241 0.053803552
-0.11439108 -0.33824062 0.053794947
-0.114545 -0.33834425 0.053755227
-0.11475471 -0.33847383 0.053774171
-0.11490145 -0.3385773 0.053706784
-0.023528554 -0.27945608 0.062213868
-0.02373274 -0.2795915 0.062173989
-0.023926083 -0.2797153 0.062164139
-0.024129465 -0.27985004 0.062125422
-0.024327978 -0.27998096 0.062091343
-0.024514303 -0.28009355 0.062124193
-0.024695944 -0.28020245 0.062161677
-0.024893142 -0.28032961 0.062146045
-0.02509734 -0.2804687 0.06208311
-0.02528831 -0.28058788 0.062092878
-0.0254567 -0.28067943 0.062186919
-0.025669724 -0.28083089 0.062081277
-0.02587872 -0.28097722 0.061991785
-0.026077572 -0.2811076 0.061962314
-0.026265856 -0.2812264 0.061964016
-0.02645871 -0.28134897 0.061959941
-0.026659414 -0.28148493 0.061902784
-0.026849851 -0.28160453 0.061907932
-0.027024277 -0.28170484 0.061970815
-0.027225047 -0.28183883 0.061926339
-0.027426478 -0.28197655 0.061861098
-0.027620334 -0.28210139 0.06184664
-0.027809802 -0.28222293 0.061835654
-0.028004948 -0.28234988 0.061813109
-0.028190445 -0.28246617 0.061819434
-0.028377105 -0.28258154 0.061836138
-0.028576717 -0.28271791 0.061772063
-0.028763339 -0.2828362 0.061770312
-0.028960068 -0.28296891 0.061717778
-0.029149055 -0.28308812 0.061719481
-0.02934942 -0.28322643 0.061646167
-0.029538918 -0.28334671 0.06164325
-0.02972367 -0.28346306 0.061646126
-0.0299142 -0.2835851 0.061636284
-0.03010045 -0.28370386 0.061629921
-0.030298885 -0.28383768 0.061577376
-0.030478738 -0.28394744 0.061602175
-0.030666009 -0.28406814 0.061587736
-0.030860763 -0.28419998 0.0615329
-0.03105516 -0.28432867 0.061496519
-0.031234231 -0.28443775 0.061522469
-0.031418338 -0.2845515 0.061539188
-0.031601921 -0.28466749 0.061539751
-0.031799573 -0.28480172 0.06148145
-0.031995013 -0.2849358 0.06141508
-0.032179527 -0.28505075 0.061426017
-0.032366753 -0.28517288 0.061402351
-0.032547712 -0.28528866 0.061393697
-0.032728724 -0.2853986 0.061421953
-0.032924317 -0.28553098 0.061367109
-0.033116858 -0.28566197 0.061308816
-0.033300288 -0.28577915 0.06130131
-0.033481769 -0.28589341 0.061304197
-0.033666283 -0.28600943 0.061308213
-0.033856742 -0.286138 0.061256856
-0.03403898 -0.28625077 0.06127242
-0.034223568 -0.28637049 0.061253369
-0.034413368 -0.28649864 0.061202012
-0.034597751 -0.28661844 0.061181813
-0.034781884 -0.28673476 0.061182372
-0.034967244 -0.28685644 0.061154097
-0.035137989 -0.28695148 0.061235443
-0.03533756 -0.28710303 0.061075635
-0.035517547 -0.28720996 0.061118886
-0.035705835 -0.28733715 0.061067533
-0.035895381 -0.28746331 0.061027709
-0.036070209 -0.28756884 0.061059441
-0.036258142 -0.2876927 0.061027698
-0.03643705 -0.28780517 0.061031736
-0.036610734 -0.28790903 0.061069243
-0.036813531 -0.28806186 0.060914036
-0.036993872 -0.28817379 0.060927294
-0.037158776 -0.28826311 0.061021347
-0.037359472 -0.28840989 0.060896132
-0.037544943 -0.28853455 0.060849398
-0.037715707 -0.28863055 0.060924985
-0.037900221 -0.28875753 0.060859796
-0.038072079 -0.28885916 0.060904227
-0.038269483 -0.28900182 0.060791716
-0.038441949 -0.28910473 0.060830384
-0.038623944 -0.28922081 0.060824029
-0.038809706 -0.2893475 0.060765758
-0.038985532 -0.28945291 0.06080211
-0.039170407 -0.28957847 0.060747299
-0.039348532 -0.2896921 0.06074097
-0.039522357 -0.28979808 0.060765784
-0.039709941 -0.28992537 0.060710978
-0.039891131 -0.29004514 0.060678095
-0.040066563 -0.29015049 0.060713291
-0.040247306 -0.29026979 0.060681574
-0.040427744 -0.29038471 0.06067637
-0.04060873 -0.2905049 0.060640041
-0.040789083 -0.29062414 0.060607165
-0.040966533 -0.29073808 0.060596213
-0.041144565 -0.29084909 0.060606029
-0.041314133 -0.29095656 0.06060433
-0.041484609 -0.29107448 0.060540345
-0.041679598 -0.29119331 0.060568549
-0.041861292 -0.29131213 0.060543746
-0.042044435 -0.29143843 0.060477421
-0.042219564 -0.29154906 0.060478009
-0.04239168 -0.29165378 0.060503982
-0.042576171 -0.2917791 0.060449183
-0.042763926 -0.29191604 0.060334399
-0.042933501 -0.29201144 0.060408816
-0.043109447 -0.2921246 0.060396716
-0.043284215 -0.29223081 0.060423844
-0.043466538 -0.29235768 0.060350593
-0.04365439 -0.29249194 0.060253106
-0.043819606 -0.29258311 0.060336776
-0.043995742 -0.2926977 0.0603166
-0.044171736 -0.29281217 0.060296424
-0.044343978 -0.29291365 0.060343169
-0.044523373 -0.29303595 0.060287222
-0.044704374 -0.29315707 0.060245126
-0.044879235 -0.2932699 0.060230721
-0.045065485 -0.29340351 0.060130931
-0.045232136 -0.29349816 0.060198449
-0.045406945 -0.29361153 0.060180582
-0.045581631 -0.29372481 0.060162723
-0.045749553 -0.29381695 0.060250998
-0.045926802 -0.29394212 0.060168538
-0.046106398 -0.29405648 0.060163353
-0.046246167 -0.29414895 0.060137525
-0.046435799 -0.29427662 0.060088471
-0.046594612 -0.29436395 0.060171012
-0.046802312 -0.29450744 0.060094222
-0.046961777 -0.29462025 0.060018741
-0.047160886 -0.29474917 0.059999645
-0.047331057 -0.29485336 0.060021013
-0.047502212 -0.2949602 0.060029693
-0.047680132 -0.29508486 0.059952993
-0.047850709 -0.2951842 0.060006663
-0.048028804 -0.29531008 0.059923042
-0.048204847 -0.2954244 0.059904024
-0.048376732 -0.29553425 0.059896551
-0.048547834 -0.29564217 0.059898309
-0.048717596 -0.29574648 0.059917368
-0.048893556 -0.29586148 0.059893735
-0.049065165 -0.29597133 0.059885111
-0.049238596 -0.29608676 0.0598488
-0.049412027 -0.29620254 0.059810184
-0.049581949 -0.29630822 0.059821177
-0.049755648 -0.29642546 0.059774481
-0.04993014 -0.29653788 0.059761226
-0.050099675 -0.29664296 0.059774533
-0.050271697 -0.29675603 0.05974745
-0.050423976 -0.29685476 0.059731964
-0.050622132 -0.2969957 0.059633296
-0.050789721 -0.29709536 0.059673123
-0.050961424 -0.29720876 0.059642579
-0.05111558 -0.29728892 0.05975166
-0.05129382 -0.2973986 0.059770696
-0.05147228 -0.2975364 0.059613261
-0.051641513 -0.29764238 0.059619643
-0.051816799 -0.29776117 0.059569485
-0.051986933 -0.29787102 0.059555095
-0.052156385 -0.29797861 0.059552249
-0.052324802 -0.29808244 0.059569005
-0.052497402 -0.29820281 0.05949809
-0.052669175 -0.29831004 0.059506774
-0.052838091 -0.29841655 0.05950854
-0.053008072 -0.29852778 0.059484921
-0.053178195 -0.29864001 0.059455544
-0.05334828 -0.29875258 0.059423856
-0.05351885 -0.29886782 0.059377171
-0.053687178 -0.29897341 0.059382394
-0.053854376 -0.2990739 0.059415311
-0.054030597 -0.29920483 0.05929248
-0.054189533 -0.29930538 0.059291977
-0.054366358 -0.29941398 0.059312169
-0.054533273 -0.29951376 0.059348546
-0.054701932 -0.29962283 0.059333012
-0.054868918 -0.29973841 0.059270184
-0.055041485 -0.29983935 0.059321538
-0.05521214 -0.29996163 0.059231021
-0.055380076 -0.30006862 0.059225868
-0.055547312 -0.30017149 0.059243783
-0.055715878 -0.30028328 0.059210956
-0.055883795 -0.30039138 0.059198879
-0.056051254 -0.30049679 0.059201799
-0.056194376 -0.30059028 0.059182893
-0.056373086 -0.30071744 0.059093505
-0.056557067 -0.30081961 0.059182875
-0.056725264 -0.30093297 0.059138514
-0.056892846 -0.30104214 0.059118368
-0.0570601 -0.30114889 0.059112065
-0.057227425 -0.30125695 0.059097685
-0.05739516 -0.30137041 0.059051007
-0.057562962 -0.30148628 0.058989346
-0.057729274 -0.3015855 0.059026867
-0.057899848 -0.30170238 0.058969811
-0.058066625 -0.30180919 0.058961198
-0.058233257 -0.30191445 0.058961824
-0.058400318 -0.30202878 0.058907073
-0.058563478 -0.30212671 0.058939993
-0.058736157 -0.30223688 0.058933675
-0.058902714 -0.30234611 0.058908921
-0.059069075 -0.3024514 0.058908384
-0.059235502 -0.30256239 0.058872096
-0.059401698 -0.30266425 0.058892332
-0.059567936 -0.30277455 0.05885949
-0.059737153 -0.30287999 0.05886934
-0.059903163 -0.30299619 0.058798444
-0.060069185 -0.30309907 0.058811754
-0.060235169 -0.30320317 0.058816988
-0.060401052 -0.30330998 0.058804922
-0.060566809 -0.30341813 0.058783628
-0.060735293 -0.30353373 0.058726575
-0.060901068 -0.30363771 0.058731809
-0.061042123 -0.30372843 0.058722127
-0.061222367 -0.30385381 0.058650032
-0.061393663 -0.30396715 0.058618344
-0.061544199 -0.30405748 0.058649011
-0.061725233 -0.30416909 0.058666877
-0.06189663 -0.30427939 0.058654793
-0.06205507 -0.30438787 0.058602381
-0.062204584 -0.30448705 0.058573067
-0.0623914 -0.30460399 0.058580548
-0.062555909 -0.30471393 0.058543108
-0.06271562 -0.30480969 0.058576047
-0.062889032 -0.30492619 0.058532812
-0.063042112 -0.30502141 0.058542702
-0.063219234 -0.30513459 0.058535211
-0.063388459 -0.30523434 0.058580801
-0.063552871 -0.30534223 0.05855605
-0.063708939 -0.30545744 0.058451749
-0.063879989 -0.30556512 0.058454659
-0.064045452 -0.30566636 0.058476042
-0.06418623 -0.3057375 0.058588624
-0.064337641 -0.3058399 0.05854661
-0.064496264 -0.30595583 0.058448076
-0.064664841 -0.3060731 0.058380634
-0.064827867 -0.30618358 0.058333971
-0.065001808 -0.30629256 0.058340337
-0.065164849 -0.30640212 0.058299441
-0.065327339 -0.30651319 0.058247019
-0.065478146 -0.30661428 0.058210779
-0.065661088 -0.30671668 0.058294393
-0.065815255 -0.30681843 0.058267366
-0.065977745 -0.30692822 0.058223024
-0.066161841 -0.30703902 0.05825818
-0.066323914 -0.30714944 0.058208067
-0.06648156 -0.30724043 0.058262922
-0.066638015 -0.30734527 0.058225513
-0.066809513 -0.30745983 0.058186904
-0.06697651 -0.30755636 0.058244031
-0.067149907 -0.30767542 0.058184654
-0.067294367 -0.30777121 0.058156516
-0.067460269 -0.30787987 0.058132909
-0.067619964 -0.30798474 0.058108173
-0.067787379 -0.30808958 0.058114558
-0.06795647 -0.30819932 0.058096718
-0.06810829 -0.3082954 0.05809623
-0.068276159 -0.30840746 0.058058783
-0.068439163 -0.30851299 0.058043264
-0.068600081 -0.30863056 0.05794356
-0.068769202 -0.30872366 0.058030669
-0.068931371 -0.3088305 0.058003627
-0.069095351 -0.30894887 0.05791083
-0.069264375 -0.30905017 0.057946041
-0.069428235 -0.3091535 0.057947822
-0.069583505 -0.30926454 0.057866581
-0.069751553 -0.3093676 0.057886805
-0.069919482 -0.30947092 0.05790472
-0.070083126 -0.30957446 0.057904202
-0.07024049 -0.30968794 0.057816036
-0.070404954 -0.3097966 0.057786666
-0.070580199 -0.30989522 0.057863388
-0.070734777 -0.30999926 0.057823677
-0.070910454 -0.31010401 0.057863478
-0.071065128 -0.31020775 0.057826079
-0.071223781 -0.31031802 0.057763286
-0.071397319 -0.31042582 0.057775415
-0.071558595 -0.31052622 0.057785273
-0.071723044 -0.31064016 0.057722464
-0.071884185 -0.31074065 0.057731181
-0.072050251 -0.31084648 0.057726033
-0.07221248 -0.31095698 0.057675913
-0.072368346 -0.31106386 0.057623509
-0.072537191 -0.31116614 0.057651803
-0.072706684 -0.31127319 0.057652414
-0.072873905 -0.31138286 0.057627656
-0.073035032 -0.31149396 0.057569467
-0.073199004 -0.31158599 0.057642758
-0.073352695 -0.31169459 0.057570755
-0.073520616 -0.3117981 0.057587519
-0.073679864 -0.31190565 0.057544328
-0.073848613 -0.31201333 0.057538025
-0.074010298 -0.31212315 0.057490211
-0.074180983 -0.31223372 0.057473522
-0.07434009 -0.31233129 0.057492614
-0.074504733 -0.31244278 0.057445955
-0.074664548 -0.31254447 0.057441987
-0.074828811 -0.31265607 0.057393007
-0.075011171 -0.31276983 0.057402812
-0.075180635 -0.3128767 0.057404574
-0.075333983 -0.3129794 0.057368327
-0.075482704 -0.31307697 0.057345934
-0.075645708 -0.31317592 0.057371933
-0.075826794 -0.31328648 0.057396729
-0.076000586 -0.31339866 0.05738233
-0.076150239 -0.31349975 0.057341482
-0.076301768 -0.31359929 0.057317931
-0.076477185 -0.31371009 0.057318516
-0.076664761 -0.31383684 0.057267167
-0.076805167 -0.31392789 0.057252876
-0.076964155 -0.31402192 0.057293892
-0.077127688 -0.31413308 0.057244923
-0.077303484 -0.31425565 0.057172842
-0.077452727 -0.31435245 0.057157375
-0.077633865 -0.31445155 0.057254829
-0.077787973 -0.31455308 0.05722896
-0.077976599 -0.31468248 0.057164919
-0.078132562 -0.31479418 0.057082526
-0.078284971 -0.31488514 0.057116635
-0.07845246 -0.31499329 0.057102267
-0.078604624 -0.3150883 0.057109851
-0.078775622 -0.31520182 0.057075851
-0.078950025 -0.31531328 0.05706837
-0.079080895 -0.3154023 0.057028741
-0.079255395 -0.31551731 0.056999341
-0.079426832 -0.31563035 0.056969956
-0.079605892 -0.31573927 0.056997061
-0.079753235 -0.31582993 0.057012737
-0.079900973 -0.31593439 0.056943059
-0.080094501 -0.31605339 0.056964349
-0.080257781 -0.31616017 0.056941912
-0.080411479 -0.31626147 0.056916043
-0.080581903 -0.3163715 0.056901664
-0.080737546 -0.31647182 0.056889631
-0.080856502 -0.31656265 0.056791209
-0.081046492 -0.31667352 0.056849416
-0.081238598 -0.31679672 0.056838423
-0.081395216 -0.31689987 0.056812547
-0.081546105 -0.31699899 0.056788996
-0.081713632 -0.31711984 0.056695029
-0.081862502 -0.3172102 0.05671877
-0.082021736 -0.31730583 0.056750562
-0.082169183 -0.31740004 0.056744322
-0.082332857 -0.31750652 0.056725346
-0.082496017 -0.31761014 0.056722514
-0.082664892 -0.31771773 0.056717351
-0.082819186 -0.31782469 0.05665803
-0.082984939 -0.31792739 0.056671344
-0.083159328 -0.31803006 0.056719229
-0.08332938 -0.31814331 0.056682933
-0.083502375 -0.31823778 0.056776948
-0.083648518 -0.31835333 0.056631148
-0.083822295 -0.31845942 0.056654818
-0.083988875 -0.31857088 0.056616224
-0.084134415 -0.31867743 0.056524634
-0.084304154 -0.31877917 0.056559842
-0.084464632 -0.31887814 0.056575481
-0.084627874 -0.31899333 0.056499988
-0.08477746 -0.31909275 0.056469522
-0.084945433 -0.31919244 0.056510497
-0.085105166 -0.31929737 0.056485768
-0.085269943 -0.31940365 0.056472555
-0.085433304 -0.31951031 0.056451268
-0.085589692 -0.31962153 0.056373484
-0.085751548 -0.31971774 0.056412175
-0.085917264 -0.31982112 0.056420881
-0.086091414 -0.31992784 0.056442238
-0.086247437 -0.3200337 0.056396753
-0.086403288 -0.32014221 0.056333963
-0.086584434 -0.32025006 0.05637607
-0.086741813 -0.32036337 0.056289051
-0.086895213 -0.3204619 0.056279331
-0.087074429 -0.32056779 0.056326043
-0.087224886 -0.32067728 0.056235597
-0.087404944 -0.32078061 0.056301914
-0.087575942 -0.32088843 0.056303672
-0.087725446 -0.32099292 0.056240909
-0.087886535 -0.32110015 0.056206949
-0.088032186 -0.32120275 0.056140736
-0.088217773 -0.32131049 0.056201268
-0.088384666 -0.32141426 0.056212269
-0.088537224 -0.32152542 0.056119509
-0.088685848 -0.32162496 0.056084432
-0.088886127 -0.32172826 0.056231424
-0.089034326 -0.32183522 0.056147907
-0.089190841 -0.32194561 0.056075893
-0.089373283 -0.32205921 0.056086838
-0.089542456 -0.32216299 0.056107059
-0.089681596 -0.32227096 0.055980891
-0.089846559 -0.32237297 0.055995353
-0.090009406 -0.32247767 0.055984449
-0.090176955 -0.32257947 0.056010444
-0.090350583 -0.32268292 0.056050252
-0.09050478 -0.32279569 0.055954028
-0.090679057 -0.32290378 0.055967316
-0.090842336 -0.32301313 0.055928729
-0.091006577 -0.32311559 0.055937424
-0.091184333 -0.3232235 0.055965692
-0.091354437 -0.32334119 0.055901706
-0.091501921 -0.32344094 0.055860866
-0.091655403 -0.32353568 0.055875368
-0.091840662 -0.32364759 0.055908218
-0.092003047 -0.32375491 0.055878866
-0.092158951 -0.32386929 0.055779174
-0.092338949 -0.32396874 0.05586971
-0.092503756 -0.32407597 0.055850729
-0.092656367 -0.32418185 0.055791415
-0.092810154 -0.32428977 0.055724028
-0.092980407 -0.32439238 0.055755779
-0.09314052 -0.32449993 0.055716041
-0.093310736 -0.3246069 0.055720113
-0.093481325 -0.32470971 0.05575186
-0.093656145 -0.3248229 0.055735156
-0.093807392 -0.32492465 0.055696607
-0.093970314 -0.32503214 0.055668399
-0.094134971 -0.32514164 0.055634428
-0.09430252 -0.32524693 0.0556385
-0.094451576 -0.32534873 0.055590734
-0.094635129 -0.32545775 0.055635132
-0.094819441 -0.32556888 0.055669136
-0.094982609 -0.32567251 0.055666309
-0.095122233 -0.32577658 0.055566669
-0.095277853 -0.32587433 0.055570781
-0.095425755 -0.32598218 0.055480346
-0.095608473 -0.32609561 0.055493597
-0.095779739 -0.32620326 0.055497661
-0.095931523 -0.32630315 0.055472951
-0.096110225 -0.32641676 0.055468917
-0.096271574 -0.32651868 0.055469554
-0.096425556 -0.32662836 0.055391785
-0.096595503 -0.32673043 0.055425838
-0.096780367 -0.32684043 0.055469081
-0.096936584 -0.32694441 0.055436283
-0.097104505 -0.32705432 0.055412672
-0.097262435 -0.32716599 0.055338345
-0.097422943 -0.32726628 0.055345904
-0.09761133 -0.3273862 0.055340689
-0.097750559 -0.32748601 0.055266425
-0.097931713 -0.32758892 0.05533966
-0.098103352 -0.327701 0.055317201
-0.098254085 -0.32780865 0.055239432
-0.098410554 -0.32791463 0.055195108
-0.098591462 -0.32802159 0.055241812
-0.098785408 -0.32814395 0.0552435
-0.098927975 -0.32824019 0.055204976
-0.099080563 -0.32834059 0.05518027
-0.099249102 -0.32845089 0.055156659
-0.099420451 -0.328565 0.055120356
-0.099587366 -0.32866806 0.055135965
-0.09974549 -0.32877067 0.055119313
-0.099899113 -0.32887483 0.055074986
-0.10005939 -0.32898119 0.055043329
-0.10024864 -0.32908595 0.055137306
-0.10040534 -0.32919571 0.055069901
-0.10058482 -0.32930177 0.055116624
-0.10072748 -0.32941052 0.054999661
-0.10090837 -0.32951859 0.055039458
-0.10108402 -0.32963157 0.055027351
-0.10123429 -0.32973561 0.054970358
-0.10138319 -0.32983953 0.054908752
-0.10158346 -0.32995984 0.054948471
-0.10174235 -0.33006296 0.054931819
-0.10191198 -0.33017561 0.05489783
-0.10208168 -0.33028316 0.054896135
-0.10223329 -0.33038568 0.054854125
-0.10242043 -0.3304933 0.054921567
-0.1025885 -0.33060259 0.054902576
-0.10275932 -0.3307105 0.054903187
-0.10292784 -0.33081824 0.054895721
-0.10309729 -0.33093113 0.054859426
-0.10324927 -0.33103716 0.054796655
-0.10341482 -0.33114302 0.0547892
-0.10358858 -0.33125809 0.054756351
-0.10375077 -0.33137187 0.05468547
-0.10389823 -0.33146429 0.054690767
-0.1040789 -0.33157694 0.054700568
-0.10425195 -0.33168554 0.05470578
-0.10443123 -0.33179495 0.054730579
-0.10458519 -0.33190134 0.054673564
-0.1047617 -0.33201379 0.054668386
-0.10494282 -0.33213165 0.054647043
-0.105102 -0.33223075 0.054656919
-0.1052722 -0.33234411 0.054620609
-0.10543901 -0.33245388 0.054593552
-0.10557562 -0.33255166 0.054521598
-0.10577466 -0.33267376 0.054545179
-0.1059702 -0.3327955 0.054557245
-0.10611808 -0.33289015 0.054549851
-0.10627132 -0.33298877 0.054538973
-0.10642533 -0.33309847 0.054461207
-0.10662456 -0.33321944 0.054492861
-0.10679142 -0.33332795 0.05447387
-0.1069512 -0.33343235 0.054452594
-0.10711552 -0.33354363 0.054405935
-0.10729343 -0.33365548 0.054409973
-0.10744755 -0.33375758 0.05438064
-0.10763252 -0.33387369 0.054385819
-0.10778846 -0.3339777 0.054351874
-0.10796916 -0.33409476 0.054333992
-0.10816084 -0.33421367 0.054348372
-0.10833593 -0.33432394 0.054351263
-0.10848887 -0.33443058 0.054288492
-0.10866527 -0.33453965 0.054304082
-0.10881953 -0.33464056 0.054282822
-0.10901691 -0.33476526 0.05428334
-0.10918193 -0.33487406 0.054255128
-0.10934731 -0.33498001 0.054246522
-0.10951971 -0.33509165 0.054229829
-0.10969429 -0.33520669 0.054200426
-0.10987132 -0.33531925 0.054196399
-0.11002216 -0.33541837 0.054172847
-0.11018361 -0.3355253 0.054142348
-0.11038901 -0.33565342 0.054153219
-0.11054132 -0.33575439 0.054123897
-0.11072595 -0.3358672 0.054148681
-0.11090697 -0.33598521 0.054126181
-0.11105847 -0.3360948 0.054039195
-0.11122274 -0.33619526 0.054060578
-0.11137955 -0.3362987 0.05403354
-0.11157119 -0.33642179 0.054021399
-0.11175344 -0.33653456 0.054036964
-0.11191539 -0.33664912 0.053960312
-0.1120959 -0.33676022 0.053979341
-0.1122877 -0.33687791 0.054001797
-0.11243323 -0.33697933 0.053942505
-0.11260246 -0.33708698 0.053938508
-0.11277811 -0.3372016 0.053916022
-0.1129356 -0.33730692 0.053879764
-0.11311305 -0.33741921 0.053879201
-0.11327517 -0.33752418 0.053863678
-0.11348227 -0.33765393 0.053871088
-0.11363424 -0.33775687 0.053827927
-0.11380604 -0.33787236 0.053784706
-0.11397946 -0.33797714 0.053815283
-0.11417917 -0.33810699 0.053792737
-0.11434531 -0.33821452 0.05377721
-0.11452569 -0.33832517 0.053798538
-0.11469117 -0.33844087 0.053728808
-0.11487873 -0.33855459 0.053759344
-0.023657165 -0.27953064 0.062256228
-0.023860082 -0.27966455 0.062221024
-0.024052717 -0.27978754 0.062213525
-0.024252981 -0.27991825 0.062187545
-0.024440993 -0.28003302 0.062213514
-0.024658844 -0.28018734 0.062109068
-0.024846356 -0.28030413 0.062120035
-0.025045373 -0.28043392 0.062095217
-0.025224466 -0.28053972 0.062141962
-0.025423866 -0.28067029 0.062113687
-0.025630344 -0.28081301 0.062036954
-0.025826115 -0.28093907 0.062022522
-0.026008476 -0.2810497 0.062051956
-0.026218839 -0.28119582 0.06196944
-0.026417971 -0.28132692 0.061936557
-0.026606578 -0.28144389 0.061950982
-0.026781831 -0.28154525 0.062010422
-0.026994251 -0.28169504 0.061912909
-0.027184311 -0.28181693 0.061901964
-0.027380336 -0.28194463 0.061878309
-0.027569752 -0.28206596 0.061868511
-0.027768001 -0.28219706 0.061832171
-0.027960133 -0.28232247 0.061807379
-0.028146401 -0.28243724 0.061826415
-0.02834183 -0.28256491 0.061800465
-0.028523088 -0.28267282 0.061842587
-0.028728079 -0.28281698 0.061750859
-0.028921422 -0.28294224 0.06173183
-0.02911019 -0.28306389 0.061717428
-0.029301502 -0.28318658 0.061706472
-0.029488053 -0.28330535 0.061701298
-0.029678781 -0.28342751 0.061691493
-0.029873397 -0.28355539 0.061660931
-0.030061882 -0.2836774 0.06164306
-0.030251801 -0.28379884 0.061634421
-0.030454207 -0.28393862 0.061560001
-0.03062835 -0.28404021 0.061613686
-0.030822568 -0.28416839 0.061579656
-0.031007249 -0.28428563 0.061576791
-0.031207733 -0.28442347 0.061506998
-0.031392455 -0.28454107 0.061501831
-0.031584036 -0.28466615 0.061477028
-0.031765871 -0.28477973 0.061485715
-0.031956661 -0.28490391 0.061463237
-0.032152899 -0.2850365 0.061409593
-0.032336794 -0.28515068 0.061422881
-0.032517403 -0.28526294 0.061435018
-0.032703735 -0.28538102 0.061433308
-0.032896928 -0.28551278 0.061372757
-0.033086132 -0.28563559 0.061352588
-0.033267748 -0.28574997 0.061355494
-0.033456594 -0.28587258 0.061335318
-0.033646841 -0.28599751 0.061305925
-0.033839419 -0.28612632 0.06126152
-0.034020387 -0.28624028 0.061264433
-0.034215644 -0.2863737 0.061201572
-0.034390301 -0.28647798 0.061240256
-0.034577638 -0.28659928 0.061222397
-0.034763344 -0.28672135 0.061193004
-0.034943521 -0.28683153 0.061216682
-0.035131294 -0.28695399 0.061193064
-0.035329647 -0.28709376 0.061102502
-0.035510659 -0.28720903 0.06109735
-0.03569049 -0.28731915 0.061119873
-0.035874706 -0.28743991 0.061092801
-0.036064755 -0.28756714 0.061048396
-0.036243737 -0.28767964 0.061052479
-0.036423799 -0.28779066 0.06107039
-0.03661504 -0.28792045 0.061014459
-0.036799733 -0.28803951 0.061000064
-0.036981802 -0.28815782 0.06097991
-0.037167024 -0.2882781 0.060959749
-0.037346032 -0.28839156 0.060958061
-0.037521452 -0.28849542 0.061002515
-0.037713218 -0.28863469 0.060888916
-0.03788526 -0.28873295 0.060955286
-0.038060799 -0.28883722 0.06099743
-0.038260192 -0.28898335 0.060871132
-0.038446955 -0.28911141 0.060808282
-0.038618326 -0.2892125 0.060853906
-0.038752496 -0.28929648 0.060859263
-0.038969003 -0.28945178 0.060743295
-0.039169058 -0.28957415 0.060769215
-0.0393501 -0.28968924 0.060765211
-0.039524656 -0.28979659 0.060784295
-0.039707907 -0.28991601 0.060761832
-0.039894778 -0.29004231 0.06071052
-0.04007766 -0.29016149 0.060688064
-0.040248342 -0.29026216 0.060733683
-0.040443487 -0.29040468 0.060613155
-0.040617898 -0.29051265 0.060627621
-0.040780943 -0.29060739 0.060680188
-0.040976353 -0.29074311 0.060603477
-0.04115615 -0.29085761 0.060598329
-0.04133229 -0.29096943 0.060595494
-0.041517124 -0.29109406 0.060546502
-0.041699041 -0.2912176 0.060492899
-0.041863218 -0.29131946 0.0605051
-0.042051792 -0.29143915 0.060502224
-0.042233057 -0.2915577 0.060477465
-0.04241059 -0.29166892 0.060483851
-0.042586725 -0.29177743 0.060501769
-0.042769395 -0.291904 0.060432028
-0.042948503 -0.29201898 0.060421109
-0.043130841 -0.29214552 0.060350213
-0.043309741 -0.29226053 0.060338147
-0.04347226 -0.292346 0.060447212
-0.043664306 -0.29248908 0.060310554
-0.043835592 -0.29259327 0.06033656
-0.044010419 -0.29270023 0.060359105
-0.044189349 -0.29282111 0.060310133
-0.044327419 -0.29290301 0.060344316
-0.044541545 -0.29304636 0.060294077
-0.044723153 -0.29316893 0.060245097
-0.044898048 -0.29328197 0.060229577
-0.045073446 -0.29339114 0.060240589
-0.04525575 -0.29352149 0.060145468
-0.04542125 -0.29362968 0.060123064
-0.045583818 -0.29370418 0.060301326
-0.045775741 -0.29384154 0.060200416
-0.045951407 -0.29395762 0.060168751
-0.046130203 -0.29407588 0.060135931
-0.046303902 -0.29418781 0.06012271
-0.046480469 -0.29430118 0.060111813
-0.046654727 -0.29441491 0.060089372
-0.046828479 -0.29452175 0.06010846
-0.047003977 -0.29463899 0.060068719
-0.047179691 -0.29475111 0.06006242
-0.047352504 -0.29486209 0.060051523
-0.04753305 -0.29498714 0.059982933
-0.047707789 -0.29510373 0.059944354
-0.047878724 -0.29520419 0.05999228
-0.048052408 -0.29531848 0.059964083
-0.048228338 -0.29543254 0.059946254
-0.048401564 -0.29554617 0.059920359
-0.048574161 -0.29565156 0.05994406
-0.048747085 -0.2957648 0.059919324
-0.048922718 -0.29587904 0.059899189
-0.049092773 -0.29598463 0.05991137
-0.049272109 -0.29611018 0.059834719
-0.049444877 -0.29622427 0.059804212
-0.04961849 -0.29633373 0.059805989
-0.049790785 -0.29644698 0.059778955
-0.049965784 -0.29656118 0.05975651
-0.050133836 -0.29666182 0.059791759
-0.050310463 -0.29678166 0.059740484
-0.050448455 -0.29687536 0.059699714
-0.0506524 -0.29699415 0.059763677
-0.050828174 -0.29712075 0.059666276
-0.05099643 -0.29722282 0.059693448
-0.051169597 -0.2973417 0.059634116
-0.051339395 -0.29744056 0.059687801
-0.051510964 -0.29755461 0.059652694
-0.051681817 -0.29766655 0.059627961
-0.051853213 -0.29778084 0.059590541
-0.052022696 -0.29788846 0.059587721
-0.052196331 -0.29800215 0.059562981
-0.052362926 -0.29809916 0.059615541
-0.052537397 -0.29822713 0.059504297
-0.052706182 -0.2983332 0.059508398
-0.052879713 -0.29844812 0.059475593
-0.053046908 -0.29854804 0.059511989
-0.053220645 -0.29866457 0.059469953
-0.053389922 -0.29877385 0.059455603
-0.053558208 -0.29887906 0.059463173
-0.053729393 -0.29899782 0.059396923
-0.053897247 -0.29910165 0.059411407
-0.054055933 -0.29920059 0.059420161
-0.054234002 -0.29931489 0.05940925
-0.054394189 -0.29942194 0.059373014
-0.054543536 -0.29953015 0.059286073
-0.054739669 -0.29965478 0.05928202
-0.054913402 -0.29976252 0.059295341
-0.05507287 -0.29986799 0.059266035
-0.055246763 -0.2999773 0.059270121
-0.05540739 -0.3000738 0.059301931
-0.055567719 -0.30016831 0.059345275
-0.055754032 -0.3003045 0.059229389
-0.055925034 -0.30041489 0.059215035
-0.056090258 -0.30052492 0.059179943
-0.0562617 -0.30063999 0.059137903
-0.056427937 -0.30073747 0.05918584
-0.056576364 -0.3008292 0.059199236
-0.056763701 -0.30095983 0.059122559
-0.056922793 -0.30107129 0.059054036
-0.057098191 -0.30117419 0.059104256
-0.057259087 -0.30127674 0.059099156
-0.05743257 -0.30139017 0.059075579
-0.057602584 -0.30149829 0.059071608
-0.057747502 -0.30158651 0.059093084
-0.057936985 -0.30172086 0.059001401
-0.058103371 -0.30182213 0.059026271
-0.058269847 -0.30192488 0.059041921
-0.058436811 -0.3020373 0.058998741
-0.058603313 -0.30214247 0.058999404
-0.058770597 -0.30226955 0.058865122
-0.058939848 -0.30237314 0.058886521
-0.05910619 -0.30248207 0.058862954
-0.059272189 -0.30257612 0.058931656
-0.059438478 -0.30268809 0.058888491
-0.059598509 -0.30280417 0.058794588
-0.05977067 -0.30290633 0.058836751
-0.059936672 -0.30301046 0.058842011
-0.060099535 -0.30311516 0.058831144
-0.060271338 -0.30323356 0.058769502
-0.060431011 -0.30333441 0.058770172
-0.060584642 -0.30342779 0.058793932
-0.060765691 -0.30354363 0.058785323
-0.060934108 -0.30365697 0.058742139
-0.061090734 -0.30375257 0.058763579
-0.061265081 -0.30386984 0.05871924
-0.06143067 -0.3039737 0.058724504
-0.061592497 -0.30408362 0.058676735
-0.061763585 -0.30419698 0.05864393
-0.061928146 -0.30430934 0.058591541
-0.062093709 -0.30441099 0.058610644
-0.062259026 -0.30451486 0.058614768
-0.062415466 -0.30461037 0.058636207
-0.062588967 -0.30472729 0.058590714
-0.062727824 -0.30480546 0.058651414
-0.062912449 -0.30493653 0.058560904
-0.063082986 -0.30504864 0.058533866
-0.063248098 -0.30515221 0.058539141
-0.063413359 -0.30525476 0.058551326
-0.063576579 -0.30536845 0.058485098
-0.063731782 -0.30546942 0.058467336
-0.063898772 -0.30557984 0.058436848
-0.064072408 -0.30569097 0.058428258
-0.064236999 -0.30579567 0.058424305
-0.064394869 -0.30589905 0.058401912
-0.064563029 -0.30600306 0.058416396
-0.064719662 -0.30611095 0.058360577
-0.064887024 -0.30621776 0.058354311
-0.065056026 -0.30633163 0.05830998
-0.065224655 -0.30643341 0.058340609
-0.065387979 -0.30654132 0.058311284
-0.065540135 -0.30663779 0.058309671
-0.065710947 -0.30675629 0.058243424
-0.0658741 -0.30685219 0.05828907
-0.066044576 -0.30695969 0.058290858
-0.06620577 -0.30706188 0.058289222
-0.066368796 -0.30718005 0.058194164
-0.066537462 -0.30728164 0.058225945
-0.066700742 -0.30738789 0.058207005
-0.066864915 -0.30749157 0.058207668
-0.06701275 -0.30759829 0.058124188
-0.067169793 -0.30769089 0.058166385
-0.067313634 -0.30779725 0.05806908
-0.067480996 -0.30789274 0.058134317
-0.067670487 -0.30801794 0.058100298
-0.067819081 -0.30812111 0.058042191
-0.067975238 -0.3082073 0.058121294
-0.068126149 -0.30830514 0.058105856
-0.068288341 -0.30840412 0.058128428
-0.068451576 -0.30851728 0.058065664
-0.068618745 -0.3086302 0.058020186
-0.068774454 -0.30873385 0.057987429
-0.068945594 -0.30883098 0.058057263
-0.069101669 -0.30892625 0.058078706
-0.069258563 -0.30904984 0.057924844
-0.069419958 -0.30917192 0.057798658
-0.069595486 -0.30926156 0.057933062
-0.069763497 -0.30935764 0.057997145
-0.069925971 -0.30946317 0.057979353
-0.07008864 -0.30958879 0.057835862
-0.07026165 -0.30969059 0.05788378
-0.070421547 -0.30978644 0.057916738
-0.070587464 -0.30989289 0.057907023
-0.070747204 -0.30999562 0.057896156
-0.070914567 -0.31011248 0.057826459
-0.071070991 -0.31021971 0.057774093
-0.071230799 -0.31030965 0.057843961
-0.071394846 -0.31042442 0.057774276
-0.071557872 -0.31052831 0.057769176
-0.071729481 -0.31063855 0.057758283
-0.071886212 -0.31074467 0.057713985
-0.072049342 -0.31084827 0.057711188
-0.072218537 -0.31094432 0.057779875
-0.072378613 -0.31104615 0.057775937
-0.072531767 -0.31115624 0.057692442
-0.072709054 -0.31125414 0.057781868
-0.072890297 -0.31132638 0.058048878
-0.073038369 -0.31144223 0.057908885
-0.07319741 -0.31156644 0.057759635
-0.073350452 -0.31168103 0.057647314
-0.073513508 -0.31179482 0.057579927
-0.073683217 -0.31190145 0.057584032
-0.073844522 -0.31200171 0.057595085
-0.073997468 -0.31210542 0.057550803
-0.07415317 -0.31222096 0.057443071
-0.074322842 -0.31232265 0.057478324
-0.074499346 -0.31243706 0.057460494
-0.074678607 -0.31253475 0.057559133
-0.074826986 -0.3126376 0.05750218
-0.074994788 -0.31274599 0.057487838
-0.075156651 -0.31285498 0.057445824
-0.075310059 -0.31296211 0.057381939
-0.075474843 -0.31305942 0.057425264
-0.075643569 -0.3131713 0.057392471
-0.075802051 -0.31327397 0.057377007
-0.075981937 -0.31337243 0.057473332
-0.076138757 -0.31348079 0.057415206
-0.07630077 -0.31358075 0.05743086
-0.076449305 -0.31369102 0.05732777
-0.076612487 -0.31380671 0.057248857
-0.076777376 -0.31391269 0.057237983
-0.076940998 -0.31401548 0.057242114
-0.077127591 -0.31413847 0.057210404
-0.077288643 -0.31423509 0.05724337
-0.077444106 -0.31433162 0.057254434
-0.077592745 -0.3144328 0.057209011
-0.07775107 -0.31453919 0.057169329
-0.077896461 -0.31465387 0.057025883
-0.078060001 -0.31476432 0.056981567
-0.078223012 -0.31487498 0.05693379
-0.078414559 -0.31498682 0.056992032
-0.078570448 -0.31508309 0.057006568
-0.078740671 -0.315182 0.057061404
-0.07891348 -0.31529063 0.057065506
-0.07907784 -0.31539682 0.057051174
-0.079236507 -0.31549537 0.057062227
-0.079411969 -0.31562048 0.056972899
-0.079563715 -0.31571925 0.056955144
-0.079741724 -0.31582165 0.057019189
-0.079898626 -0.31592822 0.056972589
-0.080044828 -0.31601948 0.056980222
-0.080212362 -0.31612748 0.056967031
-0.080370829 -0.31622976 0.056953866
-0.080531485 -0.3163411 0.056892268
-0.080714688 -0.31645501 0.056904398
-0.080875069 -0.31656966 0.056820884
-0.081049047 -0.31667134 0.056873411
-0.081220463 -0.31677762 0.056886733
-0.081364661 -0.31686994 0.056879383
-0.081522569 -0.31697571 0.056842003
-0.081673674 -0.31706509 0.056880757
-0.081860289 -0.31717476 0.056933254
-0.08202561 -0.31729016 0.056864716
-0.082182758 -0.31739616 0.056822725
-0.082326859 -0.31749174 0.056794617
-0.082487993 -0.31760231 0.056739926
-0.082662866 -0.31771368 0.056734785
-0.082815669 -0.31781203 0.056723945
-0.082997933 -0.31792679 0.056726862
-0.083158866 -0.31802824 0.056728691
-0.083314925 -0.31813744 0.056662474
-0.083461098 -0.3182292 0.056666657
-0.083617009 -0.31833532 0.056618903
-0.083799414 -0.3184385 0.056695621
-0.083958983 -0.31854057 0.056688227
-0.084095366 -0.31864715 0.056559805
-0.084270462 -0.31875575 0.056573119
-0.08443471 -0.31886205 0.056557626
-0.084593199 -0.31896162 0.056561761
-0.084769204 -0.3190673 0.056596994
-0.084923312 -0.31917104 0.056557313
-0.085085884 -0.31928065 0.056514159
-0.085243948 -0.31938598 0.056480236
-0.085408054 -0.3194924 0.056463599
-0.085574187 -0.31960097 0.056441192
-0.085718721 -0.31970432 0.056365792
-0.085897118 -0.3198044 0.056445982
-0.086058818 -0.31991148 0.056415513
-0.086222902 -0.32002059 0.056381572
-0.086372703 -0.32012251 0.056336146
-0.086528242 -0.32022569 0.056305692
-0.086699225 -0.32033059 0.056325939
-0.086862549 -0.32043466 0.056320839
-0.087025508 -0.32054141 0.056297284
-0.087189116 -0.32065061 0.056261033
-0.087354019 -0.32075697 0.05624786
-0.087514438 -0.32085663 0.056258909
-0.087694854 -0.32096258 0.056310266
-0.087848373 -0.32107124 0.05623715
-0.088015072 -0.32117489 0.056248181
-0.088159576 -0.3212826 0.056145102
-0.08831016 -0.32138172 0.056120433
-0.088499725 -0.32148886 0.056200594
-0.088668868 -0.32159716 0.056192018
-0.088819981 -0.32170358 0.056123517
-0.088988401 -0.32180959 0.056126472
-0.089156613 -0.32191089 0.056158256
-0.089311868 -0.32202139 0.056080516
-0.08946915 -0.32212675 0.056043148
-0.089631639 -0.32222903 0.056046121
-0.08981403 -0.32233804 0.056085933
-0.089973286 -0.32244319 0.056057777
-0.090135686 -0.32254797 0.056044601
-0.09029302 -0.32265335 0.056007221
-0.090454236 -0.32275829 0.055988289
-0.090631261 -0.32286829 0.056000441
-0.090783834 -0.32297197 0.055955008
-0.090951562 -0.32307628 0.055966042
-0.091108501 -0.32318398 0.055912517
-0.091277406 -0.3232905 0.05591432
-0.091439836 -0.32339767 0.055886142
-0.091607332 -0.32350439 0.055881031
-0.091765478 -0.32360974 0.055847112
-0.091923609 -0.32371292 0.055827029
-0.092098176 -0.32381696 0.055866875
-0.09227851 -0.32392722 0.055890553
-0.092442796 -0.32403007 0.055896979
-0.092601463 -0.32414201 0.055823848
-0.092755586 -0.32425416 0.055731121
-0.092902653 -0.32434958 0.05571568
-0.093060546 -0.32445076 0.055707142
-0.093251303 -0.32456288 0.055760767
-0.093416467 -0.32467014 0.055742972
-0.09355808 -0.32477015 0.05567681
-0.093724877 -0.32487735 0.055665933
-0.093903586 -0.32498822 0.055679236
-0.094073802 -0.32509539 0.055682186
-0.094235823 -0.32520083 0.055663243
-0.094394773 -0.32530433 0.055644318
-0.094552279 -0.32541606 0.055567719
-0.094721481 -0.32551524 0.055616811
-0.094891831 -0.32563275 0.055555172
-0.095032394 -0.32573065 0.055498235
-0.095203578 -0.32583603 0.055516183
-0.09537176 -0.32594153 0.05552144
-0.095525041 -0.32604328 0.055490993
-0.095692463 -0.32615086 0.055480111
-0.095874891 -0.32625842 0.055529151
-0.096032411 -0.32636613 0.05547794
-0.096189402 -0.32647187 0.055437103
-0.096356884 -0.32657766 0.055437751
-0.096527264 -0.32668546 0.055437241
-0.096679173 -0.32678926 0.05538835
-0.096855722 -0.3268953 0.055423569
-0.097041264 -0.32701308 0.055420704
-0.097200066 -0.32712087 0.055374101
-0.097338125 -0.32721683 0.055319481
-0.097509608 -0.32732111 0.055345494
-0.097669944 -0.32742897 0.055304646
-0.097838461 -0.32753706 0.055294912
-0.098003708 -0.32764509 0.055272501
-0.098163337 -0.32774737 0.055263951
-0.098321795 -0.32784966 0.055250786
-0.098497182 -0.32796556 0.055219125
-0.098648898 -0.32806396 0.055203669
-0.098831207 -0.32817656 0.055220425
-0.099010244 -0.32828727 0.055236038
-0.099164262 -0.3283968 0.055159461
-0.09933164 -0.32849795 0.055188939
-0.099510394 -0.32860705 0.055213779
-0.099667095 -0.32871315 0.055169486
-0.0998234 -0.328821 0.0551125
-0.099980012 -0.32892174 0.055101648
-0.10015186 -0.32902884 0.055111513
-0.10030745 -0.32913315 0.05507414
-0.10047808 -0.32924202 0.05506786
-0.10062759 -0.32934064 0.055042043
-0.10080788 -0.32945034 0.055069182
-0.10096731 -0.32956201 0.055000659
-0.10112306 -0.32966292 0.054985203
-0.10129739 -0.32977232 0.054990441
-0.10146438 -0.32987946 0.05498071
-0.10163313 -0.32999536 0.05492254
-0.10179563 -0.33009875 0.054918595
-0.10195564 -0.33020365 0.054895055
-0.10210949 -0.33030629 0.054861143
-0.10229501 -0.33041874 0.054891728
-0.10247458 -0.3305307 0.054901559
-0.10264929 -0.33064565 0.054873358
-0.10279991 -0.33074644 0.054838311
-0.10296538 -0.33084875 0.054852802
-0.10313301 -0.33096308 0.054800402
-0.10328895 -0.33106446 0.054782636
-0.10346149 -0.33117768 0.054756753
-0.10363793 -0.33128968 0.054753914
-0.10381521 -0.33140349 0.054743003
-0.10396051 -0.3315022 0.05469989
-0.10414328 -0.33161512 0.054716643
-0.10428122 -0.33171135 0.054659724
-0.10445219 -0.33181807 0.05466843
-0.10463499 -0.33193117 0.054684032
-0.10478722 -0.33203408 0.054642048
-0.10495977 -0.33214602 0.054624233
-0.10511942 -0.33225471 0.054575317
-0.10529934 -0.33236286 0.054610528
-0.10544747 -0.33246374 0.054565106
-0.10564376 -0.33258536 0.054580666
-0.10582645 -0.33270684 0.054543212
-0.10596721 -0.33280358 0.054494351
-0.10614371 -0.33290848 0.054536492
-0.10632446 -0.33302194 0.054541718
-0.10648194 -0.33313054 0.054484732
-0.10662755 -0.33322653 0.054460075
-0.10682049 -0.33334348 0.054491788
-0.10698344 -0.33344987 0.054470539
-0.10715302 -0.33356193 0.054440044
-0.10732573 -0.33367449 0.054418769
-0.10751957 -0.33379039 0.054460853
-0.10765866 -0.33388865 0.054395854
-0.10782984 -0.33399805 0.054388419
-0.10800189 -0.33411223 0.054354466
-0.10815968 -0.33421955 0.054306708
-0.10833324 -0.33432043 0.054362692
-0.10848981 -0.33443063 0.054291867
-0.108668 -0.33453846 0.054322474
-0.10884677 -0.33465394 0.054306947
-0.10901458 -0.33476761 0.054259159
-0.10916905 -0.33487159 0.054219488
-0.10935196 -0.33498493 0.054233931
-0.10952803 -0.33510312 0.054190725
-0.10970668 -0.33520848 0.054238625
-0.10985586 -0.33531311 0.054173592
-0.11004953 -0.33543602 0.054170705
-0.11023321 -0.3355484 0.054194372
-0.11038943 -0.3356573 0.05413048
-0.11054775 -0.33575931 0.054118466
-0.11070119 -0.33586481 0.054064959
-0.11087188 -0.33597499 0.054050609
-0.11108088 -0.33609682 0.054115716
-0.11123746 -0.33620304 0.054070272
-0.11138049 -0.33630377 0.054005258
-0.11158029 -0.33642122 0.054061167
-0.11172578 -0.33652538 0.053984612
-0.11189178 -0.3366335 0.053964507
-0.11209303 -0.33675152 0.054022722
-0.11226863 -0.33686739 0.053992208
-0.11243397 -0.33697274 0.053987101
-0.11260345 -0.33708179 0.053975053
-0.1127825 -0.3372013 0.053935312
-0.11293737 -0.33730608 0.053892169
-0.11307783 -0.33740228 0.053845622
-0.11328411 -0.33752474 0.053895742
-0.11345945 -0.33763805 0.053880226
-0.11364194 -0.33775574 0.053865843
-0.11381891 -0.33787227 0.053836472
-0.11396159 -0.33797464 0.053759933
-0.11413577 -0.33808374 0.053766329
-0.11435041 -0.33821407 0.053800285
-0.11451263 -0.33832622 0.05373982
-0.11468086 -0.33843833 0.053703569
-0.11485121 -0.33854687 0.053698439
-0.023638301 -0.27952093 0.062242486
-0.023827627 -0.2796396 0.062248841
-0.024028666 -0.27977377 0.062204398
-0.02422056 -0.27989611 0.062198054
-0.02440938 -0.2800121 0.062219396
-0.024603307 -0.28013736 0.062202655
-0.024803612 -0.28027123 0.062157072
-0.02498709 -0.28038296 0.0621842
-0.025205307 -0.28053859 0.062072802
-0.025389172 -0.28065109 0.062096469
-0.025583521 -0.28077772 0.062072806
-0.025788933 -0.2809194 0.061998367
-0.026006676 -0.28107548 0.061882362
-0.026169937 -0.28116065 0.061996065
-0.026366137 -0.28129047 0.061959714
-0.026557051 -0.28141329 0.061946452
-0.026733525 -0.28151399 0.062015116
-0.026940033 -0.28165835 0.061927985
-0.027123686 -0.28177166 0.061945885
-0.027323183 -0.28190684 0.061888762
-0.027520221 -0.28203627 0.061858181
-0.027698036 -0.28214183 0.061901465
-0.027859289 -0.28225851 0.061808709
-0.028093524 -0.28240871 0.061795309
-0.028282259 -0.28252724 0.061800502
-0.02847686 -0.28265676 0.061759539
-0.028673548 -0.28278947 0.06170705
-0.028852638 -0.28289747 0.061739959
-0.029043704 -0.28301984 0.061730146
-0.029224902 -0.283131 0.061751515
-0.029420916 -0.2832607 0.061715167
-0.029617362 -0.28339398 0.061658055
-0.029809885 -0.28352183 0.061619408
-0.029995389 -0.28363976 0.061615385
-0.030173175 -0.28374383 0.061667904
-0.030371346 -0.28388038 0.061596945
-0.030553348 -0.28399077 0.061626382
-0.03074681 -0.28412089 0.061577354
-0.030929524 -0.28423539 0.061583716
-0.0311299 -0.28437608 0.061495453
-0.031314127 -0.28449029 0.061509889
-0.031497404 -0.28460604 0.061510492
-0.031693298 -0.28473788 0.061460298
-0.031883631 -0.28486452 0.0614205
-0.032064084 -0.28497359 0.061452255
-0.032257147 -0.28510469 0.061395153
-0.0324446 -0.28522462 0.061386511
-0.032621719 -0.2853319 0.061415959
-0.032811757 -0.285456 0.06139116
-0.032997195 -0.28557625 0.061372146
-0.033201147 -0.28572214 0.061265409
-0.033385109 -0.28584057 0.061252173
-0.033556949 -0.28593722 0.06132777
-0.033745617 -0.28606319 0.061285682
-0.033936821 -0.28619021 0.06124704
-0.034117609 -0.28630424 0.061248802
-0.034296211 -0.28641176 0.061282858
-0.034487721 -0.28654298 0.061218843
-0.034675058 -0.28666463 0.061198663
-0.03485848 -0.28678343 0.061180815
-0.035038307 -0.28689337 0.061204493
-0.035234291 -0.28703275 0.061107002
-0.035420664 -0.2871536 0.061087988
-0.035604261 -0.28727344 0.061064355
-0.03578116 -0.28737915 0.061103046
-0.035968259 -0.28750503 0.061055191
-0.036141116 -0.28760764 0.061097339
-0.036326237 -0.28773063 0.061059866
-0.036519408 -0.28786385 0.06099008
-0.036706693 -0.28801858 0.060761124
-0.036880329 -0.28809184 0.060991287
-0.03706361 -0.28821257 0.060960755
-0.037250504 -0.28833613 0.060926735
-0.037429146 -0.28844935 0.060925037
-0.037614156 -0.28857008 0.060901407
-0.037793521 -0.28868484 0.060892791
-0.03797571 -0.28880104 0.060886472
-0.038146399 -0.288901 0.060936712
-0.038338654 -0.28903508 0.060857691
-0.038524557 -0.28916204 0.060798306
-0.038706269 -0.28927812 0.060790833
-0.038884256 -0.28939146 0.060785681
-0.039066646 -0.28950906 0.060771286
-0.039246857 -0.28962675 0.060747676
-0.039426923 -0.2897405 0.060748279
-0.039604984 -0.28985465 0.060738511
-0.039786629 -0.28997159 0.060725279
-0.039968334 -0.2900928 0.060685508
-0.040146973 -0.29020452 0.06069304
-0.040324323 -0.29031804 0.060684435
-0.040484056 -0.29041892 0.060685106
-0.040684506 -0.29055178 0.060646437
-0.040858798 -0.29065585 0.060685121
-0.041006874 -0.290764 0.060593553
-0.041229621 -0.29091117 0.060553659
-0.041402739 -0.29101759 0.060572751
-0.04156249 -0.29112801 0.060513437
-0.04175204 -0.29124537 0.060529005
-0.041935135 -0.29135448 0.060571134
-0.042116411 -0.29147759 0.060517527
-0.042297505 -0.2915962 0.060491607
-0.0424769 -0.2917161 0.060450688
-0.042658694 -0.29183662 0.060415536
-0.042831764 -0.29194412 0.060427696
-0.043008894 -0.29205546 0.060431778
-0.043187946 -0.29217094 0.060417391
-0.043360997 -0.29227406 0.060457241
-0.043548979 -0.29241347 0.060327485
-0.043726582 -0.2925266 0.060322333
-0.04390157 -0.29263914 0.060310271
-0.044077754 -0.29274952 0.060316652
-0.044254765 -0.29286683 0.060282677
-0.044438098 -0.29299328 0.060216367
-0.044614039 -0.29310882 0.060189307
-0.044786733 -0.29321223 0.060225695
-0.044959884 -0.29331666 0.060257472
-0.045146391 -0.29345152 0.06015078
-0.04531569 -0.29355276 0.060187183
-0.045492429 -0.29366589 0.06017857
-0.045668758 -0.29378366 0.060138818
-0.045843966 -0.29389361 0.060144063
-0.046016101 -0.294002 0.060146999
-0.046192903 -0.29411605 0.06013263
-0.04636864 -0.29423347 0.060092874
-0.046543863 -0.29434416 0.0600935
-0.046715997 -0.29445326 0.060091823
-0.046896733 -0.29457805 0.060025528
-0.047070071 -0.29469067 0.060006551
-0.047244936 -0.29480129 0.060006022
-0.047419108 -0.29492268 0.05993513
-0.047593087 -0.29502526 0.059981894
-0.047767472 -0.29513523 0.059983682
-0.047946841 -0.29525861 0.059920847
-0.048116855 -0.29536378 0.059935331
-0.048292436 -0.29547763 0.059917495
-0.048466712 -0.29559487 0.059873134
-0.048641853 -0.29570806 0.059857611
-0.048801795 -0.29580635 0.059875581
-0.048936941 -0.29588306 0.059930541
-0.049155869 -0.29603055 0.059873357
-0.049330294 -0.29614258 0.05986245
-0.049478687 -0.29622915 0.059908144
-0.049661726 -0.29638228 0.059672277
-0.049843833 -0.29648086 0.059776694
-0.050026104 -0.29660279 0.05973462
-0.050195538 -0.29670852 0.059743334
-0.050370067 -0.29682261 0.059719734
-0.050540976 -0.2969335 0.059701912
-0.05071263 -0.29703882 0.059722155
-0.050883364 -0.2971496 0.059704348
-0.051059574 -0.29727063 0.05964382
-0.051229708 -0.29738009 0.059631787
-0.051401846 -0.29748791 0.05963818
-0.051574677 -0.29760751 0.059573062
-0.051745102 -0.29770967 0.059608303
-0.051916242 -0.297824 0.05956972
-0.052092865 -0.29794967 0.059481524
-0.052260607 -0.29805216 0.059504084
-0.052432068 -0.298159 0.059513949
-0.052602328 -0.29827166 0.059482291
-0.052772112 -0.29837215 0.059525609
-0.052943069 -0.29848838 0.059474342
-0.053114124 -0.29859442 0.059487656
-0.0532846 -0.2987096 0.059441008
-0.053456821 -0.2988213 0.059423186
-0.053623952 -0.29892248 0.059451513
-0.05379815 -0.29904404 0.059379473
-0.053965308 -0.29914579 0.059404343
-0.054136045 -0.29925179 0.059416518
-0.054308906 -0.29938242 0.059282191
-0.054478571 -0.29948393 0.059318591
-0.054645732 -0.29958656 0.05933769
