# .PCD v0.7 - Point Cloud Data file format
VERSION 0.7
FIELDS x y z
SIZE 4 4 4
TYPE F F F
COUNT 1 1 1
WIDTH 761
HEIGHT 1
VIEWPOINT 0 0 0 1 0 0 0
POINTS 761
DATA ascii
-0.34330502 -0.27453816 0.062655613
-0.34349361 -0.27450198 0.062749237
-0.3436783 -0.27447245 0.062797949
-0.34398982 -0.27445728 0.062627025
-0.3442114 -0.27442935 0.062630586
-0.34446675 -0.27440989 0.062541783
-0.34463865 -0.2743682 0.062690824
-0.34490648 -0.2743521 0.062566221
-0.34514719 -0.27432781 0.062525898
-0.3453618 -0.27429855 0.062545635
-0.34560242 -0.2742869 0.062413093
-0.34580371 -0.27425593 0.0624571
-0.34605128 -0.27421975 0.06249743
-0.34623557 -0.27418283 0.062600307
-0.34650546 -0.27416682 0.062473387
-0.34671405 -0.27413636 0.062506981
-0.34695101 -0.27411193 0.062471282
-0.34723648 -0.27410218 0.062284354
-0.34744078 -0.27406928 0.06233988
-0.34767058 -0.27404651 0.062298447
-0.34788197 -0.274014 0.062344711
-0.34813201 -0.27399534 0.062254779
-0.34833902 -0.27396336 0.062301066
-0.34855527 -0.27393562 0.06230811
-0.34879544 -0.273913 0.062256262
-0.34895873 -0.27388197 0.062335026
-0.34919202 -0.27385923 0.062290132
-0.34939122 -0.27383184 0.062309932
-0.34971026 -0.27381402 0.06215167
-0.34992871 -0.27378744 0.062148329
-0.35016361 -0.27376401 0.062106881
-0.35038733 -0.27373916 0.062086225
-0.35061902 -0.27371502 0.062052861
-0.35084379 -0.27369067 0.062027592
-0.35107377 -0.27366629 0.061997689
-0.35129464 -0.27364096 0.061982818
-0.3515141 -0.2736136 0.061984092
-0.35172379 -0.27358508 0.0620027
-0.35194746 -0.27356261 0.061964758
-0.35217658 -0.27353674 0.061946385
-0.35239273 -0.2735087 0.061955739
-0.35261163 -0.27348331 0.061943181
-0.35282597 -0.27345484 0.061957166
-0.35304847 -0.27343076 0.061931908
-0.35326648 -0.27340358 0.06193319
-0.35348246 -0.2733776 0.06192755
-0.35371539 -0.27335539 0.061879199
-0.35393274 -0.27333003 0.0618678
-0.3541584 -0.27330571 0.061841376
-0.35436514 -0.27327707 0.061863452
-0.35456353 -0.27325469 0.061847538
-0.35481408 -0.27324247 0.061710332
-0.35503903 -0.27320576 0.061774977
-0.35524687 -0.27317777 0.061791293
-0.35551682 -0.27316901 0.061611343
-0.35571122 -0.27313671 0.061671525
-0.35593501 -0.2731126 0.061645113
-0.35613772 -0.27308321 0.061676428
-0.35633701 -0.27305818 0.061678953
-0.35656032 -0.27302861 0.061692879
-0.35677803 -0.27300274 0.061684947
-0.35701892 -0.27299076 0.0615547
-0.35718828 -0.27296105 0.061618455
-0.35745144 -0.27293667 0.061558429
-0.35764742 -0.27290338 0.061624359
-0.35787621 -0.27288389 0.061559886
-0.35811239 -0.27287105 0.061440039
-0.35832232 -0.27285263 0.061384872
-0.35855404 -0.27281934 0.061418366
-0.35873291 -0.27279919 0.061403688
-0.35896173 -0.27276105 0.061475232
-0.35918131 -0.2727389 0.061438456
-0.35936412 -0.27270091 0.061550565
-0.35960978 -0.27270067 0.061330393
-0.359806 -0.27267775 0.061320245
-0.36005071 -0.27264601 0.06133062
-0.36026508 -0.27261645 0.061352663
-0.36048368 -0.27259457 0.061314747
-0.36070558 -0.27257213 0.061277971
-0.3609131 -0.27254611 0.061280452
-0.36112523 -0.27251998 0.061279453
-0.361334 -0.27249455 0.06127616
-0.36154884 -0.27246967 0.061263628
-0.3617706 -0.27244979 0.061208405
-0.36197326 -0.27242008 0.061242029
-0.36221099 -0.27240705 0.061122172
-0.36241275 -0.27237716 0.061158113
-0.36261308 -0.27234665 0.061199814
-0.36284274 -0.27232862 0.061123814
-0.36305559 -0.2723057 0.061098598
-0.36327526 -0.2722837 0.061060682
-0.3634747 -0.27225518 0.061088558
-0.36368805 -0.27223063 0.061074872
-0.36387452 -0.27221587 0.061014056
-0.36411715 -0.27218503 0.06101983
-0.36432829 -0.27215981 0.061013069
-0.36455086 -0.27213982 0.060957842
-0.36474037 -0.27210715 0.061024964
-0.36495766 -0.27208498 0.060990505
-0.36517984 -0.2720674 0.060917992
-0.36539555 -0.27204478 0.060888149
-0.3655996 -0.27201679 0.060907938
-0.36581179 -0.27199271 0.06089196
-0.36602375 -0.27197087 0.060859837
-0.36624584 -0.27195171 0.060798846
-0.36645341 -0.27192804 0.060784042
-0.36666566 -0.27190441 0.0607646
-0.36686775 -0.27187827 0.060772866
-0.36706945 -0.27184963 0.060799576
-0.36727473 -0.27182513 0.060792848
-0.3674925 -0.2718046 0.060745716
-0.36770347 -0.27178085 0.060728583
-0.36789623 -0.27175739 0.060725361
-0.36811894 -0.27173266 0.060704723
-0.36833587 -0.27171224 0.060657598
-0.36854243 -0.27168903 0.060640484
-0.3687565 -0.27166739 0.060604889
-0.36896417 -0.27164495 0.060580857
-0.36917785 -0.27162337 0.060545266
-0.3693772 -0.27159423 0.060577761
-0.36956888 -0.27156842 0.060592994
-0.36979383 -0.27154827 0.060536604
-0.37001127 -0.27153176 0.060460653
-0.3702198 -0.27150798 0.060445838
-0.3704153 -0.27147692 0.06049563
-0.37062195 -0.27145478 0.060470454
-0.37081397 -0.27142182 0.060537562
-0.37103865 -0.27140757 0.060438521
-0.37126184 -0.2713927 0.060345255
-0.3714537 -0.27136245 0.060392763
-0.37165689 -0.27133614 0.060401022
-0.37186444 -0.27132052 0.060327433
-0.37206411 -0.27128693 0.060392193
-0.37226894 -0.27126455 0.060370475
-0.37247282 -0.27123895 0.060372971
-0.372686 -0.27121916 0.060324706
-0.37290597 -0.27120376 0.060238369
-0.37310591 -0.27117881 0.06023974
-0.3733061 -0.2711513 0.060259547
-0.37350592 -0.27112922 0.060240157
-0.37366629 -0.27110741 0.060254388
-0.37391585 -0.27108061 0.060224392
-0.37410787 -0.27104795 0.060289189
-0.37430555 -0.27102187 0.060300946
-0.3745138 -0.27101168 0.06018699
-0.37471426 -0.27098179 0.060224086
-0.37489682 -0.27096939 0.060149446
-0.37514088 -0.27093965 0.060146004
-0.37534207 -0.27091345 0.060155421
-0.37554932 -0.27089456 0.060106035
-0.37572899 -0.27087164 0.060110953
-0.37595761 -0.27084979 0.060063757
-0.37616742 -0.27083009 0.06001782
-0.37635234 -0.27079561 0.060102254
-0.37656412 -0.27077758 0.060042463
-0.37676632 -0.27075586 0.060018457
-0.37697804 -0.27073812 0.059956364
-0.37717801 -0.27071825 0.059920847
-0.37736478 -0.27070138 0.059875008
-0.377583 -0.27066961 0.059909716
-0.37776875 -0.27064562 0.059916902
-0.37797087 -0.27062118 0.059912495
-0.37818664 -0.27059761 0.059889581
-0.37839171 -0.27057916 0.059839047
-0.37859011 -0.27055201 0.059857704
-0.37877783 -0.27052999 0.059848748
-0.37898046 -0.27050298 0.059862778
-0.3791779 -0.27047867 0.059861854
-0.379372 -0.27046582 0.059780248
-0.37958905 -0.27044064 0.059767701
-0.37976915 -0.27041608 0.059784144
-0.37998396 -0.27038917 0.059786588
-0.38020229 -0.27037647 0.05968181
-0.38037115 -0.2703495 0.059725977
-0.38055998 -0.27032182 0.059757367
-0.38078269 -0.27030244 0.059697516
-0.38098669 -0.27028126 0.059667744
-0.38117969 -0.27025765 0.05966568
-0.38136914 -0.27023461 0.059662476
-0.38159519 -0.27021137 0.059627987
-0.38179085 -0.27019057 0.059602853
-0.3819887 -0.2701681 0.059588097
-0.3821944 -0.27014133 0.0595975
-0.38239294 -0.27011973 0.059575811
-0.38259372 -0.2701005 0.05953452
-0.38278744 -0.27007839 0.05952093
-0.38298929 -0.27006063 0.059468113
-0.38318479 -0.2700364 0.059468336
-0.38336465 -0.27001709 0.059446748
-0.38359314 -0.26999384 0.059409931
-0.38378802 -0.2699692 0.059413619
-0.38396415 -0.26994163 0.059455447
-0.38417929 -0.26992637 0.059372589
-0.38435367 -0.26989681 0.059430555
-0.38457879 -0.26987967 0.059352264
-0.38476175 -0.26984608 0.059432093
-0.38494313 -0.26982942 0.05938974
-0.38515198 -0.26981252 0.059324205
-0.38534021 -0.26979014 0.059317544
-0.38553724 -0.26976398 0.059330456
-0.38575125 -0.26974425 0.059281036
-0.3859441 -0.269723 0.059261683
-0.38612527 -0.26970211 0.059250452
-0.38632268 -0.2696819 0.059219554
-0.38653454 -0.26966023 0.059186276
-0.38672891 -0.26963627 0.059185363
-0.38693714 -0.26960447 0.059229337
-0.38712096 -0.2695823 0.059225012
-0.38730383 -0.26956436 0.059190724
-0.38752922 -0.26955175 0.059078999
-0.38770261 -0.26952612 0.059109308
-0.38789564 -0.26950076 0.059119929
-0.38810137 -0.26947701 0.059107427
-0.38829246 -0.26945472 0.059097305
-0.38849926 -0.26943904 0.05902487
-0.3886885 -0.26941416 0.059035495
-0.38888851 -0.26938793 0.05904609
-0.3890937 -0.26937041 0.058988638
-0.38927454 -0.26934448 0.059014298
-0.38947076 -0.2693252 0.058977637
-0.38966918 -0.26930329 0.058958258
-0.38986287 -0.2692799 0.058953881
-0.39006004 -0.26925594 0.058950648
-0.39026269 -0.26923522 0.058918573
-0.39045808 -0.26921543 0.058886528
-0.39064589 -0.26918849 0.058913313
-0.39084643 -0.26917168 0.058854733
-0.3910414 -0.26915163 0.058824994
-0.391233 -0.26912487 0.058847144
-0.39142674 -0.26910257 0.058834702
-0.39161777 -0.26906624 0.058927171
-0.39181098 -0.26905951 0.05880177
-0.39202869 -0.26903221 0.058804199
-0.3922075 -0.26901066 0.0587999
-0.39240631 -0.26900119 0.05868946
-0.39259464 -0.26897591 0.058703549
-0.39279455 -0.26895159 0.058700316
-0.39298353 -0.26892802 0.058701724
-0.39318404 -0.26890537 0.058685794
-0.3933768 -0.2688821 0.058681421
-0.39358124 -0.26886037 0.058655106
-0.39376786 -0.26884118 0.058626559
-0.39396906 -0.26882145 0.058588728
-0.39415386 -0.26879725 0.058598228
-0.39435694 -0.26877224 0.05859727
-0.3945567 -0.26874858 0.058589414
-0.39474601 -0.26872715 0.058574691
-0.39493993 -0.26870927 0.058529966
-0.39513642 -0.26868775 0.058509447
-0.39531797 -0.2686657 0.058506288
-0.39551011 -0.26864189 0.058506537
-0.39570171 -0.2686159 0.058522921
-0.39590225 -0.26859689 0.058480483
-0.3960951 -0.26857677 0.058453053
-0.39629543 -0.26855776 0.058410618
-0.39649138 -0.26853585 0.05839356
-0.39668652 -0.26850989 0.058406476
-0.39687538 -0.26848933 0.058385983
-0.39706808 -0.2684705 0.058349341
-0.39726254 -0.26844051 0.058392223
-0.39745843 -0.26841924 0.058370557
-0.39765027 -0.26839545 0.058370806
-0.39785013 -0.26837793 0.058317989
-0.3980464 -0.26836166 0.058259435
-0.39823431 -0.26833645 0.058273535
-0.3984305 -0.2683216 0.058204595
-0.39862201 -0.2682969 0.058211762
-0.39882061 -0.26827085 0.058222353
-0.39900824 -0.26824126 0.058268726
-0.39919659 -0.26822171 0.05824133
-0.39939538 -0.26819754 0.058238089
-0.39959073 -0.26817757 0.058207199
-0.39978606 -0.26815856 0.058169395
-0.39997414 -0.26813823 0.058147758
-0.40016568 -0.26811701 0.058129564
-0.40035719 -0.26809657 0.05810561
-0.40055221 -0.26807222 0.058106992
-0.40075073 -0.26805377 0.058062255
-0.40094575 -0.26802674 0.058083236
-0.40114442 -0.26799881 0.058107659
-0.40133184 -0.26798773 0.058019176
-0.40152696 -0.26796004 0.058044765
-0.40172884 -0.26793835 0.058020759
-0.40192336 -0.2679199 0.057979494
-0.40211821 -0.26789638 0.057975121
-0.40230927 -0.267876 0.057951167
-0.40250713 -0.26785716 0.057909895
-0.40269804 -0.26783696 0.057884783
-0.40289304 -0.26781136 0.057895392
-0.4030911 -0.26778933 0.057877164
-0.40329731 -0.2677587 0.057914231
-0.40348807 -0.267739 0.057885673
-0.40368277 -0.26771596 0.057877835
-0.40385967 -0.26769558 0.057866625
-0.404046 -0.2676807 0.057806961
-0.40424117 -0.2676546 0.057821024
-0.40443456 -0.26763803 0.057767093
-0.40463611 -0.26761463 0.057755768
-0.40482217 -0.26758286 0.057819441
-0.40501884 -0.26756638 0.057762031
-0.40520954 -0.26754525 0.057743847
-0.40539381 -0.26752225 0.057745285
-0.40559396 -0.26749063 0.057795055
-0.4057923 -0.26746666 0.057790667
-0.40597615 -0.26744559 0.057778273
-0.40616933 -0.26744044 0.057641339
-0.40637335 -0.26742005 0.057605803
-0.40656409 -0.26739815 0.057593375
-0.40674546 -0.26737326 0.057610966
-0.40693527 -0.2673434 0.057657328
-0.40712753 -0.26732761 0.057598792
-0.4073225 -0.26731354 0.057525251
-0.40751821 -0.26728675 0.057543922
-0.4077172 -0.26726049 0.057555661
-0.40791336 -0.26723287 0.057580095
-0.40811285 -0.26721492 0.057530746
-0.40829945 -0.26719493 0.057507966
-0.40849522 -0.26715976 0.057587728
-0.40874368 -0.26711997 0.05765342
-0.40894356 -0.26709253 0.057673227
-0.40912861 -0.2670604 0.05774036
-0.40932822 -0.26702601 0.057810891
-0.40953791 -0.26698437 0.057925172
-0.40974221 -0.26694816 0.058004893
-0.40993416 -0.26690999 0.05811004
-0.41012144 -0.26687521 0.058194462
-0.41033691 -0.26683822 0.058269531
-0.41053653 -0.26679975 0.058370024
-0.4107486 -0.26675686 0.058491208
-0.41094086 -0.26672086 0.058580212
-0.41115203 -0.2666811 0.058679506
-0.41133896 -0.26664338 0.058785826
-0.41154948 -0.26660606 0.058867827
-0.41176823 -0.26656634 0.058960166
-0.4119688 -0.26652977 0.059045672
-0.4121725 -0.2664941 0.059121951
-0.41237995 -0.26645193 0.05924201
-0.4125874 -0.26641041 0.059357453
-0.41278568 -0.26637983 0.059401475
-0.41299656 -0.26633331 0.05955033
-0.34324917 -0.27453825 0.062705487
-0.34345463 -0.27450597 0.062755242
-0.34360242 -0.2744734 0.062859453
-0.34393087 -0.27445757 0.062678069
-0.3441734 -0.27443466 0.062626198
-0.34442663 -0.27441454 0.062544301
-0.34463498 -0.27438334 0.062583677
-0.34485716 -0.27435565 0.062584937
-0.34508416 -0.27432925 0.062572345
-0.34530717 -0.27430195 0.062570147
-0.34555 -0.27428135 0.062500983
-0.34572202 -0.27426299 0.062479421
-0.34599435 -0.27422518 0.062509276
-0.34618109 -0.27418876 0.062606394
-0.34644738 -0.27417317 0.06247947
-0.34666374 -0.27414462 0.062492289
-0.34687507 -0.27411479 0.062518969
-0.34719351 -0.27411366 0.062239625
-0.34736788 -0.27407414 0.062370241
-0.34761789 -0.27405503 0.062283743
-0.34780312 -0.27401847 0.062383179
-0.34805611 -0.27400044 0.062286302
-0.34827772 -0.27397391 0.062279493
-0.34849989 -0.27394766 0.062270377
-0.34872028 -0.27392098 0.062265888
-0.34892914 -0.27389112 0.062294878
-0.34910366 -0.27386317 0.062341325
-0.34933415 -0.27384281 0.062281452
-0.34956521 -0.2738145 0.062279209
-0.3498593 -0.27380276 0.062099129
-0.35006684 -0.27376962 0.062153492
-0.35029718 -0.27374646 0.062114365
-0.35053444 -0.27372545 0.062053297
-0.35074225 -0.27369589 0.062081143
-0.35099024 -0.2736783 0.061985444
-0.35120255 -0.27365026 0.061998285
-0.35143709 -0.27362895 0.06194184
-0.35163194 -0.27359578 0.062007792
-0.3518537 -0.27356908 0.062002137
-0.35208055 -0.27354747 0.061954953
-0.35230777 -0.27352262 0.061930835
-0.35252234 -0.2734957 0.061933279
-0.35272729 -0.27346587 0.061965756
-0.3529633 -0.27344581 0.061898932
-0.35316688 -0.27341568 0.06193487
-0.35338834 -0.27339125 0.061913073
-0.35361138 -0.27336568 0.061898191
-0.35384303 -0.2733447 0.061841756
-0.3540521 -0.27331659 0.061858073
-0.3542825 -0.27329546 0.061803952
-0.35446662 -0.2732611 0.061888404
-0.35470095 -0.27324867 0.061767407
-0.35491931 -0.27322569 0.061737552
-0.35513088 -0.27318797 0.061821878
-0.35538563 -0.27317378 0.061695009
-0.35563797 -0.27316087 0.061561242
-0.3558149 -0.27312249 0.061681472
-0.35604247 -0.27310139 0.061629668
-0.35624909 -0.27307138 0.061662138
-0.3564252 -0.27304557 0.061691277
-0.35665593 -0.27301288 0.061721325
-0.35690194 -0.27299869 0.061602581
-0.35709423 -0.27297878 0.061574008
-0.35733718 -0.27294886 0.061572865
-0.35754797 -0.27292258 0.061574183
-0.35775927 -0.27289656 0.061573185
-0.3579655 -0.27287444 0.06154801
-0.35821673 -0.27286705 0.061375044
-0.35843852 -0.27283373 0.061417807
-0.35863757 -0.27281126 0.061401892
-0.3588278 -0.27277976 0.061459795
-0.35906076 -0.27275074 0.061461002
-0.35927182 -0.27272522 0.061456546
-0.35948333 -0.27269995 0.061449796
-0.35969698 -0.27269527 0.061290845
-0.35988876 -0.2726666 0.061326832
-0.36013961 -0.27263111 0.061359093
-0.36035866 -0.27260917 0.061321169
-0.36058438 -0.27258801 0.061271682
-0.3607893 -0.27256072 0.061285712
-0.36099651 -0.2725344 0.061290503
-0.36121294 -0.27251184 0.061259508
-0.36142194 -0.27248642 0.061256226
-0.36162904 -0.27246025 0.061259858
-0.36185551 -0.27244011 0.061202306
-0.3620576 -0.27241206 0.061224408
-0.36229432 -0.27239853 0.061109167
-0.36248937 -0.27236772 0.061157823
-0.36269 -0.27233714 0.061199535
-0.36293131 -0.27232605 0.061062366
-0.36313212 -0.27229786 0.061086785
-0.36334848 -0.2722764 0.061047718
-0.36355489 -0.2722486 0.061064046
-0.36376134 -0.27222303 0.061064225
-0.36396033 -0.27221367 0.060952615
-0.36418658 -0.27217758 0.061011501
-0.3643986 -0.27215257 0.061002437
-0.36461651 -0.27213252 0.060951836
-0.36480281 -0.27209818 0.061033979
-0.36502689 -0.27208117 0.060955673
-0.36524391 -0.27206108 0.060906231
-0.36545399 -0.27203789 0.060885645
-0.3656618 -0.27201149 0.060890432
-0.36586916 -0.2719872 0.060880244
-0.36608192 -0.27196556 0.0608458
-0.36630338 -0.27194825 0.060772128
-0.36651292 -0.27192307 0.060766533
-0.36672348 -0.27190077 0.060739025
-0.3669233 -0.2718733 0.060758848
-0.36712462 -0.27184659 0.060771734
-0.36732939 -0.27182171 0.060768463
-0.36753908 -0.27179933 0.060742117
-0.36774912 -0.27177489 0.060730755
-0.36793789 -0.27175164 0.060729861
-0.3681632 -0.27172798 0.060698837
-0.36838061 -0.27171004 0.06063325
-0.3685855 -0.27168575 0.060625367
-0.36879343 -0.27166313 0.060602486
-0.36900541 -0.27164033 0.060577281
-0.36921331 -0.27162042 0.060534798
-0.3694149 -0.27159226 0.060558066
-0.36959699 -0.27156603 0.06058488
-0.3698253 -0.27154502 0.060531929
-0.37003088 -0.27152681 0.060479075
-0.37024441 -0.27150556 0.060441181
-0.37044534 -0.27147481 0.060484052
-0.37065026 -0.27145144 0.060469255
-0.37084252 -0.27142099 0.060517922
-0.37105879 -0.2714043 0.060444277
-0.371281 -0.2713913 0.060338311
-0.37147605 -0.27135998 0.060390435
-0.37167695 -0.27133477 0.060392946
-0.37187818 -0.27131251 0.060373552
-0.37207931 -0.27128488 0.060393363
-0.37228122 -0.27126047 0.06038896
-0.37248713 -0.2712386 0.06036263
-0.37269521 -0.27121818 0.0603236
-0.37290955 -0.27120456 0.060229205
-0.3731164 -0.27117813 0.060235158
-0.37331218 -0.27115038 0.060260754
-0.37350672 -0.27112752 0.060251765
-0.37366635 -0.27110502 0.060271766
-0.37391612 -0.27108088 0.060222179
-0.37411395 -0.27105176 0.060255829
-0.37430969 -0.27102417 0.060280275
-0.37451679 -0.27101004 0.060196292
-0.37470508 -0.27098054 0.06024152
-0.37488383 -0.27096531 0.060191106
-0.37513399 -0.27093938 0.0601542
-0.37533343 -0.27091464 0.060154416
-0.37553906 -0.27089438 0.060116548
-0.37572682 -0.27087077 0.06011913
-0.37594306 -0.27084902 0.060082369
-0.3761529 -0.27083218 0.060015671
-0.37634209 -0.2708005 0.060075887
-0.37654588 -0.27077952 0.060044959
-0.37675154 -0.27076003 0.060001329
-0.37695789 -0.27074122 0.059951935
-0.37715814 -0.27071798 0.059940621
-0.37733555 -0.27070025 0.059909813
-0.37753031 -0.27067626 0.059908897
-0.37775171 -0.27064991 0.059900939
-0.37795049 -0.27062258 0.059920762
-0.37815863 -0.27059931 0.059902489
-0.37836403 -0.2705808 0.059851944
-0.37856266 -0.27055696 0.059846409
-0.37875223 -0.27053267 0.059852432
-0.3789492 -0.2705076 0.059857264
-0.37915543 -0.27048331 0.05984823
-0.37933636 -0.27046609 0.059810489
-0.37955451 -0.27044505 0.059766807
-0.37974668 -0.27041981 0.059777424
-0.37994787 -0.27039152 0.059801843
-0.38016805 -0.27038005 0.059686683
-0.38034457 -0.27035594 0.059703141
-0.38053334 -0.27032414 0.059764512
-0.3807525 -0.27030489 0.05970699
-0.38095427 -0.2702851 0.059669156
-0.3811453 -0.27026314 0.059656724
-0.38133764 -0.2702347 0.059690401
-0.38155261 -0.27021217 0.05966058
-0.38175702 -0.27019551 0.059597358
-0.38194904 -0.27017093 0.059603371
-0.38214645 -0.27014771 0.059594378
-0.38235345 -0.27012599 0.05956573
-0.38255525 -0.27010745 0.059518673
-0.38274696 -0.27008289 0.059524689
-0.38294658 -0.27006242 0.059493769
-0.38313612 -0.27004001 0.059485964
-0.38333136 -0.27001944 0.059459686
-0.38355109 -0.2699993 0.059407927
-0.38374719 -0.26997563 0.059403539
-0.3839379 -0.26994598 0.059447609
-0.38412213 -0.26993164 0.059385642
-0.38431144 -0.269905 0.059408963
-0.38452339 -0.26988143 0.059389517
-0.38473102 -0.26985759 0.059375867
-0.38490713 -0.26983431 0.059386566
-0.38509682 -0.26981789 0.059334949
-0.38528845 -0.26979429 0.059334043
-0.3855046 -0.26976672 0.059339948
-0.38569391 -0.26975033 0.05928833
-0.38589683 -0.26973134 0.059243567
-0.38608241 -0.26970547 0.059264608
-0.38627633 -0.26968539 0.059236024
-0.38646314 -0.26966649 0.059205167
-0.38666806 -0.26964566 0.059171923
-0.38687968 -0.269618 0.059182458
-0.38707796 -0.2695882 0.059220724
-0.38725898 -0.26956716 0.059210654
-0.38745937 -0.26955163 0.059142843
-0.38765937 -0.26953587 0.059077345
-0.38784945 -0.26950565 0.059126023
-0.38804913 -0.26948389 0.059104338
-0.38823515 -0.26946524 0.059072334
-0.38844448 -0.26944688 0.059017159
-0.38863838 -0.26942268 0.059018552
-0.38883024 -0.26939526 0.059045322
-0.38903385 -0.26937443 0.05901324
-0.38922632 -0.26935452 0.058984663
-0.38942122 -0.26933241 0.058969915
-0.38960746 -0.26930866 0.058974802
-0.38980672 -0.26928777 0.058947355
-0.39000756 -0.26926285 0.058947559
-0.39019608 -0.26924357 0.05891785
-0.39039788 -0.26922077 0.058901913
-0.39059162 -0.26919723 0.058898695
-0.3907817 -0.26917413 0.058895506
-0.39098233 -0.26915699 0.058839217
-0.39116871 -0.26913434 0.058836035
-0.39136532 -0.26910934 0.058840882
-0.39156061 -0.2690897 0.058807686
-0.39175278 -0.26905513 0.058886327
-0.3919493 -0.26904702 0.058767803
-0.39215484 -0.26901695 0.058801427
-0.39233518 -0.26899838 0.058774069
-0.39252934 -0.26898631 0.058686692
-0.39273301 -0.26896107 0.058686886
-0.39292234 -0.26893759 0.05868715
-0.39311409 -0.26891065 0.058710452
-0.3933087 -0.26889142 0.058674954
-0.3935017 -0.26886794 0.058671739
-0.39371198 -0.26885152 0.058601581
-0.39389077 -0.26883045 0.058593821
-0.39409125 -0.2688078 0.058577895
-0.39428279 -0.26878041 0.058604665
-0.39448717 -0.26875857 0.058579497
-0.39468792 -0.26873729 0.058553189
-0.39487374 -0.26871568 0.058543086
-0.39506075 -0.26869863 0.058498397
-0.39525634 -0.26867265 0.058511321
-0.39544186 -0.26865041 0.058505837
-0.39563477 -0.26862857 0.058491088
-0.39583039 -0.26860288 0.058501706
-0.39602351 -0.26858208 0.058478892
-0.39621729 -0.26856485 0.058429554
-0.39641747 -0.26854399 0.058400951
-0.39661393 -0.2685231 0.058375813
-0.39680189 -0.26849598 0.058403756
-0.39698786 -0.26847798 0.058367137
-0.39718404 -0.26845649 0.058346618
-0.39738241 -0.26842606 0.0583895
-0.39757162 -0.26840684 0.058358632
-0.39776742 -0.26838335 0.058353096
-0.3979643 -0.2683686 0.058283005
-0.39815697 -0.26835024 0.058242895
-0.3983418 -0.268327 0.058245488
-0.39853814 -0.26831117 0.058183465
-0.39872614 -0.26828405 0.058211409
-0.39892149 -0.26825809 0.05822432
-0.39911646 -0.26822585 0.058283351
-0.39930162 -0.26820716 0.058252506
-0.39950091 -0.26818705 0.058219288
-0.39969665 -0.26816925 0.058172256
-0.39989209 -0.26814595 0.058165573
-0.4000769 -0.26812604 0.058143951
-0.40026167 -0.26810563 0.058125786
-0.40045702 -0.26808473 0.058101814
-0.40065235 -0.26806304 0.058083601
-0.40084758 -0.26804373 0.058048103
-0.40103942 -0.26801646 0.058073718
-0.40123487 -0.26798955 0.058093548
-0.40141895 -0.26797903 0.058003914
-0.40161788 -0.26795232 0.05801912
-0.40181649 -0.26793084 0.05799628
-0.40200067 -0.26791337 0.057957374
-0.40220296 -0.26788828 0.057957571
-0.40238732 -0.26786762 0.057941716
-0.40258178 -0.26785046 0.057891227
-0.40276951 -0.26783019 0.057869598
-0.40296838 -0.26780412 0.057880189
-0.40316311 -0.26778311 0.057857368
-0.40336579 -0.26775482 0.057880633
-0.40355346 -0.26773441 0.057860143
-0.40374836 -0.26771182 0.057848856
-0.40392232 -0.26768991 0.057851493
-0.40411279 -0.26767275 0.057804488
-0.40430459 -0.26764786 0.057812802
-0.40449446 -0.26763302 0.057749663
-0.40468931 -0.2676101 0.057740673
-0.40488249 -0.2675789 0.057793956
-0.40507287 -0.26756081 0.057753857
-0.40526041 -0.26753977 0.057737987
-0.40544099 -0.26751894 0.057726763
-0.40564132 -0.26748794 0.057771944
-0.40583619 -0.26746517 0.057761803
-0.40602103 -0.26744148 0.057767846
-0.40620738 -0.26743716 0.057630938
-0.4064146 -0.26741859 0.057579234
-0.4066062 -0.26739466 0.057580642
-0.40678823 -0.26736861 0.057606295
-0.40697491 -0.26733881 0.057654992
-0.40715748 -0.26732233 0.057610326
-0.40735289 -0.26730788 0.057539083
-0.40754786 -0.26728433 0.05753471
-0.40774274 -0.26726097 0.057529178
-0.40794003 -0.26723099 0.057569757
-0.4081358 -0.26721475 0.057511192
-0.40832615 -0.26719463 0.057486087
-0.40851155 -0.26716071 0.05756592
-0.40875781 -0.26711884 0.05764892
-0.40895656 -0.267095 0.05764338
-0.4091498 -0.26705998 0.057724323
-0.40933496 -0.26702863 0.057785712
-0.40954837 -0.26698685 0.057897687
-0.40974519 -0.26695296 0.057967089
-0.40994519 -0.26691237 0.058082592
-0.41012579 -0.2668781 0.058169365
-0.41033083 -0.26684242 0.058244482
-0.41052303 -0.26680595 0.058336966
-0.41074631 -0.26676136 0.058460426
-0.41093934 -0.26672432 0.058556363
-0.41113982 -0.26668635 0.058652259
-0.41133374 -0.26664856 0.058752801
-0.41153044 -0.26661247 0.058838345
-0.41174939 -0.26657286 0.058929548
-0.41195416 -0.26653513 0.05901967
-0.41215464 -0.2664997 0.059097119
-0.41235796 -0.26645949 0.059206836
-0.41256255 -0.26641753 0.059328079
-0.41275388 -0.26638779 0.059372149
-0.41296756 -0.26634267 0.059508335
-0.34297836 -0.27456641 0.062744625
-0.34320021 -0.27453798 0.062751621
-0.3434158 -0.27450812 0.0627748
-0.34356627 -0.27447155 0.062905535
-0.34390768 -0.2744619 0.062667504
-0.34413585 -0.27443537 0.062654868
-0.34439212 -0.27441439 0.062576383
-0.3446303 -0.27439061 0.062534876
-0.34483895 -0.27435794 0.062584609
-0.34506148 -0.27433038 0.062584691
-0.34528127 -0.27430218 0.062591709
-0.34551549 -0.27427778 0.062558293
-0.34566981 -0.2742548 0.062586382
-0.34597555 -0.27422553 0.062523797
-0.34617519 -0.27419081 0.062596634
-0.34644771 -0.27417684 0.062452331
-0.34665275 -0.2741437 0.062509
-0.34688696 -0.27411988 0.062470973
-0.3471885 -0.27411261 0.062251586
-0.34735897 -0.27407202 0.062393755
-0.34760392 -0.27405149 0.062322237
-0.34779811 -0.2740173 0.062396262
-0.34806165 -0.2740005 0.062280826
-0.34827146 -0.27397069 0.062308654
-0.34850496 -0.27394587 0.062278695
-0.34872666 -0.27391952 0.062270712
-0.34893093 -0.27388835 0.062313549
-0.34913519 -0.27386051 0.062332161
-0.34934425 -0.27383569 0.062324241
-0.34960613 -0.27381119 0.062266484
-0.34984833 -0.27379447 0.062169604
-0.35008043 -0.27376667 0.062162727
-0.35030097 -0.27374062 0.062153593
-0.35054827 -0.27372247 0.062062465
-0.35075828 -0.27369186 0.062096044
-0.35100675 -0.27367437 0.061999142
-0.35123256 -0.27364862 0.061983064
-0.35145748 -0.27362439 0.061956607
-0.35165605 -0.27359059 0.062023696
-0.35186693 -0.27356225 0.062039971
-0.35209242 -0.27354017 0.061997369
-0.35232013 -0.27351543 0.061972067
-0.35254979 -0.27349141 0.061939821
-0.35275087 -0.27346033 0.061984979
-0.35298914 -0.2734392 0.061923876
-0.35318962 -0.27340803 0.061970189
-0.35341877 -0.27338421 0.061936796
-0.35364294 -0.27336073 0.061905742
-0.35387403 -0.27333778 0.061864264
-0.35408109 -0.27330896 0.061887488
-0.35432577 -0.27329066 0.061799832
-0.35450086 -0.27325329 0.061914302
-0.35473016 -0.27324277 0.061784048
-0.35496983 -0.27321246 0.061788656
-0.3551794 -0.27318299 0.061814174
-0.35543299 -0.27317026 0.061678033
-0.35567972 -0.2731536 0.061576523
-0.35587513 -0.27312148 0.061634399
-0.35608435 -0.27309224 0.061658762
-0.35627872 -0.27305976 0.061720092
-0.35650587 -0.27303684 0.061682098
-0.35670114 -0.27300471 0.061739966
-0.35694447 -0.27298769 0.061644241
-0.3571294 -0.27295578 0.061710238
-0.35738587 -0.27293998 0.061593689
-0.3575837 -0.27290896 0.061641172
-0.35781339 -0.27288952 0.061575484
-0.35799983 -0.27286592 0.061579209
-0.35824758 -0.27285722 0.06141888
-0.35848957 -0.27282551 0.061431557
-0.35864449 -0.27280012 0.061476931
-0.35888749 -0.27276307 0.061527658
-0.35912326 -0.27274477 0.061448112
-0.35931364 -0.27271137 0.061519843
-0.35952556 -0.27269602 0.061440416
-0.35973233 -0.27268082 0.061364464
-0.35993978 -0.27265415 0.061371535
-0.36019418 -0.27261996 0.06139107
-0.36042392 -0.2726002 0.061327696
