# .PCD v0.7 - Point Cloud Data file format
VERSION 0.7
FIELDS x y z
SIZE 4 4 4
TYPE F F F
COUNT 1 1 1
WIDTH 1297
HEIGHT 1
VIEWPOINT 0 0 0 1 0 0 0
POINTS 1297
DATA ascii
-0.24653406 -0.18145534 0.054518566
-0.24672064 -0.18141825 0.054528471
-0.24690956 -0.18138309 0.054521076
-0.24710089 -0.18134998 0.054495234
-0.24729054 -0.18131562 0.054480918
-0.2474847 -0.18128511 0.054432005
-0.24768382 -0.18125904 0.054343887
-0.24785775 -0.18121159 0.054447208
-0.24804363 -0.18117431 0.054459415
-0.24824022 -0.18114652 0.054387443
-0.24843249 -0.18111512 0.054347765
-0.24862187 -0.18108128 0.054329991
-0.24880655 -0.18104707 0.054321457
-0.24899498 -0.18100868 0.054338276
-0.24917978 -0.18097082 0.054356255
-0.24933079 -0.18094826 0.054309752
-0.24956293 -0.18090814 0.054278046
-0.24975124 -0.18087387 0.054264881
-0.24993759 -0.18083778 0.054267868
-0.25012493 -0.18080275 0.05426164
-0.25031716 -0.18076852 0.054242712
-0.25049692 -0.18073431 0.054241098
-0.25069919 -0.18070652 0.054161046
-0.25087786 -0.18067567 0.054136384
-0.25102291 -0.18062633 0.054293953
-0.25121531 -0.18061037 0.054141294
-0.25144759 -0.18056755 0.05412918
-0.25163445 -0.18053275 0.054121789
-0.25182223 -0.18049906 0.054105181
-0.25200874 -0.18046404 0.054100089
-0.25218782 -0.1804298 0.054099642
-0.25237152 -0.1803868 0.054156825
-0.25250429 -0.18035446 0.054207206
-0.252711 -0.18032473 0.054135211
-0.25294253 -0.18029167 0.05405277
-0.25312862 -0.18025656 0.054048844
-0.25331932 -0.18022752 0.053994179
-0.25350532 -0.18019259 0.053989105
-0.25369251 -0.18015933 0.053970177
-0.25387868 -0.18012483 0.053961642
-0.2540628 -0.18009295 0.053936966
-0.25425139 -0.18005657 0.053938799
-0.25444278 -0.18002424 0.053907186
-0.2546244 -0.17998353 0.053950541
-0.25481698 -0.17995885 0.053861279
-0.25499365 -0.17992239 0.053880438
-0.2551747 -0.17989251 0.053845394
-0.25537786 -0.1798614 0.05378839
-0.25555649 -0.17981605 0.053869788
-0.25573894 -0.17978273 0.053857803
-0.25590289 -0.17975676 0.053818185
-0.25609863 -0.17972045 0.053809624
-0.25630292 -0.1796858 0.053776827
-0.25646073 -0.17965642 0.053770665
-0.25664401 -0.17962517 0.053742535
-0.25685287 -0.17958571 0.053738557
-0.25704199 -0.17953771 0.053824533
-0.25718886 -0.17951626 0.053775746
-0.25737682 -0.17950179 0.053618483
-0.2575714 -0.17945701 0.053673327
-0.25778854 -0.17941976 0.053641658
-0.25797176 -0.17938204 0.053660788
-0.25816205 -0.17935134 0.053618804
-0.25834811 -0.17931987 0.053588364
-0.25853801 -0.17928892 0.05354869
-0.25872248 -0.17925429 0.053543605
-0.25888401 -0.17922656 0.053520139
-0.25907484 -0.17919861 0.053457413
-0.25927001 -0.17915466 0.053505339
-0.25946212 -0.17912124 0.053480644
-0.25964245 -0.17908598 0.053485956
-0.25981984 -0.17905255 0.053482041
-0.26001936 -0.17902008 0.053440042
-0.26020291 -0.17898387 0.053447645
-0.26036149 -0.17894882 0.053481832
-0.2605707 -0.1789134 0.053447869
-0.26075995 -0.17888369 0.053400125
-0.26094416 -0.17884989 0.053389285
-0.26110438 -0.17882004 0.053383116
-0.26129398 -0.17879279 0.053316921
-0.26148763 -0.17875482 0.053323351
-0.26166981 -0.17871416 0.053365543
-0.26186335 -0.17868945 0.053275138
-0.26204893 -0.17866249 0.053212415
-0.26222876 -0.17862685 0.053221188
-0.26239243 -0.17859809 0.053202324
-0.26260585 -0.17855428 0.053223692
-0.26278898 -0.17851737 0.053237058
-0.26297987 -0.17848404 0.053213522
-0.26316473 -0.17845643 0.05315657
-0.26332828 -0.17842847 0.053131945
-0.26351169 -0.17839372 0.053129174
-0.26370689 -0.17834473 0.053213987
-0.2638872 -0.17831214 0.053199701
-0.26408863 -0.17828137 0.0531427
-0.26425883 -0.17825229 0.05311691
-0.26444277 -0.17822266 0.053076103
-0.2646293 -0.17818573 0.05308485
-0.26481235 -0.17814821 0.053102829
-0.26499587 -0.17811549 0.053085074
-0.26518604 -0.17808054 0.053074218
-0.26536253 -0.17804681 0.053073771
-0.26556277 -0.17800821 0.053075574
-0.26574951 -0.17797455 0.053060118
-0.26589859 -0.17793879 0.053112775
-0.26609597 -0.17791778 0.052990071
-0.26628256 -0.17788337 0.052980378
-0.26646918 -0.1778529 0.052941859
-0.26663196 -0.17782131 0.05294491
-0.26681519 -0.17777744 0.053009011
-0.26700497 -0.17775425 0.052912839
-0.2671845 -0.17772608 0.052867424
-0.26737791 -0.17768468 0.052899223
-0.26757467 -0.1776458 0.052907944
-0.26775789 -0.17760888 0.052921314
-0.26794162 -0.17756554 0.052980796
-0.2680977 -0.17753619 0.052976947
-0.26826808 -0.17749493 0.053039923
-0.26845041 -0.17747112 0.052958764
-0.26863575 -0.17744862 0.052863762
-0.26882511 -0.17741746 0.05282639
-0.26901406 -0.17738907 0.052769423
-0.26918429 -0.177351 0.05280935
-0.26937297 -0.17732376 0.052744307
-0.269568 -0.17729689 0.052667737
-0.26975203 -0.17725508 0.052715681
-0.26993823 -0.1772209 0.052704837
-0.27011609 -0.17717806 0.052768953
-0.27031142 -0.17714813 0.05271427
-0.27049452 -0.17711312 0.052713808
-0.2706708 -0.17707974 0.052711062
-0.27084187 -0.17705587 0.052646067
-0.27102831 -0.17700523 0.052755117
-0.27121362 -0.17697549 0.052713145
-0.27139401 -0.1769664 0.052527081
-0.27157435 -0.17694233 0.052450545
-0.27177024 -0.17690709 0.052433908
-0.27195513 -0.17687695 0.052395392
-0.27216366 -0.17683029 0.052444447
-0.27233267 -0.1767994 0.052433643
-0.27251706 -0.17675957 0.052466609
-0.27269804 -0.17672071 0.052497279
-0.2729179 -0.17669098 0.052406803
-0.2730912 -0.17665659 0.052415583
-0.2732513 -0.17662378 0.052431315
-0.27346551 -0.17659086 0.052371986
-0.27364701 -0.17656058 0.052339248
-0.27382937 -0.17651846 0.05239182
-0.27400142 -0.17648809 0.052372932
-0.27419478 -0.17645979 0.05230904
-0.27439669 -0.17642513 0.052279707
-0.27457118 -0.17638798 0.052306939
-0.27474859 -0.17635171 0.052323785
-0.27492899 -0.17631595 0.052332547
-0.27509922 -0.17629004 0.052283697
-0.27529287 -0.17626011 0.052231338
-0.27549285 -0.17622235 0.05222737
-0.27566439 -0.17618561 0.052255761
-0.27585348 -0.17615876 0.052187268
-0.27604991 -0.17612216 0.052179854
-0.27622211 -0.17609113 0.052165587
-0.27639422 -0.17606705 0.052100588
-0.27658987 -0.17602539 0.052131221
-0.27677804 -0.17598674 0.052150346
-0.27695659 -0.17595544 0.052129146
-0.27712846 -0.17593141 0.052064147
-0.27730882 -0.1758963 0.052068301
-0.27747247 -0.17587006 0.052031003
-0.27765483 -0.17583109 0.052060515
-0.27784696 -0.17578536 0.052125745
-0.27803954 -0.17575076 0.052109111
-0.27823284 -0.17571475 0.052101705
-0.27840263 -0.17568845 0.052056316
-0.27861908 -0.17564911 0.052040782
-0.27878222 -0.17563447 0.05191933
-0.27897939 -0.17558621 0.051996071
-0.2791481 -0.17555097 0.052017547
-0.27933326 -0.17552392 0.051955976
-0.27951697 -0.17549922 0.051879428
-0.27970117 -0.17546336 0.051883571
-0.27986935 -0.17543422 0.051861249
-0.28006229 -0.1753989 0.051849224
-0.28023472 -0.17537256 0.05180037
-0.28043446 -0.17533122 0.051822927
-0.28061867 -0.17529568 0.051824771
-0.28079569 -0.17526673 0.051788576
-0.28095016 -0.17525408 0.051664837
-0.2811574 -0.17520152 0.051758848
-0.28134799 -0.17517897 0.051656913
-0.28152141 -0.17515953 0.051556185
-0.28166658 -0.1751422 0.051479723
-0.28184918 -0.1751046 0.051498864
-0.28203958 -0.17505589 0.051588308
-0.28223974 -0.17500201 0.051701929
-0.28243777 -0.17494743 0.051823631
-0.28263524 -0.17491062 0.051816214
-0.28282797 -0.1748845 0.051737338
-0.28301406 -0.17485523 0.051690754
-0.28321299 -0.1748284 0.051608402
-0.28338948 -0.17479607 0.05159758
-0.28354341 -0.17477438 0.051540695
-0.28376505 -0.17472491 0.051592015
-0.2839365 -0.17468786 0.051622711
-0.28411219 -0.17464922 0.051659152
-0.28431463 -0.17461762 0.051606771
-0.28449193 -0.17458089 0.051627077
-0.28467286 -0.17455433 0.051567823
-0.28485149 -0.17452696 0.051517803
-0.28503162 -0.17449412 0.051505812
-0.28520778 -0.1744661 0.051463865
-0.2854062 -0.17443211 0.051434543
-0.2855742 -0.1744 0.051434122
-0.28575701 -0.17437436 0.051365644
-0.2859433 -0.17433763 0.051373243
-0.28613073 -0.17429627 0.051413111
-0.28631002 -0.17426799 0.051368859
-0.28650132 -0.17423569 0.051337246
-0.28668761 -0.17419596 0.051366746
-0.28686392 -0.17416778 0.051325954
-0.28704959 -0.17413543 0.051302426
-0.28724802 -0.17410161 0.051271956
-0.28744864 -0.17406213 0.051279515
-0.28761771 -0.17402934 0.051282547
-0.28779423 -0.1739978 0.051265959
-0.28799909 -0.17395705 0.051276974
-0.28816196 -0.17394044 0.051170498
-0.28834516 -0.17389563 0.051241517
-0.28852457 -0.17386417 0.051220313
-0.28872162 -0.17382902 0.051201373
-0.28891841 -0.17378524 0.051245838
-0.2890994 -0.17375521 0.051211946
-0.28929523 -0.17371856 0.05120568
-0.28944975 -0.17370433 0.051093467
-0.28964016 -0.17366745 0.051096443
-0.28983846 -0.17361975 0.051167425
-0.29001763 -0.17358029 0.051205009
-0.29019937 -0.17355816 0.051112324
-0.2904 -0.17351981 0.051111817
-0.29060271 -0.173485 0.051082484
-0.29077005 -0.17345758 0.051048636
-0.29095721 -0.17342164 0.051049314
-0.29114699 -0.17338866 0.051024623
-0.29131803 -0.17335771 0.05101151
-0.29150927 -0.17332871 0.050955687
-0.29169422 -0.17329508 0.050942544
-0.29187718 -0.17326342 0.050917871
-0.29206386 -0.173223 0.050951988
-0.29225039 -0.17319065 0.050927307
-0.29240775 -0.17317271 0.050838135
-0.29260045 -0.17313461 0.050846875
-0.29280949 -0.1730866 0.050905142
-0.29298517 -0.17306185 0.050840136
-0.29317427 -0.1730298 0.050809689
-0.2933616 -0.17298688 0.050861098
-0.29355258 -0.17295572 0.050821416
-0.29372481 -0.17292911 0.050774861
-0.29393065 -0.17287728 0.050865415
-0.29411274 -0.17285904 0.050743911
-0.29429606 -0.17282747 0.050718091
-0.29446957 -0.17279492 0.050713032
-0.29463208 -0.17277206 0.050652679
-0.29482564 -0.17272921 0.050694846
-0.29500937 -0.1727045 0.050618291
-0.29521081 -0.17266677 0.050612021
-0.29538387 -0.17263716 0.050586216
-0.2955884 -0.1725807 0.050712518
-0.29579589 -0.17254277 0.050699309
-0.29597783 -0.17252645 0.050563969
-0.29615548 -0.17249312 0.050558902
-0.2963475 -0.17245688 0.050554968
-0.29654509 -0.17241831 0.050560229
-0.29673848 -0.1723766 0.050594326
-0.2969093 -0.17234473 0.050588131
-0.29708847 -0.1723149 0.050555397
-0.29727641 -0.17229111 0.050466157
-0.29745987 -0.17225777 0.050453011
-0.29766062 -0.17221703 0.050469793
-0.29785067 -0.17218068 0.050469317
-0.29804665 -0.17214181 0.050479196
-0.29821831 -0.17211813 0.050411899
-0.29840511 -0.17207816 0.050442554
-0.29860213 -0.17204711 0.050393634
-0.29878902 -0.17201565 0.050362036
-0.29896927 -0.17198102 0.05036274
-0.29917252 -0.17194311 0.050355308
-0.29936424 -0.17191213 0.05031332
-0.29955703 -0.17187212 0.050335892
-0.29972082 -0.17184837 0.050280143
-0.29992259 -0.17180775 0.050294615
-0.3001188 -0.1717674 0.050314873
-0.30031243 -0.17173716 0.050264813
-0.3004832 -0.17171019 0.050222877
-0.30067316 -0.17167278 0.050230466
-0.30087733 -0.17163469 0.050223041
-0.30105561 -0.17160612 0.050182238
-0.30126968 -0.17156473 0.050185151
-0.3014397 -0.17153648 0.050153594
-0.30160505 -0.17150976 0.050117444
-0.30178922 -0.17147502 0.050113522
-0.30200818 -0.17143221 0.050119881
-0.30220887 -0.17138942 0.050151661
-0.3023912 -0.17136577 0.050069343
-0.30255947 -0.17133518 0.050057393
-0.30276239 -0.17129101 0.050096076
-0.30294931 -0.17126033 0.050058715
-0.30313429 -0.17123663 0.049972933
-0.3033312 -0.17119141 0.050027773
-0.30352986 -0.17115989 0.049980007
-0.30374861 -0.1711124 0.050020956
-0.30391887 -0.17108442 0.049987093
-0.30410147 -0.17104967 0.049985483
-0.30428869 -0.17102082 0.049934279
-0.3044982 -0.17098013 0.049938366
-0.30467418 -0.17095011 0.049911402
-0.30485094 -0.17091601 0.049913265
-0.30505469 -0.17088304 0.049868945
-0.30525225 -0.17084369 0.049879972
-0.30543417 -0.17081334 0.049847234
-0.30564794 -0.17076662 0.049889345
-0.30583629 -0.17073376 0.04986582
-0.30602181 -0.17070635 0.049806554
-0.30622962 -0.17066219 0.049838305
-0.30641395 -0.1706339 0.049787119
-0.30661553 -0.1705941 0.049795825
-0.30679134 -0.17056979 0.049727365
-0.30701274 -0.17052209 0.049766012
-0.3072015 -0.1704876 0.049753997
-0.30737388 -0.17046221 0.049698226
-0.30756575 -0.17042236 0.049720801
-0.30779129 -0.17037909 0.049721386
-0.30792201 -0.17037761 0.049549278
-0.30813405 -0.17032981 0.049601778
-0.30830276 -0.17029692 0.049605966
-0.30848911 -0.17026761 0.049559381
-0.3086859 -0.17023487 0.049523138
-0.30890125 -0.17018865 0.049559485
-0.30907324 -0.17016208 0.049512941
-0.30929816 -0.17011482 0.049543496
-0.30949545 -0.17008199 0.04950726
-0.3096821 -0.17004946 0.049483739
-0.30989954 -0.17000079 0.049535066
-0.31009114 -0.16996369 0.049538042
-0.31024942 -0.16994274 0.04946962
-0.3104825 -0.16988775 0.049545117
-0.31067437 -0.16986495 0.049443182
-0.31085476 -0.16983661 0.049397774
-0.311064 -0.16978888 0.049453732
-0.31123894 -0.16977027 0.049344923
-0.31143853 -0.16972864 0.049369778
-0.31164396 -0.16968352 0.049411923
-0.31183359 -0.16965595 0.049348027
-0.31204677 -0.16961093 0.049378622
-0.31224298 -0.16957942 0.049334314
-0.31245169 -0.16954188 0.049316499
-0.31265444 -0.16950344 0.049313679
-0.31285071 -0.16947049 0.049279753
-0.31303647 -0.16943781 0.049258534
-0.31323302 -0.16940023 0.049258035
-0.31342924 -0.16937044 0.049201049
-0.21925744 -0.18954186 0.033605285
-0.21940023 -0.18950115 0.03370294
-0.21954358 -0.18946049 0.033799447
-0.21968731 -0.18941864 0.033904016
-0.21983132 -0.18937801 0.033999372
-0.21996722 -0.18933593 0.034116648
-0.22009721 -0.18929277 0.034250084
-0.22023454 -0.18924837 0.034382343
-0.22036542 -0.1892052 0.034514628
-0.22049345 -0.1891602 0.034664202
-0.22061495 -0.18911393 0.034832247
-0.22073045 -0.18906771 0.035008367
-0.22084421 -0.18902102 0.035190266
-0.22096249 -0.1889738 0.035369847
-0.21496925 -0.18713117 0.057221383
-0.21519315 -0.18709372 0.057181649
-0.21539766 -0.18705398 0.057185769
-0.21563162 -0.18701571 0.05713794
-0.2158587 -0.18697923 0.057086661
-0.21606602 -0.18693881 0.057091933
-0.21625848 -0.18690154 0.057094924
-0.2165155 -0.18686391 0.05701014
-0.21669675 -0.18681821 0.05709042
-0.21692482 -0.18678091 0.05704375
-0.21716115 -0.18674709 0.056960169
-0.21737038 -0.18670756 0.056956209
-0.2175771 -0.18666756 0.056959171
-0.21779174 -0.18662778 0.05694944
-0.21800004 -0.18658827 0.056946635
-0.21822417 -0.18655078 0.056906898
-0.21844001 -0.18651313 0.056879863
-0.21864809 -0.18647382 0.056875903
-0.2188586 -0.18643515 0.056863863
-0.21907049 -0.18639526 0.056858748
-0.21928731 -0.18635823 0.056825951
-0.21947706 -0.18632795 0.056781676
-0.21969044 -0.18628052 0.056829594
-0.21988879 -0.1862459 0.056804903
-0.22012961 -0.1862068 0.056753598
-0.22035666 -0.18616781 0.056720771
-0.22056407 -0.18612909 0.056713358
-0.22077563 -0.18609148 0.056692101
-0.220934 -0.1860541 0.056743603
-0.2211673 -0.18602037 0.056663487
-0.22138235 -0.18597721 0.056677956
-0.22158062 -0.18593994 0.056672875
-0.22179776 -0.18590756 0.056605481
-0.2219829 -0.18587217 0.056605034
-0.22221752 -0.18583266 0.05656527
-0.2224182 -0.18578783 0.056612063
-0.22262977 -0.18575273 0.056572352
-0.22284815 -0.18570925 0.056584511
-0.22304967 -0.1856734 0.056564428
-0.22328481 -0.18564674 0.05643012
-0.22349845 -0.18560401 0.056443453
-0.22369708 -0.18555719 0.056507535
-0.22389439 -0.1855223 0.056486312
-0.22408633 -0.18549128 0.056444343
-0.22429723 -0.18545333 0.056426544
-0.22450668 -0.18541327 0.056426041
-0.22469905 -0.18537554 0.056432504
-0.22493975 -0.18533032 0.056426164
-0.22513008 -0.18529391 0.056425702
-0.22535568 -0.18525709 0.056379043
-0.22556075 -0.18521978 0.056364719
-0.22577742 -0.18518418 0.056321535
-0.22596698 -0.18514605 0.05633492
-0.22619575 -0.18511067 0.056273263
-0.22641528 -0.18507816 0.056203559
-0.22658421 -0.18504319 0.056222759
-0.22680128 -0.18499899 0.05624184
-0.22697738 -0.18497005 0.05620683
-0.22717299 -0.18493423 0.056194827
-0.22738752 -0.18489321 0.056194313
-0.22762069 -0.18485068 0.056178764
-0.22778572 -0.18481281 0.056224495
-0.22798526 -0.18478429 0.056153674
-0.22824998 -0.18474093 0.056100007
-0.2284482 -0.18470649 0.056074165
-0.22865742 -0.18466619 0.056075975
-0.22885339 -0.18462729 0.056085885
-0.22906896 -0.18459317 0.056033477
-0.22925064 -0.18455149 0.056083776
-0.22940147 -0.18451492 0.056139909
-0.22965962 -0.18448402 0.05600439
-0.22986738 -0.18444367 0.05600851
-0.23007262 -0.18440647 0.055993028
-0.23025718 -0.18437402 0.055971831
-0.23047677 -0.18433614 0.055941332
-0.23068203 -0.1842972 0.055938534
-0.23088068 -0.18426001 0.055932291
-0.23107919 -0.18422285 0.055926055
-0.23125543 -0.18418978 0.055921018
-0.23143265 -0.1841592 0.055896383
-0.2316488 -0.18411441 0.055921223
-0.23185289 -0.18407965 0.055889606
-0.23203877 -0.18405057 0.055841886
-0.23225546 -0.1840104 0.055832148
-0.23246649 -0.18397447 0.055799358
-0.23265259 -0.18394583 0.055748187
-0.23287855 -0.18392251 0.055602364
-0.23308039 -0.18386829 0.05571603
-0.23324035 -0.18382509 0.055807885
-0.23346926 -0.18378825 0.055756602
-0.23366436 -0.18376169 0.055677738
-0.23385371 -0.1837329 0.055623088
-0.23407328 -0.18368602 0.055658307
-0.23428245 -0.18364365 0.055675101
-0.23447658 -0.18360607 0.055678088
-0.23467378 -0.18357436 0.055633806
-0.23486935 -0.18353981 0.055612586
-0.2350449 -0.18351018 0.055583335
-0.23527563 -0.1834686 0.055564336
-0.23549536 -0.18343368 0.055511929
-0.23569062 -0.18339019 0.055556424
-0.23588854 -0.18335487 0.055537499
-0.23603702 -0.18331796 0.055599406
-0.23627028 -0.1832874 0.055496242
-0.23646797 -0.18324046 0.055562638
-0.23668632 -0.18321511 0.055442207
-0.23688421 -0.1831779 0.055437118
-0.23708357 -0.18314388 0.055406664
-0.23726761 -0.1831098 0.055398151
-0.2374592 -0.18306245 0.055476099
-0.2376688 -0.18303373 0.055392578
-0.23785433 -0.18300062 0.055374835
-0.23806223 -0.18296149 0.055369731
-0.23824033 -0.18292476 0.055388905
-0.23843135 -0.18289219 0.055359621
-0.23863092 -0.18285151 0.055377588
-0.2388417 -0.18281673 0.055336729
-0.23904531 -0.182786 0.055276286
-0.2392357 -0.1827458 0.055303503
-0.23943418 -0.18271258 0.055268444
-0.23963754 -0.18267955 0.055225298
-0.23981903 -0.18264516 0.055222549
-0.23999193 -0.182614 0.055208299
-0.24021098 -0.18256879 0.055231996
-0.24040455 -0.1825414 0.0551612
-0.24061064 -0.18250248 0.05515724
-0.24080434 -0.18246733 0.055142947
-0.24099055 -0.18242794 0.055170171
-0.24118254 -0.18238918 0.055184703
-0.24138701 -0.18236065 0.055106964
-0.24158476 -0.18232553 0.055086881
-0.24177825 -0.18229075 0.055070277
-0.24196497 -0.18225473 0.055072132
-0.24214064 -0.18221766 0.055097081
-0.24235004 -0.18218441 0.055046998
-0.24254766 -0.18214679 0.055045381
-0.24274327 -0.1821138 0.055012628
-0.24294099 -0.18208231 0.054966033
-0.24313024 -0.18204249 0.054992095
-0.24327931 -0.1820121 0.055005576
-0.24352527 -0.18197989 0.054896612
-0.24369396 -0.18194464 0.05491811
-0.24388897 -0.18190894 0.054906107
-0.24409245 -0.18186988 0.054906774
-0.24428281 -0.18183111 0.054923616
-0.24448007 -0.18180034 0.054872416
-0.24466628 -0.18176189 0.054892719
-0.24485135 -0.18172903 0.054873828
-0.24503326 -0.18170039 0.054828424
-0.24518804 -0.18167144 0.054823451
-0.24537465 -0.18163022 0.054863352
-0.24561806 -0.18159205 0.054801665
-0.24581891 -0.18155506 0.054790799
-0.24600701 -0.18152179 0.054770753
-0.24620931 -0.18149289 0.054698788
-0.24639671 -0.18145595 0.054706402
-0.24658094 -0.18142341 0.054686364
-0.24676396 -0.18138652 0.054699764
-0.24693535 -0.18135422 0.054695897
-0.24715753 -0.18131427 0.054676905
-0.24734698 -0.1812793 0.054667231
-0.24753511 -0.18124333 0.054666787
-0.24772909 -0.18120876 0.05464787
-0.2479187 -0.18117788 0.054608218
-0.24811333 -0.18114413 0.054582387
-0.24826925 -0.18111369 0.054586623
-0.24850018 -0.18107869 0.054519199
-0.24868508 -0.18104033 0.054540657
-0.24886586 -0.18099819 0.054595567
-0.24904869 -0.18095787 0.054634333
-0.24923699 -0.18092661 0.054599289
-0.24943995 -0.18089758 0.05452732
-0.2496348 -0.180869 0.054463442
-0.24982256 -0.18083373 0.05445838
-0.2500084 -0.18079662 0.054469466
-0.2501916 -0.18075685 0.054503612
-0.25038663 -0.18072493 0.054463945
-0.25057378 -0.18069357 0.054431211
-0.25074387 -0.18067446 0.0543328
-0.25096872 -0.18064456 0.054236569
-0.25112677 -0.1806044 0.054308832
-0.25128508 -0.18056434 0.054379929
-0.2515128 -0.18052018 0.054383997
-0.2517066 -0.18048343 0.054381229
-0.25189921 -0.18045466 0.054321963
-0.25208876 -0.18042251 0.054291535
-0.25225317 -0.18039407 0.054269232
-0.25243923 -0.18036765 0.054201916
-0.25265267 -0.18032147 0.05424061
-0.25283781 -0.18027961 0.054287434
-0.25298047 -0.18023418 0.054419685
-0.25321856 -0.18021895 0.054197744
-0.25338998 -0.18019517 0.054131608
-0.25356495 -0.18018664 0.053949028
-0.25375879 -0.18014106 0.054010823
-0.25395668 -0.18008476 0.054145239
-0.25415808 -0.18004909 0.054124009
-0.25434572 -0.18001622 0.054101653
-0.2545445 -0.17999384 0.053987034
-0.25472036 -0.17995563 0.054020047
-0.25490126 -0.17991899 0.054034606
-0.25509542 -0.17987902 0.054054886
-0.2552807 -0.17984912 0.054014094
-0.25546947 -0.17981286 0.054014795
-0.25565833 -0.17977676 0.05401434
-0.25584406 -0.17974187 0.054009281
-0.25603074 -0.1797087 0.053990386
-0.25621521 -0.17967185 0.054001477
-0.25639567 -0.17964129 0.053972222
-0.25655106 -0.17960022 0.054054864
-0.25676987 -0.17957732 0.053915977
-0.25692612 -0.1795446 0.053936359
-0.25715381 -0.17951117 0.053862028
-0.25733727 -0.17947294 0.053884644
-0.25750527 -0.17944112 0.053881936
-0.25771189 -0.17940414 0.053862996
-0.25790071 -0.17937687 0.053797975
-0.25808468 -0.17933981 0.053811364
-0.25826678 -0.17929868 0.053857047
-0.25844198 -0.17927496 0.053785145
-0.25863624 -0.17924444 0.053736262
-0.25880864 -0.17921512 0.053709328
-0.25899589 -0.17917742 0.053722717
-0.25919589 -0.17913476 0.05375452
-0.25938442 -0.17910013 0.053743687
-0.25957075 -0.1790694 0.053707499
-0.25975761 -0.17903067 0.05372896
-0.25989977 -0.17899954 0.053757444
-0.26012954 -0.17896838 0.053663507
-0.26031613 -0.17893949 0.053613473
-0.26048046 -0.17890966 0.053601556
-0.26064518 -0.17888115 0.053579248
-0.26082733 -0.17883922 0.053630698
-0.26103741 -0.17880568 0.053581774
-0.26124361 -0.17877178 0.053540926
-0.26142696 -0.17873357 0.053563546
-0.26161602 -0.17870325 0.053520434
-0.26180029 -0.17866865 0.053515382
-0.26198459 -0.17863421 0.053509168
-0.26216695 -0.17859177 0.053564075
-0.26235163 -0.17857459 0.053431042
-0.26251155 -0.17854308 0.053437576
-0.26271841 -0.17849863 0.053472817
-0.26288736 -0.17847674 0.053396322
-0.26309046 -0.1784499 0.053308211
-0.26325786 -0.17840195 0.053424258
-0.26343939 -0.1783734 0.053378854
-0.26361331 -0.17834188 0.053365763
-0.26381698 -0.17829883 0.053395245
-0.26399851 -0.17827186 0.053338319
-0.26417482 -0.17823263 0.053378247
-0.26434681 -0.17821473 0.053268306
-0.26452446 -0.1781877 0.05321715
-0.26473194 -0.17814834 0.053214345
-0.26491451 -0.17810114 0.053303838
-0.2650952 -0.17807099 0.053271126
-0.26530638 -0.1780341 0.05324525
-0.26548004 -0.17800389 0.053222928
-0.26568091 -0.17796957 0.053192474
-0.26584402 -0.17793556 0.053212836
-0.26603448 -0.17789993 0.053206615
-0.26622838 -0.17786443 0.05319462
-0.26639849 -0.17783774 0.053151548
-0.26658887 -0.17779692 0.053183384
-0.2667827 -0.17776017 0.053180605
-0.26693565 -0.1777363 0.053141046
-0.26713267 -0.17770603 0.053086378
-0.26730558 -0.17768577 0.052992579
-0.26749942 -0.17764333 0.053031314
-0.26769379 -0.17759354 0.053123087
-0.26786077 -0.17755546 0.053167649
-0.26804027 -0.17753218 0.053086508
-0.26822898 -0.17751677 0.052935019
-0.26842955 -0.17747638 0.052949525
-0.26860055 -0.17743216 0.053033285
-0.2687974 -0.17739736 0.053012062
-0.2689839 -0.17736517 0.052986249
-0.26917699 -0.1773333 0.052948896
-0.26935998 -0.17730194 0.052921936
-0.26952431 -0.17728505 0.052815471
-0.26973578 -0.17723861 0.052858777
-0.26993266 -0.17720175 0.052852534
-0.27010605 -0.17716782 0.052857883
-0.27028689 -0.17712897 0.052888587
-0.27048072 -0.17709143 0.052891575
-0.27066982 -0.17706127 0.052847315
-0.27084219 -0.17703258 0.052815769
-0.27101472 -0.17700306 0.052789986
-0.27118999 -0.17697555 0.052745759
-0.27137634 -0.17694196 0.052730326
-0.27156511 -0.17689814 0.052786369
-0.27177083 -0.17686495 0.052740902
-0.27193546 -0.17682795 0.052780863
-0.27212843 -0.17680588 0.052672029
-0.27230221 -0.17677093 0.052684296
-0.27249801 -0.17672655 0.05273455
-0.27266297 -0.17668933 0.052775659
-0.27284166 -0.17666005 0.052739494
-0.27301228 -0.1766257 0.052751768
-0.27324447 -0.17659882 0.052623235
-0.27342585 -0.17656066 0.052648161
-0.27360505 -0.17652923 0.052626975
-0.27377617 -0.17650282 0.052580453
-0.27398065 -0.17646247 0.052589178
-0.27414948 -0.1764245 0.05263029
-0.27434337 -0.17639612 0.052566413
-0.2745094 -0.17636594 0.052554481
-0.2747156 -0.17632967 0.052530926
-0.27489227 -0.17629637 0.05252704
-0.27508265 -0.17626818 0.052466635
-0.27526933 -0.17623343 0.052459277
-0.27542618 -0.17620264 0.05246466
-0.27558228 -0.17619583 0.052295953
-0.27581313 -0.17613797 0.052395709
-0.2759788 -0.17610849 0.052379169
-0.27617261 -0.17607176 0.052376397
-0.27636662 -0.17603466 0.052375935
-0.27651504 -0.17600897 0.052355975
-0.27670383 -0.17596987 0.052377429
-0.27690044 -0.17593402 0.052364275
-0.27707508 -0.1759052 0.052330427
-0.27727425 -0.17587043 0.052305732
-0.27744883 -0.17583546 0.052316848
-0.27762115 -0.17579305 0.052385606
-0.27779299 -0.17577566 0.052272208
-0.27797893 -0.17574847 0.052210651
-0.27820429 -0.1757046 0.052215878
-0.27839136 -0.17566946 0.052210815
-0.27857497 -0.17563513 0.052204616
-0.27876073 -0.17560245 0.052183412
-0.27892825 -0.17557517 0.052148424
-0.27912384 -0.17553587 0.052161798
-0.27929142 -0.17551361 0.052089915
-0.27949217 -0.1754708 0.05212171
-0.27966589 -0.17543806 0.052117836
-0.27986354 -0.17540075 0.052113906
-0.28005165 -0.17536432 0.052116908
-0.28021455 -0.17533457 0.052106142
-0.2803854 -0.17529702 0.05214148
-0.28058615 -0.17526937 0.052062593
-0.28077415 -0.175238 0.052028708
-0.28096199 -0.17520681 0.051993668
-0.28113002 -0.17517389 0.051999032
-0.28132442 -0.17513278 0.052027389
-0.28150389 -0.17510524 0.051977377
-0.28169098 -0.17507073 0.051967707
-0.2818588 -0.17504275 0.051937327
-0.28204137 -0.17501052 0.051917292
-0.28226128 -0.17496312 0.051955972
-0.28242722 -0.1749336 0.051939428
-0.28261757 -0.17489894 0.051926292
-0.28279975 -0.17487152 0.051871665
-0.28298128 -0.17483681 0.051871225
-0.28317508 -0.17480148 0.051858082
-0.28336042 -0.17476574 0.051859941
-0.2835362 -0.17473496 0.051838767
-0.28372341 -0.17470847 0.0517703
-0.28390855 -0.17467308 0.051769853
-0.28409132 -0.17463323 0.051805157
-0.28428447 -0.17459899 0.051785085
-0.28444743 -0.17457351 0.051743194
-0.28463426 -0.17453621 0.051754277
-0.28482777 -0.17449795 0.051763035
-0.28500342 -0.17446388 0.051766068
-0.28520426 -0.17443827 0.051672205
-0.285393 -0.17440596 0.051644079
-0.28556889 -0.1743717 0.051648267
-0.28576049 -0.17433602 0.051640894
-0.2859489 -0.17429732 0.051660039
-0.28613684 -0.17426611 0.051624998
-0.28631118 -0.17423058 0.051640723
-0.28648052 -0.17421097 0.051546931
-0.28666362 -0.17417532 0.051551111
-0.28686583 -0.17413761 0.051543698
-0.28705588 -0.17409748 0.051570918
-0.28724346 -0.17406999 0.051509358
-0.28743505 -0.17402831 0.051545799
-0.28759971 -0.17399129 0.05158576
-0.28778815 -0.17397231 0.05146078
-0.2879768 -0.17394349 0.051407296
-0.28813618 -0.17391555 0.051388461
-0.28832823 -0.17386761 0.051469866
-0.28854606 -0.17381366 0.051559277
-0.28872317 -0.17379731 0.05143087
-0.28890148 -0.17376748 0.051399313
-0.28910154 -0.17372671 0.051417276
-0.28928077 -0.1736989 0.051369585
-0.28946272 -0.17367122 0.051317267
-0.28965738 -0.17363036 0.051343314
-0.28982857 -0.17360789 0.051267959
-0.29001361 -0.17356557 0.051318254
-0.29020843 -0.17353337 0.051280886
-0.29039928 -0.17349671 0.051281583
-0.29058361 -0.17346384 0.051263843
-0.29075891 -0.17343995 0.051193099
-0.29094276 -0.17340478 0.051192652
-0.29114899 -0.17335604 0.051260184
-0.29132643 -0.17332733 0.051221713
-0.29149532 -0.1733015 0.051174037
-0.29168952 -0.17326736 0.051151663
-0.29190668 -0.173214 0.05123762
-0.29208693 -0.17318538 0.05119453
-0.29226622 -0.17316025 0.051127225
-0.29244441 -0.17313091 0.051092207
-0.29262832 -0.17309622 0.051088303
-0.29280993 -0.17306119 0.051090173
-0.29302278 -0.17302033 0.051090822
-0.29320025 -0.17299177 0.051051192
-0.29339021 -0.17295182 0.051077262
-0.29354098 -0.17293498 0.05098927
-0.29373232 -0.17289886 0.050985355
-0.29394236 -0.17285097 0.05104135
-0.29413667 -0.17281729 0.051015519
-0.29431042 -0.17279211 0.050956294
-0.2944943 -0.17275317 0.05098353
-0.29466698 -0.17273135 0.050901257
-0.29486835 -0.17269395 0.050892696
-0.29507101 -0.17265552 0.050889906
-0.29523093 -0.17263283 0.050831877
-0.29542857 -0.17258242 0.050923642
-0.29563892 -0.17253999 0.050939281
-0.29581687 -0.1725044 0.050950389
-0.29600811 -0.1724806 0.050856531
-0.29618961 -0.1724467 0.050850336
-0.29636553 -0.17241748 0.050817631
-0.29654235 -0.17239203 0.050756101
-0.2967388 -0.17235477 0.050753325
-0.29692382 -0.17232256 0.050729819
-0.29712349 -0.17228723 0.050708588
-0.29731473 -0.1722434 0.050761163
-0.29750428 -0.17221205 0.050724968
-0.29767999 -0.17218319 0.050689958
-0.29787749 -0.17214763 0.050673347
-0.29806429 -0.17211206 0.050671745
-0.29824379 -0.17208026 0.050652869
-0.29842427 -0.17205413 0.050591327
-0.29860857 -0.17201857 0.05059319
-0.29881507 -0.17196773 0.050675716
-0.29899141 -0.1719449 0.050595731
-0.29917043 -0.17191367 0.050573397
-0.29937318 -0.17187442 0.050576374
-0.29958206 -0.17183465 0.050574712
-0.29976463 -0.17180905 0.05050626
-0.29993841 -0.17178197 0.050460868
-0.30012628 -0.17174415 0.05047426
-0.30032969 -0.17170069 0.05050721
-0.30051434 -0.17166349 0.050520599
-0.30069429 -0.17164391 0.050411787
-0.30089429 -0.17160125 0.050443597
-0.3010847 -0.17155996 0.050478883
-0.30128711 -0.17151967 0.050489925
-0.30146632 -0.17149472 0.050421469
-0.3016603 -0.17145494 0.050440609
-0.30185479 -0.17142265 0.050404403
-0.30203748 -0.17139325 0.050363608
-0.3022382 -0.17135644 0.050351594
-0.30241856 -0.17132685 0.050315421
-0.30260101 -0.17129385 0.050301146
-0.30280024 -0.1712545 0.050309896
-0.30298772 -0.17121802 0.050314061
-0.30317736 -0.17118381 0.05029862
-0.30336902 -0.17115569 0.050235897
-0.30357343 -0.17111108 0.050275765
-0.3037582 -0.17108048 0.050240733
-0.30394718 -0.17104325 0.050248351
-0.30415657 -0.17100462 0.050237473
-0.30433637 -0.17097214 0.050223205
-0.30452892 -0.17093991 0.050189301
-0.30472192 -0.17090017 0.050209593
-0.30490544 -0.17086886 0.050181482
-0.30510089 -0.17083654 0.050144121
-0.30528903 -0.17080215 0.050132141
-0.30548847 -0.17076716 0.050108604
-0.30567434 -0.17073794 0.050062042
-0.30587697 -0.17070439 0.050023504
-0.30607367 -0.17066789 0.050014969
-0.30622351 -0.17065077 0.049930435
-0.30643189 -0.17060649 0.049962226
-0.3066369 -0.17056115 0.050006699
-0.30684763 -0.17052417 0.049981982
-0.30703843 -0.17048673 0.049988437
-0.30719584 -0.17046121 0.049954627
-0.30740461 -0.17042398 0.049934521
-0.30759531 -0.1703902 0.049914468
-0.30779007 -0.17035548 0.049895551
-0.30797404 -0.17032284 0.049876664
-0.30815339 -0.17029154 0.049854331
-0.3083747 -0.17025143 0.049837656
-0.30858403 -0.17021251 0.049829088
-0.30877766 -0.17017549 0.049828626
-0.30895129 -0.1701497 0.049774021
-0.3091622 -0.17010339 0.049817327
-0.30935135 -0.17006943 0.049800728
-0.30952603 -0.17004471 0.049736902
-0.30973956 -0.17000672 0.049715638
-0.30994308 -0.16996543 0.049732443
-0.31012824 -0.16993256 0.049713552
-0.31033841 -0.16989048 0.049726885
-0.31052336 -0.16985306 0.049741421
-0.31071347 -0.16982366 0.049690239
-0.31091756 -0.16978557 0.049682837
-0.31108564 -0.16976038 0.049631704
-0.31129149 -0.16972135 0.049628902
-0.31150672 -0.16967972 0.049631841
-0.31169355 -0.16964936 0.049592197
-0.31188869 -0.16961394 0.049577888
-0.312087 -0.16957664 0.049572807
-0.31227672 -0.16953848 0.049586184
-0.31247583 -0.16950546 0.049548812
-0.31265217 -0.16948012 0.049487282
-0.31285027 -0.16944318 0.049479894
-0.31301457 -0.16941445 0.049459897
-0.31319571 -0.16938171 0.049445625
-0.31339672 -0.16935226 0.049379431
-0.21903346 -0.18955401 0.033830054
-0.21919262 -0.18951458 0.033895411
-0.21934184 -0.18947467 0.033978075
-0.21949187 -0.18943368 0.034067664
-0.21963513 -0.18939272 0.034166489
-0.21978243 -0.18935239 0.034254938
-0.21992505 -0.18931124 0.034356073
-0.22006726 -0.18926874 0.034467585
-0.22019941 -0.18922564 0.034597576
-0.22033176 -0.18918251 0.03472757
-0.22046852 -0.18913883 0.034855239
-0.22059955 -0.18909405 0.034999069
-0.22072408 -0.18904926 0.035152141
-0.22084384 -0.18900347 0.03531906
-0.22096056 -0.18895575 0.035504431
-0.22107722 -0.18890788 0.035690963
-0.22118592 -0.18885963 0.03589135
-0.2151705 -0.18707067 0.057381727
-0.21540612 -0.1870324 0.057331573
-0.21562153 -0.18699169 0.05732761
-0.21584111 -0.18695191 0.057310935
-0.21606888 -0.18691547 0.057258505
-0.21625921 -0.18687133 0.057314552
-0.21648255 -0.18683416 0.05727366
-0.21671806 -0.18679813 0.057207376
-0.21691701 -0.18675599 0.05723688
-0.21714184 -0.18671946 0.057189066
-0.2173544 -0.18668039 0.05717703
-0.2175737 -0.18664131 0.057155751
-0.21777701 -0.18660037 0.05717025
-0.21800198 -0.18656273 0.057130512
-0.21821901 -0.18652502 0.057102323
-0.21843134 -0.18648474 0.057099506
-0.21865205 -0.18644805 0.057058617
-0.21885721 -0.1864063 0.057076581
-0.21907111 -0.18636824 0.057055317
-0.21927622 -0.18632823 0.057060592
-0.21950819 -0.18629462 0.056981631
-0.219716 -0.18625377 0.0569892
-0.21991834 -0.18621334 0.057001404
-0.22013862 -0.18617564 0.056968596
-0.22035992 -0.18613997 0.056919634
-0.22056919 -0.1860998 0.05692029
-0.22073738 -0.1860629 0.056954484
-0.22098808 -0.18602143 0.056906603
-0.22116783 -0.18598248 0.056939617
-0.22137633 -0.18595588 0.056842253
-0.22160651 -0.18591297 0.05683364
-0.22181541 -0.18587318 0.056831993
-0.22204834 -0.1858397 0.056750707
-0.22224185 -0.1857978 0.056785997
-0.22247043 -0.18576688 0.056692049
-0.22266838 -0.18571767 0.056774609
-0.2228716 -0.18568023 0.056763746
-0.22309282 -0.18563904 0.056755148
-0.22330862 -0.18560693 0.056687742
-0.22352152 -0.18556717 0.056680314
-0.22372532 -0.18553025 0.056664843
-0.2239188 -0.18549231 0.056671303
-0.22411866 -0.18545267 0.056681201
-0.22435239 -0.18541555 0.056625299
-0.22457013 -0.18537582 0.056610942
-0.22476773 -0.18533756 0.05661393
-0.22499251 -0.18530184 0.056560349
-0.22519171 -0.18526059 0.056582935
-0.22540495 -0.18522897 0.056515548
-0.22560361 -0.18520047 0.056445882
-0.22582445 -0.18515129 0.056496099
-0.22602248 -0.18510996 0.056520991
-0.22621615 -0.18507655 0.056494009
-0.22643553 -0.18503445 0.056494642
-0.22665074 -0.18500419 0.056414567
-0.2268548 -0.18496312 0.056429062
-0.22705375 -0.1849205 0.056462035
-0.22726271 -0.18489806 0.056333534
-0.22743602 -0.18485309 0.056419604
-0.22766206 -0.18481934 0.056349885
-0.22786036 -0.1847863 0.056313667
-0.22809672 -0.18474475 0.056286573
-0.22827767 -0.18470621 0.056314979
-0.22850651 -0.1846604 0.056329418
-0.22870709 -0.18462268 0.056324333
-0.22892579 -0.18458922 0.056262691
-0.22912309 -0.1845545 0.056240309
-0.22933185 -0.18451789 0.056215599
-0.22953852 -0.1844787 0.056212794
-0.22974895 -0.18444288 0.056180015
-0.22996388 -0.18441078 0.056113772
-0.23015597 -0.18436868 0.056152523
-0.23035045 -0.18433149 0.056152049
-0.23055187 -0.18429282 0.056152727
-0.230754 -0.1842545 0.056149937
-0.23096643 -0.18422003 0.056104455
-0.23117161 -0.18418506 0.056072839
-0.23134474 -0.18414232 0.056142762
-0.23153502 -0.18412267 0.056020081
-0.23177351 -0.18407565 0.056029886
-0.23194458 -0.18404689 0.056000657
-0.23213583 -0.18401127 0.055993278
-0.23236482 -0.18399258 0.055809386
-0.2325711 -0.18393546 0.055938043
-0.23277505 -0.18389015 0.055983685
-0.23299123 -0.18385623 0.055928968
-0.23318827 -0.18381903 0.055925041
-0.23336343 -0.18378823 0.055905018
-0.2335763 -0.18374893 0.05589414
-0.23378927 -0.1837098 0.055882093
-0.23398992 -0.18367001 0.055892002
-0.23419815 -0.18363571 0.055851139
-0.23435093 -0.18359578 0.055929188
-0.23451348 -0.18356895 0.055897668
-0.23476452 -0.1835309 0.055824429
-0.23495103 -0.18349208 0.055847038
-0.23517075 -0.18345654 0.055799238
-0.2353438 -0.18341871 0.055833418
-0.23555332 -0.1833788 0.055831768
-0.23579754 -0.1833501 0.055699725
-0.23597969 -0.18331195 0.055723514
-0.23615535 -0.18327554 0.055743843
-0.23638707 -0.18324874 0.055615295
-0.23658653 -0.18319751 0.055710532
-0.23677394 -0.18317162 0.055637434
-0.23700441 -0.18313764 0.055563089
-0.2371904 -0.18309687 0.055600703
-0.23738855 -0.18305962 0.055595614
-0.23758279 -0.18302296 0.055591691
-0.23778552 -0.18298814 0.055562381
-0.23797634 -0.18294992 0.055574611
-0.23818104 -0.1829163 0.055533759
-0.23837928 -0.18288203 0.055506766
-0.23857224 -0.18284513 0.055506311
-0.23876399 -0.1828102 0.055493169
-0.23897415 -0.18277995 0.055420015
-0.23915707 -0.18274057 0.05545187
-0.23935683 -0.18269984 0.055469848
-0.2395637 -0.18267086 0.05539209
-0.23976061 -0.182634 0.055385854
-0.23994793 -0.18259455 0.055411931
-0.24015456 -0.18256325 0.055351481
-0.24032775 -0.18251862 0.05543524
-0.24053241 -0.18248643 0.055384014
-0.24072231 -0.18245406 0.055354733
-0.24088755 -0.1824294 0.055303607
-0.24108998 -0.18237981 0.055382684
-0.24130133 -0.18235487 0.055269182
-0.241501 -0.18231763 0.05526178
-0.24168405 -0.18228453 0.055247512
-0.24186188 -0.18225116 0.055242475
-0.24209781 -0.18220794 0.055228069
-0.24229585 -0.18217291 0.055206846
-0.24248599 -0.18213592 0.055211
-0.24268121 -0.18210223 0.055184018
-0.2428609 -0.1820734 0.05514323
-0.24302857 -0.18203391 0.05519703
-0.24325503 -0.1819941 0.055171113
-0.24346325 -0.18196642 0.055081829
-0.24364389 -0.18193267 0.055075634
-0.24383481 -0.18189065 0.055115536
-0.24404375 -0.18186095 0.055040084
-0.24423593 -0.1818261 0.055025794
-0.2444102 -0.18178821 0.055058815
-0.24461278 -0.18175137 0.055044495
-0.24480595 -0.18171427 0.055045184
-0.24499968 -0.18168086 0.055018205
-0.24518919 -0.18164447 0.055018906
-0.24539246 -0.18161507 0.054949235
-0.24557489 -0.18158349 0.054924585
-0.24577843 -0.18154474 0.05492295
-0.24597496 -0.1815141 0.054871742
-0.24613278 -0.18149087 0.054820627
-0.24634524 -0.18144237 0.054877773
-0.24654445 -0.18140395 0.054879609
-0.24673422 -0.18136846 0.054873392
-0.24691075 -0.18133281 0.054886803
-0.247107 -0.18129213 0.054909408
-0.24731058 -0.18126473 0.054824732
-0.24750154 -0.18123057 0.054806985
-0.24768652 -0.18118779 0.054860737
-0.24788244 -0.18115807 0.054803774
-0.24807476 -0.18112539 0.054773331
-0.24825278 -0.18108772 0.05479943
-0.24845956 -0.18105686 0.054735508
-0.24864678 -0.18101996 0.054743145
-0.24882975 -0.18099082 0.054700039
-0.24902757 -0.18095221 0.054705333
-0.249226 -0.18092215 0.054647204
-0.24940731 -0.1808919 0.054614477
-0.24960792 -0.18085228 0.054623228
-0.24979514 -0.18081585 0.054627392
-0.24998537 -0.18078248 0.05460503
-0.25016811 -0.18075417 0.054556169
-0.25036433 -0.18071033 0.054601822
-0.25055429 -0.18067701 0.054579459
-0.25074732 -0.18064705 0.054528262
-0.25091043 -0.18062028 0.054495588
-0.25112382 -0.180573 0.054542355
-0.25129893 -0.18054172 0.0545258
-0.25148687 -0.18050675 0.054518428
-0.25168872 -0.18046926 0.054509878
-0.25188705 -0.18044175 0.054433297
-0.25205857 -0.18039744 0.054517064
-0.252267 -0.18037273 0.054405868
-0.25244126 -0.18034114 0.054392774
-0.25264263 -0.18030374 0.054384217
-0.25282958 -0.18026832 0.054381464
-0.25301579 -0.18022703 0.054422535
-0.25319546 -0.18019757 0.054386359
-0.25339875 -0.18016295 0.054354735
-0.25358924 -0.18013254 0.054310471
-0.25377628 -0.18009771 0.054303098
-0.25396064 -0.1800593 0.054325726
-0.25412163 -0.180032 0.054299973
-0.25433731 -0.17998807 0.054319065
-0.2545256 -0.1799497 0.054335915
-0.25471485 -0.17991841 0.054299708
-0.25490248 -0.1798849 0.054281972
-0.25507903 -0.17985241 0.05427232
-0.25528476 -0.17982318 0.054198027
-0.25544253 -0.17977974 0.054294523
-0.25565106 -0.17974919 0.054225989
-0.25583485 -0.17971641 0.054208253
-0.25603306 -0.17968214 0.054181263
-0.25619403 -0.17966288 0.054096691
-0.2564151 -0.1796225 0.054082334
-0.2566019 -0.179589 0.054065738
-0.25676391 -0.17955896 0.054058433
-0.25697315 -0.17951816 0.0540637
-0.25716239 -0.17948246 0.054059796
-0.2573511 -0.17945316 0.054009754
-0.25753954 -0.17941618 0.054016225
-0.25772452 -0.17937987 0.054022707
-0.25789374 -0.17934199 0.054062665
-0.25809243 -0.17931868 0.053954944
-0.25828451 -0.17928985 0.053896829
-0.25847346 -0.17924629 0.053950582
-0.25865373 -0.17921655 0.05391556
-0.25885099 -0.17918342 0.053881645
-0.25900158 -0.17916283 0.053821322
-0.25921866 -0.17911549 0.053863473
-0.25940636 -0.17907754 0.053878013
-0.25959545 -0.17904313 0.053864878
-0.25976294 -0.17900999 0.053872555
-0.25993159 -0.17899005 0.053782206
-0.2601319 -0.1789467 0.053818636
-0.26032823 -0.17890206 0.053870056
-0.26046842 -0.17886358 0.053955056
-0.26068583 -0.17883842 0.05383461
-0.26088512 -0.17881437 0.053731501
-0.26108959 -0.17878458 0.053662982
-0.26125604 -0.1787488 0.053691413
-0.26145646 -0.17870544 0.053727839
-0.26163128 -0.17867358 0.053715885
-0.2618371 -0.17863676 0.053696949
-0.26200888 -0.17860737 0.053671166
-0.26220283 -0.17856635 0.053699534
-0.26236907 -0.17854434 0.053627644
-0.26255742 -0.17851023 0.053613354
-0.26274678 -0.17848128 0.053559862
-0.26294255 -0.17844984 0.053515576
-0.26312828 -0.17840281 0.053599313
-0.26330104 -0.17836125 0.053661168
-0.26347584 -0.17833099 0.053637695
-0.26365602 -0.17829055 0.053681083
-0.26384598 -0.17826827 0.053578001
-0.26403236 -0.1782473 0.053470314
-0.26425761 -0.1782044 0.053468622
-0.26444197 -0.17816994 0.053462416
-0.26462895 -0.17812739 0.053511556
-0.26480657 -0.1780947 0.053501911
-0.26498735 -0.1780584 0.05351416
-0.26517227 -0.17803109 0.053454917
-0.26535669 -0.17799819 0.053437177
-0.26555488 -0.17796582 0.05339634
-0.26573893 -0.17792763 0.053417817
-0.26590618 -0.17789754 0.053403582
-0.26609054 -0.17786844 0.053358164
-0.2662918 -0.17783171 0.053344999
-0.26646909 -0.1777948 0.053366493
-0.26664644 -0.17775159 0.0534341
-0.26680678 -0.17772692 0.053389907
-0.2670078 -0.17770158 0.053293712
-0.26722255 -0.17766178 0.053283971
-0.26740664 -0.17762737 0.053277768
-0.26759091 -0.17758867 0.053302702
-0.26777115 -0.17756225 0.053243458
-0.26796189 -0.17752831 0.053224556
-0.26813921 -0.17749345 0.053231057
-0.2683126 -0.17746566 0.053191435
-0.26850694 -0.17742771 0.053196728
-0.26869488 -0.17738768 0.053226274
-0.26887816 -0.17735989 0.053172793
-0.26904696 -0.17734072 0.053076673
-0.26924556 -0.17729516 0.053131551
-0.26942575 -0.17726387 0.053108066
-0.26960284 -0.17723081 0.053101871
-0.26977882 -0.17720473 0.0530461
-0.26998037 -0.1771632 0.053067528
-0.27017173 -0.17712361 0.053088985
-0.27035186 -0.177092 0.0530678
-0.27054808 -0.1770619 0.053013135
-0.27072623 -0.17702326 0.053046152
-0.27088654 -0.17699213 0.053049229
-0.27106106 -0.17697091 0.052960023
-0.27127886 -0.17693053 0.052950274
-0.27146575 -0.176897 0.052933685
-0.27164605 -0.17686364 0.052925184
-0.27183521 -0.17683378 0.052878603
-0.27200964 -0.17679806 0.05289549
-0.27218723 -0.17676285 0.0529043
-0.27238405 -0.1767282 0.052881919
-0.27256861 -0.17669134 0.052893009
-0.27274078 -0.17666395 0.052852239
-0.27292913 -0.17662525 0.052871387
-0.27313006 -0.17659788 0.052790187
-0.27330735 -0.17656381 0.052790921
-0.27347034 -0.17653455 0.052776698
-0.27365661 -0.17649293 0.052820072
-0.27385938 -0.17645921 0.052782692
-0.2740531 -0.17642407 0.052768387
-0.27421868 -0.17639636 0.052739169
-0.27441311 -0.17635918 0.052738708
-0.27459887 -0.17632824 0.052704822
-0.27477172 -0.17629787 0.052684806
-0.27493617 -0.17627273 0.052638289
-0.27514458 -0.1762321 0.052643556
-0.27531055 -0.17620304 0.052623559
-0.2754986 -0.17617372 0.052574683
-0.27570307 -0.17613509 0.052570734
-0.2758784 -0.17610599 0.052538026
-0.27604461 -0.17606205 0.052626424
-0.27621767 -0.17604506 0.052508384
-0.276402 -0.17600287 0.05255869
-0.27658996 -0.17596662 0.052560542
-0.2767866 -0.17592523 0.052587755
-0.27698347 -0.17588365 0.052616112
-0.27718955 -0.17585497 0.052537203
-0.27735242 -0.17581972 0.0525668
-0.27751875 -0.17577782 0.052640203
-0.27771142 -0.17579307 0.052259214
-0.27789545 -0.17576419 0.052212648
-0.27807394 -0.17572832 0.052224901
-0.27826121 -0.1756933 0.052218691
-0.27842554 -0.17567798 0.052100684
-0.27864036 -0.17562065 0.052218944
-0.27883166 -0.17557319 0.052298058
-0.2789993 -0.17554097 0.052298807
-0.27917022 -0.17550308 0.052336451
-0.27936402 -0.17547312 0.052284099
-0.27957812 -0.1754292 0.052305497
-0.2797496 -0.17540097 0.052271649
-0.27992716 -0.17536765 0.052266613
-0.28008631 -0.17533976 0.052247781
-0.28026327 -0.17530261 0.052271578
-0.28044972 -0.17526489 0.052286129
-0.28066653 -0.17522691 0.052260239
-0.28086302 -0.17519251 0.05223671
-0.28104308 -0.17516486 0.052186694
-0.28120312 -0.17514026 0.05214249
-0.28140277 -0.17510098 0.052150093
-0.28158611 -0.17506829 0.052132353
-0.2817696 -0.17503099 0.052148066
-0.28195131 -0.17499641 0.052146479
-0.28213871 -0.17496231 0.052133352
-0.28232101 -0.17493124 0.052105241
-0.28250033 -0.17490438 0.052050609
-0.282686 -0.17486855 0.052052479
-0.28287911 -0.17483069 0.052058939
-0.28304291 -0.17480473 0.052019332
-0.28323579 -0.17476328 0.052052319
-0.28342485 -0.17472713 0.052051865
-0.28361052 -0.17469557 0.052022595
-0.28378585 -0.17466994 0.051964525
-0.28397998 -0.17463107 0.05197674
-0.28413302 -0.17461523 0.051878363
-0.284338 -0.17457004 0.051921695
-0.28452438 -0.17453757 0.051898185
-0.28471196 -0.17450359 0.051883906
-0.28489518 -0.17446414 0.051915754
-0.28509426 -0.17442687 0.05190951
-0.28528392 -0.17439407 0.05188369
-0.28545454 -0.17436682 0.051844075
-0.2856473 -0.17433026 0.051841311
-0.28580579 -0.17430706 0.051789042
-0.28600413 -0.17426741 0.051801257
-0.28619987 -0.17423093 0.051793873
-0.28638741 -0.17420407 0.051727694
-0.28657517 -0.17417021 0.051712252
-0.28675273 -0.17413485 0.051722214
-0.28694782 -0.17409596 0.051733274
-0.28711766 -0.17406301 0.051736336
-0.28731492 -0.17402513 0.051737018
-0.28751644 -0.17398897 0.051719241
-0.2876853 -0.17395732 0.051714227
-0.28786838 -0.17393525 0.051619232
-0.28806233 -0.17389801 0.051619921
-0.28824261 -0.17386022 0.051643707
-0.2884216 -0.17382395 0.051658273
-0.28860027 -0.17380336 0.051558677
-0.28878316 -0.17376602 0.051575541
-0.28896636 -0.17372248 0.051637374
-0.28916523 -0.1736865 0.051621906
-0.28934661 -0.17366287 0.051540747
-0.2895318 -0.17363518 0.051483814
-0.28971297 -0.17359707 0.051508747
-0.28990653 -0.17356086 0.051502518
-0.29008836 -0.17352514 0.051509008
-0.29027379 -0.17349158 0.051494725
-0.29045311 -0.1734726 0.051382445
-0.29065794 -0.17342806 0.051421162
-0.29082882 -0.17339507 0.051423058
