# .PCD v0.7 - Point Cloud Data file format
VERSION 0.7
FIELDS x y z
SIZE 4 4 4
TYPE F F F
COUNT 1 1 1
WIDTH 1309
HEIGHT 1
VIEWPOINT 0 0 0 1 0 0 0
POINTS 1309
DATA ascii
-0.13642749 -0.49763164 0.05251313
-0.13661095 -0.49776593 0.05253626
-0.13672751 -0.4978722 0.052427161
-0.13691324 -0.49800721 0.052456059
-0.13706574 -0.49812457 0.05244131
-0.13724276 -0.49825299 0.052470259
-0.13738373 -0.49837026 0.052404836
-0.13754117 -0.49849057 0.052394681
-0.13766575 -0.49859899 0.052308593
-0.13782266 -0.49872068 0.05228807
-0.13801539 -0.49885234 0.052367669
-0.1381665 -0.49897686 0.052304495
-0.1383484 -0.49910429 0.052361086
-0.13849869 -0.49922723 0.05230369
-0.13866895 -0.49935153 0.05232691
-0.1388227 -0.49947551 0.052278712
-0.13896134 -0.49958947 0.052222535
-0.13912608 -0.49971664 0.052204262
-0.13930914 -0.4998506 0.052227397
-0.13946009 -0.49997246 0.052179225
-0.13959402 -0.50008792 0.052093085
-0.13978533 -0.5002203 0.052162312
-0.13996252 -0.50035006 0.05218434
-0.1401173 -0.50047457 0.052137285
-0.14025462 -0.50058699 0.052084576
-0.14042547 -0.50071776 0.05207203
-0.14060055 -0.50084299 0.052111369
-0.14076352 -0.50097293 0.052068889
-0.14091517 -0.50109535 0.052020706
-0.14108427 -0.50122172 0.052026629
-0.056806862 -0.43627939 0.060655616
-0.056980379 -0.43640691 0.060674205
-0.057170801 -0.43655875 0.060624622
-0.057360683 -0.43671271 0.060560055
-0.057523571 -0.43682092 0.06064561
-0.057708863 -0.43696791 0.060601838
-0.057893679 -0.43711433 0.060559206
-0.058060803 -0.43723238 0.060605519
-0.058253404 -0.43738896 0.060537465
-0.058434147 -0.43752939 0.06051217
-0.058606017 -0.43765551 0.060531922
-0.05878396 -0.43779168 0.060519334
-0.058975499 -0.43794748 0.060451292
-0.059147552 -0.43807432 0.060467571
-0.059340935 -0.43823367 0.060386829
-0.059504237 -0.43834627 0.060448162
-0.059703287 -0.43851849 0.060316626
-0.059873998 -0.43864372 0.060336381
-0.060057353 -0.43878728 0.06030415
-0.060239349 -0.43893179 0.060260385
-0.060420778 -0.43907255 0.060236245
-0.060593996 -0.43920261 0.060238678
-0.060764309 -0.4393248 0.06027459
-0.060934618 -0.43945011 0.060292035
-0.061109103 -0.43958271 0.06028524
-0.061300796 -0.43974507 0.060179129
-0.061485466 -0.43989256 0.060129587
-0.06166707 -0.44003814 0.060077745
-0.061837748 -0.44016179 0.060106732
-0.062002797 -0.44027886 0.060149591
-0.062167659 -0.44039243 0.060212065
-0.062351853 -0.44054329 0.060140606
-0.062530145 -0.44068402 0.060102634
-0.062718928 -0.44084361 0.060000002
-0.062885806 -0.44096127 0.060047463
-0.063066661 -0.44110724 0.059989866
-0.063239537 -0.44123587 0.059999228
-0.063414343 -0.44137144 0.05997628
-0.063590825 -0.44150689 0.05996139
-0.063763425 -0.44163883 0.059949979
-0.063943028 -0.44178036 0.059913162
-0.064109683 -0.44190174 0.059937552
-0.064291239 -0.4420473 0.059885725
-0.064467788 -0.44218728 0.0598443
-0.064627826 -0.44229332 0.059929878
-0.064820215 -0.44246325 0.059782226
-0.064995423 -0.44259796 0.059766192
-0.065157995 -0.44271255 0.059812531
-0.065330029 -0.44284153 0.059816126
-0.065506443 -0.44298258 0.059767786
-0.065686963 -0.44312814 0.059711352
-0.065876648 -0.44329524 0.059568331
-0.066027448 -0.44338414 0.059713945
-0.066198081 -0.443515 0.059700243
-0.066372514 -0.44364968 0.059680752
-0.066541374 -0.44377744 0.059677452
-0.066719823 -0.44392043 0.059626788
-0.066887572 -0.44404638 0.059629261
-0.067066386 -0.44419062 0.059572823
-0.067238234 -0.44432512 0.059542976
-0.067411445 -0.44445869 0.059524644
-0.067572266 -0.44457138 0.059574448
-0.067741968 -0.44470212 0.059557289
-0.06791003 -0.44483769 0.059504386
-0.068088308 -0.44497037 0.059513718
-0.068261266 -0.44510844 0.059467696
-0.068442121 -0.44525912 0.05938242
-0.068605639 -0.44537815 0.059406832
-0.068777129 -0.44550985 0.059391968
-0.068940438 -0.44563282 0.059392158
-0.069111772 -0.44577301 0.059326544
-0.069264062 -0.4458771 0.059389092
-0.069451548 -0.44603533 0.059288777
-0.069618903 -0.44616351 0.059276249
-0.069769576 -0.44627303 0.059299584
-0.069942504 -0.44640052 0.059315857
-0.070133857 -0.44655541 0.059252437
-0.070293635 -0.44668552 0.059194963
-0.070465997 -0.44681686 0.05918587
-0.070647307 -0.446964 0.05912365
-0.070788465 -0.44706672 0.059144739
-0.070964426 -0.447193 0.059181765
-0.071142644 -0.44733387 0.059142645
-0.071315318 -0.44747174 0.059096627
-0.071459666 -0.44758236 0.059085388
-0.071636371 -0.44771096 0.059112035
-0.071803153 -0.447826 0.0591745
-0.071975686 -0.44797429 0.059066191
-0.072145626 -0.44810209 0.059067488
-0.072301984 -0.44822744 0.059022728
-0.072454646 -0.44834414 0.059012599
-0.072620511 -0.44846767 0.05902084
-0.072792366 -0.4486061 0.058967918
-0.07297384 -0.44874784 0.058937997
-0.073131487 -0.44886735 0.058933608
-0.073289387 -0.4489876 0.058925748
-0.073462382 -0.44911945 0.058916651
-0.073625654 -0.44924298 0.05891338
-0.073815733 -0.44939184 0.058879949
-0.07396327 -0.44950271 0.058881391
-0.07413847 -0.44964132 0.058842279
-0.074289121 -0.44975513 0.058840245
-0.074449569 -0.44988376 0.058794297
-0.074631661 -0.45001855 0.058808215
-0.074798875 -0.45016032 0.058714937
-0.074944966 -0.45026857 0.058725618
-0.075116366 -0.45038649 0.058791511
-0.075293973 -0.45052788 0.058746628
-0.075451821 -0.45066357 0.058647633
-0.075626567 -0.45079768 0.058632754
-0.075770929 -0.45091459 0.058584601
-0.075926639 -0.4510197 0.058656357
-0.076095268 -0.45114964 0.058639206
-0.076268591 -0.45128721 0.058597803
-0.07642664 -0.45141286 0.058558799
-0.07658878 -0.45152399 0.058623597
-0.076753825 -0.45165786 0.058567256
-0.076935798 -0.4517957 0.058562715
-0.077073619 -0.45189458 0.058591895
-0.077256523 -0.45205033 0.058485832
-0.077414475 -0.45217043 0.05847913
-0.077566713 -0.45228702 0.058467846
-0.077733546 -0.45241421 0.058458783
-0.077920206 -0.4525542 0.058462296
-0.078060202 -0.45267701 0.058359947
-0.07821282 -0.4527882 0.05838212
-0.078376047 -0.45290408 0.058423832
-0.078547582 -0.45303285 0.058426283
-0.078705639 -0.4531638 0.058356129
-0.078858934 -0.45327806 0.058363296
-0.07902661 -0.45340219 0.058376148
-0.079203211 -0.45354223 0.058334731
-0.079359487 -0.4536685 0.058284197
-0.079508997 -0.45378751 0.058246396
-0.079670392 -0.45390689 0.058259286
-0.079849176 -0.45403862 0.058276683
-0.080008425 -0.45415932 0.058272287
-0.080164239 -0.45427606 0.058275968
-0.080324799 -0.4544028 0.058241572
-0.080491364 -0.45454544 0.058140218
-0.080652073 -0.45466354 0.058157735
-0.080826014 -0.45479727 0.058141697
-0.080978334 -0.45492211 0.05808197
-0.081128649 -0.45503843 0.058063775
-0.081301294 -0.45516747 0.058069676
-0.081463106 -0.45529225 0.058052566
-0.081619278 -0.45541415 0.058027413
-0.081780151 -0.45553508 0.058028769
-0.081925988 -0.45564312 0.058039442
-0.082093492 -0.45577317 0.058016535
-0.082257792 -0.45590004 0.057998255
-0.082412928 -0.4560186 0.057988111
-0.082570769 -0.45615309 0.057896048
-0.082729042 -0.45627639 0.057872038
-0.082895175 -0.4564015 0.05787221
-0.083039269 -0.4565174 0.057828669
-0.083202355 -0.45664039 0.057827711
-0.083365537 -0.45676446 0.057820976
-0.083528012 -0.45688406 0.057837315
-0.083677314 -0.45700273 0.057800673
-0.08385209 -0.4571369 0.057785794
-0.084006511 -0.45725632 0.057767574
-0.084148876 -0.45736408 0.057764426
-0.084311992 -0.45749122 0.057739235
-0.084472775 -0.4575986 0.05782019
-0.084640354 -0.45774338 0.057710759
-0.084795401 -0.45784682 0.057789441
-0.084965281 -0.45799136 0.057691537
-0.085118011 -0.45809853 0.057737932
-0.08527308 -0.45823231 0.057637803
-0.085423522 -0.45834559 0.057638068
-0.085590906 -0.45846695 0.057665914
-0.085744172 -0.45858234 0.05766616
-0.085892975 -0.45871451 0.05754761
-0.086054444 -0.4588322 0.057570882
-0.086210459 -0.45895144 0.057560734
-0.086369835 -0.45908454 0.057483651
-0.086542547 -0.45920718 0.057527617
-0.086680934 -0.45931038 0.057533722
-0.086836919 -0.45943838 0.057471663
-0.08700107 -0.45955887 0.057490297
-0.087156713 -0.45968252 0.057452459
-0.087314978 -0.45979485 0.057493061
-0.087464742 -0.45992228 0.057406805
-0.087631583 -0.46004206 0.057441574
-0.087775335 -0.46015692 0.057402655
-0.087930635 -0.46026936 0.057429422
-0.088094279 -0.46040159 0.057376549
-0.08825241 -0.46051559 0.057406757
-0.088401303 -0.46064177 0.05732397
-0.088564485 -0.46077481 0.057264175
-0.088716447 -0.4608902 0.057258658
-0.088882864 -0.46101317 0.057272673
-0.089034818 -0.46112719 0.057275236
-0.089189157 -0.46125007 0.057236247
-0.08936657 -0.4613862 0.057221353
-0.089517981 -0.46150473 0.057195079
-0.089655071 -0.46161163 0.057173502
-0.089806579 -0.46172726 0.057164527
-0.089959949 -0.4618541 0.057097875
-0.090115972 -0.46195534 0.057193849
-0.090274647 -0.46208832 0.057114463
-0.09043204 -0.46220487 0.057126224
-0.090603195 -0.46233591 0.057113677
-0.090747327 -0.46243408 0.057175115
-0.090897143 -0.46255881 0.05710502
-0.09105134 -0.46269503 0.056986436
-0.091209002 -0.46280828 0.057018958
-0.091373928 -0.4629356 0.057000678
-0.091516331 -0.46304381 0.05699522
-0.091675788 -0.46316484 0.056989659
-0.091825493 -0.46328539 0.056943789
-0.091990337 -0.46341148 0.056932427
-0.092137039 -0.46351391 0.056980014
-0.092294678 -0.46362734 0.057011381
-0.09244138 -0.46377394 0.056798246
-0.092604473 -0.46389169 0.056828428
-0.092760369 -0.4640114 0.05681482
-0.092906766 -0.46412829 0.056775887
-0.093063362 -0.46423191 0.056860328
-0.093219712 -0.46434966 0.056860559
-0.093371324 -0.46447182 0.056813512
-0.093531907 -0.4645865 0.056850631
-0.093681186 -0.46470416 0.056819752
-0.093828537 -0.46483895 0.056679297
-0.093999408 -0.46495414 0.056759033
-0.094142802 -0.46506718 0.05672935
-0.094300404 -0.46519053 0.05670188
-0.094453827 -0.46529493 0.056767881
-0.094606981 -0.46543038 0.056649312
-0.094767123 -0.46554607 0.056678351
-0.094915509 -0.46566406 0.056641717
-0.095061265 -0.46576968 0.056666229
-0.095220007 -0.46589822 0.056613386
-0.095385328 -0.46602836 0.056580111
-0.095542118 -0.4661431 0.056599937
-0.095675476 -0.46625131 0.056554161
-0.095834166 -0.46637022 0.056557838
-0.095994212 -0.46649444 0.056536123
-0.096140817 -0.46659818 0.056575634
-0.096294947 -0.46673456 0.056455903
-0.096455 -0.46684238 0.05653109
-0.096599281 -0.46694317 0.056577533
-0.096737713 -0.46707088 0.056439444
-0.096901186 -0.46719512 0.056432702
-0.097059935 -0.46732074 0.056397155
-0.09721645 -0.46743566 0.056414686
-0.097369775 -0.46754915 0.056426473
-0.097520061 -0.46766093 0.05643481
-0.097661287 -0.46779501 0.056271322
-0.097815916 -0.46791282 0.05626348
-0.097972624 -0.46802047 0.056324851
-0.098122373 -0.46813947 0.056288198
-0.098283455 -0.46826017 0.05629186
-0.098432042 -0.46838063 0.056241371
-0.098601662 -0.46850115 0.056284204
-0.098741598 -0.468584 0.056417197
-0.098904051 -0.46873996 0.056218974
-0.099044487 -0.46884081 0.05624814
-0.099194176 -0.46894705 0.056286469
-0.099351369 -0.46908477 0.05617249
-0.099524871 -0.46921799 0.056157619
-0.09966325 -0.46932158 0.056161411
-0.099802203 -0.46941307 0.056239039
-0.099935293 -0.46954593 0.056046758
-0.10010707 -0.46966413 0.056112647
-0.10026202 -0.4697808 0.056112885
-0.10042564 -0.46989816 0.056147676
-0.10055728 -0.47001484 0.056044225
-0.10071862 -0.47014004 0.056022502
-0.10087717 -0.47024733 0.056094244
-0.10101407 -0.47036797 0.055990763
-0.10116813 -0.47048533 0.055982925
-0.1013212 -0.4706037 0.055964727
-0.10146672 -0.47070977 0.055985779
-0.10161839 -0.47082454 0.055982579
-0.10175882 -0.47094551 0.055892918
-0.10191187 -0.47105879 0.055904698
-0.10206144 -0.47117063 0.055909589
-0.10220326 -0.47128972 0.055837218
-0.10237552 -0.4714089 0.05589965
-0.10252288 -0.47152278 0.055882629
-0.10266505 -0.47164115 0.055816032
-0.10281783 -0.47176379 0.055771288
-0.10296588 -0.47187683 0.055762336
-0.10311736 -0.47198698 0.055785667
-0.10327403 -0.47210181 0.055804357
-0.10342215 -0.4722192 0.055770021
-0.10357621 -0.47234049 0.055739112
-0.10371895 -0.47246182 0.055657521
-0.10387395 -0.47257367 0.055686601
-0.10402564 -0.47268805 0.055685695
-0.10417935 -0.47280517 0.055677872
-0.10433172 -0.47292322 0.055658512
-0.10448086 -0.47303942 0.055635706
-0.10463385 -0.47315696 0.055622116
-0.10479429 -0.47327346 0.055647701
-0.10494217 -0.47338247 0.05566182
-0.10508531 -0.47350645 0.055566374
-0.10524104 -0.47362605 0.055552766
-0.10539795 -0.47373328 0.055617597
-0.10555279 -0.47386119 0.055550922
-0.10569519 -0.47396976 0.055543154
-0.10584237 -0.4740755 0.05557343
-0.10597625 -0.47420034 0.055431906
-0.10614486 -0.47431615 0.055497818
-0.10629448 -0.47442803 0.055502694
-0.10643971 -0.47454968 0.055430315
-0.10658848 -0.47465837 0.055450201
-0.10675088 -0.47475994 0.055572674
-0.10688408 -0.47489128 0.05538962
-0.10703686 -0.47500867 0.055376019
-0.10717653 -0.47512555 0.055307135
-0.10731372 -0.47524348 0.055220954
-0.1074728 -0.47536114 0.055233859
-0.10762304 -0.47547269 0.055243354
-0.10778912 -0.47559404 0.055265438
-0.10795356 -0.47570947 0.055315223
-0.1081002 -0.47581947 0.055317819
-0.10824637 -0.47593305 0.055297345
-0.10839037 -0.47605085 0.05524227
-0.10854761 -0.47616631 0.055259801
-0.10870203 -0.47627321 0.055315405
-0.10885912 -0.47641161 0.055196818
-0.10900759 -0.47652417 0.055192471
-0.10914403 -0.47663179 0.05516398
-0.1092851 -0.47675031 0.055091627
-0.10945749 -0.4768635 0.055189814
-0.10961097 -0.47698689 0.055143919
-0.10980196 -0.47708148 0.055434648
-0.10991536 -0.47722507 0.055091355
-0.11005581 -0.47733122 0.055089369
-0.11020528 -0.47744355 0.0550908
-0.11036313 -0.47755927 0.055109471
-0.11050996 -0.47768155 0.055040546
-0.11066934 -0.47779688 0.055068437
-0.11079945 -0.47791514 0.054948844
-0.11096802 -0.47803369 0.054998606
-0.1111069 -0.47814626 0.054951645
-0.11126228 -0.47826287 0.054954182
-0.11140394 -0.4783746 0.054924507
-0.11155567 -0.47849509 0.054887842
-0.11169426 -0.4786047 0.054857034
-0.11185445 -0.47872299 0.054871082
-0.11200772 -0.4788374 0.054877091
-0.11216746 -0.47895592 0.05488769
-0.11232114 -0.47907594 0.054862555
-0.11246853 -0.47918907 0.054850146
-0.11259756 -0.47930908 0.054715563
-0.11276741 -0.47942543 0.054783776
-0.11291602 -0.47953829 0.054778282
-0.11307149 -0.47965792 0.054763515
-0.11320837 -0.47977856 0.054660037
-0.11335304 -0.47989216 0.054632653
-0.11352268 -0.47999841 0.054759689
-0.11367071 -0.48011416 0.054734588
-0.11382566 -0.48023397 0.054716375
-0.11398454 -0.48035046 0.054735042
-0.11413477 -0.48047629 0.05466032
-0.11427479 -0.48058817 0.054622576
-0.11441849 -0.48070455 0.05457443
-0.11457058 -0.48082221 0.054556236
-0.11472376 -0.48093969 0.054543793
-0.11487654 -0.48105726 0.054529041
-0.11503509 -0.48116904 0.05457424
-0.11517678 -0.48128313 0.054530725
-0.11531281 -0.4814004 0.0544434
-0.11547834 -0.48151645 0.054494329
-0.11562648 -0.48162973 0.054484226
-0.11579421 -0.48175311 0.05450169
-0.11594208 -0.48186895 0.054475438
-0.11608872 -0.48198247 0.054457262
-0.11624164 -0.4820978 0.054456364
-0.11639942 -0.48221993 0.054436974
-0.11653428 -0.48233455 0.05436004
-0.11668046 -0.48244813 0.054339554
-0.11684453 -0.4825674 0.054365121
-0.11699151 -0.48268569 0.054320414
-0.11715765 -0.48280257 0.05436904
-0.11731485 -0.48292485 0.054346181
-0.1174502 -0.48303691 0.054286554
-0.11758856 -0.48315105 0.054228056
-0.1177609 -0.48327476 0.054263953
-0.11790279 -0.48339099 0.054208897
-0.1180484 -0.48350471 0.054184958
-0.11820471 -0.48362026 0.054197878
-0.11836915 -0.48373783 0.054234974
-0.11851472 -0.48385838 0.054170661
-0.1186727 -0.48397851 0.054163963
-0.11883089 -0.48409644 0.0541711
-0.11898927 -0.48421004 0.054204769
-0.11913428 -0.48433056 0.054138154
-0.1192784 -0.48444882 0.054080773
-0.11942343 -0.4845627 0.054053389
-0.11958571 -0.48467866 0.054090496
-0.11975204 -0.48480332 0.054094128
-0.11989224 -0.48491943 0.054032158
-0.12004382 -0.48503983 0.053995494
-0.1201971 -0.48515171 0.054016504
-0.12034697 -0.48526788 0.053997159
-0.12049119 -0.48538819 0.053928249
-0.12064406 -0.4855023 0.053934261
-0.12081653 -0.48562321 0.053987466
-0.12097631 -0.48574391 0.053985365
-0.1211237 -0.48586017 0.053954497
-0.12127925 -0.48598081 0.053933971
-0.12143279 -0.48609522 0.053941138
-0.12157119 -0.48621526 0.053848028
-0.12172012 -0.48632956 0.053835612
-0.12187731 -0.48644829 0.053833526
-0.12202403 -0.48656657 0.053787671
-0.1221581 -0.48668218 0.053701509
-0.12233468 -0.48680207 0.053778902
-0.12249941 -0.4869214 0.053806774
-0.12264 -0.48703939 0.053735573
-0.12279356 -0.48715812 0.05371736
-0.12295998 -0.48727778 0.053750981
-0.12311368 -0.48739663 0.053732764
-0.12326828 -0.4875156 0.053718016
-0.12341251 -0.4876357 0.053650253
-0.12356254 -0.48775238 0.053628601
-0.12372222 -0.48786989 0.053644963
-0.12387376 -0.48798868 0.05361753
-0.12403151 -0.48810807 0.053614289
-0.12418815 -0.48822737 0.053606436
-0.12432805 -0.48834324 0.053544469
-0.12449034 -0.48846507 0.053546965
-0.12465252 -0.48858503 0.053559851
-0.1248052 -0.48870412 0.053535879
-0.12494858 -0.48882222 0.053476192
-0.12511432 -0.48894274 0.053501751
-0.12525801 -0.48905715 0.053465135
-0.1254026 -0.48917541 0.053410061
-0.12556739 -0.48929599 0.053431001
-0.12571909 -0.48941508 0.053402416
-0.12588225 -0.4895356 0.053416457
-0.1260092 -0.48965168 0.053295724
-0.1261892 -0.48977259 0.053382337
-0.12632386 -0.48988962 0.053290401
-0.12648733 -0.49001035 0.05330443
-0.12666292 -0.49013281 0.053362228
-0.12681784 -0.49025258 0.053344008
-0.12696005 -0.4903706 0.053279717
-0.12711243 -0.49048826 0.05326267
-0.1272652 -0.4906078 0.05323638
-0.1274325 -0.49072772 0.053272307
-0.12758541 -0.49084735 0.053246025
-0.127727 -0.49096531 0.053179428
-0.12789561 -0.49108738 0.053208426
-0.12804313 -0.4912045 0.053172946
-0.12821922 -0.49132794 0.053227276
-0.12837568 -0.49145004 0.053202122
-0.12852365 -0.49156907 0.053157419
-0.12869132 -0.49168968 0.053191032
-0.12884305 -0.4918094 0.053158991
-0.12899281 -0.49192879 0.053120025
-0.12913492 -0.49204516 0.053064968
-0.12930226 -0.49216768 0.053085901
-0.12943347 -0.49228385 0.052983604
-0.12961833 -0.49240959 0.053063262
-0.12977594 -0.49252886 0.053060025
-0.12993282 -0.4926497 0.053044099
-0.13008082 -0.49276894 0.052998237
-0.13024265 -0.49289081 0.052998424
-0.13038673 -0.49300769 0.052949123
-0.13053931 -0.49312785 0.052918226
-0.13069634 -0.49324727 0.052911531
-0.13085711 -0.49336913 0.052907124
-0.13102725 -0.49349451 0.052923411
-0.13117082 -0.4936114 0.052871805
-0.13131875 -0.49373078 0.052824795
-0.13148296 -0.4938519 0.052839968
-0.13164786 -0.49397647 0.052837837
-0.13178775 -0.49409586 0.05275511
-0.13196474 -0.49422467 0.05278175
-0.13212763 -0.49434575 0.05279116
-0.13226238 -0.49446088 0.052710764
-0.1324455 -0.49458805 0.052774288
-0.13257071 -0.49469951 0.05267318
-0.13272488 -0.49482203 0.052635357
-0.13290116 -0.49494952 0.052666612
-0.13306253 -0.49507532 0.052641433
-0.13323209 -0.49519831 0.052669264
-0.13340741 -0.49532741 0.052686684
-0.13355456 -0.49544546 0.052644286
-0.133692 -0.49556124 0.052571956
-0.13385358 -0.49567646 0.052610215
-0.13400233 -0.49579647 0.052563198
-0.13416894 -0.4959192 0.052579518
-0.13432951 -0.49604362 0.052558951
-0.13448013 -0.49615958 0.052544214
-0.13466141 -0.49629217 0.05256737
-0.13480172 -0.49640876 0.05250309
-0.13497159 -0.49653417 0.052518241
-0.13511971 -0.49665269 0.052476987
-0.13525997 -0.49677083 0.05240348
-0.13544978 -0.4969044 0.052458882
-0.13556641 -0.49701056 0.052350901
-0.13576636 -0.49715137 0.052408557
-0.13593864 -0.4972733 0.052454837
-0.13607992 -0.49739179 0.052383631
-0.13622662 -0.4975087 0.052345846
-0.13637939 -0.49763018 0.052308027
-0.13654178 -0.49775422 0.052297838
-0.13672173 -0.4978874 0.052311771
-0.13686831 -0.49800441 0.052272834
-0.13702661 -0.49813044 0.052232675
-0.13717878 -0.49824461 0.052235238
-0.13732696 -0.49836069 0.052208982
-0.13748801 -0.49848178 0.052210338
-0.13762455 -0.49859473 0.052150689
-0.13781731 -0.49872467 0.052240688
-0.1379648 -0.49884939 0.052160218
-0.13815193 -0.49898231 0.052207559
-0.13828515 -0.49909589 0.052129481
-0.138458 -0.49922353 0.052144606
-0.13861912 -0.49934506 0.052143656
-0.13874626 -0.49945834 0.052040234
-0.13892703 -0.49958843 0.052076083
-0.13908681 -0.49971539 0.05203706
-0.13925247 -0.49984267 0.052022245
-0.13942577 -0.49997085 0.052036215
-0.13958958 -0.50009066 0.052057162
-0.13970868 -0.50020164 0.051931866
-0.13988671 -0.50033277 0.05194927
-0.14006372 -0.5004651 0.051955145
-0.14021048 -0.50058007 0.0519289
-0.14036091 -0.50070041 0.051887631
-0.14052142 -0.50082654 0.051856689
-0.14070795 -0.50095648 0.051919032
-0.14087752 -0.50108826 0.051894955
-0.14101958 -0.50120485 0.051838744
-0.056266226 -0.43589225 0.06053707
-0.056442816 -0.43602172 0.060557932
-0.056639981 -0.43618646 0.060462136
-0.056810752 -0.43630707 0.060509574
-0.057004482 -0.43646687 0.060427651
-0.057218622 -0.43665949 0.060242914
-0.05739202 -0.43678752 0.060258023
-0.057539742 -0.43687177 0.060417529
-0.057730723 -0.43702811 0.06034369
-0.057913456 -0.43716869 0.06032645
-0.0580968 -0.43731323 0.060288429
-0.05827865 -0.43745273 0.060273483
-0.058438253 -0.43755904 0.060355611
-0.058613237 -0.43769041 0.060358033
-0.058799788 -0.43784091 0.060299218
-0.058989294 -0.43799362 0.060240392
-0.05917329 -0.43814042 0.060191974
-0.059364166 -0.4382959 0.060122762
-0.059553422 -0.43845195 0.060043175
-0.059697773 -0.4385305 0.060221151
-0.059873454 -0.4386642 0.060213178
-0.060067426 -0.43882576 0.060122021
-0.06024456 -0.43896228 0.060103647
-0.060413979 -0.43908596 0.060126863
-0.060598254 -0.43923491 0.060066916
-0.060784422 -0.43938434 0.060012728
-0.060966276 -0.43952972 0.059963174
-0.061135203 -0.43965009 0.060003705
-0.061310373 -0.43978435 0.059989974
-0.061488364 -0.43992054 0.059977364
-0.061668772 -0.44006425 0.059931278
-0.061823975 -0.44016117 0.060049202
-0.062005844 -0.44030774 0.059992731
-0.062192574 -0.44045991 0.059924684
-0.062360875 -0.44058314 0.059945606
-0.062547304 -0.44073528 0.05987642
-0.062720299 -0.44086713 0.0598673
-0.062897496 -0.44100666 0.059831627
-0.063065603 -0.4411301 0.059850238
-0.063247845 -0.44127578 0.059800684
-0.063425183 -0.4414162 0.059760384
-0.063603416 -0.44155511 0.059732787
-0.063769296 -0.44167516 0.059761792
-0.06394428 -0.44180849 0.059752673
-0.064123005 -0.44195229 0.05969853
-0.06430193 -0.44209331 0.059661686
-0.064468928 -0.44221595 0.059680302
-0.06465137 -0.44236392 0.059618056
-0.06482178 -0.44249323 0.059612419
-0.064990669 -0.44261631 0.059636798
-0.065169141 -0.44276109 0.059575725
-0.065335542 -0.44287974 0.059615117
-0.065512225 -0.4430216 0.059563287
-0.065681569 -0.44314972 0.059559967
-0.065847084 -0.44327065 0.059582055
-0.066027798 -0.44341731 0.05951982
-0.066205293 -0.44356173 0.059456453
-0.066370718 -0.44367927 0.05949815
-0.066537723 -0.44380367 0.059506387
-0.0667153 -0.44394523 0.05946032
-0.066887781 -0.4440808 0.059426986
-0.06705825 -0.4442088 0.059429422
-0.067226768 -0.44433689 0.059422649
-0.067403242 -0.44447723 0.0593789
-0.067577928 -0.44461817 0.059323631
-0.067751646 -0.4447535 0.059297197
-0.06791281 -0.44486743 0.059341237
-0.068081573 -0.44499296 0.059350602
-0.068257153 -0.44513673 0.059282638
-0.068436742 -0.44528508 0.059205409
-0.068599001 -0.44540179 0.059237897
-0.068769984 -0.44553271 0.059225336
-0.068939611 -0.44566515 0.059197791
-0.069109283 -0.44579372 0.059193313
-0.069273204 -0.44591442 0.059209637
-0.069447555 -0.44605336 0.059164748
-0.069618911 -0.44619042 0.059117567
-0.069782786 -0.44630715 0.059156962
-0.069927782 -0.44642219 0.059122641
-0.070089199 -0.44654256 0.059129752
-0.070262223 -0.44667092 0.059141412
-0.070423596 -0.44679147 0.059147365
-0.070602879 -0.44693413 0.059102446
-0.070792221 -0.44709063 0.059020549
-0.070965558 -0.44722977 0.0589699
-0.071128488 -0.44734541 0.059011608
-0.071295157 -0.44747445 0.058991
-0.07146398 -0.44760394 0.058977295
-0.071605422 -0.44771296 0.058962598
-0.071775451 -0.4478457 0.05893505
-0.071947753 -0.44797918 0.058913246
-0.072101563 -0.44809851 0.058892719
-0.072262503 -0.44822517 0.0588606
-0.072454751 -0.44837743 0.058816757
-0.072607428 -0.44848964 0.058833148
-0.072776407 -0.44862139 0.058806755
-0.072953917 -0.44875371 0.05881492
-0.073112532 -0.4488759 0.058798976
-0.073283277 -0.44901818 0.058718339
-0.073438883 -0.44912791 0.058762401
-0.073618136 -0.44927093 0.058715176
-0.07376729 -0.4493807 0.058730438
-0.073934264 -0.44951463 0.058682136
-0.074098848 -0.44964269 0.058658075
-0.074266694 -0.44977397 0.058629375
-0.074442327 -0.44990331 0.058646783
-0.074591056 -0.45001274 0.058662049
-0.074758425 -0.45014936 0.0585999
-0.074913085 -0.45026347 0.058613971
-0.075103566 -0.45041651 0.058557447
-0.075265519 -0.45054531 0.058517244
-0.075417317 -0.450652 0.058562491
-0.075582571 -0.4507907 0.058478426
-0.075735092 -0.45089969 0.058513287
-0.075902998 -0.45102769 0.058504201
-0.076072894 -0.45115525 0.058506653
-0.076231852 -0.45129019 0.058416851
-0.076382741 -0.45139483 0.058470175
-0.076542214 -0.45151863 0.058448456
-0.076717526 -0.45166376 0.058371253
-0.076877519 -0.45178992 0.058337986
-0.077033184 -0.45190281 0.058363594
-0.077208348 -0.45204177 0.058322161
-0.07736139 -0.45215386 0.058340862
-0.077517226 -0.45227513 0.058318004
-0.077678427 -0.45239183 0.058345884
-0.077845827 -0.45253685 0.058234114
-0.078005299 -0.45265597 0.058240086
-0.078162283 -0.45276675 0.058284145
-0.078331195 -0.45289472 0.058279671
-0.0785181 -0.45304549 0.058220867
-0.078669608 -0.4531703 0.058157653
-0.078849509 -0.45330542 0.058160037
-0.078991085 -0.453412 0.058160342
-0.079132028 -0.45351633 0.058171041
-0.079321899 -0.45366308 0.058149137
-0.079476513 -0.45378399 0.058122825
-0.079635687 -0.45391384 0.058064174
-0.079800278 -0.45403737 0.058066659
-0.079953924 -0.45415562 0.058051892
-0.080112137 -0.45427319 0.058061332
-0.080271423 -0.45439547 0.058047682
-0.080425315 -0.45451564 0.058022536
-0.080579132 -0.45463598 0.057996228
-0.080738865 -0.45476133 0.05796643
-0.080912903 -0.45489672 0.057941154
-0.081057906 -0.4550004 0.05797375
-0.081211999 -0.45512366 0.057931282
-0.081373699 -0.45524856 0.057913009
-0.08152426 -0.45535567 0.057950184
-0.081685424 -0.45549092 0.057868455
-0.081855118 -0.45561987 0.057861675
-0.082018048 -0.45575315 0.057799544
-0.082175076 -0.45586902 0.0578136
-0.082329169 -0.45598271 0.057827681
-0.082481503 -0.45610091 0.057807155
-0.08264228 -0.45622453 0.057792351
-0.082811281 -0.45636746 0.05770018
-0.082958885 -0.45647427 0.057725832
-0.083117299 -0.45660099 0.057682201
-0.083276659 -0.45671788 0.057700861
-0.083431259 -0.45683759 0.057681471
-0.083597742 -0.45696867 0.057648171
-0.083746284 -0.45708361 0.057629976
-0.083905317 -0.45719945 0.057653248
-0.084069408 -0.45731384 0.057707656
-0.084242456 -0.45745826 0.057624694
-0.084390976 -0.45757556 0.057592649
-0.084547102 -0.45769057 0.057607871
-0.084712416 -0.45781702 0.057596497
-0.08485882 -0.45794249 0.057506774
-0.085008718 -0.45805046 0.057535879
-0.085159585 -0.45816913 0.057506133
-0.085335881 -0.45830172 0.057507385
-0.08549767 -0.45842335 0.057508722
-0.085650846 -0.45853987 0.057502039
-0.085798644 -0.45865878 0.057457309
-0.085963689 -0.45879185 0.057405557
-0.086116284 -0.45890266 0.057430018
-0.086277954 -0.45902851 0.057405978
-0.086436719 -0.45915371 0.057372719
-0.086600915 -0.45927796 0.057369433
-0.086756542 -0.45939943 0.057344269
-0.086906046 -0.45950654 0.057376839
-0.087053001 -0.45962638 0.057322882
-0.087199703 -0.45973879 0.057311617
-0.087357841 -0.45985943 0.057302598
-0.087521665 -0.45999041 0.057257771
-0.087673903 -0.46010366 0.057266086
-0.087820262 -0.4602221 0.057217903
-0.087986708 -0.46034741 0.057218064
-0.08814463 -0.46046126 0.057248276
-0.08829353 -0.46058294 0.057191998
-0.088445626 -0.46069318 0.05721762
-0.088600047 -0.46081883 0.057162471
-0.088766478 -0.46093848 0.057196092
-0.088915005 -0.46105853 0.057147898
-0.089071855 -0.46118701 0.057086959
-0.089225359 -0.46131766 0.056998342
-0.089380391 -0.46142539 0.057051655
-0.089532644 -0.46153104 0.057104968
-0.0896836 -0.46165174 0.05706368
-0.089840598 -0.46177211 0.057051204
-0.090002954 -0.46189946 0.057021391
-0.090159677 -0.46202078 0.057001986
-0.09031079 -0.46213633 0.056991857
-0.090458915 -0.46225038 0.056977123
-0.090615496 -0.46237102 0.056961179
-0.090771787 -0.46249321 0.05693486
-0.090928443 -0.46261236 0.056928158
-0.091072649 -0.46272913 0.05687999
-0.091235578 -0.4628481 0.056902088
-0.091391653 -0.46296954 0.05687923
-0.091542616 -0.463083 0.056880642
-0.091693684 -0.46321279 0.056786269
-0.09184584 -0.46331933 0.056833826
-0.092005312 -0.46343866 0.056838639
-0.092156462 -0.46356577 0.056760423
-0.09231659 -0.46368143 0.056789473
-0.092468962 -0.46381631 0.056670863
-0.092627466 -0.46392432 0.056737989
-0.092784189 -0.46403998 0.05675206
-0.09292876 -0.46415019 0.05674427
-0.093084522 -0.46426946 0.056732953
-0.09323471 -0.46439621 0.056652434
-0.09339226 -0.46452051 0.056619186
-0.093539551 -0.46463221 0.05661485
-0.093698531 -0.46475112 0.056619663
-0.093850926 -0.46485746 0.056669518
-0.093999557 -0.46497583 0.056631699
-0.094153933 -0.46510851 0.056535009
-0.0943143 -0.46522281 0.056573287
-0.094466716 -0.4653497 0.056501988
-0.09461765 -0.46546021 0.0565207
-0.094774365 -0.46558446 0.056483995
-0.094935142 -0.4657073 0.056473799
-0.09508343 -0.46582443 0.056441765
-0.095239237 -0.46594095 0.056446597
-0.095391668 -0.4660477 0.056494154
-0.095534168 -0.46616927 0.056410223
-0.095689125 -0.46628752 0.056401219
-0.095840432 -0.46639696 0.056428
-0.095984191 -0.46652299 0.056323301
-0.096146278 -0.46663368 0.056390397
-0.09630084 -0.46675241 0.056376789
-0.096459113 -0.46687922 0.056331996
-0.096609086 -0.46699899 0.05629186
-0.09675239 -0.46710864 0.056281775
-0.096904717 -0.46722353 0.056280859
-0.097066663 -0.46734998 0.056254517
-0.097235769 -0.46747771 0.056252353
-0.097375818 -0.46758571 0.056237668
-0.097526945 -0.46770242 0.056220606
-0.097675934 -0.46781579 0.056213938
-0.097829796 -0.46793455 0.056196872
-0.097982049 -0.46805584 0.056157883
-0.098138787 -0.46817642 0.056143101
-0.098289333 -0.46829349 0.056121424
-0.098440669 -0.46841565 0.056073211
-0.098590717 -0.46852687 0.056083858
-0.098738238 -0.46862933 0.056134894
-0.098896787 -0.46875927 0.056072798
-0.09904667 -0.46887076 0.056081124
-0.099202484 -0.46899804 0.056022506
-0.099349692 -0.46910712 0.056033161
-0.099512167 -0.46923691 0.055989493
-0.099668279 -0.46935174 0.056005877
-0.099817626 -0.46946946 0.055974975
-0.099964626 -0.46957877 0.055983327
-0.1001253 -0.46969917 0.055986986
-0.10026529 -0.46981141 0.055946916
-0.10042675 -0.46993083 0.055959798
-0.1005814 -0.47005275 0.055927716
-0.10071839 -0.47016799 0.055856507
-0.10086665 -0.470281 0.055848695
-0.10102456 -0.47039384 0.055884678
-0.10118581 -0.47051859 0.055865247
-0.10132922 -0.47064164 0.0557767
-0.10148113 -0.47075072 0.055808097
-0.10164169 -0.4708513 0.055928297
-0.10176939 -0.4709748 0.055767149
-0.10192066 -0.47110394 0.055677395
-0.10207863 -0.47121215 0.055741068
-0.10223165 -0.4713299 0.055726308
-0.10240234 -0.47145024 0.055774894
-0.10254326 -0.47156492 0.055724442
-0.10268411 -0.47167039 0.055728216
-0.1028399 -0.47179472 0.055686899
-0.10298754 -0.47191685 0.055622555
-0.10313758 -0.47203234 0.055607811
-0.10327879 -0.4721418 0.055589661
-0.10343256 -0.47225425 0.055609506
-0.10359084 -0.47237188 0.055618946
-0.10375695 -0.47249207 0.055647947
-0.10390975 -0.47260126 0.055682801
-0.10405195 -0.47272259 0.055598877
-0.10418751 -0.4728485 0.055458445
-0.10434827 -0.47296017 0.055514023
-0.10449624 -0.47308096 0.055458911
-0.10464456 -0.47319734 0.055431485
-0.10480434 -0.47330591 0.055500917
-0.1049559 -0.47342414 0.055476926
-0.10511417 -0.47355369 0.055415981
-0.10526423 -0.47366491 0.055426627
-0.10540675 -0.47376928 0.055444229
-0.10555472 -0.4738934 0.055369496
-0.10571401 -0.47401431 0.055363931
-0.10587242 -0.47413576 0.055351444
-0.10600724 -0.47424468 0.055307951
-0.10616712 -0.47435412 0.05537276
-0.1063056 -0.47446463 0.055336166
-0.10646085 -0.47458777 0.055299461
-0.10660544 -0.47470936 0.055224758
-0.10675915 -0.47482234 0.055241141
-0.1069063 -0.47493881 0.055207953
-0.10706911 -0.4750579 0.055228896
-0.10721482 -0.47517151 0.055206109
-0.10736618 -0.47528234 0.055224817
-0.10751427 -0.47540519 0.055158164
-0.10767584 -0.47551474 0.055229887
-0.10781274 -0.4756358 0.055124067
-0.10796789 -0.47575516 0.055109292
-0.10813226 -0.47587717 0.055119846
-0.10827455 -0.47598547 0.05511323
-0.10841765 -0.47610006 0.055073146
-0.10854219 -0.47621569 0.054944318
-0.1087117 -0.47632909 0.055028692
-0.10886521 -0.47644582 0.055021998
-0.10902944 -0.47657126 0.055011794
-0.1091942 -0.47669652 0.055005033
-0.10934315 -0.47680554 0.055023756
-0.10949022 -0.47691217 0.055048261
-0.10961503 -0.47702369 0.054944821
-0.10975508 -0.47714829 0.054832064
-0.10992303 -0.47725698 0.05493721
-0.11005808 -0.4773739 0.054847561
-0.11020799 -0.47749186 0.054817818
-0.11036605 -0.47760716 0.05483995
-0.11051858 -0.47771829 0.054862112
-0.11067146 -0.47783536 0.054850813
-0.11082882 -0.47795111 0.054867178
-0.11098266 -0.47806206 0.054896262
-0.11114316 -0.47817999 0.054913759
-0.11129352 -0.47830084 0.054869011
-0.1114287 -0.47841707 0.05478397
-0.11157531 -0.47853586 0.05473464
-0.11173267 -0.47865179 0.054749854
-0.11186881 -0.47877032 0.054655578
-0.11203136 -0.47888786 0.054684602
-0.11217631 -0.47900128 0.054659497
-0.11232942 -0.47911558 0.054665506
-0.11248019 -0.47923046 0.054657679
-0.11261974 -0.47934511 0.054601468
-0.11278239 -0.47946015 0.05464549
-0.11293019 -0.47957575 0.054620378
-0.11308777 -0.47968933 0.054650582
-0.11322783 -0.4798145 0.054534364
-0.113377 -0.47992977 0.054517314
-0.11352681 -0.4800449 0.054503731
-0.11367214 -0.48015824 0.054480936
-0.11381973 -0.48027641 0.054439668
-0.11396257 -0.48039272 0.054388046
-0.11411465 -0.4805049 0.054402139
-0.11426623 -0.48062235 0.054382768
-0.11442512 -0.48073614 0.05441758
-0.11458954 -0.48084921 0.054481216
-0.11475261 -0.4809677 0.054506779
-0.11490225 -0.4810831 0.054490887
-0.11505491 -0.48120314 0.054461129
-0.11519937 -0.48132423 0.054388724
-0.11534321 -0.48144034 0.054342866
-0.11549631 -0.48155776 0.054330405
-0.11564593 -0.48167315 0.054314513
-0.11579093 -0.48178661 0.054289408
-0.11594364 -0.48190415 0.054274648
-0.11608971 -0.4820151 0.054269161
-0.11623081 -0.48213619 0.054181784
-0.11638461 -0.48225123 0.054186631
-0.11653353 -0.48236197 0.054194976
-0.11670084 -0.48248073 0.054237813
-0.11686619 -0.48259977 0.05427029
-0.11700025 -0.48271185 0.05420487
-0.11714461 -0.48283246 0.054134779
-0.11728418 -0.48294866 0.054069333
-0.11745467 -0.48307219 0.054098308
-0.11761533 -0.48318025 0.054174658
-0.1177511 -0.4832944 0.054104615
-0.11790989 -0.48341417 0.054103661
-0.11806911 -0.48353171 0.054117706
-0.11821006 -0.48364779 0.054059174
-0.11835997 -0.48376575 0.054029427
-0.11851127 -0.48388141 0.054019287
-0.11865704 -0.48400173 0.053957269
-0.11881155 -0.48411515 0.053974811
-0.11896724 -0.48423082 0.053984255
-0.11911356 -0.48434451 0.053963773
-0.1192789 -0.48446453 0.053990468
-0.11941203 -0.48458058 0.053897362
-0.1195664 -0.48469856 0.053887215
-0.1197234 -0.48481444 0.05390127
-0.11986749 -0.48493466 0.05383233
-0.12002047 -0.48504633 0.05385334
-0.12017997 -0.48516661 0.05385239
-0.12032598 -0.48528045 0.053829592
-0.12045115 -0.48540029 0.05367884
-0.12058669 -0.48551387 0.053611107
-0.12075315 -0.48562807 0.053677041
-0.12093081 -0.48574898 0.053753279
-0.12105981 -0.48586446 0.053645205
-0.12123909 -0.48598149 0.053751435
-0.12139973 -0.48610011 0.053765479
-0.12153956 -0.48621595 0.053703483
-0.12170401 -0.48633686 0.053720959
-0.12184694 -0.48645481 0.053660102
-0.12198929 -0.48656666 0.053632714
-0.12213883 -0.48668495 0.053599514
-0.12229083 -0.48680136 0.053588219
-0.12245165 -0.4869203 0.053601101
-0.12259983 -0.48703656 0.053573679
-0.1227472 -0.48715475 0.053531259
-0.12290879 -0.48727193 0.053557992
-0.12307595 -0.48739156 0.053595059
-0.1232407 -0.4875131 0.053610228
-0.12336865 -0.48762602 0.053512543
-0.12352456 -0.48774302 0.053515073
-0.1236797 -0.48786002 0.053514142
-0.12382168 -0.48797786 0.053449832
-0.12398771 -0.48809782 0.053479988
-0.12413123 -0.4882139 0.053432979
-0.12428385 -0.48833272 0.053410143
-0.12444016 -0.48845002 0.053412672
-0.12459067 -0.4885706 0.053370234
-0.12473703 -0.4886851 0.053345121
-0.12489401 -0.48880446 0.053338416
-0.12505272 -0.48892221 0.053349003
-0.12520698 -0.48903954 0.053342316
-0.1253642 -0.48915911 0.0533356
-0.12549102 -0.48927334 0.053225227
-0.12564938 -0.48939121 0.053233508
-0.12580106 -0.48950833 0.053216454
-0.12596737 -0.48962733 0.053253535
-0.12612833 -0.48974755 0.053259492
-0.12627985 -0.48986301 0.053251669
-0.12641846 -0.48998222 0.0531643
-0.1265783 -0.49010062 0.053176031
-0.12671705 -0.49021623 0.053110588
-0.12689389 -0.4903371 0.053183369
-0.12703878 -0.49045539 0.053129427
-0.12719035 -0.49057284 0.053110063
-0.12735356 -0.49069378 0.053121775
-0.12749657 -0.49081004 0.053071309
-0.12765381 -0.4909302 0.053061135
-0.12783948 -0.49105304 0.053161565
-0.12794666 -0.49116379 0.052984387
-0.12812018 -0.49128491 0.053041041
-0.12827446 -0.49140477 0.053019349
-0.12842287 -0.49152201 0.052987307
-0.12856261 -0.49163952 0.052914932
-0.12873204 -0.49176028 0.052955456
-0.12887715 -0.49187872 0.052901506
-0.12904216 -0.49199888 0.052925907
-0.12918508 -0.49211526 0.052874282
-0.12935731 -0.49223852 0.052912481
-0.12951443 -0.49235919 0.052898847
-0.129667 -0.49247739 0.052879479
-0.12980336 -0.49259099 0.052815203
-0.12998988 -0.49271721 0.052899469
-0.13011283 -0.49283165 0.052770659
-0.13026111 -0.49294913 0.052736305
-0.13042191 -0.49306905 0.05274342
-0.13058424 -0.49318933 0.052755143
-0.13074508 -0.49331105 0.052751869
-0.13088621 -0.49342728 0.052693337
-0.1310478 -0.49354759 0.052701607
-0.13121104 -0.49366993 0.052705236
-0.1313654 -0.4937889 0.052689314
-0.13153109 -0.49391347 0.052690629
-0.13168421 -0.49403229 0.052670099
-0.13182919 -0.49415103 0.052613854
-0.13198191 -0.4942666 0.052610625
-0.13215668 -0.49439332 0.052639578
-0.13229519 -0.49450916 0.052571829
-0.13245046 -0.49462861 0.052557055
-0.13260913 -0.49475041 0.052543409
-0.13278514 -0.49487615 0.052583896
-0.13293338 -0.49499732 0.052527629
-0.1330653 -0.49510857 0.052457612
-0.13322502 -0.49522766 0.052464731
-0.13338411 -0.49534979 0.052451085
-0.13355599 -0.49547496 0.052476592
-0.13368945 -0.4955897 0.052392714
-0.13385978 -0.49571151 0.052430935
-0.13401693 -0.49583495 0.052401148
-0.13417742 -0.49595302 0.052417494
-0.13431554 -0.49606737 0.052356668
-0.13447319 -0.49619254 0.0523188
-0.13462427 -0.49631158 0.052287899
-0.13480556 -0.4964411 0.052329503
-0.13497168 -0.49656695 0.052325048
-0.13513657 -0.49668959 0.052334446
-0.13528503 -0.49680665 0.05230356
-0.13542654 -0.49692196 0.052251946
-0.13559163 -0.49705079 0.052225575
-0.13575098 -0.4971692 0.052234996
-0.13591725 -0.49729249 0.052246697
-0.13607128 -0.49741411 0.052213471
-0.13624175 -0.49754602 0.052192837
-0.13638574 -0.49766362 0.052138899
-0.13653892 -0.49778071 0.052128747
-0.1366978 -0.49790233 0.052117411
-0.13685198 -0.49802271 0.052092262
-0.1370137 -0.4981437 0.05209706
-0.13716055 -0.49826366 0.052041955
-0.13728747 -0.49837092 0.051973112
-0.1374497 -0.49849075 0.051987149
-0.1376794 -0.4986321 0.052173845
-0.13778834 -0.49874753 0.051977046
-0.13796078 -0.49887329 0.052001394
-0.13810083 -0.49899006 0.051934786
-0.13825466 -0.49911216 0.051898099
-0.13842973 -0.49924028 0.051920127
-0.1385785 -0.49935818 0.051885784
-0.1387632 -0.49949065 0.051925056
-0.1389102 -0.49961519 0.051843408
-0.13906786 -0.49973291 0.051849391
-0.13921639 -0.49985513 0.051788505
-0.13941684 -0.49998969 0.051885378
-0.13955671 -0.5001024 0.051841855
-0.13971114 -0.5002293 0.051779769
-0.13984227 -0.50033385 0.051745526
-0.14002752 -0.50046712 0.051782489
-0.14015697 -0.5005796 0.051694024
-0.14033017 -0.50071359 0.051673375
-0.1405015 -0.50083596 0.051712736
-0.14064965 -0.50095415 0.051673774
-0.14082706 -0.50108266 0.051703863
-0.056425236 -0.43604943 0.060316369
-0.056591742 -0.43616602 0.060368452
-0.056776397 -0.43630862 0.060347714
-0.056966491 -0.43646276 0.060283102
-0.057150185 -0.43660423 0.060264692
-0.057319932 -0.43672639 0.060298286
-0.05751479 -0.43688881 0.060205955
-0.057693426 -0.43702552 0.060193341
-0.057885401 -0.43718106 0.060128719
-0.058061317 -0.43731374 0.060127664
-0.058231741 -0.43743485 0.060170472
-0.058414113 -0.43757829 0.060134761
-0.05860908 -0.43773961 0.060049359
-0.058777392 -0.43786049 0.060084108
-0.058952231 -0.43799216 0.060084209
-0.059127577 -0.43812481 0.060080849
-0.059309937 -0.4382692 0.060039353
-0.059485141 -0.43840194 0.060034841
-0.059672203 -0.43855163 0.059982941
-0.059852567 -0.43869334 0.059948396
-0.060018696 -0.43881142 0.059990082
-0.060203321 -0.43896064 0.05993012
-0.060383338 -0.43909934 0.059911732
-0.060561396 -0.43923795 0.059885271
-0.060728293 -0.43935776 0.059920028
-0.060910735 -0.43950418 0.059867006
-0.061090257 -0.43964583 0.059829004
-0.061263859 -0.43977755 0.059823349
-0.061446756 -0.43992236 0.059781857
-0.061606389 -0.44003025 0.059854731
-0.061790112 -0.44017997 0.059787858
-0.06196741 -0.44031876 0.059756793
-0.062124692 -0.44042274 0.059842382
-0.062315144 -0.44058496 0.059731614
-0.062494453 -0.4407247 0.059703998
-0.062626317 -0.4408097 0.059788585
-0.062844187 -0.44099551 0.059660349
-0.063027307 -0.44114596 0.059586547
-0.063189402 -0.44125903 0.059639797
-0.063359909 -0.44138724 0.059641086
-0.063529164 -0.44151002 0.059668906
-0.063716754 -0.44166949 0.059561618
-0.063885123 -0.44179434 0.0595733
-0.064064093 -0.44193873 0.059516832
-0.064231262 -0.44206166 0.059534281
-0.064404964 -0.44219679 0.059509009
-0.064555824 -0.44230705 0.059528861
-0.064749151 -0.44246167 0.05947578
-0.064935073 -0.44261676 0.059386965
-0.06509617 -0.44272909 0.059440225
-0.065257408 -0.44284171 0.059492331
-0.065426961 -0.44298798 0.059382841
-0.065605015 -0.44311482 0.059425615
-0.065782562 -0.44325891 0.059364542
-0.065957762 -0.44339517 0.059339255
-0.066130504 -0.44353053 0.059308216
-0.066301242 -0.44366226 0.05928988
-0.066478178 -0.44380626 0.059226505
-0.066622622 -0.44392812 0.059149474
-0.066819213 -0.44406995 0.059186369
-0.06697768 -0.44417441 0.059274256
-0.067154467 -0.4443191 0.059206266
-0.067325488 -0.44445258 0.059178699
-0.067502692 -0.44459876 0.059103779
-0.067658812 -0.44470263 0.059184767
-0.067828283 -0.44483358 0.059165277
-0.068006761 -0.44497913 0.059099585
-0.068168953 -0.4450956 0.059133224
-0.068334073 -0.44521821 0.059143774
-0.068506502 -0.44535607 0.059096575
-0.068676658 -0.44548538 0.059089772
-0.068847522 -0.44562054 0.059051827
-0.069022372 -0.44576433 0.058980383
-0.069175266 -0.44586185 0.05908446
-0.069349483 -0.44600481 0.05901533
-0.069518268 -0.446145 0.058938164
-0.069698647 -0.44628906 0.058889769
-0.069852583 -0.44640204 0.058907297
-0.070014626 -0.44651529 0.058959395
-0.070194826 -0.44666409 0.058882162
-0.070353054 -0.44678697 0.058860436
-0.070506774 -0.44689998 0.058876812
-0.070673063 -0.44703674 0.058808893
-0.0708621 -0.44718403 0.058780059
-0.070999116 -0.44728267 0.058806926
-0.071190491 -0.44741702 0.058864608
-0.071363501 -0.44756103 0.05878396
-0.071525216 -0.44768396 0.058777206
-0.071685389 -0.4478083 0.058755472
-0.071859419 -0.44795579 0.058658656
-0.072010502 -0.44807386 0.058633517
-0.072181009 -0.44819894 0.05865325
-0.072332151 -0.44831255 0.058654651
-0.072506756 -0.44845286 0.058602825
-0.072668009 -0.44857624 0.058591478
-0.072809495 -0.44867179 0.058656387
-0.072998017 -0.44881615 0.058642555
-0.073175631 -0.44895461 0.058614947
-0.073343351 -0.44908971 0.058563169
-0.073491752 -0.44920301 0.058554195
-0.073672533 -0.44934505 0.058519639
-0.073822528 -0.44945741 0.058523346
-0.074002251 -0.44959724 0.058496878
-0.074144617 -0.44970679 0.058483329
-0.074315362 -0.44983476 0.058486916
-0.074477665 -0.44996345 0.058449019
-0.074642181 -0.45008677 0.058452643
-0.074808002 -0.45021379 0.058440097
-0.074972317 -0.45034885 0.058373336
-0.07513725 -0.45046797 0.058403496
-0.075288899 -0.45058668 0.058377203
-0.075457774 -0.45071718 0.058357719
-0.075617 -0.45083922 0.058345221
-0.075789019 -0.45096663 0.058358029
-0.075973161 -0.45112312 0.058253072
-0.076114662 -0.4512265 0.058271829
-0.076267883 -0.45134503 0.058253594
-0.076425672 -0.45145738 0.058291879
-0.076591581 -0.45159444 0.058220491
-0.076759093 -0.45171627 0.058246024
-0.076912731 -0.45183706 0.058216251
-0.077083603 -0.4519769 0.058150604
-0.077238902 -0.45208934 0.058177359
-0.077400982 -0.45220903 0.058191374
-0.077576905 -0.45234427 0.058175318
-0.077737451 -0.45247436 0.058121271
-0.077895992 -0.45259824 0.058094937
-0.078055874 -0.45271921 0.058091655
-0.078219943 -0.45284688 0.05806759
-0.078381792 -0.45297521 0.058029696
-0.078531444 -0.45308554 0.058043797
-0.078709103 -0.45322952 0.057983879
-0.078859851 -0.45333579 0.058026813
-0.079022452 -0.4534598 0.058017757
-0.079189166 -0.45359063 0.057986744
-0.079348564 -0.45372102 0.057925783
-0.07951194 -0.45384914 0.057895951
-0.07967326 -0.45396963 0.057901904
-0.079852819 -0.45410603 0.057895057
-0.079999141 -0.45421463 0.057904553
-0.080158398 -0.45434707 0.057830904
-0.080336079 -0.4544768 0.057855211
-0.080478221 -0.45459926 0.057764359
-0.080616549 -0.45469537 0.057811987
-0.080787353 -0.45481679 0.057854805
-0.080954194 -0.45495337 0.057790328
-0.081114069 -0.45508119 0.057746679
-0.081264466 -0.45519972 0.05771577
-0.081418946 -0.45530275 0.057794455
-0.081579946 -0.45543748 0.057715014
-0.081748098 -0.45557174 0.057670161
-0.081896178 -0.45568028 0.057687722
-0.082051933 -0.45580304 0.057655632
-0.082210988 -0.45591715 0.057689287
-0.082374841 -0.45604387 0.057669844
-0.082532883 -0.45616677 0.057646964
-0.082688928 -0.45629346 0.057592943
-0.082839534 -0.45640355 0.057612807
-0.08300446 -0.45653927 0.057544883
-0.083162412 -0.45666429 0.057509322
-0.083322257 -0.45678562 0.057503741
-0.083478615 -0.45690122 0.057516642
-0.08364816 -0.45703691 0.057469465
-0.083800904 -0.45714587 0.057505466
-0.08395806 -0.45726851 0.057480291
-0.084118307 -0.45739564 0.057442397
-0.084275052 -0.45751661 0.057425302
-0.084431566 -0.45763621 0.05741512
-0.084588021 -0.45775598 0.057403799
-0.084746584 -0.45787108 0.057429377
-0.08490669 -0.45800179 0.057369564
-0.085060991 -0.45812973 0.05730056
-0.085219473 -0.45824593 0.05731922
-0.085371993 -0.4583557 0.057349455
-0.085536554 -0.45848039 0.057344995
-0.085693903 -0.4586198 0.057221744
-0.08585529 -0.45874172 0.057219613
-0.086010508 -0.45885333 0.05725098
-0.086175129 -0.45898551 0.057202682
-0.086321391 -0.45908508 0.057265263
-0.086477391 -0.45921525 0.05719047
-0.086629644 -0.45932481 0.057220705
-0.086788222 -0.45945674 0.057147063
-0.086949185 -0.45957932 0.057139173
-0.087115765 -0.45970279 0.057150856
-0.08726801 -0.45981997 0.057136089
-0.087423116 -0.45994949 0.057061311
-0.08756081 -0.46005979 0.0570224
-0.087724291 -0.46017468 0.05707103
-0.087884985 -0.46028611 0.057127755
-0.088045359 -0.46041784 0.05706333
-0.088199787 -0.46054643 0.056990858
-0.088357151 -0.46066844 0.056970291
-0.088493779 -0.46079165 0.056850623
-0.088650808 -0.46091497 0.056820828
-0.088820159 -0.46102783 0.056907494
-0.088974699 -0.46114126 0.056925025
-0.089129291 -0.46125376 0.056948327
-0.089293972 -0.46139342 0.056856174
-0.089448892 -0.4615005 0.056912936
-0.089603394 -0.46161351 0.056932777
-0.089750819 -0.46173665 0.056861497
-0.089907125 -0.46186116 0.056821324
-0.090067551 -0.46197495 0.056863051
-0.090217888 -0.46209598 0.056817144
-0.090371527 -0.46221438 0.056801219
-0.09052857 -0.4623301 0.056816429
-0.090681098 -0.46245569 0.056753196
-0.090834945 -0.46257097 0.05675688
-0.090994768 -0.46268857 0.056773223
-0.091145314 -0.46280426 0.056759626
