# .PCD v0.7 - Point Cloud Data file format
VERSION 0.7
FIELDS x y z
SIZE 4 4 4
TYPE F F F
COUNT 1 1 1
WIDTH 1056
HEIGHT 1
VIEWPOINT 0 0 0 1 0 0 0
POINTS 1056
DATA ascii
-0.3570191 -0.26731771 0.061524458
-0.35721543 -0.26728949 0.061552383
-0.35743737 -0.26726523 0.061527148
-0.35764274 -0.26724455 0.061490454
-0.35786369 -0.26722506 0.061430626
-0.35806566 -0.26719767 0.061446998
-0.35826707 -0.26717517 0.061427616
-0.3584685 -0.26715019 0.061426692
-0.35866272 -0.26713154 0.061385445
-0.35888714 -0.26710433 0.06137979
-0.3590847 -0.26707998 0.061377734
-0.35927054 -0.26706204 0.061338827
-0.35945415 -0.26703492 0.061370272
-0.3596558 -0.26702121 0.061285168
-0.35990283 -0.26698655 0.061314005
-0.36011386 -0.26695991 0.061316498
-0.36032748 -0.26694319 0.061242871
-0.36053169 -0.2669208 0.061220016
-0.3607291 -0.26689431 0.061234102
-0.36093962 -0.2668733 0.061195083
-0.36113381 -0.26684487 0.061226472
-0.36133921 -0.26682079 0.061215155
-0.36154437 -0.26679954 0.061183069
-0.36173749 -0.2667734 0.061198331
-0.36193696 -0.26676309 0.061090171
-0.36215609 -0.26673403 0.061103001
-0.36234739 -0.26670691 0.061127491
-0.36255705 -0.26668632 0.061086163
-0.36275828 -0.26666012 0.061094463
-0.36296058 -0.26663473 0.061095841
-0.36316741 -0.2666156 0.061046455
-0.36336505 -0.26659015 0.061052468
-0.36356467 -0.26656616 0.061045781
-0.36376953 -0.26654291 0.061028697
-0.36394066 -0.26650465 0.06115476
-0.36416256 -0.26649714 0.061004981
-0.36434299 -0.26647195 0.061024904
-0.36457428 -0.26645288 0.060952343
-0.36477888 -0.26642999 0.060932957
-0.36497968 -0.26640755 0.060913585
-0.36516762 -0.26638517 0.060905799
-0.36538574 -0.26636323 0.060866743
-0.36557484 -0.26634195 0.060849734
-0.36575469 -0.26632351 0.06082008
-0.36596251 -0.26630053 0.060798369
-0.36617249 -0.26627943 0.060760505
-0.36634424 -0.26625472 0.060785078
-0.36655983 -0.26622459 0.060809448
-0.36678633 -0.26620361 0.060755365
-0.3669734 -0.26618135 0.060747594
-0.36715248 -0.26615232 0.060797505
-0.36734709 -0.26614028 0.060706668
-0.3675693 -0.26611626 0.060679115
-0.3677651 -0.26609477 0.060657468
-0.36797598 -0.26606458 0.060686469
-0.36818564 -0.26604834 0.060612865
-0.36836645 -0.26602486 0.060620107
-0.36855346 -0.26599947 0.060635388
-0.36876464 -0.26598135 0.060574457
-0.36896053 -0.26595673 0.060575858
-0.36916703 -0.26592663 0.06060835
-0.36935732 -0.2659086 0.06056596
-0.36955246 -0.2658875 0.060542002
-0.36976254 -0.26586518 0.060513362
-0.36995548 -0.26584619 0.060475569
-0.37014338 -0.26582226 0.060479321
-0.37033233 -0.26579529 0.060504969
-0.3705481 -0.26576665 0.06051781
-0.3707394 -0.26574215 0.060522709
-0.37094602 -0.26572984 0.060422584
-0.37113914 -0.26570761 0.060409009
-0.37131888 -0.26568842 0.06038513
-0.37154633 -0.2656599 0.060386378
-0.37172732 -0.26563326 0.060416684
-0.37192816 -0.26561564 0.060361568
-0.37212184 -0.26559454 0.060338765
-0.37232003 -0.26556951 0.060341306
-0.37250385 -0.26555121 0.060307026
-0.37273189 -0.2655288 0.060262155
-0.37292692 -0.26550508 0.060257804
-0.37310541 -0.26549053 0.060200475
-0.37330851 -0.26546225 0.060222607
-0.3735075 -0.2654337 0.060250521
-0.37371343 -0.26541948 0.06016539
-0.37389684 -0.26539657 0.060165703
-0.37409881 -0.26536688 0.060199372
-0.37429523 -0.26534575 0.060174249
-0.37449053 -0.26532868 0.060120307
-0.37469092 -0.26530799 0.060088247
-0.37487119 -0.26528099 0.060122017
-0.37507668 -0.26525658 0.060113005
-0.37527633 -0.26523525 0.060086712
-0.37547231 -0.26521432 0.060060441
-0.37566862 -0.26519418 0.060028404
-0.37585694 -0.26517376 0.060005628
-0.37604478 -0.26514658 0.06003359
-0.3762536 -0.26512843 0.059974976
-0.37644503 -0.26510081 0.060002923
-0.37664333 -0.26508489 0.05993744
-0.37683612 -0.26505974 0.059945777
-0.37702912 -0.26503503 0.05995065
-0.3772192 -0.26501194 0.059946325
-0.37739536 -0.26499146 0.059935138
-0.37757015 -0.26498282 0.059837464
-0.37777358 -0.26495665 0.059843451
-0.37799415 -0.26492682 0.059860878
-0.37818727 -0.26491046 0.059803486
-0.37836763 -0.26488391 0.059833802
-0.37856382 -0.26485863 0.059839807
-0.37877229 -0.26483542 0.059819251
-0.37895304 -0.2648178 0.059782669
-0.37914219 -0.2648024 0.059721839
-0.37933162 -0.26477936 0.059717506
-0.37952405 -0.26475474 0.059722383
-0.3797105 -0.26473376 0.059705384
-0.37990668 -0.26470929 0.059705637
-0.38009414 -0.26469114 0.059666723
-0.38028935 -0.26466429 0.059685431
-0.38050219 -0.26464471 0.059633713
-0.38068137 -0.26461491 0.059689395
-0.38087049 -0.26460245 0.059606653
-0.38108072 -0.26458722 0.059524965
-0.38126788 -0.26455906 0.059560999
-0.38147008 -0.26453134 0.059579678
-0.38165766 -0.26451597 0.059520006
-0.38185963 -0.26448768 0.059543293
-0.38204554 -0.26446742 0.059521679
-0.38222617 -0.26444161 0.059546221
-0.38243255 -0.26442948 0.059444949
-0.38263798 -0.26440042 0.059470527
-0.3828333 -0.26437482 0.05948
-0.38301384 -0.26436403 0.059392691
-0.38322261 -0.26433381 0.059424013
-0.38340735 -0.26431012 0.059428927
-0.38359606 -0.26428813 0.059417687
-0.38377631 -0.26426017 0.059458368
-0.38396481 -0.26425663 0.0593099
-0.38417771 -0.264229 0.059318148
-0.38436607 -0.26420626 0.059312671
-0.38456133 -0.26418155 0.059315223
-0.38476008 -0.26415583 0.05932238
-0.38496318 -0.2641356 0.059284549
-0.38515493 -0.26411211 0.059281364
-0.38533011 -0.26410094 0.059202146
-0.38552448 -0.26406923 0.059257753
-0.38571304 -0.26405033 0.059223447
-0.38590139 -0.26403025 0.059198365
-0.386089 -0.26400107 0.059241325
-0.38629511 -0.26397985 0.059208088
-0.38647273 -0.2639614 0.059180744
-0.38665032 -0.26394418 0.059144184
-0.3868528 -0.26392743 0.059080981
-0.38706538 -0.26389578 0.059119213
-0.38727105 -0.26386997 0.059120569
-0.38743421 -0.26385531 0.05907831
-0.38762918 -0.26382771 0.059102781
-0.38782421 -0.26380137 0.059118025
-0.38803673 -0.26378661 0.05903057
-0.3882103 -0.2637682 0.059006706
-0.38839826 -0.26374131 0.059032358
-0.38860339 -0.26372442 0.058967993
-0.38881597 -0.26369771 0.058969326
-0.38898936 -0.26367918 0.058946624
-0.38918421 -0.26365516 0.058944568
-0.38938975 -0.26362872 0.058950543
-0.38956979 -0.26361322 0.058898978
-0.3897526 -0.26360294 0.058805887
-0.38994843 -0.26356906 0.058876481
-0.3901476 -0.26353782 0.058923997
-0.39032707 -0.26352456 0.058856286
-0.39052865 -0.26350144 0.058841527
-0.3907162 -0.26347908 0.058833741
-0.3909066 -0.26346043 0.058795966
-0.39111164 -0.26343685 0.058781181
-0.39130318 -0.2634114 0.05879299
-0.39149106 -0.26338717 0.05879904
-0.39169952 -0.26336363 0.058780786
-0.39187175 -0.26334831 0.058735024
-0.3920652 -0.26333007 0.058691472
-0.3922424 -0.2633073 0.058696412
-0.3924512 -0.26328173 0.058693156
-0.39264807 -0.2632629 0.058650732
-0.3928301 -0.26324806 0.058592238
-0.39301062 -0.2632255 0.058592565
-0.39321122 -0.26319227 0.05865391
-0.39339399 -0.26317424 0.058618471
-0.39359185 -0.26315111 0.058607191
-0.39377871 -0.26313055 0.05858672
-0.39398888 -0.26310062 0.058614589
-0.39417231 -0.26309073 0.058518033
-0.39434838 -0.26307169 0.058496468
-0.39453828 -0.26305169 0.058469065
-0.3947379 -0.26302305 0.058496982
-0.39492971 -0.26299772 0.058507625
-0.3951211 -0.26296437 0.058578242
-0.39531052 -0.26294583 0.058540475
-0.39549908 -0.26292941 0.058487717
-0.39569923 -0.26290894 0.058454506
-0.39588851 -0.26289028 0.05841789
-0.39607599 -0.26287585 0.058351301
-0.39627594 -0.26284733 0.058378056
-0.39646605 -0.26282638 0.05835757
-0.39665323 -0.26280442 0.05834749
-0.396846 -0.26278499 0.058313165
-0.3970443 -0.26276055 0.058311097
-0.39724016 -0.26273423 0.058325186
-0.39742577 -0.26271573 0.058290888
-0.39761534 -0.26269576 0.058263496
-0.39780617 -0.26266637 0.058305286
-0.398004 -0.26264989 0.058244411
-0.39820206 -0.26261958 0.058286164
-0.39837837 -0.26260608 0.058223087
-0.39857736 -0.26258698 0.058180667
-0.3987684 -0.26256406 0.058174014
-0.39895818 -0.26254347 0.05815123
-0.39914769 -0.26252338 0.058124989
-0.39933959 -0.26250485 0.058084905
-0.39953333 -0.2624771 0.05811169
-0.39971399 -0.26244941 0.058150068
-0.3999075 -0.2624338 0.058086906
-0.40010062 -0.26241308 0.058061797
-0.40028638 -0.26240462 0.057952557
-0.40048778 -0.26237544 0.057982758
-0.40068144 -0.26234308 0.058044136
-0.40087077 -0.26232314 0.058016747
-0.40106279 -0.26230413 0.057980113
-0.40125123 -0.26228046 0.057981554
-0.40145233 -0.26224235 0.058078647
-0.40164468 -0.2622329 0.057970524
-0.40184137 -0.26220679 0.057982299
-0.40201628 -0.26218897 0.057952672
-0.40220478 -0.26217505 0.05788146
-0.40239698 -0.26215556 0.057848286
-0.40260044 -0.2621339 0.057820827
-0.40278491 -0.26211146 0.05781652
-0.40297237 -0.26208496 0.057839878
-0.40317059 -0.26206163 0.057829738
-0.40335974 -0.26204187 0.057801191
-0.4035514 -0.26201874 0.057795696
-0.40373597 -0.2620008 0.057757951
-0.40393281 -0.26197079 0.057798561
-0.40412325 -0.26195788 0.057718121
-0.40430984 -0.2619372 0.057698812
-0.40449986 -0.26191628 0.057678327
-0.40468228 -0.26190093 0.057623301
-0.40487051 -0.26187822 0.057617821
-0.40507051 -0.26185679 0.057591531
-0.40526685 -0.26182812 0.057622913
-0.40546247 -0.26180044 0.057647381
-0.40566078 -0.2617774 0.057634935
-0.40584925 -0.26175854 0.057600632
-0.40603769 -0.26173964 0.057566322
-0.40621969 -0.26172078 0.057537809
-0.406416 -0.26169273 0.057564579
-0.40660194 -0.26168406 0.057456486
-0.40677273 -0.26168165 0.057316177
-0.40697515 -0.26164305 0.057415564
-0.40717477 -0.26161146 0.057465386
-0.40739366 -0.26156574 0.057602756
-0.40761673 -0.26152986 0.057662841
-0.40783778 -0.261493 0.057732165
-0.40802541 -0.26146507 0.057765897
-0.40821889 -0.26143783 0.057789218
-0.40841764 -0.26140171 0.057873636
-0.40864757 -0.26135972 0.057972901
-0.40884903 -0.26132464 0.058046926
-0.40904996 -0.26128379 0.058164775
-0.40922785 -0.26126048 0.058173183
-0.40945581 -0.26122168 0.058250543
-0.40967679 -0.26117736 0.058375224
-0.40989053 -0.26113755 0.058473408
-0.41007391 -0.26110938 0.058512919
-0.4102717 -0.26107648 0.058574278
-0.41049594 -0.26103643 0.058664344
-0.41072637 -0.26098755 0.058814339
-0.41094002 -0.26093999 0.058970191
-0.41112939 -0.26091015 0.059016593
-0.41133001 -0.26087874 0.059064101
-0.41153178 -0.26085249 0.059072401
-0.41176552 -0.26080212 0.059230454
-0.41197869 -0.26075661 0.059371307
-0.41219616 -0.26071632 0.059469473
-0.33033419 -0.27035403 0.063681349
-0.33056906 -0.27032864 0.06365259
-0.33080304 -0.27030161 0.063636526
-0.33103561 -0.27027586 0.063612394
-0.33125722 -0.27024761 0.06361714
-0.33145869 -0.27021456 0.063676193
-0.33169651 -0.27019036 0.063635886
-0.33194244 -0.27016822 0.063572481
-0.33216658 -0.27014089 0.063567989
-0.33237416 -0.27010953 0.06360855
-0.33260959 -0.27008516 0.063571721
-0.33285591 -0.27006358 0.063503712
-0.33307415 -0.27003512 0.063513085
-0.3332499 -0.27000991 0.063537642
-0.33355275 -0.2699891 0.063411698
-0.33378297 -0.26996395 0.063385278
-0.33400559 -0.2699354 0.063391179
-0.33423248 -0.26990959 0.063372836
-0.33445871 -0.26988369 0.063355654
-0.33468428 -0.26985773 0.063339628
-0.33492243 -0.26983517 0.063286632
-0.3351419 -0.26980779 0.063286781
-0.33536685 -0.26978037 0.063282289
-0.33558661 -0.26975483 0.063268587
-0.33580744 -0.26972803 0.063262969
-0.33604509 -0.26970431 0.063219205
-0.3362518 -0.26967385 0.063254006
-0.3364445 -0.26963958 0.063330397
-0.33669248 -0.2696206 0.063241608
-0.33693814 -0.26960114 0.063158602
-0.3371588 -0.26957485 0.063149519
-0.33737722 -0.26954636 0.063158892
-0.33762184 -0.26952702 0.063075885
-0.33785319 -0.26950407 0.06303215
-0.338094 -0.26948395 0.06295839
-0.33829531 -0.26945093 0.063017435
-0.33851764 -0.26942569 0.062999122
-0.33873406 -0.26939714 0.063010812
-0.33897817 -0.26937848 0.062923193
-0.33917767 -0.26934677 0.062974177
-0.33939141 -0.26931933 0.062980115
-0.33960864 -0.26929131 0.062987193
-0.33983442 -0.26926762 0.062953867
-0.34007084 -0.26924559 0.062898576
-0.34029642 -0.26922211 0.062864095
-0.34050274 -0.26919279 0.062890835
-0.34072256 -0.26916772 0.062873676
-0.34094754 -0.2691426 0.062851891
-0.34117964 -0.26912156 0.062793151
-0.34141254 -0.26909918 0.062743649
-0.34162754 -0.26907298 0.062739201
-0.34183639 -0.26904491 0.062754393
-0.34206149 -0.26902211 0.062715299
-0.34230092 -0.26900232 0.062640384
-0.3424719 -0.268987 0.062595785
-0.3427231 -0.26894638 0.062664978
-0.34294346 -0.26892248 0.062638603
-0.3431648 -0.26889718 0.062621437
-0.34336105 -0.26886541 0.062675893
-0.34358039 -0.2688396 0.062664509
-0.34377658 -0.26880783 0.062718958
-0.34401593 -0.26878899 0.062637135
-0.34422445 -0.26876158 0.062647715
-0.34447995 -0.26874864 0.062506996
-0.34467724 -0.2687175 0.062555678
-0.34490091 -0.2686938 0.062524676
-0.3451117 -0.26866749 0.062524855
-0.34531912 -0.26863819 0.062550433
-0.34555402 -0.2686207 0.062462859
-0.34577361 -0.26859593 0.06244339
-0.34597287 -0.2685658 0.062482849
-0.34618127 -0.26853901 0.062488809
-0.34640998 -0.26851979 0.062419713
-0.346641 -0.26849967 0.062355231
-0.34685785 -0.26847634 0.062327709
-0.34708053 -0.26845336 0.062292092
-0.34728524 -0.26842564 0.062308446
-0.34750074 -0.26840016 0.062298227
-0.34771466 -0.26837611 0.0622788
-0.34792379 -0.26834831 0.062291682
-0.34812891 -0.26832101 0.062304579
-0.34835491 -0.26829997 0.062251635
-0.34857824 -0.26828 0.06219295
-0.34878615 -0.26825204 0.062208142
-0.34900782 -0.26823169 0.062154073
-0.3492175 -0.2682046 0.062161189
-0.34943226 -0.26818168 0.062132526
-0.34964225 -0.26815486 0.062137328
-0.34984797 -0.2681284 0.062143303
-0.35007581 -0.26810914 0.062075369
-0.35028547 -0.26808453 0.062064026
-0.35048747 -0.26805466 0.062098853
-0.35072035 -0.26804003 0.061991684
-0.35091841 -0.26800865 0.062041514
-0.35113642 -0.26798797 0.061993234
-0.35133052 -0.26795492 0.062059235
-0.35155615 -0.26793778 0.061977465
-0.35177347 -0.26791501 0.06194533
-0.35199222 -0.26789516 0.061890125
-0.35218576 -0.26786202 0.061957277
-0.35236493 -0.26784861 0.061890721
-0.35258046 -0.26783645 0.061781317
-0.3528167 -0.26779646 0.061859816
-0.35302967 -0.26777238 0.06184154
-0.35324693 -0.26774588 0.061837085
-0.35346246 -0.2677232 0.061806105
-0.35370415 -0.26771522 0.061641231
-0.35387334 -0.26767084 0.061814599
-0.35407478 -0.26764399 0.061827522
-0.35429764 -0.26762751 0.061743464
-0.35451835 -0.26761019 0.061667487
-0.35471478 -0.26757887 0.061718483
-0.35492402 -0.26755616 0.061693296
-0.35512686 -0.26752806 0.061714284
-0.35533729 -0.26750615 0.061682183
-0.35553873 -0.26747745 0.061708931
-0.35573074 -0.26744634 0.061762258
-0.3559449 -0.26742661 0.061710529
-0.35616022 -0.26741245 0.06161613
-0.35637888 -0.26738814 0.061594367
-0.35657513 -0.26736921 0.061553098
-0.35678703 -0.26734152 0.061562512
-0.35699299 -0.26732063 0.061526965
-0.35721567 -0.26729643 0.061500575
-0.357402 -0.26726511 0.061560839
-0.35761687 -0.26724434 0.061516032
-0.35782325 -0.26721907 0.061512776
-0.35803363 -0.26719606 0.06148874
-0.35822326 -0.26717177 0.061493643
-0.3584249 -0.26714662 0.061493866
-0.35861933 -0.26713037 0.061434165
-0.35884318 -0.26710773 0.061395079
-0.35905737 -0.2670849 0.061366409
-0.35924712 -0.26705316 0.061426669
-0.35946593 -0.26702785 0.061411824
-0.35965663 -0.26701009 0.061367121
-0.35987109 -0.26699325 0.061293483
-0.36009055 -0.26696062 0.06133284
-0.36029723 -0.26693934 0.0612996
-0.36049464 -0.26691794 0.061275631
-0.36070508 -0.26689371 0.061260827
-0.36090425 -0.26687366 0.061225314
-0.36108664 -0.26684871 0.061241779
-0.36130926 -0.26682404 0.06121885
-0.36152908 -0.26680344 0.061168246
-0.36172912 -0.26678157 0.061145414
-0.36192849 -0.26675358 0.061168715
-0.36207879 -0.2667309 0.061198011
-0.36233944 -0.26670882 0.0611207
-0.36254242 -0.26668936 0.061077099
-0.36275285 -0.26666623 0.061054215
-0.36295205 -0.26664445 0.06103139
-0.36313316 -0.2666223 0.06102825
-0.36333588 -0.26659405 0.0610504
-0.36352888 -0.26657429 0.06101837
-0.3637293 -0.26654759 0.061031289
-0.36393657 -0.26652592 0.061000355
-0.36414054 -0.26650512 0.06096597
-0.36436653 -0.26647848 0.06095456
-0.364568 -0.26645288 0.060958244
-0.36476159 -0.26643428 0.060916986
-0.3649669 -0.2664085 0.060918353
-0.3651506 -0.26638913 0.060892142
-0.36533225 -0.26636165 0.060928214
-0.36552924 -0.26634619 0.060860418
-0.36575854 -0.26631963 0.060845524
-0.36598101 -0.26629108 0.060851425
-0.36619091 -0.26627296 0.060791645
-0.36638451 -0.26625204 0.060767684
-0.36660191 -0.26623362 0.060703259
-0.36680669 -0.26621532 0.060649276
-0.36699057 -0.26617953 0.060745299
-0.36718926 -0.26615983 0.060707487
-0.36736283 -0.26613662 0.060719378
-0.36757764 -0.26611304 0.060695324
-0.36776012 -0.26609415 0.060666807
-0.36798745 -0.26606718 0.06065654
-0.36817259 -0.26604718 0.060633779
-0.36839098 -0.26601607 0.060662769
-0.36858723 -0.26600271 0.060579978
-0.36879733 -0.26597556 0.060587093
-0.36897048 -0.26594853 0.060627814
-0.36919451 -0.26592693 0.060580648
-0.36940214 -0.26591358 0.060487442
-0.36959499 -0.26588595 0.060514234
-0.36979014 -0.26585647 0.060552549
-0.36999324 -0.26583919 0.060492802
-0.37019843 -0.26582009 0.060444571
-0.37039047 -0.26579177 0.060477134
-0.37060145 -0.26577908 0.060375839
-0.37076861 -0.26574597 0.060467329
-0.37098998 -0.26572314 0.060431719
-0.37119368 -0.26570764 0.060358129
-0.37138766 -0.26567724 0.06040452
-0.37158889 -0.26565939 0.060350552
-0.37178621 -0.26563275 0.060365792
-0.37198606 -0.2656137 0.060322195
-0.37217435 -0.26558602 0.060353629
-0.37238017 -0.26556483 0.060320392
-0.37257779 -0.26553878 0.060331013
-0.37274733 -0.26552224 0.060296793
-0.37298307 -0.26551408 0.060138859
-0.37317351 -0.26548439 0.06018297
-0.37335089 -0.2654734 0.060100272
-0.37356558 -0.26543424 0.060192704
-0.3737708 -0.26540831 0.060195226
-0.37396568 -0.26538444 0.060192026
-0.37416673 -0.26536369 0.060159959
-0.37436384 -0.26534313 0.060130224
-0.3745591 -0.26532015 0.060120106
-0.37474734 -0.26529276 0.060149226
-0.37495214 -0.26526675 0.060152896
-0.37515113 -0.26524952 0.060096629
-0.37535033 -0.26522696 0.060079567
-0.37554675 -0.26520634 0.060050987
-0.37573883 -0.26519117 0.059985522
-0.37591171 -0.26516432 0.060025096
-0.3761234 -0.26513758 0.060027581
-0.37632099 -0.26511943 0.059979387
-0.37652844 -0.26509231 0.059988823
-0.37672374 -0.26507074 0.059968323
-0.37692025 -0.26505145 0.059929363
-0.37711209 -0.26503775 0.059853517
-0.37730002 -0.26501042 0.059882641
-0.37750083 -0.26498565 0.05988057
-0.3776834 -0.26496255 0.059883185
-0.37788337 -0.26494363 0.059838437
-0.37807634 -0.26492622 0.059789117
-0.37829009 -0.26489738 0.059805438
-0.37846515 -0.26487488 0.0598104
-0.37864682 -0.26485035 0.059824556
-0.37886435 -0.26483777 0.059716303
-0.37905198 -0.26482674 0.059624337
-0.37923881 -0.26480588 0.05960618
-0.37942833 -0.26477402 0.059667587
-0.37961864 -0.26474375 0.059716307
-0.37981138 -0.26470992 0.059789237
-0.38001311 -0.26467934 0.059829831
-0.38020891 -0.26466233 0.059774727
-0.38040695 -0.26465157 0.059671175
-0.38059631 -0.26462823 0.059669152
-0.38079619 -0.26460314 0.059670541
-0.38099799 -0.26458353 0.059629247
-0.38118762 -0.26456141 0.059618004
-0.38138458 -0.26453915 0.059600957
-0.3815884 -0.26451525 0.059589639
-0.381771 -0.26449478 0.059572652
-0.38197505 -0.2644721 0.059552111
-0.38216895 -0.26445287 0.059515469
-0.38237187 -0.26442662 0.05952261
-0.38256079 -0.26440316 0.059521746
-0.38275969 -0.26437557 0.059542749
-0.38294682 -0.2643598 0.059486531
-0.38313624 -0.26433894 0.059466057
-0.38333064 -0.26432428 0.059394814
-0.38353804 -0.26428539 0.059491888
-0.38372964 -0.26427588 0.059384909
-0.38390946 -0.26424426 0.059453279
-0.38411444 -0.26423016 0.059368152
-0.38431269 -0.26419908 0.059415683
-0.38450921 -0.26417935 0.059380181
-0.38470486 -0.26415446 0.059383892
-0.38490504 -0.26413614 0.059334539
-0.38508448 -0.26412612 0.05924261
-0.38530844 -0.26409802 0.059243888
-0.38549325 -0.26407465 0.059246495
-0.38568881 -0.26405054 0.059244446
-0.38587379 -0.2640287 0.059235528
-0.38607278 -0.26400292 0.059242681
-0.38626504 -0.26398373 0.059207212
-0.38644993 -0.26396188 0.05919829
-0.38663876 -0.26394838 0.059123605
-0.38683778 -0.26392648 0.059101939
-0.38703302 -0.26389885 0.059126418
-0.38724262 -0.26387519 0.059108146
-0.38743091 -0.26385739 0.059065767
-0.38762265 -0.26383409 0.05906143
-0.3878144 -0.26380783 0.059078999
-0.38801312 -0.26379016 0.059026193
-0.38819045 -0.26377311 0.058988474
-0.38838896 -0.26375455 0.058942586
-0.38858432 -0.26372597 0.058973983
-0.38876179 -0.2637035 0.058976624
-0.38898554 -0.26367357 0.058991749
-0.38915256 -0.26365069 0.059007127
-0.38935542 -0.26361981 0.059048865
-0.38953686 -0.26359403 0.059072252
-0.3897301 -0.26358959 0.058926053
-0.38993862 -0.2635707 0.058873199
-0.39011925 -0.26355064 0.058855072
-0.39029095 -0.26357055 0.058547504
-0.39051595 -0.26352948 0.058644503
-0.39070928 -0.26349264 0.058739346
-0.3908892 -0.26345435 0.058857307
-0.39107385 -0.26343068 0.058862232
-0.39127043 -0.26341778 0.058775984
-0.39145821 -0.2633954 0.058768198
-0.39166334 -0.2633729 0.058745351
-0.39184037 -0.26335236 0.058734156
-0.39204222 -0.2633287 0.058722854
-0.39224416 -0.26330459 0.058715008
-0.39243805 -0.26328534 0.058678359
-0.39261109 -0.26326683 0.058655661
-0.39279956 -0.26324144 0.058669783
-0.39300251 -0.26321334 0.058690768
-0.39318761 -0.26318818 0.05870606
-0.39337379 -0.26317161 0.058656771
-0.3935622 -0.26313522 0.058752786
-0.39374137 -0.26311904 0.05870698
-0.39392772 -0.26311252 0.058582731
-0.39411658 -0.26310784 0.058442309
-0.39431417 -0.26308596 0.058421798
-0.39454105 -0.26304761 0.058496874
-0.39472491 -0.26302636 0.058484498
-0.39490688 -0.26300085 0.058505572
-0.39509574 -0.26298454 0.058451664
-0.39528829 -0.26295802 0.058470376
-0.39548454 -0.2629309 0.058490243
-0.39566693 -0.26291355 0.058450192
-0.39585561 -0.2628971 0.058397431
-0.396054 -0.26287314 0.058391906
-0.39624313 -0.26284719 0.058409497
-0.39642477 -0.26283118 0.058360219
-0.39662206 -0.26280981 0.05833625
-0.39682409 -0.2627852 0.058331866
-0.39701372 -0.26276588 0.058299854
-0.3971982 -0.26274315 0.058297854
-0.39739126 -0.26271641 0.058317725
-0.39759198 -0.26269478 0.05829259
-0.39778233 -0.26266697 0.058322854
-0.39796609 -0.26265272 0.058258582
-0.39815149 -0.26263499 0.058218513
-0.39834991 -0.26260465 0.058260277
-0.39854652 -0.26258445 0.058228239
-0.39873183 -0.26256672 0.058188178
-0.39892897 -0.26254538 0.058164209
-0.39910597 -0.26252452 0.058155324
-0.39931291 -0.26250333 0.058120921
-0.39949653 -0.2624824 0.058106247
-0.39968067 -0.2624664 0.05805466
-0.39987531 -0.26244348 0.058044542
-0.40006846 -0.26241753 0.058058642
-0.40024638 -0.26241174 0.057936735
-0.40041894 -0.26240349 0.057837911
-0.40062225 -0.26236621 0.057926938
-0.40081927 -0.26233417 0.057982542
-0.40101644 -0.262297 0.058076203
-0.40120971 -0.26227659 0.058048796
-0.40141049 -0.26225975 0.057987902
-0.40160736 -0.26223874 0.057961624
-0.40180078 -0.262218 0.057936516
-0.40199012 -0.26219359 0.057942569
-0.40217689 -0.26217306 0.05792211
-0.4023627 -0.26215389 0.057892431
-0.40255594 -0.26212403 0.057935365
-0.40274516 -0.2621001 0.057937957
-0.40292975 -0.26208729 0.057862148
-0.4031364 -0.26204368 0.057994984
-0.40332416 -0.26203543 0.057882253
-0.40351138 -0.26202321 0.057799507
-0.40371585 -0.2619963 0.057810098
-0.40389732 -0.2619786 0.057773519
-0.40407887 -0.26196072 0.057738088
-0.40427926 -0.26193509 0.057742927
-0.40445563 -0.26193631 0.057570279
-0.40465152 -0.26190814 0.057598215
-0.40483207 -0.26189134 0.057555873
-0.40501851 -0.26187116 0.057533108
-0.40519935 -0.26185787 0.057464227
-0.40539855 -0.26182586 0.057517521
-0.40559641 -0.26179188 0.057586968
-0.40580192 -0.2617605 0.057629842
-0.40600443 -0.26174051 0.057590853
-0.40620193 -0.26171508 0.057596866
-0.4063904 -0.26169276 0.057587937
-0.40657598 -0.26166651 0.057611305
-0.40676731 -0.26165208 0.057541225
-0.4069635 -0.26162836 0.057535708
-0.40715492 -0.26160648 0.057520997
-0.40734017 -0.26158443 0.057513222
-0.40753853 -0.26156199 0.057496168
-0.40772012 -0.26154754 0.057435364
-0.40791085 -0.26152992 0.057389513
-0.40810609 -0.26150399 0.057401307
-0.40829965 -0.26147658 0.057425786
-0.40849477 -0.26145101 0.05743527
-0.40868625 -0.26143268 0.057394035
-0.40888071 -0.26141119 0.057373527
-0.40909684 -0.26137057 0.057475187
-0.40930918 -0.26133743 0.057524957
-0.40951335 -0.26130638 0.057566691
-0.40971103 -0.2612693 0.057659201
-0.40990198 -0.26124871 0.057635255
-0.41012207 -0.26120546 0.057753041
-0.41033155 -0.26116368 0.05786971
-0.41054338 -0.2611261 0.057952933
-0.41074196 -0.26109248 0.058018908
-0.41093996 -0.26106265 0.058057223
-0.41115552 -0.26103127 0.058090828
-0.4113887 -0.26097429 0.058298502
-0.41160336 -0.26092941 0.058433611
-0.41179174 -0.26090354 0.058451194
-0.41200346 -0.26086783 0.058520574
-0.41220811 -0.2608389 0.058546156
-0.41244209 -0.260786 0.058722693
-0.41264814 -0.26074758 0.058817476
-0.41285533 -0.26071694 0.058853433
-0.41307005 -0.26067683 0.058952779
-0.41328439 -0.26064017 0.059026763
-0.41351014 -0.26059079 0.059184883
-0.41372272 -0.26055619 0.059245031
-0.41393316 -0.26051816 0.05933287
-0.33018437 -0.27036613 0.063730292
-0.33041245 -0.27033755 0.063731521
-0.33064309 -0.27031112 0.063714288
-0.33087474 -0.27028501 0.063693598
-0.33109799 -0.27025703 0.063694857
-0.33135331 -0.27023527 0.06361983
-0.3315722 -0.27020642 0.06363149
-0.3317951 -0.27017707 0.063643128
-0.33203134 -0.2701526 0.063606255
-0.3322807 -0.27013144 0.06353242
-0.33250332 -0.27010381 0.063531369
-0.33275315 -0.27008152 0.063465603
-0.33297402 -0.27005365 0.063468024
-0.33319554 -0.27002603 0.063468128
-0.3334226 -0.26999989 0.063452065
-0.33365312 -0.26997316 0.063437149
-0.33388132 -0.2699475 0.063416466
-0.33411783 -0.26992252 0.06338305
-0.334337 -0.26989472 0.063386641
-0.33455962 -0.26986787 0.063379824
-0.33479887 -0.26984549 0.063324481
-0.3350175 -0.26981622 0.063339606
-0.33525693 -0.26979411 0.063281961
-0.33549139 -0.26976922 0.063249715
-0.33570927 -0.26974159 0.063253298
-0.33594069 -0.26971769 0.063216448
-0.33616713 -0.26969254 0.06319347
-0.33637053 -0.26965958 0.063250192
-0.33659738 -0.26963469 0.063224904
-0.33685267 -0.26961622 0.063125655
-0.33706775 -0.26958829 0.063133873
-0.33727866 -0.26955765 0.063166335
-0.33750299 -0.26953247 0.063145675
-0.33774373 -0.26951206 0.063074179
-0.33796108 -0.26948512 0.063073158
-0.33817023 -0.26945421 0.063109085
-0.33841047 -0.26943403 0.063036434
-0.33864242 -0.26940992 0.063000739
-0.33885929 -0.26938316 0.062998571
-0.33907491 -0.26935613 0.062999859
-0.33930871 -0.26933455 0.062943392
-0.33953264 -0.26930851 0.062929653
-0.33975095 -0.26928252 0.062920555
-0.33995086 -0.26925617 0.06293115
-0.34020928 -0.26923576 0.062843427
-0.3404305 -0.26920924 0.062835455
-0.34065649 -0.26918602 0.062798642
-0.34085986 -0.26915413 0.062847286
-0.34107479 -0.26912764 0.062845118
-0.34130129 -0.26910311 0.062817529
-0.3415162 -0.26907676 0.062814213
-0.34175098 -0.2690551 0.062757745
-0.34199432 -0.26903808 0.062658548
-0.34220105 -0.26900765 0.062693328
-0.34241372 -0.26898098 0.062694639
-0.34262574 -0.26895234 0.062710941
-0.34286034 -0.26893303 0.06263718
-0.343072 -0.26890445 0.062653482
-0.34329042 -0.26887998 0.062632851
-0.34350246 -0.2688517 0.062646843
-0.34371784 -0.26882637 0.062635452
-0.34394929 -0.26880479 0.062581308
-0.34415594 -0.26877668 0.06259878
-0.34439015 -0.26875633 0.062533088
-0.34460896 -0.26873261 0.062506691
-0.34478444 -0.26870868 0.062522002
-0.34503484 -0.26867947 0.062506989
-0.34526145 -0.26865694 0.062464401
-0.34547013 -0.26862812 0.062485337
-0.34568608 -0.26860195 0.062479705
-0.34592372 -0.26858568 0.062380541
-0.34612718 -0.26855516 0.062418811
-0.34633487 -0.26852816 0.062427063
-0.34656641 -0.26850814 0.062361367
-0.3467769 -0.26848236 0.062358074
-0.34698984 -0.26845562 0.062359381
-0.34720838 -0.26843303 0.062324904
-0.34743175 -0.26841044 0.062285785
-0.34764367 -0.26838556 0.062274411
-0.34785748 -0.26835951 0.062269948
-0.34806395 -0.26833266 0.0622782
-0.34828466 -0.26830947 0.062246021
-0.34850067 -0.26828453 0.062231168
-0.34871739 -0.26825997 0.062212843
-0.34893659 -0.26823854 0.062169135
-0.34914851 -0.26821226 0.062168144
-0.34935933 -0.26818767 0.062155619
-0.34958318 -0.26816642 0.062106103
-0.34979999 -0.26814449 0.062068179
-0.3500112 -0.26811829 0.062067188
-0.3502197 -0.26809105 0.062076587
-0.35043722 -0.26806763 0.062049039
-0.35063314 -0.26803729 0.062093101
-0.35085398 -0.26801547 0.062050536
-0.35106769 -0.26799285 0.0620207
-0.35127011 -0.26796758 0.062020902
-0.3514922 -0.26794454 0.061986409
-0.35170254 -0.26791862 0.06198426
-0.35191792 -0.26789501 0.061960183
-0.35212553 -0.26786801 0.061968431
-0.35233569 -0.26784444 0.061948989
-0.35255966 -0.26782721 0.061869495
-0.35277748 -0.26780516 0.061831564
-0.35298195 -0.26777932 0.06183406
-0.35318884 -0.26775244 0.061842319
-0.35339087 -0.26772335 0.061871357
-0.3535848 -0.26769045 0.0619362
-0.35381931 -0.26767904 0.061803602
-0.35401669 -0.26764789 0.061852276
-0.35422921 -0.26762635 0.061815515
-0.35444689 -0.2676051 0.061771803
-0.35465291 -0.2675783 0.061780076
-0.35488296 -0.2675634 0.061677478
-0.35508192 -0.26753566 0.061699614
-0.35529596 -0.26751313 0.061668612
-0.35551098 -0.26749361 0.061614539
-0.35570407 -0.26746064 0.06168054
-0.35591471 -0.26744151 0.061627641
-0.3561191 -0.26741925 0.061603613
-0.35634547 -0.26739645 0.061563328
-0.3565594 -0.26737458 0.061527722
-0.35676768 -0.26735231 0.061500214
-0.35697252 -0.26732582 0.061507318
-0.35717607 -0.2673012 0.061501756
-0.35738346 -0.26727626 0.061495006
-0.35759121 -0.26725158 0.061485961
-0.35779631 -0.26722553 0.061489608
-0.3580035 -0.26720324 0.061463255
-0.35822013 -0.26718381 0.061406873
-0.35842758 -0.26716197 0.061377056
-0.35863596 -0.26713812 0.061361082
-0.35883731 -0.26711038 0.061380908
-0.35903996 -0.26708338 0.061393794
-0.35924095 -0.26705813 0.061395161
-0.35945493 -0.26703796 0.061346855
-0.35966459 -0.26701537 0.061320491
-0.35986957 -0.2669901 0.061318375
-0.36006024 -0.26696709 0.061312858
-0.36028755 -0.26694742 0.061248355
-0.36048505 -0.26692882 0.061203592
-0.36069381 -0.26689798 0.061239522
-0.36089617 -0.26687148 0.061248951
-0.36110458 -0.26684889 0.061223753
-0.36131218 -0.26682872 0.061181247
-0.36152306 -0.266808 0.061139889
-0.36172777 -0.26678339 0.061133154
-0.36192426 -0.26675344 0.061173759
-0.36212906 -0.26673192 0.061143957
-0.36232549 -0.26670787 0.061140731
-0.36254185 -0.26668552 0.061106261
-0.36273441 -0.26667094 0.06103614
-0.362955 -0.26664281 0.061040871
-0.36315608 -0.26661631 0.061051466
-0.36336121 -0.26659274 0.061036654
-0.36356401 -0.26656759 0.061035708
-0.3637706 -0.26654834 0.060987443
-0.36395067 -0.26652879 0.060965836
-0.36417997 -0.26650128 0.060957827
-0.36438683 -0.26647952 0.060928024
-0.36458468 -0.26645434 0.060931705
-0.36478826 -0.26643035 0.060921527
-0.36499316 -0.26640743 0.0609021
-0.36520067 -0.26638663 0.060864218
-0.36539885 -0.26636207 0.060863286
-0.3656013 -0.26633757 0.060857721
-0.36579886 -0.26631603 0.06083487
-0.3659808 -0.26628882 0.060868621
-0.36620003 -0.26626101 0.060872212
-0.36641526 -0.26624733 0.060774304
-0.36661273 -0.26622269 0.060774531
-0.36681667 -0.26620004 0.060753964
-0.36701718 -0.26617455 0.06075763
-0.3672176 -0.26614907 0.060761303
-0.36742991 -0.26613763 0.060649563
-0.36762652 -0.26610905 0.060679786
-0.36782956 -0.26608619 0.060661536
-0.36803913 -0.26606935 0.060592491
-0.36823735 -0.26604617 0.060581177
-0.36843258 -0.26601654 0.060620632
-0.36863756 -0.26599979 0.060555078
-0.3688384 -0.26597551 0.060549516
-0.36903837 -0.26595443 0.060520887
-0.36923704 -0.26592824 0.06053149
-0.3694371 -0.26590341 0.060530558
-0.36964038 -0.26588193 0.060501911
-0.36983678 -0.26585773 0.060499832
-0.3700408 -0.26583725 0.060463116
-0.37023568 -0.26581168 0.060472593
-0.37043944 -0.26579121 0.060435865
-0.37064216 -0.26576978 0.060407229
-0.37084097 -0.26574436 0.060412072
-0.37101451 -0.26572222 0.060415857
-0.37123713 -0.26569647 0.060400978
-0.37143391 -0.26567346 0.060389668
-0.3716301 -0.26565441 0.060349531
-0.37180758 -0.26562789 0.060382143
-0.3720338 -0.26560682 0.060329173
-0.37222883 -0.26558217 0.060331717
-0.37241322 -0.26556396 0.060296245
-0.37260377 -0.26554373 0.06026997
-0.37281331 -0.26552254 0.060233228
-0.37300009 -0.26549304 0.060279645
-0.37320271 -0.26546836 0.060275234
-0.37340555 -0.26545423 0.060192384
-0.3735745 -0.26542723 0.060236577
-0.37379804 -0.26539919 0.060237832
-0.3740029 -0.26537797 0.060205724
-0.37418517 -0.26535287 0.060223326
-0.37436956 -0.26533622 0.060176317
-0.37455919 -0.2653161 0.060150046
-0.37476698 -0.26528847 0.060162921
-0.37494627 -0.26525927 0.060213979
-0.37514415 -0.26524588 0.060129993
-0.3753376 -0.26522034 0.060140625
-0.37553263 -0.26519725 0.060131636
-0.37573719 -0.26518303 0.060047619
-0.375934 -0.26516932 0.059967104
-0.37613681 -0.26514697 0.059945378
-0.37633929 -0.26513055 0.059879839
-0.37654516 -0.26510081 0.059910014
-0.37675092 -0.2650708 0.059942503
-0.37692142 -0.26504627 0.059967071
-0.37711668 -0.26502469 0.059946544
-0.37729841 -0.26499966 0.05996415
-0.37750348 -0.26498941 0.059850134
-0.37769973 -0.26496321 0.059863064
-0.37790418 -0.26493803 0.059860945
-0.37812194 -0.26490915 0.059873767
-0.37829712 -0.2648865 0.059879862
-0.37849057 -0.264878 0.059763607
-0.37868983 -0.26485857 0.059723452
-0.37888667 -0.26483417 0.05972252
-0.37907156 -0.26480007 0.059804708
-0.37926826 -0.26478374 0.059743799
-0.37947088 -0.26476419 0.05970132
-0.37967926 -0.26474068 0.05968304
-0.37986195 -0.26471895 0.059675254
-0.38005099 -0.26469427 0.059683599
-0.38024947 -0.26467475 0.059644602
-0.38045365 -0.26465082 0.059633255
-0.38064674 -0.26462737 0.059628893
-0.38083324 -0.26460639 0.059611864
-0.38104203 -0.26458561 0.059572816
-0.38123941 -0.26455307 0.059631877
-0.38143015 -0.26453424 0.059595224
-0.38162068 -0.26451495 0.05956202
-0.38182428 -0.26449031 0.059556454
-0.38200179 -0.26446503 0.059579842
-0.38220808 -0.26445016 0.059499279
-0.38239914 -0.26442057 0.059542224
-0.38258961 -0.26440269 0.059498642
-0.38279226 -0.26438981 0.059406564
-0.38298085 -0.26436532 0.05941375
-0.38316965 -0.26434159 0.059415169
-0.38337159 -0.26431113 0.05945459
-0.38357624 -0.26429334 0.059397105
-0.38379359 -0.26426655 0.059394937
-0.38398638 -0.26424527 0.059374418
-0.38417083 -0.26421806 0.059405848
-0.38436809 -0.26420197 0.05934263
-0.38455093 -0.26418766 0.059279483
-0.38472953 -0.26417017 0.05924404
-0.3849268 -0.2641578 0.05915314
-0.38516021 -0.26411876 0.05922702
-0.38535181 -0.26409084 0.059257269
-0.38552904 -0.26406249 0.059303731
-0.38572645 -0.2640563 0.059166688
-0.38592541 -0.26403007 0.059177283
-0.3861067 -0.26400727 0.059178736
-0.38629502 -0.26398206 0.059191704
-0.38648736 -0.26396441 0.059144653
-0.38668293 -0.26394188 0.059131041
-0.3868818 -0.26391304 0.059161253
-0.38708109 -0.26389682 0.059096877
-0.38726237 -0.26387852 0.059064876
-0.38744709 -0.26385486 0.059069782
-0.3876425 -0.26382613 0.059102312
-0.38783067 -0.26381564 0.059005685
-0.38804024 -0.26378688 0.059025466
-0.38823202 -0.26376417 0.059016492
-0.38842019 -0.26374239 0.059004076
-0.388612 -0.26371783 0.059008934
-0.38880324 -0.26370296 0.058942288
-0.38899875 -0.2636753 0.058966748
-0.3891907 -0.26364884 0.058985453
-0.38937446 -0.26363614 0.058909614
-0.38957596 -0.26361951 0.058846377
-0.38975582 -0.26360714 0.058771707
-0.38994944 -0.26359519 0.058680821
-0.39015013 -0.26355359 0.05880446
-0.39034492 -0.26353189 0.058785081
-0.39053035 -0.26350257 0.058831505
-0.39071926 -0.26347387 0.058869842
-0.39091551 -0.26344362 0.058912754
-0.39111689 -0.26342455 0.058867969
-0.39131838 -0.26340437 0.058831267
-0.39150625 -0.26338246 0.058820002
-0.39170668 -0.26336691 0.058749847
-0.3919082 -0.26334533 0.058723532
-0.39210001 -0.2633206 0.058729541
-0.39230141 -0.26329935 0.058700915
-0.39250359 -0.26327458 0.05869766
-0.39268729 -0.26325506 0.058672577
-0.39287093 -0.26323554 0.058647484
-0.39306664 -0.26320925 0.058661565
-0.39326441 -0.26318815 0.058635257
-0.39345759 -0.26317084 0.058584742
-0.39364615 -0.26314574 0.058596548
-0.39383692 -0.26312488 0.058574893
-0.39401868 -0.26309988 0.058592491
-0.39420426 -0.26308444 0.058535095
-0.39441276 -0.26306108 0.058515664
-0.39459845 -0.26304471 0.058465187
-0.39481324 -0.2630128 0.058503401
-0.39500332 -0.26299343 0.058471359
-0.39519566 -0.26296771 0.058484294
-0.39537308 -0.26294586 0.058482308
-0.39557275 -0.26292777 0.058431767
-0.39576411 -0.26290479 0.058425102
-0.39594993 -0.26287881 0.058446147
-0.39615014 -0.26285088 0.058468275
-0.39633709 -0.26283064 0.058445487
-0.3965371 -0.26281127 0.05840417
-0.39674753 -0.26279092 0.058360502
-0.39692813 -0.26276958 0.058351573
-0.39713594 -0.26274738 0.058324065
-0.39731833 -0.26272941 0.058288611
-0.39749223 -0.26271513 0.058233574
-0.3976801 -0.26269245 0.058228076
-0.39788172 -0.26266217 0.058266353
-0.39807931 -0.26263365 0.05829541
-0.3982693 -0.26262015 0.058219541
-0.39845124 -0.26260272 0.058180623
-0.39864978 -0.26257253 0.05822121
-0.39885455 -0.26254961 0.058201797
-0.39905497 -0.26252243 0.058218151
-0.39924353 -0.26249889 0.05821842
-0.39944676 -0.2624788 0.058179408
-0.3996374 -0.26245749 0.058161199
-0.39984637 -0.26243868 0.058107164
-0.40002382 -0.26241732 0.058101706
-0.40021876 -0.26239979 0.058051199
-0.40041083 -0.26237598 0.05805029
-0.40059483 -0.26234928 0.058078263
-0.40078029 -0.26234162 0.057963192
-0.40096068 -0.26233646 0.057834305
-0.40115136 -0.26230955 0.057857636
-0.40134966 -0.26228109 0.057885539
-0.40155753 -0.26224819 0.057937622
-0.40175992 -0.26222387 0.057930905
-0.40195432 -0.26220176 0.057914998
-0.40214655 -0.26217327 0.057948701
-0.40233415 -0.26216117 0.057864763
-0.4025301 -0.26214153 0.057829238
-0.40271807 -0.26211929 0.057820283
-0.40289629 -0.26211083 0.057717934
-0.40309682 -0.26207557 0.057794277
-0.40329954 -0.26204658 0.057822168
-0.40350112 -0.26202807 0.057772767
-0.40370122 -0.26199844 0.057807591
-0.40390131 -0.26197332 0.057808951
-0.40409544 -0.26195607 0.057757288
