# .PCD v0.7 - Point Cloud Data file format
VERSION 0.7
FIELDS x y z
SIZE 4 4 4
TYPE F F F
COUNT 1 1 1
WIDTH 1291
HEIGHT 1
VIEWPOINT 0 0 0 1 0 0 0
POINTS 1291
DATA ascii
-0.21118857 -0.25850293 0.053825386
-0.21138224 -0.25852877 0.053846803
-0.21155632 -0.25855607 0.053835973
-0.2117431 -0.25858638 0.053817026
-0.21193227 -0.2586233 0.053751938
-0.21212025 -0.25865018 0.053759519
-0.212311 -0.25868076 0.053742882
-0.21249907 -0.25871298 0.053711243
-0.21268387 -0.25874186 0.05370038
-0.21288353 -0.25876987 0.053712551
-0.21306697 -0.25880483 0.053655542
-0.21324116 -0.25883481 0.053625099
-0.21343806 -0.25885943 0.053659204
-0.21364698 -0.25887984 0.053737104
-0.21383841 -0.2589204 0.053647775
-0.21401119 -0.25895128 0.053609259
-0.21420784 -0.25898132 0.053602982
-0.21441254 -0.25901192 0.053601295
-0.21459375 -0.25904313 0.053569686
-0.21479252 -0.25906971 0.053591087
-0.21496558 -0.2591005 0.053553723
-0.2151624 -0.25913307 0.053528991
-0.21533996 -0.25916621 0.053478915
-0.21551882 -0.25919393 0.053470384
-0.21572578 -0.25921893 0.053512529
-0.21590242 -0.25925493 0.053440541
-0.21611241 -0.25928554 0.053444609
-0.21628886 -0.25931463 0.05342339
-0.21648598 -0.25934488 0.053415965
-0.21666168 -0.25937667 0.05337397
-0.2168496 -0.25940698 0.053356178
-0.2170437 -0.25943428 0.053367216
-0.21724445 -0.25946745 0.053342465
-0.21743353 -0.25949731 0.053329289
-0.21760997 -0.25952655 0.053306911
-0.21780398 -0.25955853 0.053283338
-0.21799397 -0.25959244 0.053241309
-0.21818225 -0.25961623 0.053271972
-0.21839128 -0.25964358 0.053299118
-0.21857235 -0.25968164 0.05321674
-0.21876058 -0.25970995 0.053213947
-0.21895975 -0.25974193 0.053196128
-0.21916068 -0.25977105 0.05320137
-0.21933845 -0.25980204 0.053167459
-0.21951354 -0.2598342 0.053122006
-0.21968891 -0.25985998 0.053123862
-0.21990325 -0.25987935 0.053215597
-0.22009373 -0.25991741 0.053143576
-0.2202889 -0.25994518 0.0531523
-0.22046199 -0.25998443 0.053052638
-0.22066751 -0.26000795 0.053104024
-0.22086099 -0.26004067 0.053074673
-0.22103259 -0.26007637 0.052999251
-0.22123969 -0.2600995 0.053055242
-0.22143754 -0.26013052 0.053043194
-0.22162998 -0.26016572 0.052994244
-0.22181389 -0.26019451 0.052983381
-0.22200289 -0.26022717 0.052949429
-0.22217827 -0.26025939 0.052903987
-0.2223756 -0.26028687 0.052917317
-0.22257456 -0.26031381 0.05293642
-0.22276765 -0.26034692 0.052903611
-0.22296402 -0.26037881 0.052883487
-0.22314218 -0.26040813 0.052862264
-0.22332127 -0.26043901 0.052830648
-0.22352111 -0.26046968 0.052823216
-0.22374392 -0.26049751 0.052861862
-0.22391027 -0.26052946 0.052808356
-0.22410642 -0.26056349 0.05277209
-0.2242981 -0.26059547 0.052746214
-0.22448778 -0.26062635 0.052726109
-0.22468093 -0.26065055 0.052759059
-0.22486696 -0.26068467 0.052711282
-0.22506043 -0.2607125 0.052717701
-0.22527277 -0.26074284 0.052726384
-0.22545956 -0.26077676 0.052680902
-0.22563396 -0.26081491 0.052590467
-0.22584826 -0.26084116 0.052631445
-0.22606061 -0.26087525 0.052612431
-0.22623681 -0.26090398 0.052593522
-0.22642936 -0.26093075 0.052606873
-0.2266127 -0.26096243 0.052574087
-0.22681469 -0.26098621 0.052619714
-0.22698407 -0.26102254 0.052537367
-0.22718638 -0.26105154 0.052544914
-0.22737461 -0.26108003 0.052540969
-0.22756553 -0.26111281 0.052508175
-0.22776389 -0.26114327 0.052500736
-0.22794928 -0.26117617 0.052461028
-0.22814371 -0.2612012 0.05248937
-0.22835097 -0.26123407 0.052473828
-0.22854592 -0.26126745 0.052441023
-0.22874916 -0.26129833 0.052435882
-0.22893244 -0.26133204 0.052388113
-0.2291207 -0.26135924 0.052393392
-0.22932097 -0.2613928 0.052365184
-0.22953409 -0.26142091 0.052391168
-0.22973359 -0.26145154 0.052383728
-0.22990918 -0.26148927 0.052297905
-0.23010489 -0.26151618 0.052313548
-0.23029056 -0.26154774 0.052284226
-0.23048666 -0.26157629 0.052288327
-0.23067889 -0.26160443 0.052291293
-0.23089467 -0.26164186 0.052251507
-0.23108506 -0.26167378 0.052224483
-0.23126955 -0.26170108 0.052225158
-0.23146376 -0.26173043 0.052221194
-0.2316688 -0.26176316 0.052204512
-0.23187728 -0.26179495 0.052198198
-0.23205525 -0.26182425 0.052176975
-0.23224357 -0.26185852 0.052130338
-0.23242612 -0.26188663 0.052122951
-0.23262505 -0.26191813 0.05210859
-0.23282856 -0.26194996 0.05209652
-0.23304074 -0.26198262 0.052087896
-0.23322767 -0.26201436 0.05205857
-0.233441 -0.26204532 0.052063789
-0.23360687 -0.26207501 0.052026439
-0.23378292 -0.26210514 0.051997144
-0.23400956 -0.26213133 0.052051935
-0.23421896 -0.26216656 0.052021392
-0.23440513 -0.26220021 0.051977076
-0.23457485 -0.26223204 0.051928177
-0.2347696 -0.26225916 0.051941521
-0.23497248 -0.26229167 0.051923685
-0.23518749 -0.2623257 0.051908135
-0.23534904 -0.26235524 0.051867336
-0.23556815 -0.26238689 0.051873691
-0.23576981 -0.26241845 0.051861636
-0.23593995 -0.26245037 0.051812738
-0.23616016 -0.26247904 0.051842164
-0.2363531 -0.26250994 0.051825512
-0.23655379 -0.26254484 0.051788073
-0.23675023 -0.262575 0.051780649
-0.23693585 -0.26260057 0.051795166
-0.23714103 -0.26263455 0.051769253
-0.23735087 -0.26266751 0.051756017
-0.23754916 -0.26269889 0.05174166
-0.23775133 -0.26273084 0.051727291
-0.23795073 -0.2627649 0.051694468
-0.2381524 -0.26279286 0.051708944
-0.23834172 -0.26283342 0.051617317
-0.23853523 -0.26286191 0.05161912
-0.23872732 -0.26288798 0.05163708
-0.23892823 -0.26291913 0.051627334
-0.23912027 -0.26295224 0.051593378
-0.23930699 -0.26298377 0.051565211
-0.23951155 -0.26301703 0.05154391
-0.23973155 -0.26305118 0.051532958
-0.23992488 -0.26308417 0.051501308
-0.24012166 -0.26311377 0.051498491
-0.24033529 -0.26314807 0.051479485
-0.24052948 -0.26317695 0.051478975
-0.24073401 -0.26321054 0.051455375
-0.24093881 -0.26324004 0.051461764
-0.1460249 -0.25230685 0.028226972
-0.14621365 -0.25234199 0.028174549
-0.14641145 -0.25237706 0.0281325
-0.1465954 -0.2524085 0.028102012
-0.14679083 -0.2524451 0.028046113
-0.14696679 -0.25247362 0.028028343
-0.14715008 -0.25250372 0.028007086
-0.1473297 -0.25253186 0.027996225
-0.1475099 -0.25256041 0.027983055
-0.14768896 -0.2525897 0.027962957
-0.14786591 -0.25261793 0.027948642
-0.14803289 -0.25264058 0.027964346
-0.1482078 -0.25266644 0.027965024
-0.14838032 -0.25269103 0.027972635
-0.14855398 -0.25271764 0.027966399
-0.14871512 -0.25273582 0.028008651
-0.14887808 -0.25275505 0.02804512
-0.14903902 -0.25277588 0.028067756
-0.1492033 -0.25279593 0.028099613
-0.14936101 -0.25281221 0.02815225
-0.14952159 -0.25283015 0.028195653
-0.14967568 -0.2528443 0.028259838
-0.1498298 -0.25285846 0.028324021
-0.14998578 -0.25287509 0.028372046
-0.15013498 -0.25288633 0.028452387
-0.15028498 -0.25289798 0.028530426
-0.15042663 -0.25290465 0.028636163
-0.15056947 -0.25291196 0.028738443
-0.15071627 -0.25292301 0.028817642
-0.15086111 -0.25293139 0.028914142
-0.1509999 -0.25293607 0.029031429
-0.1511399 -0.25294137 0.029145246
-0.15128282 -0.2529484 0.029249828
-0.15141627 -0.25295103 0.029376358
-0.15155278 -0.25295395 0.029504031
-0.151692 -0.25295696 0.029633995
-0.1518333 -0.25296262 0.029746655
-0.15198344 -0.25297371 0.029829305
-0.15210725 -0.25296533 0.030026222
-0.15223043 -0.25295937 0.030204684
-0.14604577 -0.2481561 0.058810666
-0.1462653 -0.24819347 0.05877547
-0.14649588 -0.24824798 0.058626048
-0.14671826 -0.24828954 0.058563162
-0.14692593 -0.2483018 0.058699869
-0.14714067 -0.24833454 0.058693528
-0.14735767 -0.24836886 0.058677945
-0.14757422 -0.24840501 0.058648527
-0.14778388 -0.24843463 0.058659501
-0.14792967 -0.24844567 0.058737546
-0.14822865 -0.24851131 0.058581021
-0.14842652 -0.24853528 0.058620859
-0.14864789 -0.24857527 0.058568366
-0.14886758 -0.24861015 0.058551624
-0.14908117 -0.24864303 0.058542974
-0.14929798 -0.24868031 0.058505476
-0.14943539 -0.24868774 0.058600847
-0.14972788 -0.24875477 0.058427043
-0.14993864 -0.2487819 0.05845762
-0.15013942 -0.2488063 0.058497455
-0.15036517 -0.24884835 0.058434561
-0.15057838 -0.24888384 0.058406297
-0.15079214 -0.24891768 0.058390733
-0.15100515 -0.24895111 0.058377467
-0.15120871 -0.24898218 0.058371156
-0.15134808 -0.24899539 0.058426149
-0.15163386 -0.2490467 0.058360785
-0.15185019 -0.24908516 0.058314059
-0.15206094 -0.24911745 0.058306579
-0.15226859 -0.24914756 0.058311783
-0.15250075 -0.2491959 0.05820965
-0.15270448 -0.24922559 0.058213718
-0.15290925 -0.24925387 0.058229312
-0.15311638 -0.24928625 0.058217227
-0.15332247 -0.24931566 0.0582259
-0.15353495 -0.24935231 0.058188416
-0.15375069 -0.24938926 0.05815208
-0.1539548 -0.24941744 0.058167681
-0.15415934 -0.24944599 0.05818098
-0.15437402 -0.24948484 0.058129638
-0.15459493 -0.24952632 0.058065608
-0.15479793 -0.24955638 0.058066212
-0.15500283 -0.24958561 0.058074895
-0.15521364 -0.24962199 0.058037411
-0.15541852 -0.24965139 0.05804494
-0.15561906 -0.24967982 0.058054782
-0.15583257 -0.24971628 0.058019601
-0.15603873 -0.24974696 0.058019049
-0.15624949 -0.24978146 0.057995416
-0.15645796 -0.24981672 0.057963707
-0.15666996 -0.24985249 0.057931989
-0.15686598 -0.24987774 0.057960305
-0.1570192 -0.24988785 0.058053326
-0.15721911 -0.24993169 0.057948977
-0.15749185 -0.24998027 0.057889413
-0.15770054 -0.25001648 0.057850786
-0.15790358 -0.25004545 0.057859473
-0.15810701 -0.25007746 0.05784623
-0.1583105 -0.25010693 0.057851456
-0.15852305 -0.25014704 0.057788596
-0.15872428 -0.25017479 0.057804201
-0.15892754 -0.25020707 0.057788663
-0.1591395 -0.25024441 0.057745408
-0.15933648 -0.25027135 0.057762187
-0.15955374 -0.25031373 0.057687774
-0.15975609 -0.25034571 0.057673387
-0.15996099 -0.2503773 0.057664763
-0.16016388 -0.25040999 0.057645764
-0.16036685 -0.25044003 0.057646371
-0.16057068 -0.25047383 0.057620455
-0.16077863 -0.25050867 0.057591058
-0.16098051 -0.25054091 0.057574362
-0.16118671 -0.25057441 0.057553045
-0.16138357 -0.25060216 0.057564054
-0.1615887 -0.25063485 0.057547349
-0.16179582 -0.25067258 0.057496041
-0.16199486 -0.2506997 0.057513963
-0.16219932 -0.25073513 0.057476506
-0.16240025 -0.25076425 0.057481728
-0.16257571 -0.25078675 0.057507787
-0.16279271 -0.25082263 0.057480674
-0.16299663 -0.25087366 0.05732787
-0.16320854 -0.25090176 0.05735267
-0.16341345 -0.25092912 0.057375193
-0.16357887 -0.25095764 0.057345912
-0.16376929 -0.25099912 0.057248507
-0.16401312 -0.2510412 0.05720517
-0.16421451 -0.25105551 0.057319976
-0.164423 -0.25109029 0.057291735
-0.16462196 -0.25112179 0.057277355
-0.16481307 -0.25114834 0.057290688
-0.16501749 -0.25118253 0.05726245
-0.16519965 -0.25120634 0.057286184
-0.16541307 -0.25124374 0.057244085
-0.16560569 -0.2512688 0.057270102
-0.16580851 -0.25131574 0.057146132
-0.16601463 -0.25134203 0.057177871
-0.16620119 -0.2513676 0.057193525
-0.16638976 -0.2513991 0.057167638
-0.16660348 -0.25142699 0.057195902
-0.16682047 -0.25147337 0.057091508
-0.16700423 -0.25150713 0.057043716
-0.16722426 -0.25153911 0.057048887
-0.16742277 -0.25157192 0.057024136
-0.16762654 -0.25160742 0.05698552
-0.16782005 -0.25163448 0.056997698
-0.16801089 -0.25165835 0.057030637
-0.16817775 -0.25168005 0.057053249
-0.16840607 -0.25172687 0.056958057
-0.1686023 -0.25174963 0.057004817
-0.16879749 -0.25178322 0.056970846
-0.16898544 -0.25181589 0.056935728
-0.1691888 -0.25183973 0.05698248
-0.16940503 -0.25188884 0.056857318
-0.16959889 -0.25191298 0.056891412
-0.16979405 -0.25194311 0.05688281
-0.16998637 -0.25196955 0.056898437
-0.1701892 -0.25201038 0.056819458
-0.17038634 -0.25203922 0.056822389
-0.17058246 -0.25207123 0.056801096
-0.17077571 -0.25209936 0.05680519
-0.17094532 -0.25212133 0.056828965
-0.17115225 -0.25216463 0.056736127
-0.17135133 -0.25219223 0.056750588
-0.17155406 -0.25223479 0.056658909
-0.17176075 -0.25225472 0.056737948
-0.17196082 -0.25228888 0.05670511
-0.17213616 -0.25231013 0.056740396
-0.17234305 -0.25235015 0.056671791
-0.17253323 -0.25237954 0.056663204
-0.17274022 -0.25241002 0.056664951
-0.17292105 -0.25244021 0.056640241
-0.17310667 -0.25246784 0.056639742
-0.17328402 -0.252498 0.056611583
-0.17352059 -0.25254041 0.056557886
-0.17369799 -0.25256556 0.056566637
-0.17388506 -0.25258493 0.056628428
-0.17410284 -0.25261796 0.056623228
-0.17430525 -0.25265858 0.056545399
-0.1744975 -0.25269315 0.056501053
-0.17466518 -0.25271887 0.056494832
-0.17483193 -0.25274903 0.056455158
-0.17508394 -0.25278589 0.056459103
-0.17526774 -0.25281778 0.056425158
-0.17548192 -0.25285795 0.056363441
-0.17567202 -0.25288343 0.056383695
-0.17584035 -0.25290471 0.056410935
-0.17604278 -0.25293514 0.056408085
-0.17621017 -0.25296131 0.056398403
-0.17638785 -0.25298148 0.05644406
-0.1766101 -0.25304055 0.056251988
-0.1768055 -0.25305647 0.05634835
-0.17700522 -0.25309637 0.056272846
-0.17718957 -0.25313196 0.056212366
-0.17741548 -0.25315681 0.056276347
-0.17761636 -0.25319281 0.056230821
-0.17780586 -0.2532177 0.056254536
-0.17798114 -0.25324848 0.056219466
-0.17817165 -0.25327605 0.056224722
-0.17835695 -0.2533074 0.056196541
-0.17853379 -0.25333434 0.056191444
-0.1787307 -0.25336143 0.056207076
-0.17893262 -0.25340244 0.056125782
-0.17914727 -0.25344238 0.056066375
-0.17933609 -0.2534661 0.056098171
-0.17951299 -0.25349414 0.056085005
-0.1797137 -0.25352338 0.056089081
-0.17994206 -0.25356582 0.056026179
-0.18013076 -0.25358936 0.056059122
-0.18032034 -0.25362682 0.055990554
-0.18050604 -0.25365162 0.05601082
-0.18067798 -0.25367549 0.05602305
-0.18086278 -0.25370926 0.055976406
-0.18108486 -0.25374401 0.055963129
-0.18128881 -0.25377437 0.055962574
-0.18147528 -0.2538026 0.055958614
-0.18166934 -0.25383443 0.05593618
-0.1818375 -0.25385725 0.055951878
-0.18201517 -0.25389233 0.055887956
-0.18220611 -0.25392669 0.055843607
-0.18239449 -0.25394908 0.055884629
-0.18260941 -0.25398499 0.055855215
-0.18282007 -0.25401679 0.055851184
-0.18300572 -0.25404269 0.05586338
-0.18319933 -0.25407526 0.055835165
-0.18338168 -0.25410208 0.055836987
-0.1835753 -0.25413591 0.055799559
-0.18376875 -0.25416926 0.055765588
-0.18394865 -0.25420511 0.055698201
-0.18414579 -0.25424275 0.05563654
-0.18435834 -0.25426561 0.055700555
-0.18453318 -0.25428927 0.055717386
-0.18473323 -0.25432405 0.055679943
-0.18491909 -0.25435594 0.055648301
-0.18512233 -0.25439039 0.055616606
-0.18529391 -0.25441876 0.055595387
-0.18547569 -0.25444472 0.055602968
-0.18564339 -0.25446606 0.055629045
-0.18583629 -0.25451043 0.055513181
-0.18604234 -0.25453702 0.055542618
-0.18625556 -0.25457281 0.055512059
-0.18644074 -0.25460538 0.055474643
-0.18665731 -0.25462869 0.055539817
-0.18684593 -0.25465894 0.055523153
-0.18703438 -0.25469342 0.055475362
-0.18721591 -0.25472137 0.055467945
-0.18740471 -0.25474304 0.055514734
-0.1875789 -0.25477663 0.055457748
-0.1877743 -0.25480664 0.055450298
-0.18796921 -0.25484303 0.055395558
-0.18816802 -0.25487307 0.055391569
-0.18835299 -0.2548995 0.05539915
-0.18854778 -0.25493395 0.055358246
-0.18873234 -0.25496379 0.055340447
-0.18891761 -0.25498727 0.05536994
-0.1890845 -0.25501603 0.055340655
-0.18930312 -0.25505576 0.055287007
-0.1894982 -0.25508526 0.055283025
-0.189694 -0.25511032 0.055312492
-0.18987037 -0.25514472 0.055252034
-0.19006754 -0.25518188 0.05519383
-0.19026351 -0.25520602 0.055230215
-0.19045053 -0.25523919 0.055190492
-0.19063251 -0.25526205 0.055221144
-0.19083157 -0.25528917 0.055239066
-0.1910084 -0.25531906 0.055212069
-0.19120181 -0.25535473 0.055160794
-0.19138008 -0.25537831 0.055182226
-0.19157149 -0.25540724 0.055178255
-0.19176733 -0.25544626 0.055105057
-0.19195956 -0.25547189 0.055126455
-0.19215553 -0.25549746 0.055152465
-0.19232623 -0.25553429 0.055067796
-0.19253385 -0.25556892 0.055039559
-0.19273332 -0.25560597 0.054984808
-0.19290933 -0.25562561 0.055032782
-0.19310597 -0.25565988 0.054995336
-0.19326691 -0.25569117 0.054940693
-0.19346876 -0.25572073 0.05494361
-0.19367027 -0.25574166 0.055009976
-0.19385523 -0.255777 0.054951802
-0.19401389 -0.25580406 0.054926001
-0.19418959 -0.25583443 0.05489438
-0.19439772 -0.25586665 0.05488459
-0.19459744 -0.2558926 0.054911736
-0.19480398 -0.25592837 0.054874275
-0.1949801 -0.25595739 0.054853037
-0.19518851 -0.25598887 0.054849021
-0.1953574 -0.2560173 0.054824337
-0.19556744 -0.2560454 0.054846846
-0.19573107 -0.25607681 0.054794502
-0.1959175 -0.2561 0.054827452
-0.19610976 -0.25614083 0.054736961
-0.19630353 -0.25617141 0.054723755
-0.19648728 -0.25619969 0.054716334
-0.19668283 -0.25622705 0.054728493
-0.19688919 -0.256262 0.054696802
-0.1970588 -0.25629506 0.054638669
-0.19724384 -0.25632104 0.054649707
-0.19741233 -0.25634938 0.054625027
-0.19761828 -0.25637847 0.054636016
-0.1978038 -0.25640389 0.054651663
-0.19798653 -0.25643373 0.054631565
-0.19816798 -0.25645965 0.054639146
-0.198366 -0.25649521 0.054593626
-0.19854453 -0.25653118 0.054523945
-0.19870405 -0.25656667 0.054437004
-0.19891508 -0.25658852 0.054506801
-0.19911884 -0.25661555 0.054530472
-0.19930694 -0.25664839 0.054494206
-0.19950113 -0.25667807 0.054487914
-0.19968091 -0.25670123 0.054513965
-0.19986963 -0.25673825 0.054447714
-0.2000595 -0.25676852 0.05443221
-0.20025039 -0.25679255 0.05446399
-0.20044571 -0.25683069 0.054396562
-0.20062916 -0.25685924 0.054386843
-0.200802 -0.25689122 0.054340236
-0.20097487 -0.25691837 0.054329395
-0.20117833 -0.256951 0.054311544
-0.20136306 -0.25697801 0.054314505
-0.20154962 -0.25700295 0.054334767
-0.2017405 -0.25703654 0.054296188
-0.20193775 -0.25706291 0.054317571
-0.2021067 -0.25709447 0.054269828
-0.2023088 -0.2571286 0.054239295
-0.20250037 -0.25715697 0.054239932
-0.20267381 -0.25718778 0.054202553
-0.20286016 -0.25721332 0.05421821
-0.20304628 -0.25724745 0.054170411
-0.2032378 -0.25728002 0.054139905
-0.20340528 -0.2573126 0.054082938
-0.20360355 -0.25733835 0.054110087
-0.20380068 -0.25736535 0.054126855
-0.20397796 -0.2573922 0.054122917
-0.20416705 -0.25741547 0.05415817
-0.20435786 -0.2574487 0.0541219
-0.20454864 -0.25748196 0.054085627
-0.20473535 -0.25750396 0.054127805
-0.20492324 -0.25753614 0.054096155
-0.20511407 -0.25756562 0.054087568
-0.20529708 -0.25759849 0.054045554
-0.20548077 -0.25763428 0.053982768
-0.20567864 -0.25765762 0.054027226
-0.20585619 -0.25769156 0.053971384
-0.20604263 -0.25772133 0.053955883
-0.20623241 -0.25775522 0.053913847
-0.20641375 -0.25778583 0.053886835
-0.20662156 -0.25781158 0.053924341
-0.2067962 -0.2578443 0.053874273
-0.20699273 -0.2578693 0.053904887
-0.20717913 -0.25790581 0.053839784
-0.20735583 -0.25793353 0.053828929
-0.20757379 -0.25795829 0.053884864
-0.20774396 -0.25799114 0.05382904
-0.20791748 -0.25802132 0.05379628
-0.20809743 -0.25804982 0.053783108
-0.20829749 -0.25808209 0.053764109
-0.20847924 -0.2581093 0.053762466
-0.20868061 -0.25813144 0.053819604
-0.20885842 -0.25816166 0.053791441
-0.20902486 -0.25820303 0.053668723
-0.20924495 -0.25822717 0.053731572
-0.20943782 -0.25825867 0.0537103
-0.20961504 -0.2582863 0.053700596
-0.20979416 -0.25831264 0.05370241
-0.20999762 -0.25834575 0.053681105
-0.21017998 -0.25837287 0.053680614
-0.21037138 -0.25841123 0.053607427
-0.21056038 -0.25843966 0.053604621
-0.21074167 -0.25847042 0.053576451
-0.21091259 -0.25850227 0.053528689
-0.21110368 -0.25852945 0.053537406
-0.21129797 -0.25855741 0.053543802
-0.21148895 -0.25858209 0.053570982
-0.21168143 -0.25861949 0.053505864
-0.21188214 -0.25864905 0.053507634
-0.21206227 -0.25867787 0.053492155
-0.2122594 -0.25870439 0.053512391
-0.21244378 -0.25873339 0.053500358
-0.21262276 -0.25877351 0.053400673
-0.21280825 -0.25879923 0.053414021
-0.21299514 -0.25881904 0.053472344
-0.21319149 -0.25885406 0.053429138
-0.21337914 -0.25888386 0.053414788
-0.21356975 -0.25891709 0.053378526
-0.21374798 -0.25894469 0.053369969
-0.21392843 -0.25897861 0.053317577
-0.21412656 -0.2590076 0.053320505
-0.2143425 -0.25903678 0.053341843
-0.21450326 -0.25906914 0.053279124
-0.21470959 -0.25909877 0.053286638
-0.21490549 -0.25913402 0.053241126
-0.21507511 -0.25916162 0.053223372
-0.21525505 -0.25918853 0.053221729
-0.21545324 -0.25922024 0.053205051
-0.21563217 -0.25925249 0.05316304
-0.21582147 -0.25928175 0.053154461
-0.21601485 -0.25931132 0.053148177
-0.21619283 -0.25934407 0.053101558
-0.21638879 -0.25937009 0.0531241
-0.21658033 -0.25940299 0.053091284
-0.21678019 -0.25943178 0.053097665
-0.2169707 -0.25946295 0.053076401
-0.21715292 -0.25949368 0.053049378
-0.2173412 -0.25952372 0.053033873
-0.21753025 -0.25955123 0.053037979
-0.21771969 -0.25958303 0.053010944
-0.21792184 -0.25960669 0.053057693
-0.2180969 -0.25964087 0.052997235
-0.21829849 -0.2596693 0.053008232
-0.2184803 -0.25970685 0.052930463
-0.21866235 -0.25973567 0.052917276
-0.21886298 -0.25976256 0.052938655
-0.21905057 -0.25978687 0.052964684
-0.21924897 -0.25982124 0.052928392
-0.21942753 -0.25985596 0.052867927
-0.21960041 -0.25988686 0.0528294
-0.21978994 -0.25990847 0.052877337
-0.21999522 -0.25993997 0.052869871
-0.2201879 -0.25996661 0.05288434
-0.22035143 -0.26001379 0.052715492
-0.2205615 -0.26003927 0.05275761
-0.22078535 -0.26006317 0.052826218
-0.22095779 -0.26010042 0.052740395
-0.2211315 -0.26013708 0.052660335
-0.22133899 -0.26015997 0.052718606
-0.22153628 -0.26018119 0.052778061
-0.22171634 -0.26021925 0.052694529
-0.22192729 -0.26024893 0.05270664
-0.22211325 -0.26027879 0.052689996
-0.22228283 -0.26031703 0.052593805
-0.22246253 -0.26033971 0.052623309
-0.2226827 -0.26035067 0.052783053
-0.22285351 -0.26039803 0.052621104
-0.22304463 -0.2604318 0.05258137
-0.22323041 -0.26046759 0.052520897
-0.22343141 -0.26049203 0.052560728
-0.22362599 -0.26052082 0.052561358
-0.22382028 -0.26055536 0.052519307
-0.22400419 -0.26058444 0.052506126
-0.22423254 -0.26061404 0.05253781
-0.22441414 -0.26064593 0.052501559
-0.22459614 -0.26067582 0.052480306
-0.22480156 -0.26070654 0.052478608
-0.22498843 -0.26073843 0.052448113
-0.22519501 -0.26076886 0.05244986
-0.22538264 -0.26080054 0.052421674
-0.22555192 -0.26082963 0.052392386
-0.22574179 -0.26086417 0.052345738
-0.22594991 -0.26089248 0.052364785
-0.2261534 -0.26092243 0.05236654
-0.22634763 -0.26095557 0.052334879
-0.22653177 -0.2609781 0.052370142
-0.22671475 -0.26101506 0.052298129
-0.22690846 -0.26104498 0.052289546
-0.22708972 -0.26107556 0.052262522
-0.2272962 -0.26110315 0.052285034
-0.22749545 -0.26113999 0.052231446
-0.22768283 -0.26117212 0.052199788
-0.22786918 -0.26119781 0.052214287
-0.22807695 -0.26122528 0.052239105
-0.22825357 -0.26126423 0.052145202
-0.22843108 -0.26129285 0.052128568
-0.22864506 -0.26131859 0.052172985
-0.22883683 -0.2613562 0.052105568
-0.22903632 -0.26138651 0.052100416
-0.22924149 -0.26141188 0.052137926
-0.2294343 -0.26144433 0.052109726
-0.22963363 -0.26147649 0.052090738
-0.22983211 -0.26150572 0.052092507
-0.23000023 -0.2615439 0.051995166
-0.23020679 -0.26157245 0.05201076
-0.23039797 -0.26160228 0.05199986
-0.23062468 -0.26163322 0.052020013
-0.23074962 -0.26167092 0.051878951
-0.23098621 -0.26168481 0.052035198
-0.23117159 -0.26172602 0.051934343
-0.23138537 -0.26175767 0.051934924
-0.23160264 -0.26179314 0.051911272
-0.23178834 -0.2618233 0.051892314
-0.23196788 -0.26185048 0.051888373
-0.23214486 -0.2618815 0.051853284
-0.23236121 -0.26191276 0.051859625
-0.23256314 -0.26194641 0.051832553
-0.2327694 -0.26197743 0.051829692
-0.2329576 -0.26200715 0.051816501
-0.23314607 -0.2620399 0.051781394
-0.23333651 -0.26206762 0.051785491
-0.23355851 -0.26210535 0.051750287
-0.23374102 -0.2621322 0.051752105
-0.23392063 -0.26216283 0.05172278
-0.23411712 -0.2621952 0.051699191
-0.23433676 -0.26222771 0.051699758
-0.23451547 -0.26225871 0.051666975
-0.23471266 -0.26229101 0.05164453
-0.23492208 -0.26232627 0.051613972
-0.23512569 -0.26235563 0.051620342
-0.23530459 -0.26238522 0.051597945
-0.23550169 -0.26241627 0.051584732
-0.2356815 -0.26245007 0.051532343
-0.23592146 -0.26247966 0.051576685
-0.23609217 -0.26250994 0.051540472
-0.23627497 -0.26254168 0.051506527
-0.23651159 -0.26257375 0.051528953
-0.23671655 -0.26260471 0.051524948
-0.23688139 -0.26263505 0.051481821
-0.23708776 -0.26266295 0.051502034
-0.23729615 -0.26269755 0.051474947
-0.23750338 -0.26273245 0.051444389
-0.23768856 -0.26276395 0.05141506
-0.23788433 -0.26279306 0.051414534
-0.23809165 -0.26282111 0.051434737
-0.23826951 -0.26285571 0.051374283
-0.23846635 -0.26289034 0.051334538
-0.23867944 -0.26292282 0.05132819
-0.23886427 -0.26294908 0.051336922
-0.23907289 -0.26298404 0.051307529
-0.23928152 -0.2630204 0.051267743
-0.23949432 -0.2630491 0.051289089
-0.2396879 -0.26308462 0.051238976
-0.23990972 -0.26311293 0.051272985
-0.24007942 -0.26314539 0.05121946
-0.24030107 -0.26317525 0.051241934
-0.24046667 -0.26320726 0.051187281
-0.24067493 -0.26323995 0.05117403
-0.24087133 -0.2632778 0.051110059
-0.14609906 -0.25233296 0.028115794
-0.14628042 -0.25236291 0.028093394
-0.14646398 -0.25239289 0.028073296
-0.14664838 -0.25242472 0.028040497
-0.14682876 -0.25245312 0.028028484
-0.14699981 -0.25247905 0.028024564
-0.14717634 -0.25250548 0.028022926
-0.14735141 -0.25253245 0.028015537
-0.14752683 -0.25255841 0.028016213
-0.14769624 -0.25258237 0.028024983
-0.14786023 -0.25260332 0.028049901
-0.14802939 -0.25262457 0.028078277
-0.148205 -0.25265086 0.028076645
-0.14836438 -0.25267068 0.028105043
-0.14852266 -0.25268719 0.028156511
-0.14867908 -0.25270262 0.028213741
-0.14883931 -0.25272161 0.028249057
-0.14899756 -0.25273812 0.028300524
-0.14915641 -0.25275362 0.028360058
-0.1493054 -0.25276747 0.028420765
-0.14945817 -0.25277939 0.02849992
-0.14960393 -0.25278997 0.028581399
-0.1497519 -0.25280041 0.028666332
-0.14989924 -0.25281042 0.028753579
-0.15004033 -0.25281668 0.028861593
-0.15018226 -0.25282481 0.02895692
-0.15033066 -0.2528339 0.029052231
-0.15046972 -0.25284019 0.029157942
-0.15060864 -0.25284487 0.02927519
-0.15074429 -0.25284752 0.029403975
-0.15087563 -0.25284889 0.029537387
-0.1510106 -0.25285238 0.029659256
-0.15114601 -0.2528531 0.029801887
-0.1512758 -0.25285175 0.029953748
-0.15140536 -0.25284863 0.0301183
-0.15152487 -0.25284213 0.030296721
-0.15164123 -0.25283206 0.030498207
-0.14526699 -0.24806713 0.058614612
-0.1454913 -0.2481074 0.05856327
-0.14571351 -0.24814454 0.058532685
-0.14592965 -0.24817984 0.058509037
-0.14613378 -0.24820551 0.058543082
-0.14636111 -0.24824826 0.058476735
-0.1465693 -0.24827674 0.058494624
-0.14677936 -0.24830846 0.058490593
-0.14699557 -0.24834237 0.05847732
-0.14721783 -0.24838233 0.058425982
-0.14743024 -0.24841394 0.058425408
-0.14764494 -0.24844714 0.058415595
-0.14786153 -0.24848172 0.058397714
-0.14807138 -0.24851388 0.058390222
-0.14828995 -0.24855001 0.05836311
-0.14850444 -0.24858554 0.058336005
-0.14872959 -0.2486264 0.058281198
-0.14894184 -0.24866064 0.058261022
-0.14914522 -0.24868684 0.058290448
-0.14935306 -0.24871823 0.058286425
-0.14957349 -0.24875636 0.058246616
-0.14978583 -0.24879108 0.058222987
-0.15000178 -0.24882635 0.058199339
-0.15021031 -0.24885865 0.058189541
-0.15042695 -0.24889463 0.058161281
-0.15063807 -0.24892683 0.058154941
-0.15085265 -0.24896158 0.058133602
-0.15106182 -0.24899475 0.058118049
-0.15126885 -0.2490243 0.058126714
-0.15148096 -0.24905978 0.058097303
-0.15169312 -0.24909323 0.058082893
-0.15190104 -0.2491259 0.058069654
-0.15210237 -0.24915163 0.058100238
-0.15232171 -0.24919288 0.058036216
-0.15254003 -0.24923132 0.057991806
-0.1527565 -0.24926855 0.057954319
-0.15296443 -0.24930857 0.057886872
-0.15316296 -0.24932809 0.057960141
-0.15337276 -0.24935837 0.057966489
-0.15358365 -0.24939413 0.057933625
-0.1537945 -0.24942771 0.057916917
-0.15400267 -0.24946165 0.057894439
-0.15421239 -0.24949458 0.057881191
-0.15441918 -0.24952535 0.057880629
-0.15463084 -0.24955998 0.057856988
-0.15483606 -0.2495921 0.057844903
-0.15504363 -0.24962376 0.05783857
-0.15525171 -0.24965833 0.057811491
-0.15545413 -0.24968611 0.057828236
-0.15567365 -0.24973005 0.057744615
-0.15587649 -0.24975835 0.057757907
-0.15609586 -0.24980007 0.057690419
-0.15629202 -0.24982315 0.057734862
-0.15649267 -0.24985239 0.057738937
-0.15670344 -0.24988751 0.057710692
-0.15690635 -0.2499188 0.057702072
-0.1571179 -0.24995482 0.057668053
-0.15732665 -0.24999121 0.057628278
-0.15751693 -0.2500225 0.057605851
-0.15774463 -0.25005966 0.057581022
-0.15795378 -0.25009423 0.057555079
-0.15814795 -0.25011876 0.057586852
-0.15830205 -0.25012994 0.057672922
-0.15852159 -0.25016841 0.057629656
-0.1587337 -0.2502059 0.057585262
-0.15897812 -0.25025576 0.057485431
-0.15918794 -0.25029168 0.057450257
-0.1593979 -0.2503306 0.057393186
-0.15959421 -0.2503548 0.05742956
-0.15979204 -0.25038314 0.057437096
-0.1599997 -0.25041765 0.057410009
-0.16020223 -0.25044763 0.057410616
-0.16041243 -0.2504847 0.057367377
-0.16061446 -0.25051728 0.057348382
-0.16081861 -0.25054905 0.057337448
-0.16102192 -0.25058308 0.057309221
-0.16122417 -0.25061911 0.057264853
-0.16140655 -0.25064531 0.057271279
-0.16161788 -0.25066674 0.057344507
-0.16182743 -0.25070715 0.057275906
-0.16203822 -0.25074604 0.057219978
-0.16224764 -0.2507838 0.05717098
-0.16244511 -0.25081006 0.057193507
-0.16264339 -0.25084019 0.057188354
-0.16283274 -0.25086772 0.057192456
-0.1630484 -0.25090608 0.057145745
-0.16325159 -0.25093836 0.057130203
-0.16344354 -0.25096565 0.057138909
-0.16361777 -0.25098768 0.057167269
-0.16382946 -0.25102577 0.057118259
-0.16405331 -0.25107017 0.057035781
-0.16423523 -0.25109068 0.057083722
-0.16444457 -0.25113013 0.057022039
-0.16464306 -0.25115168 0.057080314
-0.16484319 -0.25119165 0.057004817
-0.16499101 -0.25120926 0.057036705
-0.16520472 -0.25125751 0.056915037
-0.1654429 -0.25128496 0.056973208
-0.16564585 -0.25130811 0.057024553
-0.16585822 -0.25135568 0.056906346
-0.16605949 -0.25138769 0.056890812
-0.16625319 -0.25141478 0.056902967
-0.16644999 -0.25144187 0.056918588
-0.16664641 -0.25147218 0.056909986
-0.16685529 -0.25152442 0.056753736
-0.16704056 -0.25154948 0.056771684
-0.16725408 -0.25157812 0.056794167
-0.16744605 -0.25160372 0.056815557
-0.16764471 -0.25163358 0.056812719
-0.16784088 -0.25166434 0.056800656
-0.16804023 -0.25169528 0.056790892
-0.16822842 -0.25171638 0.056841113
-0.16842486 -0.25175172 0.056795608
-0.16863041 -0.25179076 0.056732789
-0.16883335 -0.25182676 0.056689564
-0.16901399 -0.2518588 0.05665103
-0.16918343 -0.25188887 0.05661482
-0.1693766 -0.25191683 0.056620061
-0.16960821 -0.2519452 0.056664404
-0.16976911 -0.25197273 0.056637444
-0.16998477 -0.25200546 0.056632251
-0.17018627 -0.25203639 0.056624785
-0.1703878 -0.25206748 0.056616165
-0.17059702 -0.25210047 0.056601763
-0.17079698 -0.25213414 0.056572393
-0.17098397 -0.25216776 0.056529224
-0.17118999 -0.2521967 0.05654135
-0.17138088 -0.2522364 0.056457799
-0.1715759 -0.25225884 0.056505702
-0.17175841 -0.25229132 0.056466002
-0.1719746 -0.25232631 0.05644466
-0.17215075 -0.25235438 0.05643034
-0.17235512 -0.25238636 0.056418255
-0.1725587 -0.2524173 0.056413092
-0.17275393 -0.25245559 0.056344528
-0.17294772 -0.25247627 0.056403972
-0.17313856 -0.25251314 0.056341179
-0.17332825 -0.25254309 0.056327984
-0.17350334 -0.25257039 0.056318283
-0.17370555 -0.25260532 0.056281991
-0.17391616 -0.25263825 0.05626988
-0.1741181 -0.25266752 0.0562751
-0.17430139 -0.25269258 0.056290753
-0.17446533 -0.25272387 0.056239571
-0.17464772 -0.25273567 0.056352079
-0.17486419 -0.25279796 0.056130089
-0.1750707 -0.2528182 0.056206789
-0.17525509 -0.25285205 0.056159016
-0.17545119 -0.25288358 0.056141183
-0.17565015 -0.25291443 0.056131415
-0.17585903 -0.25293911 0.056178134
-0.17601427 -0.25294122 0.056332231
-0.17623308 -0.25300634 0.056091782
-0.17642431 -0.25303543 0.056086659
-0.17662859 -0.25306442 0.056096483
-0.1767956 -0.25308394 0.056135241
-0.17699222 -0.25312528 0.056045905
-0.17718986 -0.25315452 0.056046527
-0.17740569 -0.25319541 0.055981368
-0.17760605 -0.25322366 0.055992357
-0.17778514 -0.25324857 0.056004554
-0.17798334 -0.25327981 0.055991337
-0.17815641 -0.25331464 0.055923976
-0.17836207 -0.25334853 0.055899203
-0.17854127 -0.25337425 0.055905636
-0.17875671 -0.25340804 0.055892367
-0.17894731 -0.25343782 0.055881478
-0.17913379 -0.25346556 0.055880968
-0.17932631 -0.25350127 0.055828556
-0.17950591 -0.25351891 0.055894956
-0.17968987 -0.25355959 0.055796437
-0.17991306 -0.25358778 0.055832729
-0.18010825 -0.2536228 0.055788379
-0.18029766 -0.25365019 0.055793639
-0.18047884 -0.25368404 0.055742405
-0.18068162 -0.25371155 0.055761456
-0.1808712 -0.25374007 0.05575864
-0.18106487 -0.25377139 0.055739664
-0.18125512 -0.25380284 0.05571609
-0.18144797 -0.25383154 0.055715561
-0.18162633 -0.25385636 0.055727769
-0.18182559 -0.25389838 0.05563613
-0.18201581 -0.2539314 0.055601016
-0.18219706 -0.25395459 0.055628203
-0.18240204 -0.2539942 0.055560764
-0.18258217 -0.2540293 0.055499151
-0.18276298 -0.25405073 0.055539027
-0.18295476 -0.25407597 0.055562727
-0.18314652 -0.25410089 0.055588722
-0.18333086 -0.25414336 0.055477526
-0.18354359 -0.25417206 0.055498853
-0.18373583 -0.25420082 0.055497188
-0.18392096 -0.25422788 0.055500142
-0.18410666 -0.25425977 0.055468507
-0.18430611 -0.25429258 0.0554449
-0.18450192 -0.2543242 0.05542592
-0.1846662 -0.25435099 0.05540818
-0.1848859 -0.25438166 0.055422571
-0.1850673 -0.25440726 0.055432461
-0.18522477 -0.25443727 0.055383593
-0.18544507 -0.25447959 0.055312656
-0.18562984 -0.25450692 0.055313312
-0.18580073 -0.25453439 0.055297863
-0.18601672 -0.25456277 0.055324949
-0.18619108 -0.25459233 0.055297956
-0.18638273 -0.25461912 0.055310119
-0.18657786 -0.25465599 0.05525193
-0.18676944 -0.25468341 0.055259485
-0.18697129 -0.25472063 0.0552059
-0.18714885 -0.25474691 0.055206571
-0.18733346 -0.25477171 0.05522567
-0.18753184 -0.2548025 0.05521591
-0.18773697 -0.25483724 0.055184219
-0.18790033 -0.25486422 0.055164173
-0.18810858 -0.2549018 0.055115167
-0.18830748 -0.25492418 0.055167682
-0.18848139 -0.25495052 0.055163745
-0.18866557 -0.25497982 0.055149414
-0.1888627 -0.25501871 0.055078533
-0.1890724 -0.2550413 0.055141397
-0.1892623 -0.25507957 0.055067077
-0.18944611 -0.25510976 0.055045817
-0.18963075 -0.2551344 0.055066075
-0.18982427 -0.25516993 0.05501597
-0.19001898 -0.25519812 0.055021204
-0.19020684 -0.25522482 0.055029918
-0.19038001 -0.25525358 0.05500754
-0.19058739 -0.25528958 0.054968923
-0.19077726 -0.25532317 0.054929204
-0.19095998 -0.25534081 0.054999053
-0.19114459 -0.25538096 0.054905139
-0.19131176 -0.25540367 0.054920834
-0.19150436 -0.2554259 0.054967597
-0.19167671 -0.25545654 0.054930232
-0.19186167 -0.25549346 0.054860532
-0.19208251 -0.25553086 0.054826491
-0.19225962 -0.25555676 0.054829475
-0.19245169 -0.25559285 0.054773603
-0.19264287 -0.25562006 0.054782309
-0.19284409 -0.25565001 0.054781768
-0.19302356 -0.25566903 0.054837782
-0.19320346 -0.25570771 0.05474966
-0.19340974 -0.25574371 0.054709889
-0.19359799 -0.25577864 0.054658636
-0.19378667 -0.25580278 0.054686964
-0.19397023 -0.25583982 0.054614969
-0.19413972 -0.2558749 0.054541856
-0.19434381 -0.25589743 0.054598957
-0.19454831 -0.25591943 0.054660674
-0.19472779 -0.25594816 0.054645203
-0.19493759 -0.25598344 0.054614652
-0.19509703 -0.25600734 0.054613069
-0.19531374 -0.25604349 0.05458365
-0.19550571 -0.25606924 0.05460389
-0.19568947 -0.25610411 0.05454804
-0.19586655 -0.25613719 0.054497965
-0.19607425 -0.25616151 0.054545838
-0.19626041 -0.25619143 0.054529194
-0.19642746 -0.25622192 0.054487221
-0.19663441 -0.25625476 0.054471672
-0.19681954 -0.25627965 0.054490779
-0.19702221 -0.25631338 0.054463703
-0.19718583 -0.25634292 0.05442521
-0.19737823 -0.25637469 0.054401621
-0.19759236 -0.25640795 0.054390661
-0.19777422 -0.25643829 0.054365959
-0.19795282 -0.2564677 0.054344714
-0.19813129 -0.25649142 0.054364987
-0.19832018 -0.25652832 0.054299898
-0.1985089 -0.25655952 0.054276325
-0.19868228 -0.25659081 0.054235488
-0.19885141 -0.25661707 0.054226965
-0.19906729 -0.25662601 0.054397047
-0.19927564 -0.25666752 0.054319218
-0.19945122 -0.25669569 0.054303758
-0.19964182 -0.2567347 0.054224819
-0.19981582 -0.2567648 0.054193214
-0.20002261 -0.25679746 0.054178815
-0.20023175 -0.25683203 0.054152884
-0.2004094 -0.25685737 0.054160476
-0.20060611 -0.25688806 0.054149561
-0.20077343 -0.25691184 0.054157175
-0.20095074 -0.25693306 0.054194756
-0.20115653 -0.25697169 0.054135382
-0.20133966 -0.25700456 0.054093372
-0.20153339 -0.25703871 0.054053642
-0.20171615 -0.25706294 0.054075055
-0.20190869 -0.25709394 0.05405724
-0.20210332 -0.25712699 0.05402673
-0.20228112 -0.2571525 0.054033168
-0.20248574 -0.25718325 0.054030299
-0.20266801 -0.25721258 0.054013666
-0.20285799 -0.2572338 0.054065041
-0.20303826 -0.25727347 0.053970002
-0.2032328 -0.2573024 0.053969469
-0.20342186 -0.25733289 0.053951655
-0.20362008 -0.25736225 0.053952277
-0.20378096 -0.25739682 0.053873427
-0.20397621 -0.257429 0.053849831
-0.2041623 -0.25745842 0.053836644
-0.20435864 -0.25748578 0.053849958
-0.20454711 -0.2575168 0.053827524
-0.2047227 -0.25754103 0.053840887
-0.2049157 -0.25757164 0.053826533
-0.20510976 -0.25760129 0.053820234
-0.20530584 -0.25764003 0.053749368
-0.20548372 -0.25766242 0.053778861
-0.20568955 -0.25769964 0.053729873
-0.20587228 -0.25772855 0.053716697
-0.20603594 -0.25776324 0.053640142
-0.20624648 -0.2577894 0.05367763
-0.20642644 -0.25781384 0.053694442
-0.20661876 -0.25785184 0.053624723
-0.20681408 -0.2578806 0.0536265
-0.20699468 -0.25790137 0.053670991
-0.20717989 -0.25793505 0.053625517
-0.20737998 -0.25796998 0.053586919
-0.20757072 -0.25798959 0.053650979
-0.2077654 -0.25802875 0.053575497
-0.2079373 -0.25805339 0.053581942
-0.20812187 -0.25808743 0.053533018
-0.20831825 -0.25811884 0.053516336
-0.20851192 -0.25814611 0.053527344
-0.20870069 -0.25817701 0.053506073
-0.208887 -0.25821272 0.053446759
-0.20907244 -0.25824594 0.053404741
-0.20926684 -0.25827283 0.053419206
-0.20947242 -0.25829497 0.053480919
-0.20964786 -0.25832343 0.05346315
-0.20982637 -0.25834107 0.053528391
-0.21002908 -0.25838298 0.053441364
-0.21020891 -0.25842288 0.053344004
-0.21039754 -0.2584511 0.053342339
-0.21058041 -0.25848037 0.05332686
-0.21078722 -0.25851083 0.053328607
-0.21096222 -0.25853688 0.053328127
-0.2111579 -0.25856629 0.053325292
-0.21135856 -0.25858989 0.053370871
-0.21154523 -0.25862786 0.053295411
-0.21172197 -0.25865838 0.053263802
-0.21190324 -0.25869146 0.053218335
-0.21211047 -0.25871399 0.053278886
-0.21230565 -0.25874665 0.05325184
-0.21248381 -0.25878161 0.053189088
-0.21269049 -0.25881001 0.053205818
-0.21288645 -0.25883967 0.053201836
-0.21306287 -0.25887811 0.053111412
-0.21325803 -0.25890058 0.053159319
-0.21343777 -0.25893453 0.053105779
-0.21362796 -0.25896505 0.053089119
-0.21381094 -0.25899461 0.053071324
-0.21400368 -0.25902125 0.053085793
-0.21419245 -0.25905263 0.053061072
-0.21439525 -0.25908124 0.053072046
-0.21460116 -0.25911313 0.053062268
-0.21476057 -0.2591483 0.052977659
-0.21497959 -0.25918043 0.052980524
-0.21515183 -0.25921106 0.052943148
-0.21533671 -0.25923982 0.052933425
-0.21554163 -0.25927001 0.052935176
-0.21571934 -0.25929785 0.05292432
-0.21590814 -0.25932941 0.052898441
-0.21611096 -0.25935847 0.052905966
-0.21629134 -0.25938281 0.052923925
-0.21648397 -0.25941712 0.052881889
-0.21667439 -0.25944796 0.052862924
-0.21686701 -0.259471 0.052903917
-0.21705504 -0.2595076 0.052839976
-0.2172448 -0.25953659 0.052833699
-0.21744329 -0.25957036 0.052802026
-0.21762487 -0.25960335 0.052757718
-0.21783023 -0.25963169 0.052773304
-0.21799664 -0.25966305 0.052724417
-0.21820979 -0.25969225 0.052742295
-0.21839751 -0.25971815 0.052756775
-0.21859029 -0.25974825 0.052745871
-0.218786 -0.25977707 0.052747644
-0.21895224 -0.25981277 0.052666478
-0.21914567 -0.25984263 0.05265788
-0.21933484 -0.25987864 0.052599709
-0.21954082 -0.25990725 0.052614145
-0.21973145 -0.25993639 0.052607864
-0.21994045 -0.25996593 0.052618824
-0.22011764 -0.26000091 0.05255492
-0.22030354 -0.26002809 0.052557882
-0.22049254 -0.2600581 0.052543528
-0.22069752 -0.26008955 0.052536052
-0.2208773 -0.26011944 0.052512504
-0.22105215 -0.26014936 0.052483197
-0.22126356 -0.26017237 0.052544899
-0.22144066 -0.26020938 0.052466001
-0.22160749 -0.26024061 0.052418273
-0.22182822 -0.26027191 0.052429203
-0.22201578 -0.26029888 0.052435614
-0.22218271 -0.26033014 0.052387886
-0.22240239 -0.26035625 0.052435718
-0.22258705 -0.26039219 0.052372947
-0.22278486 -0.26042116 0.052375879
-0.22300009 -0.26045114 0.052390281
-0.22318268 -0.26048222 0.052360959
-0.22336647 -0.26051286 0.05233625
-0.22355449 -0.2605457 0.052299991
-0.22375274 -0.26057848 0.05227524
-0.22393344 -0.26060662 0.052265514
-0.22412089 -0.26063421 0.05226732
-0.22432664 -0.26066622 0.052256383
-0.22450452 -0.26069552 0.052235141
-0.22470555 -0.26072386 0.052246131
-0.22487564 -0.2607578 0.052182246
-0.22509363 -0.2607893 0.052188575
-0.22527614 -0.26082069 0.05215694
-0.22548251 -0.26084921 0.052172534
-0.22566822 -0.26088309 0.052125897
-0.2258476 -0.26091385 0.052095432
-0.22601785 -0.26094422 0.052058071
-0.22623427 -0.26097658 0.052056335
-0.22642174 -0.26099774 0.052105408
-0.22661592 -0.26103416 0.052049533
-0.22680578 -0.26106161 0.052054781
-0.22701848 -0.26109028 0.052076116
-0.22720459 -0.26112252 0.052042168
-0.22740072 -0.26115328 0.052030105
-0.22757289 -0.26119003 0.051947761
-0.22777236 -0.2612147 0.051984128
-0.22797489 -0.26124859 0.051955901
-0.22818485 -0.26127684 0.051977247
-0.22837022 -0.26130617 0.051964052
-0.22857149 -0.26133892 0.051942751
-0.22876418 -0.26137105 0.05191686
-0.22894008 -0.26139677 0.051919844
-0.22913 -0.26142487 0.051920481
-0.2293126 -0.26146504 0.051824279
-0.22947571 -0.26149791 0.051760413
-0.22969753 -0.26151666 0.051864743
-0.22991922 -0.26155829 0.05180072
-0.2301055 -0.26158929 0.051776007
-0.23027247 -0.2616179 0.051747873
-0.23043592 -0.26164755 0.051708218
-0.23068441 -0.26167199 0.051799808
-0.2308834 -0.26171225 0.051720846
-0.23109505 -0.26174736 0.051693756
-0.23129277 -0.26177222 0.051726658
-0.23146611 -0.26180711 0.051659308
-0.23165825 -0.26183522 0.05166224
-0.23184939 -0.26186523 0.051650193
-0.2320136 -0.26189798 0.051588632
-0.23224597 -0.26192769 0.051623747
-0.23243174 -0.26196083 0.051582888
-0.23261556 -0.26198989 0.051569708
-0.23283599 -0.26201236 0.051645212
-0.23303565 -0.26205415 0.051555879
-0.2332477 -0.26208505 0.051559921
-0.23342575 -0.2621128 0.051550217
-0.23360908 -0.26214525 0.05151166
-0.23381518 -0.26217639 0.051507644
-0.23402222 -0.26221034 0.051484015
-0.23421845 -0.2622411 0.051471952
-0.23442361 -0.26227117 0.051474862
-0.23459092 -0.26230186 0.051431742
-0.23479737 -0.2623376 0.05139428
-0.23499936 -0.26236859 0.051386811
-0.23519951 -0.26239133 0.05143816
-0.23537348 -0.26242489 0.051381186
-0.23557341 -0.26246089 0.051334515
-0.23579025 -0.26249143 0.051346615
-0.23598137 -0.26252097 0.051338024
-0.23617038 -0.26255536 0.051291388
-0.23635763 -0.26258591 0.051271278
-0.23654875 -0.26261842 0.051240772
-0.23677392 -0.26265019 0.051252853
-0.23697071 -0.26268435 0.051216573
-0.23718669 -0.26271412 0.051233284
-0.23736745 -0.26274917 0.051172834
-0.23755494 -0.26278129 0.051141188
-0.23774348 -0.26280621 0.051163733
-0.23794684 -0.26283351 0.051185094
-0.23814 -0.26287007 0.051126912
-0.23834315 -0.26290032 0.051126361
-0.23853326 -0.26293346 0.051090099
-0.23874658 -0.2629616 0.051116042
-0.23894724 -0.26299256 0.051107429
-0.23914471 -0.26302835 0.051059611
-0.23934162 -0.26306158 0.051030252
-0.23954733 -0.26309296 0.051023934
-0.23974869 -0.2631267 0.050995711
-0.23995422 -0.26316229 0.050958253
-0.24014373 -0.26319316 0.050938129
-0.24031472 -0.26322517 0.050889239
-0.24055113 -0.2632519 0.050950866
-0.24074467 -0.26328477 0.050920367
-0.14626995 -0.25236452 0.028070148
-0.146442 -0.25238949 0.02807432
-0.14661661 -0.25241593 0.02807042
-0.14679116 -0.25244111 0.028075747
-0.14696582 -0.25246772 0.028070688
-0.14713609 -0.25249198 0.028078336
-0.14730927 -0.25251791 0.028076738
-0.14747429 -0.25253931 0.028099384
-0.14763823 -0.25255886 0.028134711
-0.14781535 -0.25258583 0.028129656
-0.1479744 -0.25260401 0.028169602
-0.14813626 -0.25262246 0.028210703
-0.14829376 -0.25263977 0.028255273
-0.14845182 -0.2526561 0.028307909
-0.14860767 -0.25267112 0.02836748
-0.1487661 -0.25268766 0.028418966
-0.14891805 -0.25270182 0.028480846
-0.14906374 -0.25271097 0.028572714
-0.14921461 -0.25272307 0.028648434
-0.14935912 -0.25273284 0.028734546
-0.14950368 -0.25274119 0.028831035
-0.14965157 -0.25275144 0.028917139
-0.14979497 -0.25275898 0.029018249
-0.14993814 -0.25276777 0.029110126
-0.15007861 -0.25277346 0.02922162
-0.15021431 -0.2527777 0.029338889
-0.1503506 -0.25278074 0.029465381
-0.15048777 -0.25278565 0.029579183
-0.15062246 -0.2527861 0.029722966
-0.15075004 -0.25278506 0.029870234
-0.15087594 -0.25278139 0.030034807
-0.15099627 -0.25277564 0.030208616
-0.15111923 -0.2527684 0.030396247
-0.15123388 -0.25275883 0.030591976
-0.15135011 -0.25274858 0.030794621
-0.14486577 -0.24804094 0.058368921
-0.14507668 -0.24807075 0.058379915
-0.14529288 -0.24810402 0.058371302
-0.14550853 -0.24813892 0.058350001
-0.14572179 -0.2481705 0.058350611
-0.14594847 -0.2482108 0.058301613
-0.14616875 -0.24824905 0.058260694
-0.14637347 -0.24827732 0.058276311
-0.14660709 -0.24832258 0.058198474
-0.14680912 -0.2483473 0.058237161
-0.14703028 -0.24838664 0.058189325
-0.14722165 -0.24842419 0.058121968
-0.14739844 -0.24845222 0.058108836
-0.14765465 -0.24850333 0.058012482
-0.14789477 -0.24852793 0.058093742
-0.1480972 -0.24855335 0.05812782
-0.14830738 -0.24858807 0.058101915
-0.14852381 -0.24862106 0.058095604
-0.14872767 -0.24864967 0.058107775
-0.14894785 -0.24868743 0.058070317
-0.14915317 -0.2487172 0.058075555
-0.14936796 -0.24875151 0.058057718
-0.14958659 -0.24878858 0.058023736
-0.1497978 -0.24882063 0.05801858
-0.15001215 -0.24885707 0.057984598
-0.15022328 -0.24888925 0.057978295
-0.15043859 -0.24892661 0.057938553
-0.15064403 -0.248955 0.05795417
-0.15084288 -0.24898301 0.057965204
-0.15106186 -0.24902765 0.057875864
-0.15127769 -0.24905726 0.057893761
-0.15149432 -0.24909402 0.057859771
-0.15170965 -0.24913217 0.057814263
-0.15191416 -0.24916041 0.05782989
-0.15210694 -0.24918893 0.05783055
-0.15232101 -0.24921764 0.057853065
-0.15253365 -0.2492543 0.057815626
-0.15275273 -0.24929363 0.057765495
-0.15296906 -0.24933334 0.057709605
-0.15317403 -0.24936242 0.057719462
-0.15337721 -0.24939249 0.057720099
-0.15359429 -0.24943089 0.057674583
-0.15379509 -0.24945937 0.057684451
-0.15400285 -0.2494909 0.057679307
-0.15421553 -0.24952865 0.057633802
-0.15443596 -0.24957022 0.057568669
-0.15464288 -0.24960382 0.057547394
