# .PCD v0.7 - Point Cloud Data file format
VERSION 0.7
FIELDS x y z
SIZE 4 4 4
TYPE F F F
COUNT 1 1 1
WIDTH 1312
HEIGHT 1
VIEWPOINT 0 0 0 1 0 0 0
POINTS 1312
DATA ascii
-0.25349551 -0.37238052 0.056622688
-0.25371066 -0.3724286 0.056585953
-0.25390977 -0.37246662 0.056598887
-0.25412363 -0.37251398 0.05656562
-0.25432467 -0.37255365 0.056569319
-0.25450397 -0.37258944 0.056569643
-0.25473654 -0.37264311 0.056517854
-0.25494593 -0.37268528 0.056515735
-0.25515389 -0.37273082 0.056487113
-0.25536484 -0.37277663 0.056460787
-0.25555399 -0.37280738 0.056511804
-0.25576487 -0.37285557 0.056468185
-0.25597233 -0.37290117 0.056438405
-0.25616452 -0.37293908 0.056442134
-0.2563687 -0.37297538 0.056474648
-0.25658578 -0.37302691 0.056415994
-0.25679451 -0.37307405 0.056376994
-0.25701165 -0.37312829 0.056298736
-0.2572026 -0.37316099 0.056338221
-0.25739899 -0.37319592 0.05636961
-0.25761163 -0.37324685 0.056308679
-0.25782651 -0.37329987 0.0562362
-0.25802398 -0.37333834 0.056243375
-0.2582179 -0.37337148 0.056284003
-0.25834256 -0.37338161 0.056390673
-0.2586422 -0.373474 0.056156367
-0.25883603 -0.37350726 0.056195848
-0.25903475 -0.37354729 0.05619378
-0.2592417 -0.37359452 0.05615133
-0.2594412 -0.37363294 0.056161944
-0.25964558 -0.37367824 0.05612988
-0.25984535 -0.37371957 0.05611974
-0.26004568 -0.3737615 0.056106139
-0.26025134 -0.37380835 0.056064844
-0.26045519 -0.37385371 0.056031622
-0.26063702 -0.37388441 0.056072302
-0.26082355 -0.37391943 0.056088746
-0.26104358 -0.37399551 0.055857114
-0.26124892 -0.37401143 0.056038372
-0.2614519 -0.37405661 0.056005158
-0.26165292 -0.37410012 0.055981178
-0.26184937 -0.37413681 0.055999883
-0.26205441 -0.37418431 0.055952821
-0.26225108 -0.37422407 0.055949613
-0.26244208 -0.37425855 0.055976413
-0.2626428 -0.37429959 0.055969737
-0.26284376 -0.37434372 0.055941138
-0.26304534 -0.37438864 0.055907931
-0.26324281 -0.37442967 0.055896651
-0.26344895 -0.37447932 0.055835754
-0.26363024 -0.37451887 0.055811856
-0.26382482 -0.3745603 0.055793673
-0.26403973 -0.37459907 0.055823825
-0.26424479 -0.37464833 0.055764083
-0.26443392 -0.37467876 0.05581741
-0.26463646 -0.37472576 0.05577036
-0.2648384 -0.37477234 0.055725612
-0.26503041 -0.37481484 0.05569591
-0.26523146 -0.37485179 0.055719212
-0.26542526 -0.37489036 0.055720627
-0.2656261 -0.37493637 0.055678204
-0.26582116 -0.37497646 0.055670388
-0.26601478 -0.37501511 0.055670664
-0.26621306 -0.37505889 0.055640928
-0.26640317 -0.37510338 0.05559393
-0.26660371 -0.37513721 0.055639133
-0.26679903 -0.37517816 0.055625558
-0.26699355 -0.37521827 0.055616602
-0.26719868 -0.37526709 0.055560317
-0.26739359 -0.37530792 0.055546742
-0.26757869 -0.37533784 0.055597778
-0.26777959 -0.37538564 0.05554267
-0.26797885 -0.37543184 0.055496786
-0.26818129 -0.37548187 0.055427827
-0.26836953 -0.37551227 0.055480011
-0.26855388 -0.37554845 0.055484928
-0.26875898 -0.37559515 0.055443637
-0.26894847 -0.37563765 0.055410486
-0.26913643 -0.37567133 0.055438448
-0.26932085 -0.3757115 0.05541455
-0.26954234 -0.3757681 0.055325896
-0.26973596 -0.37580898 0.055310026
-0.26992217 -0.37583721 0.055374905
-0.27011105 -0.37587237 0.055393636
-0.27031031 -0.37592065 0.055332769
-0.27050096 -0.37595823 0.055336505
-0.27066705 -0.37598738 0.055365726
-0.27084473 -0.37603149 0.055303801
-0.27107242 -0.37608641 0.055235878
-0.27128071 -0.37613586 0.055179577
-0.27147514 -0.37617117 0.055205211
-0.27165556 -0.37620384 0.055229761
-0.27182224 -0.37623823 0.055222079
-0.27201545 -0.37628019 0.055198126
-0.27223849 -0.37632602 0.055189043
-0.27240491 -0.37636036 0.055181365
-0.27258691 -0.37639973 0.055159777
-0.27280933 -0.37644944 0.055121858
-0.27301347 -0.37649485 0.055088636
-0.27320418 -0.37653422 0.055079691
-0.27337721 -0.37656558 0.055103116
-0.2735723 -0.37660709 0.055084933
-0.27375171 -0.37664801 0.055048361
-0.27394453 -0.37668189 0.055082079
-0.27411377 -0.37671694 0.055073224
-0.27432084 -0.37676805 0.055003095
-0.27448034 -0.37677878 0.055155735
-0.27467924 -0.37684137 0.054991081
-0.27487877 -0.37688619 0.054955572
-0.27506661 -0.3769272 0.054930497
-0.27527228 -0.37696749 0.054936484
-0.27548453 -0.37700862 0.054945886
-0.27566999 -0.37704101 0.054979637
-0.2758348 -0.37707487 0.054973118
-0.27603474 -0.37712678 0.054886874
-0.27624303 -0.37718824 0.054744087
-0.27641267 -0.3772096 0.054834411
-0.27661338 -0.37725851 0.054771218
-0.27682599 -0.37730128 0.054769095
-0.27698696 -0.37732351 0.054841012
-0.27717254 -0.37737381 0.054745603
-0.27738053 -0.37740833 0.054796539
-0.27755913 -0.37744606 0.054781891
-0.2777662 -0.37749079 0.054757886
-0.27796656 -0.37753481 0.05472929
-0.27814841 -0.37756711 0.054758441
-0.27831197 -0.37761304 0.05466314
-0.27853447 -0.37765828 0.054657508
-0.2787239 -0.37769356 0.05467625
-0.27890456 -0.37773025 0.054671958
-0.27909121 -0.3777664 0.054680333
-0.27928901 -0.37781328 0.054627541
-0.27945134 -0.37784472 0.054634865
-0.27966699 -0.3778969 0.054569311
-0.27980927 -0.37791154 0.054668978
-0.27999043 -0.37793523 0.054759249
-0.28022394 -0.37800795 0.054571375
-0.28041837 -0.37804854 0.054558951
-0.28060877 -0.37808722 0.054554626
-0.28079671 -0.37812778 0.054533005
-0.28096783 -0.37815809 0.05456106
-0.28114381 -0.37820968 0.054442637
-0.28133368 -0.37823913 0.054504037
-0.28148606 -0.37825322 0.054622106
-0.28168511 -0.37832591 0.054384809
-0.28188774 -0.37837359 0.054333154
-0.28205889 -0.37839529 0.054423463
-0.28226799 -0.37845334 0.054306038
-0.28248277 -0.3785001 0.054278538
-0.2826736 -0.37853244 0.054320328
-0.28285387 -0.37856188 0.054367941
-0.28301013 -0.37859738 0.054337248
-0.28321666 -0.37863895 0.054335143
-0.28340185 -0.378674 0.054349296
-0.28361139 -0.37871492 0.054356404
-0.28379411 -0.37875301 0.054345194
-0.28396538 -0.37879774 0.054269459
-0.28416428 -0.37883601 0.054280087
-0.28432912 -0.37886876 0.05428163
-0.28450191 -0.37890774 0.054249708
-0.28467757 -0.3789452 0.054232769
-0.28488299 -0.37899932 0.054138422
-0.28507736 -0.37903288 0.05417674
-0.28526381 -0.37905923 0.054255452
-0.28547451 -0.37910867 0.054202598
-0.2856546 -0.37915438 0.054132584
-0.28584346 -0.37919435 0.054116741
-0.28602064 -0.37922364 0.0541609
-0.2862168 -0.37926826 0.054121949
-0.28639546 -0.37930775 0.054094605
-0.28656802 -0.37935212 0.054023482
-0.28673467 -0.37937754 0.054080375
-0.28695387 -0.37942246 0.054072455
-0.28715274 -0.37946585 0.054046173
-0.28731734 -0.37950253 0.0540189
-0.28750613 -0.37954822 0.053961542
-0.28768688 -0.37957904 0.053999916
-0.28787822 -0.37961581 0.054010577
-0.28807685 -0.37966108 0.053970456
-0.28826863 -0.37970802 0.053908467
-0.28845283 -0.37973967 0.053945683
-0.28863397 -0.37977871 0.053925246
-0.28881848 -0.37982035 0.053890962
-0.28901306 -0.37985808 0.053899299
-0.28919739 -0.37989521 0.05389731
-0.28937829 -0.37993133 0.05389763
-0.28953874 -0.37996015 0.053921118
-0.28973997 -0.38000658 0.053876374
-0.28993079 -0.38005251 0.053820156
-0.29012495 -0.38009626 0.053784672
-0.29031268 -0.38012925 0.053817254
-0.29049316 -0.38016897 0.053791065
-0.29066336 -0.38020647 0.053766072
-0.29084012 -0.38024765 0.053723745
-0.29105148 -0.38028812 0.053736623
-0.29122463 -0.38032877 0.053693164
-0.2914049 -0.38036668 0.05367966
-0.29158908 -0.38040075 0.053699575
-0.29176274 -0.38043556 0.053698778
-0.29195318 -0.38047549 0.053685226
-0.29211929 -0.38051376 0.053648718
-0.29232019 -0.38055325 0.053653568
-0.29250026 -0.38059127 0.053638902
-0.29269001 -0.38063398 0.053604603
-0.29285577 -0.38067234 0.053566936
-0.29305124 -0.38070291 0.053628311
-0.29323 -0.38074657 0.053570993
-0.29339969 -0.38078222 0.053558685
-0.29360119 -0.38081861 0.053586595
-0.29377267 -0.38084662 0.053631939
-0.29394817 -0.38090211 0.053484689
-0.29414082 -0.38093114 0.053552993
-0.29434776 -0.38097441 0.053539362
-0.29453695 -0.38101682 0.05350621
-0.29472148 -0.38105014 0.053531893
-0.29489547 -0.38109478 0.053460762
-0.2950716 -0.38113204 0.053446118
-0.29525653 -0.38117552 0.053399146
-0.29544413 -0.38121042 0.053417891
-0.29562148 -0.38126501 0.053279862
-0.29579934 -0.38129637 0.053310182
-0.29598421 -0.38132879 0.053342778
-0.29616931 -0.38138029 0.053238153
-0.2963433 -0.38141248 0.053256959
-0.29654115 -0.38144001 0.053343691
-0.29672164 -0.38147476 0.053353246
-0.29690599 -0.38151795 0.053307425
-0.29709348 -0.38155365 0.053320408
-0.29728234 -0.38160303 0.053236518
-0.29744437 -0.3816376 0.053220794
-0.29763064 -0.38167575 0.053214177
-0.29783133 -0.38171488 0.053221326
-0.29800686 -0.38175982 0.053150188
-0.29818252 -0.38179666 0.053137854
-0.29836378 -0.38183716 0.053107046
-0.29854006 -0.38187265 0.053105082
-0.29874653 -0.38190782 0.053149112
-0.2989336 -0.38194439 0.053155176
-0.29910663 -0.38198596 0.053104799
-0.29930013 -0.38202444 0.053106226
-0.29947954 -0.38206121 0.053099636
-0.29965043 -0.3820931 0.053116154
-0.29984027 -0.38213786 0.053066857
-0.30001613 -0.3821741 0.053059131
-0.30020499 -0.38221407 0.053043276
-0.30037844 -0.38225412 0.053004436
-0.30055392 -0.3822909 0.052992105
-0.3007533 -0.38233218 0.052981969
-0.3009198 -0.38236508 0.052984662
-0.3010976 -0.38240409 0.052959636
-0.30128205 -0.38245019 0.052893061
-0.30147904 -0.38247818 0.052975193
-0.30165979 -0.38252386 0.052906327
-0.30185264 -0.38256332 0.052899677
-0.3020311 -0.3826012 0.052883875
-0.30220824 -0.38264599 0.052816186
-0.30237928 -0.38268828 0.052757744
-0.30256033 -0.38272762 0.052735008
-0.30274463 -0.38275787 0.052782603
-0.30291066 -0.38280123 0.052709199
-0.30310223 -0.38283727 0.052725621
-0.30328599 -0.38286373 0.052799735
-0.30348548 -0.38290948 0.052757308
-0.30364981 -0.3829498 0.052703507
-0.3038322 -0.38298747 0.0526946
-0.3040047 -0.38302734 0.052655764
-0.30419856 -0.38305664 0.052724063
-0.30438897 -0.38309002 0.052757792
-0.30456913 -0.38312599 0.052758124
-0.30474779 -0.38316357 0.052744616
-0.30493125 -0.38320035 0.052743781
-0.30510488 -0.38325167 0.052624211
-0.30530486 -0.38329223 0.052619837
-0.30550039 -0.38333321 0.052606262
-0.30566564 -0.38336778 0.052595127
-0.30585191 -0.38340178 0.052618489
-0.30604658 -0.38344368 0.052596852
-0.30622381 -0.38348258 0.052571826
-0.3063944 -0.38352385 0.052520301
-0.30657622 -0.38356221 0.052505642
-0.30674997 -0.38360041 0.052480634
-0.30692855 -0.38363415 0.052494805
-0.30713436 -0.38366967 0.052535377
-0.30730778 -0.38371563 0.052453864
-0.30748284 -0.38374898 0.052465744
-0.30766681 -0.38378555 0.052467216
-0.30785212 -0.38382462 0.052452527
-0.30803376 -0.38386682 0.052410189
-0.30821314 -0.38390023 0.052427817
-0.30839542 -0.38393486 0.052440822
-0.30858555 -0.383977 0.052411128
-0.30877167 -0.38401207 0.052426413
-0.30894777 -0.38405523 0.052369107
-0.30913234 -0.38409832 0.052324444
-0.3092961 -0.38414091 0.052253362
-0.30947381 -0.3841759 0.052257165
-0.30967522 -0.38420925 0.052306972
-0.30986267 -0.38424683 0.052306119
-0.31004283 -0.38428345 0.052301843
-0.31023172 -0.38432646 0.052264076
-0.31039593 -0.38437471 0.052152626
-0.31058568 -0.38440749 0.052189808
-0.31077182 -0.38443989 0.052224707
-0.31095394 -0.3844783 0.052210033
-0.31113857 -0.38451502 0.052211501
-0.31130263 -0.38456598 0.052080452
-0.31147856 -0.38460255 0.05207042
-0.31169048 -0.38461483 0.052287392
-0.31188202 -0.3846561 0.052265756
-0.31206155 -0.38470826 0.052148476
-0.31223607 -0.38474599 0.052128073
-0.31240651 -0.38479215 0.052040815
-0.31258321 -0.38483125 0.052013483
-0.31277713 -0.3848623 0.052069098
-0.31297153 -0.3848989 0.052085504
-0.31314206 -0.38493916 0.052040908
-0.31331801 -0.38497606 0.052028574
-0.31349581 -0.38502291 0.051947039
-0.31368423 -0.38506323 0.051927727
-0.31385195 -0.38510504 0.051868152
-0.31406212 -0.38514334 0.051894866
-0.31425816 -0.38517928 0.051918194
-0.31443334 -0.38521138 0.051939301
-0.3146154 -0.38524756 0.051940773
-0.31480616 -0.38528678 0.051932983
-0.31498584 -0.38532442 0.05192063
-0.31514832 -0.38537681 0.051776905
-0.31531298 -0.38542008 0.05170235
-0.31552488 -0.38544002 0.051863965
-0.31573611 -0.38547343 0.051927581
-0.31589037 -0.38552484 0.051779278
-0.31607872 -0.38555798 0.051811855
-0.31628752 -0.38559297 0.051860489
-0.31643978 -0.38564509 0.051704116
-0.3166143 -0.3856855 0.051664118
-0.31681719 -0.38571388 0.051751979
-0.31701669 -0.38575149 0.051768359
-0.3171891 -0.38579789 0.051682241
-0.31737816 -0.38583118 0.051714815
-0.31757149 -0.38586724 0.051733535
-0.31776246 -0.38591161 0.05168885
-0.31795716 -0.38594714 0.051713325
-0.318138 -0.38598466 0.051703274
-0.31830525 -0.38602635 0.051643703
-0.31849867 -0.38606498 0.051643968
-0.31866422 -0.38610971 0.051560193
-0.31884286 -0.38615289 0.051506333
-0.31904 -0.38618985 0.051523887
-0.31924093 -0.38622519 0.051558711
-0.3194122 -0.38626274 0.051534865
-0.31961694 -0.38628989 0.051634252
-0.31979093 -0.38633963 0.051526211
-0.31998184 -0.3863709 0.051576082
-0.32017326 -0.38640863 0.051579818
-0.32035038 -0.38646126 0.051455624
-0.32052952 -0.38649991 0.051435206
-0.32071602 -0.38653332 0.051463176
-0.32090658 -0.38657585 0.051431172
-0.32108456 -0.38661504 0.05140499
-0.32128021 -0.38664916 0.051440991
-0.32147613 -0.38668749 0.051447019
-0.32166475 -0.38673091 0.051405802
-0.32183892 -0.38677382 0.051347345
-0.32202753 -0.3868131 0.05133611
-0.32220253 -0.38685155 0.051311087
-0.32239082 -0.38688692 0.05132753
-0.3225843 -0.38692445 0.051335864
-0.32276982 -0.38696706 0.051295817
-0.32295814 -0.38700867 0.051267281
-0.32314268 -0.38704568 0.051266439
-0.32333302 -0.38708258 0.051274791
-0.32352251 -0.38712186 0.0512647
-0.32372159 -0.38716161 0.051264938
-0.32389337 -0.38720149 0.051224954
-0.32409126 -0.38723591 0.051262096
-0.32429352 -0.38727471 0.051273856
-0.32447642 -0.38730881 0.051291477
-0.32463798 -0.38735434 0.051196177
-0.32482973 -0.38739887 0.051151488
-0.32498318 -0.38744321 0.051052768
-0.32520902 -0.38747796 0.05112784
-0.32540274 -0.38751808 0.051117741
-0.32556123 -0.38755882 0.051052429
-0.32577348 -0.38758907 0.051140253
-0.32594186 -0.38764331 0.050991885
-0.32613617 -0.38767779 0.05102329
-0.32634884 -0.38771197 0.051083431
-0.32652169 -0.38775542 0.051019222
-0.32670027 -0.38780066 0.050950367
-0.32687277 -0.38784054 0.050911531
-0.32707354 -0.38787696 0.050938278
-0.32727349 -0.38791195 0.050974272
-0.32747415 -0.38794321 0.05103793
-0.32765967 -0.38799179 0.050955206
-0.32785267 -0.38803625 0.050912812
-0.32803151 -0.38807258 0.050908543
-0.32819605 -0.38812029 0.050801702
-0.32838008 -0.38815862 0.050790478
-0.32858747 -0.38819367 0.050836809
-0.32877678 -0.38823754 0.050793283
-0.32897174 -0.38827807 0.050782006
-0.32915765 -0.38831264 0.050800763
-0.32934004 -0.38835514 0.050757259
-0.32953686 -0.38839701 0.050739069
-0.32973409 -0.38843367 0.050758921
-0.32991853 -0.38846889 0.050770763
-0.33011484 -0.38851273 0.050737582
-0.33027589 -0.38855448 0.050668813
-0.33051071 -0.3885963 0.050705787
-0.33067852 -0.38863954 0.050635833
-0.33085656 -0.38868004 0.050600428
-0.33101881 -0.38871977 0.050547797
-0.33123744 -0.3887513 0.050635587
-0.33143821 -0.38878435 0.050686561
-0.33162278 -0.38882825 0.050636128
-0.33180732 -0.38887054 0.050597236
-0.33200881 -0.38891014 0.050602078
-0.33219275 -0.38895422 0.050549354
-0.33240372 -0.38898838 0.050607193
-0.33258069 -0.38903266 0.050542966
-0.33275467 -0.38908401 0.050423402
-0.33299708 -0.3891139 0.050557204
-0.3331885 -0.3891595 0.050504439
-0.33336887 -0.38920143 0.050462104
-0.33356607 -0.38923937 0.050472733
-0.33374175 -0.38927621 0.050460398
-0.33392203 -0.38931668 0.050428443
-0.33413175 -0.38935345 0.050465535
-0.33434001 -0.3893984 0.050441522
-0.33452582 -0.38944542 0.050370332
-0.33470833 -0.38948092 0.05037757
-0.33487636 -0.38952276 0.050317992
-0.33509549 -0.38956237 0.050348125
-0.33530691 -0.38960382 0.050354082
-0.33548653 -0.38964319 0.050329044
-0.33562264 -0.38968599 0.05021657
-0.33586964 -0.38971841 0.050338823
-0.33603036 -0.38976344 0.050245844
-0.33623558 -0.38980347 0.050252974
-0.33640227 -0.38984427 0.05019917
-0.33662903 -0.38988733 0.050215431
-0.33681789 -0.38992503 0.050215717
-0.33701003 -0.3899695 0.05017218
-0.33721212 -0.39000171 0.050231211
-0.33739856 -0.39004886 0.050160021
-0.3376165 -0.3900868 0.050200544
-0.33778757 -0.39012396 0.050178997
-0.33799961 -0.39017338 0.050128445
-0.33816922 -0.3902109 0.050102305
-0.33833641 -0.39025465 0.050027739
-0.33854997 -0.39029238 0.050063666
-0.33876669 -0.39033103 0.050097264
-0.33894178 -0.39037478 0.050034195
-0.33915916 -0.39041629 0.050048191
-0.33938637 -0.39046314 0.050037932
-0.33956382 -0.39049807 0.050041735
-0.33976093 -0.39054352 0.049998172
-0.33996022 -0.39058301 0.050000716
-0.34015477 -0.39062202 0.049999829
-0.34034297 -0.39065945 0.050001271
-0.34051359 -0.39070693 0.049904786
-0.34071285 -0.39074799 0.049895801
-0.34089881 -0.39078593 0.049890343
-0.34108827 -0.39082745 0.04986411
-0.34128359 -0.39086661 0.049863208
-0.34149927 -0.39090922 0.049866837
-0.34169999 -0.39095172 0.049849778
-0.34189737 -0.39098939 0.04986272
-0.34211037 -0.39103401 0.049847908
-0.34228885 -0.39107221 0.049829796
-0.34241933 -0.3911182 0.049686212
-0.34268078 -0.39114711 0.049854524
-0.34286538 -0.39120317 0.049716458
-0.34310701 -0.3912462 0.049754556
-0.34329244 -0.39127955 0.049781382
-0.34346092 -0.39131954 0.049735647
-0.34366667 -0.39136177 0.04972779
-0.24078089 -0.36966199 0.057898231
-0.2410287 -0.36972558 0.057796724
-0.24123803 -0.36976534 0.05781189
-0.24146233 -0.36981624 0.057768166
-0.24168143 -0.36985889 0.057776365
-0.24190024 -0.36990485 0.057760347
-0.24210989 -0.36994514 0.057772052
-0.24235728 -0.37000948 0.057664789
-0.24256492 -0.37004694 0.057693809
-0.24278817 -0.37009621 0.057660468
-0.24300532 -0.37014169 0.057645604
-0.2432071 -0.37017733 0.057679266
-0.24342346 -0.37022075 0.057678245
-0.24364322 -0.37026992 0.05764031
-0.24388871 -0.37033242 0.057543434
-0.24407223 -0.37037069 0.057532195
-0.24428691 -0.37041518 0.057520814
-0.24452832 -0.37046662 0.05749777
-0.24475354 -0.3705129 0.057488635
-0.24495605 -0.37054968 0.057515368
-0.24516779 -0.37059262 0.05751092
-0.24538243 -0.3706376 0.057496071
-0.24559627 -0.37068033 0.057496231
-0.24581867 -0.37073067 0.057453662
-0.24604212 -0.3707819 0.057406485
-0.24625379 -0.37082529 0.057398569
-0.24645197 -0.37085783 0.057449542
-0.24668504 -0.37091595 0.057366561
-0.24689442 -0.37095809 0.057364434
-0.24711055 -0.37100497 0.05733804
-0.24732898 -0.37105164 0.057316266
-0.2475515 -0.37110314 0.057265624
-0.24775866 -0.3711423 0.057281956
-0.24796344 -0.37118176 0.057292525
-0.24818005 -0.37122953 0.057260372
-0.24839509 -0.37127632 0.057232838
-0.24860638 -0.3713187 0.057231851
-0.2488194 -0.3713643 0.057210092
-0.24901192 -0.37139556 0.057262242
-0.24922992 -0.37144488 0.057220858
-0.24945271 -0.37149578 0.057174832
-0.24966641 -0.37154233 0.057147302
-0.24988616 -0.37159136 0.057110526
-0.25010306 -0.37164044 0.057069138
-0.25029913 -0.37167466 0.057105128
-0.25050062 -0.37171283 0.057120331
-0.25072646 -0.37176675 0.057056997
-0.25093725 -0.3718119 0.057035249
-0.25114685 -0.37185425 0.057031959
-0.25135994 -0.3719013 0.056999825
-0.25156736 -0.37194228 0.057003461
-0.2517679 -0.37198025 0.057018667
-0.25200737 -0.37204522 0.056895293
-0.25219023 -0.37207022 0.056978628
-0.25239673 -0.37211293 0.056968436
-0.25259438 -0.37214905 0.056992885
-0.25282043 -0.3722046 0.056918014
-0.25303519 -0.37225392 0.056872025
-0.25324577 -0.37229806 0.056857198
-0.25344026 -0.3723321 0.056892045
-0.25366119 -0.3723844 0.056833342
-0.25386018 -0.37242207 0.056848556
-0.25407949 -0.37247342 0.056794472
-0.2542823 -0.37251425 0.056792375
-0.25449643 -0.37256184 0.056757927
-0.254697 -0.37260109 0.056763906
-0.25490525 -0.37264431 0.056752548
-0.25511149 -0.37268823 0.056733131
-0.25529543 -0.37273231 0.056680363
-0.25552577 -0.37277561 0.056700043
-0.25573039 -0.37281635 0.056701399
-0.25594452 -0.37286937 0.056627735
-0.25615484 -0.37291265 0.056618672
-0.25636715 -0.37296227 0.056566931
-0.25655231 -0.3729898 0.056635268
-0.25676489 -0.37303758 0.056597359
-0.25696814 -0.37308007 0.056583725
-0.25717604 -0.37312657 0.056548148
-0.25738764 -0.37317398 0.056511402
-0.25757033 -0.37319958 0.056590129
-0.25777888 -0.37324458 0.056566093
-0.25798655 -0.37329137 0.056528207
-0.25819492 -0.37333652 0.056503013
-0.25840503 -0.3733857 0.05645128
-0.25860962 -0.37342784 0.056442246
-0.25881588 -0.373474 0.056406684
-0.25901103 -0.37350819 0.056441523
-0.25921765 -0.37355489 0.05640249
-0.25942016 -0.37359565 0.056400396
-0.25962028 -0.37363693 0.056391381
-0.25983068 -0.37368488 0.056348875
-0.26003045 -0.37372604 0.056339867
-0.26023239 -0.37376672 0.056337774
-0.26043209 -0.37380806 0.056327604
-0.26063624 -0.37385091 0.056312807
-0.26083767 -0.37389401 0.056292262
-0.26104572 -0.37394071 0.056255534
-0.26124591 -0.37398294 0.056239605
-0.26145643 -0.37403217 0.056187868
-0.2616477 -0.37406638 0.056216955
-0.26181883 -0.37409782 0.056236923
-0.26204848 -0.37414932 0.05619663
-0.26225111 -0.3741917 0.056182988
-0.26244888 -0.37423235 0.05617515
-0.26264784 -0.37427145 0.056179978
-0.26284891 -0.37431544 0.056152508
-0.26304203 -0.37435466 0.056148149
-0.26322341 -0.37439376 0.056127694
-0.2633971 -0.37443674 0.056068059
-0.26361474 -0.37448055 0.05606588
-0.26385337 -0.37452808 0.056067068
-0.26405445 -0.37457287 0.056033842
-0.26425692 -0.37461638 0.056012135
-0.26444092 -0.37465006 0.056034338
-0.26464871 -0.37469622 0.056001071
-0.26484996 -0.37473881 0.055983976
-0.26505318 -0.37478358 0.055954199
-0.26525205 -0.37482697 0.055927888
-0.26545471 -0.37487146 0.055899262
-0.26565227 -0.37491381 0.055878729
-0.26584381 -0.37494677 0.05591704
-0.26603654 -0.37498415 0.055925369
-0.26623774 -0.37502754 0.055902518
-0.26644024 -0.37507567 0.055847354
-0.26659831 -0.37509793 0.055914663
-0.26680875 -0.37514859 0.055852555
-0.26698297 -0.37518865 0.055814829
-0.26723012 -0.37524799 0.055743314
-0.26741311 -0.37527189 0.055834725
-0.26759356 -0.37531608 0.05577622
-0.26777735 -0.37535757 0.055741906
-0.26800507 -0.37540901 0.055699326
-0.26821771 -0.37545693 0.055660263
-0.26836845 -0.37548107 0.055703379
-0.26857945 -0.37552387 0.055698935
-0.26880333 -0.37557149 0.055678286
-0.26900145 -0.3756133 0.055662356
-0.26918626 -0.37565708 0.055613056
-0.269373 -0.37569261 0.055626016
-0.26956686 -0.37573326 0.05561243
-0.26977819 -0.37576988 0.055652954
-0.2699672 -0.37581578 0.055594407
-0.27016729 -0.37584966 0.055638444
-0.27036825 -0.37589973 0.055567153
-0.27056861 -0.37594551 0.055525843
-0.27075714 -0.37598011 0.055548035
-0.27093825 -0.37602842 0.055460677
-0.27115166 -0.37606835 0.055480439
-0.27134737 -0.37610874 0.05547145
-0.27153718 -0.37614533 0.055480942
-0.2717315 -0.37619215 0.055423513
-0.27192789 -0.37622979 0.055435285
-0.27211225 -0.37625507 0.05551862
-0.27231359 -0.37630793 0.055427715
-0.27249864 -0.3763468 0.055414159
-0.27267593 -0.37639195 0.055344135
-0.272901 -0.37643644 0.055347688
-0.27309039 -0.37647331 0.055354871
-0.27328861 -0.37651867 0.05531358
-0.27346498 -0.37655005 0.055341586
-0.27366722 -0.37659267 0.05532565
-0.27386194 -0.37663332 0.055313207
-0.27405715 -0.37667486 0.055294983
-0.27424812 -0.37671477 0.055282556
-0.27444136 -0.37675834 0.055247046
-0.27462098 -0.37679994 0.055205848
-0.2748296 -0.37684402 0.055188719
-0.27502188 -0.37688178 0.055193588
-0.27521446 -0.37692007 0.055194989
-0.27540714 -0.37696368 0.055158336
-0.27559397 -0.37699267 0.055218592
-0.27576101 -0.37703496 0.055154372
-0.27595639 -0.37708902 0.055046193
-0.27614999 -0.37712449 0.05506951
-0.27636647 -0.37716758 0.055070803
-0.2765471 -0.37719661 0.055121854
-0.27673399 -0.37723121 0.055141747
-0.27689326 -0.37727213 0.055076413
-0.27713829 -0.37733966 0.054942623
-0.27732176 -0.3773742 0.054957911
-0.2774719 -0.37738705 0.05508177
-0.27764258 -0.37742686 0.055040605
-0.27784923 -0.37747616 0.05498312
-0.2780436 -0.37752008 0.054946456
-0.27827081 -0.37757367 0.054887723
-0.2784504 -0.37760729 0.054904182
-0.27864552 -0.37763393 0.054993238
-0.2788429 -0.37769175 0.054860827
-0.27902982 -0.37772781 0.05487033
-0.27921039 -0.37776384 0.054870643
-0.27939266 -0.37780377 0.054845572
-0.27956137 -0.37783471 0.054865539
-0.27974308 -0.3778809 0.054794334
-0.27993041 -0.37791848 0.054793447
-0.28010345 -0.37794486 0.05485262
-0.2802892 -0.37799412 0.054765251
-0.28048062 -0.37804225 0.054693997
-0.28067544 -0.37808341 0.05467809
-0.28087604 -0.37813148 0.054620638
-0.28106657 -0.37815353 0.054736234
-0.28128847 -0.37820762 0.05466599
-0.28147554 -0.37824595 0.054659352
-0.28162599 -0.37827182 0.054689784
-0.28180251 -0.3782984 0.054752398
-0.28198934 -0.37834564 0.054681167
-0.28217903 -0.37839231 0.054617994
-0.28236151 -0.3784273 0.05462867
-0.28255701 -0.37847292 0.054581627
-0.28275111 -0.37851441 0.054562259
-0.28293055 -0.37855053 0.054560266
-0.28310624 -0.37858513 0.054564059
-0.28329557 -0.3786335 0.054488204
-0.28347942 -0.37866271 0.054542705
-0.28367087 -0.37872013 0.054404557
-0.28384677 -0.37871861 0.054669004
-0.28403413 -0.37877378 0.05454126
-0.28422582 -0.37883461 0.05437889
-0.28441697 -0.37888113 0.054319173
-0.28462616 -0.37893555 0.054228231
-0.28482625 -0.37896416 0.054310344
-0.28500456 -0.37898216 0.054437533
-0.28518924 -0.3790144 0.054471269
-0.2853528 -0.37905696 0.054400139
-0.28556269 -0.3791005 0.05438878
-0.28576204 -0.37914094 0.054384392
-0.28593701 -0.37917477 0.054392792
-0.28613257 -0.37921271 0.054401107
-0.28632966 -0.37926117 0.054335594
-0.28650606 -0.37930632 0.054264411
-0.28667787 -0.37934333 0.054245152
-0.2868697 -0.3793802 0.054255791
-0.28706539 -0.37942168 0.054238722
-0.28723428 -0.37946451 0.054173343
-0.28743282 -0.37950274 0.054183953
-0.28762764 -0.37953636 0.054222248
-0.28782675 -0.37958205 0.054179806
-0.28797966 -0.37959465 0.054309417
-0.28817245 -0.37964883 0.054196633
-0.2883575 -0.37968865 0.054176159
-0.28852546 -0.37972873 0.054129235
-0.2887378 -0.37977722 0.054085571
-0.28893277 -0.37981746 0.054076582
-0.28909692 -0.37985101 0.054071203
-0.28926787 -0.37988371 0.054081935
-0.28946277 -0.37992391 0.05407295
-0.28963378 -0.37995294 0.05411021
-0.28982487 -0.38000515 0.054008976
-0.29003388 -0.38003093 0.054124486
-0.29021108 -0.38007927 0.054031387
-0.29037446 -0.38012305 0.05395104
-0.29055908 -0.38015625 0.053977862
-0.29076457 -0.38018915 0.054036867
-0.29094845 -0.38023272 0.05398757
-0.29112023 -0.38025567 0.05406981
-0.2912856 -0.38027492 0.054169372
-0.29147089 -0.38033685 0.053989738
-0.29166055 -0.3803874 0.053898878
-0.29187161 -0.38043308 0.053873673
-0.29204842 -0.38047236 0.05384516
-0.2922287 -0.38051155 0.053822413
-0.29240274 -0.3805452 0.053830817
-0.2925908 -0.38057971 0.053853005
-0.2927835 -0.38062745 0.05378636
-0.29296526 -0.38065782 0.053829335
-0.29315224 -0.38069773 0.053811163
-0.29333141 -0.38074085 0.05375842
-0.29351476 -0.38078052 0.053736806
-0.29369742 -0.3808229 0.053694427
-0.29387641 -0.38085049 0.053753562
-0.29406482 -0.38088378 0.053784974
-0.29424745 -0.38092586 0.053744908
-0.29443339 -0.38096857 0.053704828
-0.29461661 -0.38100773 0.05368666
-0.29479563 -0.38104874 0.053648923
-0.29497948 -0.38108546 0.053649217
-0.29515851 -0.38112599 0.053614926
-0.29534394 -0.38115776 0.053653266
-0.29553795 -0.38119665 0.053652361
-0.29571843 -0.38122213 0.053728789
-0.29588404 -0.38127965 0.05355271
-0.29607147 -0.38131627 0.053558744
-0.29627517 -0.38135827 0.053549726
-0.29645306 -0.38140064 0.053500447
-0.29663575 -0.38143983 0.053481136
-0.29681596 -0.38148496 0.053415701
-0.2969909 -0.38151586 0.053444877
-0.29716802 -0.38155058 0.05344981
-0.29736632 -0.38159597 0.053408518
-0.29755908 -0.38162887 0.053449135
-0.29773238 -0.38166392 0.053446021
-0.29791579 -0.3817012 0.053441696
-0.29810002 -0.38174438 0.05339586
-0.29828396 -0.38178799 0.053346552
-0.29846004 -0.38181737 0.053388406
-0.29866078 -0.38185731 0.053389765
-0.29885513 -0.38188815 0.053447679
-0.29902217 -0.38191396 0.053502262
-0.2991915 -0.38196999 0.053342305
-0.29937533 -0.38201308 0.053296458
-0.29956415 -0.38205385 0.053274818
-0.29975089 -0.38208523 0.05331777
-0.29993692 -0.38213068 0.053258076
-0.30012292 -0.38216349 0.053289495
-0.30030322 -0.38220558 0.053245984
-0.30049282 -0.38223895 0.053278536
-0.30067569 -0.38228285 0.053225785
-0.30085438 -0.38232699 0.053164966
-0.30103299 -0.38236538 0.053145684
-0.30121449 -0.38240513 0.053120609
-0.30140439 -0.38244385 0.053115107
-0.30158952 -0.38248387 0.053093482
-0.30176935 -0.38252041 0.053089175
-0.30195391 -0.38256109 0.053061787
-0.30214748 -0.38258967 0.053134695
-0.3023234 -0.38263151 0.053086586
-0.30250591 -0.38266972 0.0530742
-0.30269867 -0.38271493 0.053026009
-0.30287537 -0.38274556 0.053059783
-0.30305639 -0.38279051 0.052996647
-0.30325016 -0.38282457 0.053030349
-0.3034386 -0.38286045 0.053043306
-0.30361852 -0.38290644 0.052970953
-0.30379233 -0.38294545 0.052940149
-0.30398783 -0.38298243 0.052955382
-0.3041732 -0.38301736 0.052970663
-0.30435109 -0.38305625 0.052946761
-0.30453354 -0.3830989 0.05290208
-0.30471236 -0.38313669 0.052887402
-0.30490267 -0.38316655 0.052946482
-0.30508941 -0.3832131 0.05287987
-0.3052676 -0.38325155 0.052859426
-0.30546239 -0.38328966 0.052865438
-0.3056514 -0.38333365 0.052820724
-0.30583179 -0.38336584 0.052848712
-0.30603719 -0.38340974 0.052828141
-0.30620813 -0.38345122 0.052775446
-0.30638742 -0.38349244 0.052736536
-0.30656391 -0.3835285 0.052731097
-0.3067579 -0.38356754 0.052729044
-0.30693287 -0.38360503 0.052710917
-0.30711958 -0.38363945 0.052731957
-0.30729488 -0.38367668 0.052716151
-0.30748513 -0.38371548 0.052710645
-0.30767009 -0.3837553 0.052690171
-0.30784118 -0.38379616 0.052642073
-0.30802724 -0.38383138 0.052656204
-0.30821374 -0.38387343 0.052621875
-0.30840331 -0.38391289 0.052610617
-0.30857965 -0.38395625 0.052552119
-0.30877131 -0.38399053 0.052581213
-0.30895054 -0.38402808 0.052568834
-0.30914259 -0.38406563 0.052574858
-0.30931976 -0.38410148 0.052571721
-0.309517 -0.38413846 0.052589253
-0.30971029 -0.38418189 0.052554898
-0.30988386 -0.3842271 0.052479118
-0.31004632 -0.38426751 0.052421838
-0.31024432 -0.38430083 0.052467048
-0.31043988 -0.38434243 0.052448831
-0.31061023 -0.38437706 0.052444581
-0.31080389 -0.38441384 0.052458659
-0.3109844 -0.38445067 0.052453201
-0.31119126 -0.38449377 0.052440699
-0.31134811 -0.38453785 0.052348848
-0.31154254 -0.38457125 0.052388307
-0.31173763 -0.38460734 0.052409306
-0.31189969 -0.38465071 0.052330118
-0.31207448 -0.3846885 0.052309692
-0.31227002 -0.38471857 0.052374527
-0.31246832 -0.38475868 0.05237129
-0.31264478 -0.38479838 0.052339323
-0.31282806 -0.38484234 0.052286558
-0.31300068 -0.38488159 0.052252308
-0.31317893 -0.38492292 0.052211106
-0.31338057 -0.38495827 0.05224707
-0.31357783 -0.38499638 0.052256525
-0.31375274 -0.38503978 0.052195728
-0.31393379 -0.38507944 0.05217066
-0.31412047 -0.38511848 0.052158259
-0.31431124 -0.38515785 0.052149288
-0.3144851 -0.38519368 0.052141555
-0.31468022 -0.38522801 0.052175242
-0.31487024 -0.3852706 0.052142058
-0.31502536 -0.38531706 0.052030604
-0.31521991 -0.38534665 0.052097749
-0.31542766 -0.38538206 0.052141752
-0.31558961 -0.38542718 0.052049875
-0.31578118 -0.3854664 0.052043214
-0.31596223 -0.38550368 0.052035443
-0.31616566 -0.3855392 0.052072559
-0.31633711 -0.38558412 0.051995631
-0.31652585 -0.38562742 0.051955529
-0.31670493 -0.38566333 0.051954694
-0.31688645 -0.38570052 0.051948071
-0.31705469 -0.38574931 0.051838875
-0.31719297 -0.38580087 0.051666375
-0.31741312 -0.38582119 0.051837198
-0.31762663 -0.38584754 0.051954992
-0.31784835 -0.3858749 0.052077364
-0.31801879 -0.38593194 0.051911637
-0.31820667 -0.3859781 0.051849626
-0.31839836 -0.38601542 0.051856797
-0.31857222 -0.38605654 0.05181101
-0.31874669 -0.38609505 0.051784817
-0.31891885 -0.38613915 0.051714804
-0.3190859 -0.3861765 0.05168635
-0.31928736 -0.38620508 0.051770754
-0.31949481 -0.38624012 0.051817067
-0.31968364 -0.38628134 0.051791966
-0.31986317 -0.38632888 0.051708084
-0.32004565 -0.38636401 0.051717609
-0.32022327 -0.38640571 0.05167295
-0.32039493 -0.38644558 0.05163293
-0.32060954 -0.38647807 0.051708043
-0.32078606 -0.38652241 0.051642627
-0.32097107 -0.38656321 0.051615238
-0.32116863 -0.38659883 0.051643144
-0.32135275 -0.38664216 0.051596146
-0.32152206 -0.38667881 0.051575746
-0.32173118 -0.38671419 0.051622063
-0.32189104 -0.38675681 0.051545188
-0.32210231 -0.3867915 0.051599562
-0.32229686 -0.38682878 0.051611338
-0.3224673 -0.38687751 0.051505588
-0.32266495 -0.38691363 0.051530033
-0.32285473 -0.38695487 0.05150608
-0.32303172 -0.38698685 0.051530626
-0.32321748 -0.3870337 0.051460546
-0.32341439 -0.38706839 0.051494226
-0.32359162 -0.38711241 0.051432274
-0.3237665 -0.38715133 0.051403772
-0.32391235 -0.38719881 0.051271603
-0.32411614 -0.3872312 0.051331773
-0.32433805 -0.38725924 0.051449537
-0.32454777 -0.38729569 0.051488921
-0.32471818 -0.38734603 0.051371638
-0.32489511 -0.38738632 0.051336206
-0.32508433 -0.3874281 0.051307634
-0.32527021 -0.38746345 0.051320605
-0.32547316 -0.38750255 0.051331192
-0.32564878 -0.38754338 0.051290002
-0.32583115 -0.3875857 0.051247627
-0.32601297 -0.38762632 0.051216781
-0.32621366 -0.38766083 0.051257372
-0.32641059 -0.38770032 0.051256452
-0.32659864 -0.38774458 0.051208284
-0.3267768 -0.38777921 0.051215522
-0.32697985 -0.38782057 0.051209953
-0.32715285 -0.38786596 0.051131871
-0.3273432 -0.38790414 0.051130973
-0.32754016 -0.38793853 0.051166959
-0.32773072 -0.38798571 0.051101487
-0.32790771 -0.38802806 0.051051062
-0.32811275 -0.388062 0.051102005
-0.3283014 -0.38810447 0.051067665
-0.32846662 -0.38814336 0.051025379
-0.32867122 -0.38817942 0.05106017
-0.32886752 -0.38821974 0.051052332
-0.32905772 -0.38826191 0.051022612
-0.32923406 -0.38830286 0.050981414
-0.32941195 -0.38834509 0.050933294
-0.32957634 -0.38838431 0.05088754
-0.32978421 -0.38842326 0.05090617
-0.33000481 -0.38846558 0.050918981
-0.33020094 -0.38850796 0.050896157
-0.33037058 -0.38854581 0.05086768
-0.33056962 -0.38858077 0.050902497
-0.33076692 -0.3886213 0.050894655
-0.33095574 -0.38866413 0.050858013
-0.33112061 -0.38870007 0.050836485
-0.33133283 -0.38873848 0.050865479
-0.33152622 -0.38877696 0.05086688
-0.33173078 -0.38882405 0.050822087
-0.33193019 -0.38886595 0.050807323
-0.33211508 -0.38890511 0.050791457
-0.33229399 -0.38894421 0.050767556
-0.33247402 -0.38898301 0.050747104
-0.33268708 -0.38902494 0.050751876
-0.33287162 -0.38906276 0.050745238
-0.33305162 -0.38909853 0.050746709
-0.33326706 -0.38915119 0.05067765
-0.33345133 -0.38918445 0.050703309
-0.33362314 -0.38922548 0.05065522
-0.33384636 -0.38927007 0.050655331
-0.33402324 -0.38930681 0.050645273
-0.33422881 -0.38935253 0.050612014
-0.33441198 -0.38939565 0.05056503
-0.33461523 -0.3894358 0.050568689
-0.33479467 -0.38946906 0.050587457
-0.33500013 -0.38950881 0.05059687
-0.33519256 -0.38955766 0.050522152
-0.33535892 -0.38960156 0.050445251
-0.33558914 -0.38963911 0.050506458
-0.33578238 -0.38968027 0.050488252
-0.33598974 -0.38971239 0.050555326
-0.33614787 -0.38975516 0.050475005
-0.33634001 -0.38979816 0.050441813
-0.33654875 -0.38983476 0.050478902
-0.33674926 -0.38987464 0.050480265
-0.33695698 -0.38991901 0.05045969
-0.33714274 -0.38995469 0.050470352
-0.33732313 -0.39000028 0.050401457
-0.33753145 -0.39004174 0.050402794
-0.33769685 -0.39008164 0.050353575
-0.33786863 -0.39011881 0.050333165
-0.33806971 -0.39016473 0.050291851
-0.33829153 -0.39021242 0.050267752
-0.33851275 -0.39025021 0.050313998
-0.33869234 -0.39028606 0.050314311
-0.33889073 -0.39032698 0.050305307
-0.33909526 -0.39037248 0.050272055
-0.33928293 -0.39041123 0.050263103
-0.33948043 -0.39045388 0.050240271
-0.33968905 -0.39049876 0.050217371
-0.33987609 -0.3905406 0.050185364
-0.34004343 -0.39058039 0.050139595
-0.34024519 -0.39061683 0.050167479
-0.34048441 -0.39066067 0.050196357
-0.34064227 -0.39070225 0.050124101
-0.34084445 -0.39074022 0.05014161
-0.3410255 -0.39077783 0.050131533
-0.34123611 -0.39082548 0.050091334
-0.34140944 -0.39086586 0.050050154
-0.34160322 -0.39090824 0.05002388
-0.34182692 -0.3909443 0.050086267
-0.34199747 -0.39098793 0.05001742
-0.34220427 -0.39103374 0.049985304
-0.34243667 -0.39107808 0.05000037
-0.34262362 -0.3911151 0.050002947
-0.34281269 -0.39115319 0.050000917
-0.34300122 -0.39120075 0.049929675
-0.343247 -0.39124334 0.04997696
-0.34343758 -0.39128268 0.049967997
-0.34362891 -0.39132327 0.049950961
-0.34380645 -0.39136735 0.049888998
-0.24069321 -0.36962312 0.058052003
-0.24089108 -0.36965546 0.058104098
-0.24113959 -0.36971444 0.058037139
-0.24135831 -0.36975318 0.05807298
-0.24162474 -0.3698135 0.058022086
-0.2418575 -0.36986643 0.057975963
-0.24207821 -0.36991358 0.057954118
-0.24230888 -0.36996543 0.057912622
-0.24248725 -0.36999273 0.057972886
-0.24269445 -0.37004021 0.057929195
-0.24293537 -0.37010419 0.057814978
-0.24313308 -0.37013716 0.057862457
-0.24341461 -0.37019792 0.057829931
-0.24361172 -0.37022883 0.057891257
-0.2438436 -0.37029117 0.057775937
-0.24405967 -0.37032747 0.057825636
-0.24427848 -0.37037984 0.057763427
-0.24445987 -0.37041494 0.057771768
-0.24469784 -0.37045866 0.057799451
-0.24493268 -0.3705112 0.057759084
-0.24514349 -0.37055159 0.057771891
-0.24537317 -0.37060276 0.057733864
-0.24558999 -0.37065825 0.057646289
-0.24578451 -0.37069166 0.057685718
-0.24603568 -0.3707467 0.057651028
-0.24625388 -0.3707999 0.057581916
-0.24647003 -0.37083894 0.057612002
-0.24664475 -0.37087029 0.05763768
-0.24688974 -0.37092534 0.057593808
-0.24710651 -0.37097251 0.057566211
-0.24733324 -0.3710191 0.057557032
-0.2475583 -0.37107033 0.057512105
-0.2477648 -0.37110886 0.057531852
-0.24797216 -0.37114805 0.057548147
-0.24817985 -0.37120283 0.057452545
-0.24836755 -0.37123808 0.057468932
-0.24859717 -0.37128156 0.057486266
-0.2488298 -0.37132728 0.057492055
-0.24904671 -0.37137559 0.057456385
-0.24926908 -0.37142596 0.057413779
-0.24949336 -0.37147781 0.057363078
-0.24969432 -0.37151316 0.057397857
-0.24991301 -0.37156326 0.057351798
-0.25012878 -0.37160942 0.057329986
-0.2503486 -0.37165862 0.057292003
-0.25056875 -0.37170821 0.057251707
-0.25079086 -0.37176141 0.057188332
-0.25097883 -0.37178776 0.057269312
-0.25117823 -0.37182248 0.057306409
-0.25140914 -0.37188047 0.05722107
-0.25160801 -0.37191701 0.057244323
-0.25183859 -0.37197506 0.057157844
-0.2520453 -0.37201557 0.057163756
-0.25224695 -0.37205234 0.057189304
-0.2524586 -0.3720988 0.057159424
-0.2526646 -0.37213901 0.057166502
-0.25286299 -0.37217352 0.057203591
-0.25309893 -0.37223667 0.057088248
-0.25330657 -0.37228057 0.057071082
-0.25350201 -0.37231302 0.057118572
-0.25371784 -0.3723613 0.057081766
-0.25393927 -0.37241402 0.057020701
-0.25414225 -0.37245473 0.057019703
-0.25435102 -0.37249789 0.057009462
-0.25455827 -0.37253994 0.057004984
-0.25476968 -0.37258539 0.056982033
-0.25496662 -0.37262169 0.057004146
-0.25517902 -0.37266812 0.056975424
-0.25539547 -0.37271795 0.056928229
-0.25560924 -0.37276578 0.056891426
-0.25581351 -0.37280834 0.056878895
-0.25601611 -0.37284738 0.056889445
-0.25621799 -0.37288818 0.056886151
-0.25642291 -0.3729293 0.056885146
-0.25662145 -0.37297678 0.056828812
-0.25682068 -0.37300876 0.056885507
-0.25700283 -0.3730616 0.056766964
-0.25723976 -0.37309459 0.056870773
-0.25746006 -0.37314901 0.05679588
-0.25766411 -0.37319714 0.056742977
-0.25781864 -0.37321308 0.056850649
-0.25807941 -0.37328073 0.056738637
-0.25828803 -0.37332594 0.056713402
-0.25848818 -0.37336403 0.056727409
-0.25869519 -0.37341049 0.056690648
-0.25890505 -0.37345964 0.056638867
-0.25910765 -0.37350011 0.056639031
-0.25931579 -0.37354553 0.05661149
-0.25951558 -0.37358624 0.056605898
-0.25972304 -0.37362882 0.056597963
-0.25991264 -0.37366572 0.056605116
-0.26011798 -0.37370914 0.056587961
-0.26029634 -0.3737438 0.056595158
-0.26050347 -0.37378648 0.056586072
-0.2607227 -0.37383765 0.056533098
-0.26088232 -0.37386325 0.056578461
-0.26114064 -0.37392434 0.056510292
-0.26133215 -0.37396628 0.05648398
-0.26152217 -0.37402293 0.056349248
-0.26175347 -0.37405688 0.056438096
-0.26194066 -0.37408707 0.056490235
-0.26215044 -0.37413585 0.056440771
-0.26236227 -0.37418681 0.056378596
-0.26257509 -0.37423894 0.056309499
-0.26273412 -0.37426442 0.056354862
-0.26291686 -0.37429613 0.056389727
-0.26312026 -0.37433389 0.056410659
-0.26335776 -0.37439096 0.056341439
-0.26353851 -0.37444082 0.056242511
-0.26374644 -0.37446621 0.056359153
-0.26394716 -0.37450743 0.056351248
-0.26416051 -0.3745614 0.056269459
-0.26434568 -0.374596 0.056287013
-0.26452124 -0.37463266 0.056275781
-0.26472503 -0.37467447 0.056267861
-0.26492122 -0.3747116 0.056283049
-0.2651248 -0.37475947 0.056231298
-0.26531166 -0.37480223 0.056192324
-0.26550025 -0.37484086 0.056185637
-0.26569548 -0.37487423 0.056226209
-0.26593107 -0.37493813 0.056105092
-0.26615247 -0.37498096 0.056115553
-0.26634789 -0.3750211 0.056107674
-0.26653978 -0.37505752 0.056121729
-0.26674035 -0.3751035 0.056079231
-0.2669459 -0.37515193 0.056026321
-0.26712999 -0.37518325 0.05606579
-0.26731417 -0.37521794 0.056081034
-0.26752546 -0.37527665 0.055962354
-0.26772985 -0.37531444 0.055984419
-0.26792037 -0.37534994 0.056003101
-0.26812905 -0.37539965 0.05594556
-0.26832089 -0.37543684 0.055953853
-0.26852047 -0.37547976 0.055932119
-0.26868862 -0.37551716 0.055904768
-0.26888704 -0.37554127 0.05601684
-0.26909223 -0.37559474 0.055927016
-0.26930371 -0.37565252 0.05581525
-0.26949856 -0.37568679 0.055848908
-0.26969421 -0.37572572 0.055850253
-0.26988637 -0.3757641 0.055850469
-0.27008381 -0.37580547 0.055836819
-0.27028182 -0.37585142 0.055790864
-0.27047455 -0.37589088 0.055784158
-0.27066806 -0.37593144 0.05577052
-0.27086353 -0.37597081 0.055768408
-0.27104971 -0.3760021 0.055811334
-0.27125338 -0.37605238 0.055742282
-0.27144912 -0.37609643 0.055706721
-0.27163923 -0.37613311 0.055716179
-0.27183121 -0.37617242 0.05570947
-0.27203119 -0.37621862 0.055664662
-0.2722224 -0.37625712 0.05566258
-0.27242565 -0.37630829 0.055586614
-0.27260917 -0.37633631 0.055649154
-0.27280876 -0.37638274 0.05560204
-0.27299637 -0.37641653 0.055628806
-0.27317381 -0.37644443 0.055683307
-0.2733413 -0.37648892 0.055604052
-0.27354056 -0.37653559 0.055554632
-0.27377114 -0.37658378 0.055539668
-0.27395457 -0.37661624 0.055569921
-0.27415034 -0.37665823 0.055549353
-0.27434444 -0.37669781 0.055543788
-0.27451324 -0.37672669 0.055578724
-0.27473265 -0.37678704 0.055459991
-0.27492183 -0.37681922 0.055500593
-0.27512041 -0.37687153 0.055409651
-0.27530736 -0.3769103 0.055399515
-0.27550739 -0.37695554 0.055361629
-0.27569354 -0.37698808 0.055395316
-0.27587837 -0.3770341 0.055329822
-0.27607685 -0.37706673 0.055380765
-0.27626184 -0.37709725 0.055427141
-0.27642885 -0.37713987 0.055360585
-0.27665403 -0.37719241 0.05530642
-0.27684456 -0.37723318 0.055287041
-0.27702874 -0.3772682 0.055299979
-0.27721736 -0.37730572 0.055301368
-0.27741998 -0.37735212 0.055258848
-0.2776061 -0.37738511 0.05528909
-0.2777856 -0.3774296 0.055227078
-0.27798992 -0.37747395 0.055201855
-0.27818391 -0.37751669 0.055173218
-0.27834544 -0.37754476 0.055203579
-0.27854049 -0.37758359 0.055204928
-0.27874023 -0.37763229 0.055141672
-0.27890816 -0.37766069 0.055178918
-0.27913052 -0.37771103 0.055136301
-0.27932686 -0.37775329 0.055114582
-0.27951366 -0.37778854 0.055129819
-0.27967909 -0.37781852 0.055152081
-0.27983388 -0.37785324 0.055124797
-0.28003222 -0.37791589 0.054958872
-0.28025275 -0.37795645 0.054984331
-0.28046581 -0.37799421 0.055019051
-0.28065214 -0.37802905 0.055036597
-0.2808395 -0.37806645 0.055036835
-0.2810249 -0.37809885 0.055070527
-0.28122029 -0.37814924 0.054988835
-0.2814101 -0.37819386 0.054940611
-0.28159022 -0.37822983 0.054940883
-0.28174615 -0.37827039 0.054873228
-0.28195286 -0.37829968 0.054959878
-0.28216544 -0.378346 0.054932311
-0.28235805 -0.37839103 0.054885231
-0.28253114 -0.37842607 0.054882079
-0.28269511 -0.37845272 0.054926261
-0.28291041 -0.37850934 0.054828316
-0.28308731 -0.37853572 0.054893203
-0.28325638 -0.3785685 0.054900449
-0.28346542 -0.37862802 0.054772548
-0.28364548 -0.37866589 0.054758977
-0.2838169 -0.37869614 0.054788131
-0.2840361 -0.37874666 0.054739773
-0.28423518 -0.37878257 0.054767631
-0.2844196 -0.37882614 0.054719441
-0.28459975 -0.37886578 0.054693185
-0.28478611 -0.37890428 0.054684199
-0.28494731 -0.3789331 0.054708794
-0.28512573 -0.37898168 0.054615639
-0.28533235 -0.37904072 0.054487742
-0.28552261 -0.37906641 0.054576792
-0.28570744 -0.37909803 0.054615106
-0.28588185 -0.37912646 0.054661546
-0.28605705 -0.37915951 0.054675687
-0.2862463 -0.37921989 0.054513276
-0.28645444 -0.3792749 0.054416522
-0.28664917 -0.37930611 0.054472093
-0.28683871 -0.3793211 0.054637264
-0.28703842 -0.37936357 0.054618988
-0.28722519 -0.37941206 0.054538481
-0.28740779 -0.37945428 0.054497216
-0.28758693 -0.37949678 0.054449052
-0.28776842 -0.3795279 0.05448623
-0.28797427 -0.37956727 0.054499067
-0.28814286 -0.37960812 0.054447494
-0.28831804 -0.37964725 0.0544178
-0.2885077 -0.37971106 0.054231159
-0.28871307 -0.37974793 0.054261308
-0.28888392 -0.37976235 0.054403499
-0.28906915 -0.37980831 0.054339152
-0.28925762 -0.37984228 0.054365922
-0.28943238 -0.37987572 0.054376595
-0.28962734 -0.37993577 0.054224536
-0.28983 -0.3799502 0.054412723
-0.29000488 -0.37998238 0.054432634
-0.29017946 -0.38002205 0.054398324
-0.29036665 -0.38008246 0.054232471
-0.2905502 -0.38013864 0.054091997
-0.29074141 -0.38017955 0.054072604
-0.290932 -0.38022739 0.054002464
-0.29112735 -0.38025904 0.054055732
-0.29131317 -0.38028336 0.054148249
-0.29151303 -0.38033992 0.054028466
-0.29170477 -0.38037437 0.054056369
-0.29190004 -0.38040924 0.054086555
-0.2920827 -0.38043466 0.054166414
-0.29227006 -0.38045353 0.054300457
-0.29243734 -0.38048932 0.054283489
-0.29261288 -0.38053861 0.054181121
-0.29279554 -0.3805666 0.054242518
-0.29298124 -0.38061666 0.05414933
-0.29316255 -0.3806695 0.054029644
-0.29334888 -0.38071391 0.053977974
-0.29353589 -0.38075462 0.05395399
-0.29371986 -0.3807928 0.053943869
-0.29391956 -0.38082501 0.053999417
-0.29410356 -0.38086319 0.053989284
-0.29428279 -0.38090572 0.053941116
-0.29446039 -0.38095379 0.053850278
-0.29465336 -0.38099748 0.05381358
-0.29484648 -0.38101605 0.053957973
-0.29503733 -0.38104329 0.054036632
-0.29521665 -0.38107318 0.054079592
-0.29540244 -0.38111702 0.054031387
-0.29558069 -0.38116124 0.05396938
-0.29576713 -0.38121286 0.053865813
-0.29595357 -0.38125363 0.053840682
-0.29614678 -0.38130549 0.053745151
-0.29633746 -0.38131526 0.053949542
-0.29651159 -0.38136858 0.053816035
-0.29669186 -0.38141498 0.053741336
-0.29688078 -0.38145784 0.053704657
-0.29707468 -0.38150617 0.053635649
-0.29726601 -0.38154295 0.053646255
-0.29745466 -0.38156927 0.053728383
-0.2976343 -0.38160753 0.053711355
-0.29783541 -0.38164771 0.053711526
-0.29801264 -0.38169095 0.053655293
-0.29817972 -0.38173932 0.0535472
-0.29836819 -0.3817744 0.053565893
-0.29857603 -0.38181576 0.053567179
-0.29875305 -0.38184425 0.053617068
-0.29894039 -0.38188183 0.053616155
-0.299133 -0.38191676 0.053641748
-0.29931411 -0.38195884 0.053599343
-0.29949975 -0.38199946 0.053574204
-0.29968312 -0.38203734 0.053565234
-0.29987296 -0.38207719 0.053551625
