# .PCD v0.7 - Point Cloud Data file format
VERSION 0.7
FIELDS x y z
SIZE 4 4 4
TYPE F F F
COUNT 1 1 1
WIDTH 1288
HEIGHT 1
VIEWPOINT 0 0 0 1 0 0 0
POINTS 1288
DATA ascii
-0.17651394 -0.46144265 0.053283744
-0.17669979 -0.46155232 0.053317599
-0.17686974 -0.46165839 0.053308785
-0.17702328 -0.46176067 0.053256135
-0.17719547 -0.46186709 0.053254239
-0.177366 -0.46197185 0.05325697
-0.17752889 -0.46208006 0.053203121
-0.17769639 -0.46218595 0.053185072
-0.17785327 -0.4622888 0.053142808
-0.17801876 -0.46239445 0.053117838
-0.17819659 -0.46250051 0.053142484
-0.17836113 -0.46260756 0.053103652
-0.17849746 -0.46270877 0.052985214
-0.17870413 -0.4628166 0.053120665
-0.17887795 -0.46292672 0.053100277
-0.17903303 -0.46302944 0.053051088
-0.17922191 -0.46313915 0.05309765
-0.17940232 -0.46325049 0.053096868
-0.17956626 -0.46335769 0.053054575
-0.17972653 -0.46346429 0.053000737
-0.17990199 -0.46357492 0.052983806
-0.18007612 -0.46368107 0.052992307
-0.18025067 -0.46379164 0.052971907
-0.18041617 -0.46389493 0.052963112
-0.18059035 -0.46400696 0.052931167
-0.18076365 -0.46410888 0.052965086
-0.18094592 -0.4642182 0.052986257
-0.18109603 -0.46432739 0.052871231
-0.18128511 -0.46443525 0.052931651
-0.18146637 -0.46454877 0.052919321
-0.18163958 -0.46464965 0.052960172
-0.18177877 -0.46475261 0.052841723
-0.18194911 -0.46485722 0.052844454
-0.18213534 -0.4649705 0.052855205
-0.18232968 -0.46509093 0.052850913
-0.18248039 -0.46519333 0.05278556
-0.18265948 -0.4652985 0.052821759
-0.18281497 -0.46540734 0.052732132
-0.18296719 -0.4655073 0.052689888
-0.18313645 -0.46561477 0.052668355
-0.18330052 -0.46571988 0.052641079
-0.18349746 -0.46583438 0.052688759
-0.18366745 -0.4659408 0.052677631
-0.18382703 -0.46604782 0.052618027
-0.18401441 -0.46616331 0.052618369
-0.1841843 -0.46626848 0.052615333
-0.18436377 -0.4663744 0.052648067
-0.18453723 -0.4664858 0.052617285
-0.18471076 -0.46659857 0.052577253
-0.18486331 -0.46670026 0.052524611
-0.18502419 -0.46680507 0.05248579
-0.18521145 -0.46691561 0.052519649
-0.18536773 -0.46702343 0.052440405
-0.18555027 -0.46713307 0.052460428
-0.18573709 -0.46724638 0.052473482
-0.18591605 -0.46735799 0.052464627
-0.18607186 -0.4674632 0.052401565
-0.1862769 -0.46758857 0.052408777
-0.18644041 -0.46769166 0.052393056
-0.18661165 -0.46779785 0.052388854
-0.18677305 -0.46790698 0.052322302
-0.18695661 -0.46801609 0.052350391
-0.18712884 -0.46812522 0.05233001
-0.18729289 -0.46823248 0.052287713
-0.18746585 -0.46834442 0.052251156
-0.1876459 -0.46845168 0.052276958
-0.096583247 -0.41158497 0.057269465
-0.096776098 -0.41170684 0.057248987
-0.096982539 -0.41184327 0.057185702
-0.097194314 -0.41198853 0.057084262
-0.097401127 -0.41212586 0.05701635
-0.09760797 -0.41226554 0.056932271
-0.097810328 -0.41239998 0.056865528
-0.098036647 -0.4125599 0.056724742
-0.098240472 -0.41269872 0.056633741
-0.098428234 -0.41281578 0.056624841
-0.09862113 -0.41293716 0.056607828
-0.098818615 -0.41306657 0.056554973
-0.099019498 -0.41319823 0.05650096
-0.09921401 -0.4133243 0.056458514
-0.09941192 -0.41345483 0.056399893
-0.099607967 -0.41358316 0.056348197
-0.099809721 -0.4137167 0.056284934
-0.10001674 -0.41385937 0.056181215
-0.10020414 -0.41397735 0.056164224
-0.10040306 -0.41411015 0.056094032
-0.10060088 -0.41424179 0.056027319
-0.10079309 -0.41436642 0.055984896
-0.10099619 -0.41450298 0.055906594
-0.10119131 -0.41463175 0.055847984
-0.10138836 -0.41476324 0.055778962
-0.10158411 -0.41489324 0.055714563
-0.10178681 -0.41503021 0.055631645
-0.10197897 -0.41515601 0.05558113
-0.10217861 -0.41529176 0.055493612
-0.10237163 -0.41541907 0.055436164
-0.10256148 -0.41554242 0.055392586
-0.10275155 -0.41566625 0.055346705
-0.10295038 -0.4157995 0.055273049
-0.10313942 -0.41592234 0.055229485
-0.10333125 -0.41604912 0.055170879
-0.10352023 -0.41617227 0.055125006
-0.10371689 -0.41630352 0.055055983
-0.10390624 -0.41642755 0.055005476
-0.10409465 -0.41655052 0.054958444
-0.1042812 -0.41667119 0.054919507
-0.10447578 -0.41680047 0.054855112
-0.10466474 -0.41692477 0.054801144
-0.10484344 -0.41703522 0.05479921
-0.1050275 -0.41715318 0.054768376
-0.10522299 -0.41728452 0.05469358
-0.10541222 -0.41741002 0.054632686
-0.10559513 -0.4175269 0.054604158
-0.10577932 -0.41764575 0.054567546
-0.10597234 -0.41777459 0.054499689
-0.10615711 -0.41789463 0.054457296
-0.10634269 -0.41801605 0.05440912
-0.1065251 -0.41813314 0.054377131
-0.10671722 -0.41826156 0.054308131
-0.10693128 -0.41841891 0.054132737
-0.10713147 -0.41855952 0.054014016
-0.10728602 -0.41862148 0.054244425
-0.10744606 -0.41871524 0.054278389
-0.10765179 -0.41888064 0.054011758
-0.10782678 -0.41898566 0.0540318
-0.10802411 -0.41911513 0.053977787
-0.10817851 -0.41920391 0.054022182
-0.10836111 -0.41932312 0.053976335
-0.10854322 -0.41943902 0.053951275
-0.10872285 -0.41955423 0.053920459
-0.10890611 -0.41967216 0.053886153
-0.10909729 -0.41979936 0.05382178
-0.10926607 -0.41990453 0.053814113
-0.10944398 -0.42001784 0.053789079
-0.10963055 -0.42013869 0.05374898
-0.10980485 -0.42024976 0.053723965
-0.1099854 -0.42036471 0.053698912
-0.11016401 -0.42047977 0.053664636
-0.11034666 -0.42059535 0.053644203
-0.1105158 -0.4207021 0.05362729
-0.1106967 -0.42081824 0.053595316
-0.11086906 -0.42092729 0.053576075
-0.1110461 -0.42103773 0.05356722
-0.1112235 -0.4211489 0.0535549
-0.11139852 -0.42125639 0.053557608
-0.11156467 -0.42135611 0.053576525
-0.11172868 -0.42144611 0.053653225
-0.11188822 -0.42153206 0.053739183
-0.1120334 -0.4215914 0.05394768
-0.1119338 -0.42049646 0.061089516
-0.11201693 -0.42043459 0.061871342
-0.11220182 -0.42054588 0.061890181
-0.1126733 -0.42075962 0.062421925
-0.11320396 -0.42107341 0.06251435
-0.11415409 -0.42213982 0.059193134
-0.1143332 -0.42226088 0.059119567
-0.11454356 -0.42239991 0.059055109
-0.1147409 -0.4225274 0.059014976
-0.11493121 -0.42265019 0.058977172
-0.1150936 -0.4227379 0.059063122
-0.11528151 -0.42286053 0.059016086
-0.11545615 -0.42297903 0.05894139
-0.11560254 -0.42306536 0.058968484
-0.11581912 -0.4232057 0.058921322
-0.11598487 -0.42330399 0.058948331
-0.11615005 -0.42340964 0.058922201
-0.11635763 -0.4235419 0.05889241
-0.11653977 -0.42366368 0.058826923
-0.11670464 -0.42375207 0.05891864
-0.11687365 -0.42386156 0.058882087
-0.11701405 -0.42394987 0.058869924
-0.11721309 -0.42406622 0.058914118
-0.11742172 -0.42421085 0.058803454
-0.11759093 -0.42431712 0.058790002
-0.11774855 -0.42441824 0.058762752
-0.11795532 -0.42455104 0.058726035
-0.11812165 -0.42464718 0.058770366
-0.11830077 -0.42476058 0.058749948
-0.11848278 -0.42488027 0.058698319
-0.1186292 -0.42497313 0.058680363
-0.11883236 -0.42510438 0.058639035
-0.11899063 -0.42520338 0.058629107
-0.11917482 -0.4253189 0.058615603
-0.11934493 -0.42541888 0.058649518
-0.11952697 -0.42553505 0.058622152
-0.11970557 -0.4256438 0.058631778
-0.11986218 -0.42573977 0.058635727
-0.12002094 -0.4258354 0.058651213
-0.12022338 -0.42596704 0.058604114
-0.12040848 -0.42610252 0.058456577
-0.12057677 -0.42619902 0.058506683
-0.12073646 -0.42629188 0.058545269
-0.12092546 -0.42642677 0.058418516
-0.12109029 -0.42652667 0.058430508
-0.12126927 -0.42663795 0.058423959
-0.12145955 -0.42674771 0.058476269
-0.12162085 -0.42685711 0.058407411
-0.12179394 -0.42696011 0.058433227
-0.12195347 -0.42706558 0.058384012
-0.12213007 -0.42718425 0.058316238
-0.12231619 -0.42729646 0.058333911
-0.12249796 -0.42740363 0.058367781
-0.1226546 -0.42750248 0.058352087
-0.12282667 -0.42761686 0.058294725
-0.12300163 -0.427726 0.058285877
-0.12318531 -0.42783904 0.05828739
-0.12336818 -0.42796412 0.058202252
-0.12352315 -0.42805222 0.058253571
-0.12369592 -0.4281632 0.058222786
-0.12388086 -0.42828086 0.058197714
-0.12403907 -0.42836362 0.058299854
-0.124222 -0.42849091 0.058199704
-0.1243867 -0.42860156 0.058136597
-0.12455681 -0.42870572 0.05814163
-0.12473972 -0.42882663 0.058085375
-0.1249036 -0.42892763 0.058085822
-0.12506762 -0.42902064 0.058141727
-0.1252612 -0.42915267 0.058054235
-0.12540899 -0.42922547 0.058180679
-0.12558453 -0.42935872 0.058007762
-0.12576598 -0.42946789 0.058026619
-0.12594487 -0.4295868 0.057966925
-0.12611324 -0.4296867 0.057993911
-0.12628219 -0.42979884 0.057938881
-0.12644595 -0.42989138 0.057997093
-0.12661631 -0.42999938 0.057976708
-0.12679212 -0.43011907 0.057898544
-0.12696679 -0.4302237 0.057919741
-0.12715147 -0.43033683 0.05792471
-0.12731092 -0.4304339 0.057933256
-0.12748152 -0.43054488 0.057893232
-0.12764409 -0.43064439 0.057898305
-0.1278172 -0.43075523 0.057869822
-0.12798837 -0.43085721 0.057894498
-0.12816539 -0.43097481 0.057835963
-0.12833558 -0.43108636 0.057790168
-0.12850052 -0.43118533 0.057809092
-0.12866588 -0.43128672 0.057812992
-0.12883867 -0.43141493 0.057663199
-0.1290094 -0.43151629 0.057690192
-0.12917455 -0.43160048 0.057811946
-0.12934725 -0.43173197 0.05763904
-0.12951633 -0.43184185 0.057600178
-0.12969285 -0.43194494 0.057639852
-0.1298708 -0.43205845 0.05761366
-0.13003932 -0.43216613 0.057587504
-0.1302003 -0.43225995 0.057624932
-0.13037756 -0.43236953 0.057623014
-0.1305431 -0.4324784 0.057576075
-0.13071185 -0.43259156 0.05751295
-0.13087682 -0.43269756 0.057483356
-0.13104327 -0.43278807 0.057566971
-0.13121432 -0.43289733 0.057540812
-0.13139735 -0.43300977 0.057543486
-0.13156573 -0.43312642 0.057454944
-0.13174219 -0.4332318 0.057478439
-0.13190341 -0.43333265 0.057468496
-0.13206112 -0.43342328 0.057514027
-0.13226591 -0.43355805 0.057455368
-0.13241799 -0.43366393 0.057371527
-0.13256663 -0.43376136 0.057331596
-0.13273069 -0.43387249 0.057262711
-0.13290682 -0.43397951 0.057273496
-0.1330613 -0.4340685 0.057316735
-0.13322507 -0.43417126 0.057304475
-0.13339491 -0.43428057 0.057272539
-0.13356173 -0.43438002 0.057296079
-0.13374099 -0.43448514 0.057333428
-0.13391964 -0.43460628 0.057257555
-0.1340773 -0.43469739 0.057299621
-0.13424733 -0.43479648 0.057339311
-0.13442844 -0.43492347 0.057233386
-0.13457279 -0.4350206 0.057177301
-0.1347425 -0.43512231 0.05719737
-0.13490275 -0.43522105 0.057197824
-0.1350722 -0.43532547 0.057198249
-0.13523595 -0.4354215 0.057232194
-0.13540684 -0.43554184 0.057128623
-0.13556896 -0.43565044 0.057068992
-0.13573587 -0.43574694 0.057113335
-0.1359001 -0.43583927 0.05717501
-0.1360652 -0.43594867 0.057122301
-0.13622895 -0.43606561 0.057011824
-0.13640383 -0.43617523 0.056999512
-0.13657965 -0.43627939 0.057028793
-0.13675287 -0.43637928 0.057076566
-0.13690236 -0.43647754 0.057034317
-0.13705964 -0.43658766 0.056943521
-0.13721843 -0.43668985 0.056913942
-0.13738494 -0.43678844 0.056942105
-0.13755323 -0.43689448 0.056926355
-0.13772458 -0.43700224 0.056911752
-0.13789029 -0.43710399 0.056914497
-0.13805415 -0.43718606 0.057045497
-0.13821581 -0.43731561 0.056839138
-0.13838421 -0.43742004 0.056834932
-0.1385536 -0.43752107 0.056858465
-0.1387134 -0.43760616 0.056951351
-0.13887618 -0.4377282 0.05680161
-0.13905586 -0.43783155 0.056852818
-0.13921833 -0.43794203 0.056781638
-0.13937879 -0.43804708 0.056739345
-0.13953756 -0.43814623 0.056730568
-0.1397061 -0.4382394 0.056804933
-0.13987246 -0.43835795 0.056694455
-0.14003679 -0.43846187 0.05667641
-0.1402076 -0.43855926 0.056731127
-0.14037767 -0.43866774 0.056706127
-0.14053597 -0.43876743 0.056691572
-0.14070044 -0.43887064 0.056679308
-0.14087072 -0.43896133 0.056777928
-0.14102125 -0.43906894 0.056675605
-0.14118619 -0.43918714 0.056561656
-0.14135791 -0.43929127 0.056573622
-0.14152771 -0.43937585 0.05671268
-0.14168185 -0.43949053 0.056576837
-0.14184871 -0.43961108 0.0564548
-0.14201732 -0.43968385 0.056670118
-0.14217342 -0.4398011 0.056525022
-0.14234473 -0.43992004 0.056432996
-0.14250813 -0.4400169 0.056460015
-0.1426692 -0.44011763 0.056450076
-0.14284185 -0.44022015 0.056477062
-0.14300714 -0.44032753 0.056439362
-0.14317349 -0.44042668 0.056462906
-0.14333296 -0.44052327 0.056474924
-0.14349057 -0.44062889 0.056416474
-0.14365597 -0.44074184 0.056340657
-0.14382187 -0.44084156 0.056358423
-0.14399078 -0.44093728 0.056416616
-0.14415224 -0.44104311 0.056373157
-0.14431237 -0.44115046 0.056313545
-0.14447567 -0.4412536 0.056296654
-0.14463164 -0.44136006 0.056225501
-0.14480104 -0.44146109 0.056249034
-0.14498046 -0.44157234 0.056244783
-0.14513645 -0.44166744 0.0562522
-0.14529653 -0.44177392 0.056198355
-0.14545476 -0.44187173 0.056196507
-0.14562078 -0.44198188 0.056142647
-0.14578809 -0.44206995 0.056247059
-0.14594842 -0.44217074 0.056233644
-0.14611767 -0.44228238 0.056183238
-0.14627762 -0.44238344 0.056166362
-0.146428 -0.44248411 0.056111403
-0.14658822 -0.44259921 0.055998638
-0.14676934 -0.4426941 0.056114547
-0.14693469 -0.44278526 0.056188926
-0.14709619 -0.44289416 0.05612468
-0.14725657 -0.44300383 0.056050044
-0.14742203 -0.44310427 0.056060873
-0.14757726 -0.44320458 0.056029007
-0.14774144 -0.44331059 0.055995941
-0.14790376 -0.44340929 0.056005634
-0.14806622 -0.44351223 0.055986445
-0.14822851 -0.44361958 0.055936053
-0.14838414 -0.44372347 0.055881076
-0.14854948 -0.4438282 0.055861875
-0.14871874 -0.4439258 0.055908509
-0.1488871 -0.44402838 0.055917025
-0.14904447 -0.44412667 0.055908252
-0.14920564 -0.44422632 0.055906393
-0.14936526 -0.44433501 0.055835225
-0.14953461 -0.44442901 0.055907283
-0.14970154 -0.44453269 0.055901937
-0.14985436 -0.44463789 0.055826172
-0.15001671 -0.44474444 0.055781558
-0.15018275 -0.44484475 0.05579586
-0.15035421 -0.44494554 0.055829778
-0.15050021 -0.44504702 0.055750575
-0.15066731 -0.44515049 0.055747539
-0.15084024 -0.44525787 0.055742167
-0.15099661 -0.44536391 0.05567563
-0.15115775 -0.44547072 0.055624101
-0.15133426 -0.44555825 0.055771224
-0.15148124 -0.4456622 0.05567931
-0.15163459 -0.44576955 0.055590834
-0.15181862 -0.44587108 0.055673216
-0.15197898 -0.44597122 0.055664439
-0.15214036 -0.44607767 0.055616364
-0.15229732 -0.44618958 0.055511706
-0.15247065 -0.44629005 0.055556007
-0.15263428 -0.44639522 0.055526409
-0.15280446 -0.44649071 0.055591524
-0.15295987 -0.44659314 0.055545788
-0.15311314 -0.44669643 0.055485051
-0.15328601 -0.44679427 0.055545531
-0.15343842 -0.44689786 0.05547902
-0.15360275 -0.44700581 0.055433244
-0.15377098 -0.44710577 0.055459086
-0.15393177 -0.44720885 0.055431813
-0.15409213 -0.44731519 0.055380277
-0.15426248 -0.44741446 0.055419978
-0.15442398 -0.44752336 0.055355731
-0.15458365 -0.44762072 0.055363122
-0.15474875 -0.44772813 0.055324286
-0.15489592 -0.447833 0.055226594
-0.15506467 -0.44793013 0.055274382
-0.1552361 -0.44803527 0.055278257
-0.15538739 -0.44813851 0.055209436
-0.15554976 -0.4482322 0.055253789
-0.1557063 -0.44833648 0.055199966
-0.15586707 -0.44843939 0.055173844
-0.15602873 -0.44853917 0.055173144
-0.15618472 -0.44864631 0.055097364
-0.15636864 -0.44874227 0.055217881
-0.15652524 -0.44884643 0.055165209
-0.15670405 -0.44893873 0.05528922
-0.15686512 -0.44904718 0.055226129
-0.15704232 -0.44914299 0.05531894
-0.15722717 -0.44923702 0.055456784
-0.15738438 -0.44935995 0.05527702
-0.15752459 -0.44947091 0.055107728
-0.15767561 -0.44957095 0.055059694
-0.15785047 -0.44966784 0.055135198
-0.15799762 -0.44977406 0.05502826
-0.15815602 -0.44988266 0.054952472
-0.15832393 -0.44997877 0.05500374
-0.15847959 -0.45008537 0.054930273
-0.15866596 -0.45018786 0.055016119
-0.15883443 -0.45028165 0.055085868
-0.15900356 -0.45040056 0.054984607
-0.1591536 -0.45049566 0.054966625
-0.15931529 -0.45059848 0.054945126
-0.15945899 -0.45069969 0.054857854
-0.159633 -0.4508051 0.054870959
-0.15980189 -0.4508993 0.054939553
-0.15995403 -0.45100138 0.054882277
-0.16010931 -0.45111009 0.054792635
-0.16028255 -0.45121098 0.054833483
-0.16044083 -0.45131436 0.054793514
-0.16060401 -0.45141223 0.054812446
-0.16077106 -0.45151901 0.054786298
-0.16092867 -0.45162246 0.054742865
-0.16109222 -0.45172274 0.054746777
-0.16125706 -0.45182982 0.054709092
-0.16143876 -0.45193008 0.054790329
-0.16159229 -0.45202953 0.054757312
-0.16175878 -0.45213646 0.054727711
-0.16191502 -0.45224008 0.054677345
-0.16207051 -0.45234373 0.054623529
-0.16223761 -0.45244384 0.054643594
-0.16240765 -0.45254594 0.054662496
-0.16257675 -0.45265266 0.054645594
-0.16273506 -0.45275822 0.054590605
-0.16288194 -0.45285606 0.054540277
-0.16304797 -0.4529587 0.054538406
-0.16319546 -0.45306292 0.054446492
-0.16336867 -0.45316499 0.054479241
-0.16354492 -0.45326692 0.054525845
-0.16370149 -0.45337039 0.054477803
-0.16385731 -0.45347393 0.054426286
-0.16403076 -0.45357412 0.054472905
-0.16421917 -0.45367768 0.054559894
-0.16438054 -0.45378512 0.05450489
-0.1645302 -0.45388904 0.054424521
-0.16466849 -0.45398727 0.054334957
-0.1648622 -0.45409092 0.054443873
-0.16503793 -0.45419973 0.054440804
-0.16516301 -0.45430249 0.054263484
-0.16531758 -0.45439991 0.054248944
-0.16551097 -0.45450404 0.054353245
-0.16570184 -0.45461047 0.054430984
-0.16584763 -0.45471632 0.054320589
-0.16600944 -0.45481771 0.054309495
-0.16619161 -0.45492461 0.05434683
-0.16633132 -0.45502254 0.054265343
-0.16649383 -0.45512986 0.054216113
-0.16665712 -0.45523715 0.054170344
-0.16683368 -0.45534045 0.054208856
-0.16698475 -0.45544204 0.054150432
-0.16714737 -0.45554358 0.054141637
-0.16732022 -0.45564324 0.054189418
-0.16748416 -0.45575061 0.054145958
-0.16765431 -0.45585611 0.054141749
-0.1678015 -0.45595765 0.054067168
-0.16796838 -0.45606315 0.054049112
-0.16814525 -0.45616698 0.054085318
-0.16831672 -0.45627078 0.054098438
-0.16848829 -0.45637468 0.054111555
-0.16863379 -0.45647985 0.054004628
-0.1688046 -0.45658192 0.054026991
-0.16898605 -0.45668989 0.054053936
-0.16916254 -0.45679599 0.054072812
-0.16929556 -0.45689696 0.053941675
-0.16944349 -0.4569948 0.053895969
-0.16965324 -0.45710051 0.054059125
-0.16977295 -0.4572008 0.053876057
-0.16993582 -0.45730466 0.053852245
-0.17010394 -0.4574106 0.053836495
-0.17027134 -0.45751473 0.053829983
-0.17045601 -0.45761985 0.053890422
-0.17061946 -0.45772392 0.053867757
-0.17077577 -0.45782757 0.053817399
-0.17093328 -0.45793131 0.053771656
-0.1710986 -0.4580355 0.05375592
-0.17127815 -0.45813897 0.053805977
-0.17144072 -0.45824483 0.053767137
-0.17161395 -0.4583497 0.05378025
-0.17177284 -0.45845363 0.053739127
-0.17195027 -0.45855895 0.053767242
-0.17210025 -0.45866221 0.053692646
-0.17227446 -0.45876741 0.053708058
-0.17244942 -0.45887271 0.053725787
-0.17259783 -0.45897585 0.053645425
-0.17278464 -0.45908394 0.0536943
-0.17292574 -0.4591864 0.053587388
-0.17310105 -0.45929193 0.053605106
-0.17326406 -0.45939639 0.053577825
-0.17344218 -0.45950231 0.053604785
-0.17361856 -0.45960814 0.053624813
-0.17376788 -0.45971134 0.053547911
-0.1739233 -0.45981511 0.053492934
-0.17411068 -0.45992225 0.053551044
-0.1742792 -0.4600291 0.053530671
-0.17443462 -0.46013454 0.053464144
-0.17459375 -0.46023875 0.053421859
-0.17477182 -0.46034515 0.053445347
-0.1749697 -0.46045393 0.053536922
-0.17510384 -0.46055377 0.053418484
-0.17525727 -0.46065897 0.053345028
-0.17546295 -0.46077052 0.053450432
-0.17562413 -0.46087518 0.053413913
-0.17580564 -0.46098554 0.053424686
-0.17593974 -0.46108368 0.053317808
-0.17611881 -0.4611907 0.053341288
-0.17630149 -0.46130446 0.053333569
-0.17646539 -0.46141112 0.053294729
-0.1766149 -0.46151125 0.053239778
-0.17679806 -0.46162212 0.053253997
-0.17695959 -0.46172699 0.053217478
-0.17712636 -0.4618296 0.053219069
-0.17731521 -0.46194145 0.0532506
-0.17748445 -0.4620536 0.053196717
-0.17764837 -0.46215743 0.053177521
-0.17779383 -0.46225408 0.053129517
-0.17797609 -0.4623622 0.05315876
-0.17813949 -0.46246758 0.05312686
-0.17831309 -0.46257305 0.053137656
-0.17845272 -0.46267477 0.053029601
-0.17862871 -0.46277919 0.053057723
-0.17879255 -0.46288767 0.053006172
-0.17897059 -0.46299404 0.053029668
-0.17916343 -0.46310437 0.053088911
-0.17933294 -0.46321535 0.053044267
-0.17953144 -0.46333116 0.053089619
-0.17968599 -0.46343389 0.053038117
-0.17984043 -0.46353808 0.052976202
-0.18002605 -0.46365047 0.052990422
-0.1801832 -0.46375513 0.052936591
-0.18036926 -0.46386629 0.052961204
-0.18054397 -0.46397981 0.052921165
-0.18070257 -0.46408051 0.052900832
-0.18089521 -0.46419021 0.05296354
-0.18102747 -0.46429476 0.052804675
-0.18122241 -0.4644022 0.052892797
-0.18140024 -0.46451646 0.052860826
-0.18155321 -0.46461773 0.052812792
-0.18173438 -0.4647257 0.052838586
-0.18190348 -0.4648259 0.052866735
-0.18207516 -0.46494052 0.052805908
-0.18226761 -0.46505779 0.052815467
-0.18241134 -0.46516156 0.052710857
-0.18259045 -0.46526942 0.052728571
-0.18275902 -0.4653753 0.052715123
-0.18290903 -0.46547204 0.052685592
-0.18308924 -0.4655858 0.052667484
-0.1832476 -0.46568838 0.052633282
-0.18343879 -0.46580169 0.052664801
-0.18359461 -0.4659079 0.052594811
-0.18378292 -0.46602076 0.052617092
-0.18395102 -0.46612686 0.05260019
-0.18410614 -0.4662343 0.05251864
-0.18430309 -0.46634647 0.052582491
-0.18448055 -0.46645868 0.052563228
-0.18465814 -0.46656963 0.052553218
-0.1848152 -0.46667224 0.052513257
-0.18496609 -0.46677354 0.052455984
-0.18518814 -0.46689689 0.052549761
-0.18534251 -0.46700037 0.052492473
-0.18548469 -0.46710116 0.052401744
-0.18571189 -0.46722332 0.052525528
-0.18586674 -0.46732959 0.052450918
-0.1860559 -0.46744481 0.052460495
-0.18623245 -0.46755731 0.052435461
-0.18638161 -0.4676649 0.052327365
-0.18654972 -0.46777034 0.052315082
-0.18673795 -0.46788299 0.052338526
-0.18690377 -0.46798801 0.052319322
-0.18707274 -0.46809378 0.052308187
-0.18724714 -0.46820727 0.052267
-0.18742445 -0.46831638 0.052268535
-0.18759932 -0.46842498 0.052263156
-0.096600741 -0.41159859 0.057249844
-0.096790679 -0.411717 0.057240933
-0.096992135 -0.41184953 0.057183467
-0.097203821 -0.4119947 0.057082072
-0.09741579 -0.4121384 0.056992218
-0.097618669 -0.41227329 0.056924351
-0.097821206 -0.41240799 0.056856487
-0.098035082 -0.41255689 0.056738898
-0.098253846 -0.41270995 0.056613214
-0.098433971 -0.4128176 0.056636691
-0.098632142 -0.4129456 0.056596566
-0.098827675 -0.41307262 0.056551829
-0.099025041 -0.41320211 0.05649785
-0.099223152 -0.41333273 0.056439236
-0.099421248 -0.41346133 0.056394491
-0.099619016 -0.41359192 0.056334734
-0.099818811 -0.41372526 0.056264564
-0.10002367 -0.41386524 0.056170125
-0.1002149 -0.41398594 0.056150824
-0.10041194 -0.41411638 0.056088753
-0.10060839 -0.41424632 0.056027845
-0.10080279 -0.41437382 0.055975024
-0.10100478 -0.41450903 0.055901386
-0.10119858 -0.41463614 0.05584858
-0.10139802 -0.41477078 0.05576802
-0.10159145 -0.41489786 0.055714056
-0.10178949 -0.41503111 0.055636965
-0.10198353 -0.41515937 0.055577219
-0.10218717 -0.4152981 0.055486251
-0.10238105 -0.41542661 0.055424191
-0.10257439 -0.41555464 0.055363294
-0.10275985 -0.41567242 0.055339403
-0.10295881 -0.41580591 0.055264615
-0.10314777 -0.41592872 0.055221062
-0.10333997 -0.41605604 0.055160172
-0.1035291 -0.41617945 0.055113163
-0.10372187 -0.41630796 0.055046491
-0.10391183 -0.41643286 0.054992538
-0.10410483 -0.41655967 0.054938577
-0.10429265 -0.41668212 0.054892711
-0.10448088 -0.4168053 0.054843396
-0.10466731 -0.41692621 0.054802164
-0.10483261 -0.41701835 0.054869592
-0.10501271 -0.41712585 0.054894231
-0.10521679 -0.41727403 0.054739732
-0.10541645 -0.41741395 0.054623365
-0.10559863 -0.41752991 0.054598324
-0.10576642 -0.41762593 0.054649584
-0.10597461 -0.41777599 0.054499678
-0.10616207 -0.41789988 0.054442275
-0.10634609 -0.41801915 0.054402206
-0.10653114 -0.41814002 0.054355204
-0.10671615 -0.41826105 0.054307051
-0.10690607 -0.41838932 0.054229997
-0.10710058 -0.4185217 0.054143693
-0.10730125 -0.41866329 0.05402039
-0.10746333 -0.41873875 0.054189485
-0.10764395 -0.4188706 0.054047789
-0.10781549 -0.4189733 0.05406899
-0.1080022 -0.41909823 0.05400119
-0.10818143 -0.41920969 0.053994648
-0.10835776 -0.41932252 0.053966172
-0.10854056 -0.41943952 0.053936504
-0.10872014 -0.41955468 0.053905696
-0.1088993 -0.41966945 0.053876054
-0.1090927 -0.41979715 0.053817458
-0.10926349 -0.41990542 0.053797096
-0.1094428 -0.42002091 0.053762827
-0.10962211 -0.4201366 0.053727396
-0.10980743 -0.42025581 0.053693101
-0.1099768 -0.42036253 0.053677358
-0.11015478 -0.4204767 0.053646557
-0.11034201 -0.42059645 0.053616881
-0.11050944 -0.42070061 0.053610377
-0.11068688 -0.42081445 0.05357958
-0.11086132 -0.4209238 0.053567283
-0.11103241 -0.42103106 0.053554997
-0.111212 -0.42114574 0.053527653
-0.11138659 -0.42125267 0.053532679
-0.1115554 -0.42135668 0.0535331
-0.11172131 -0.42144987 0.053595923
-0.11188072 -0.42153573 0.053681858
-0.11203192 -0.42160496 0.053847536
-0.11147244 -0.42012188 0.061712462
-0.11166856 -0.42026213 0.061578788
-0.11187619 -0.42041501 0.061406948
-0.11199496 -0.42041612 0.061905414
-0.1121854 -0.42055103 0.061784469
-0.1123719 -0.42067969 0.061690107
-0.11315249 -0.42099997 0.062802538
-0.11335847 -0.42115533 0.062606439
-0.1143232 -0.42225972 0.059085123
-0.11452383 -0.42238903 0.059046138
-0.11471786 -0.42251065 0.059032597
-0.11488689 -0.42263001 0.058927909
-0.115082 -0.42273822 0.059011392
-0.11526695 -0.42285955 0.05896093
-0.11543949 -0.42297021 0.058931306
-0.11559615 -0.42305955 0.058981456
-0.11579192 -0.42318955 0.058917087
-0.11596605 -0.42329136 0.05895561
-0.11614742 -0.42340279 0.058958292
-0.11632746 -0.42352024 0.058913626
-0.11652032 -0.42364997 0.05883887
-0.11670405 -0.42377523 0.058756065
-0.11687437 -0.42387015 0.058825795
-0.11701122 -0.42393839 0.058937244
-0.11721504 -0.42406869 0.058905177
-0.11739619 -0.42419422 0.058809683
-0.11758341 -0.42431426 0.058777694
-0.11774213 -0.42440856 0.058802422
-0.11792576 -0.42453092 0.058739252
-0.11811961 -0.42466074 0.058667962
-0.11827506 -0.42475334 0.058690391
-0.11846302 -0.42487136 0.058675721
-0.11862479 -0.42497268 0.058664627
-0.11880319 -0.42508531 0.05864653
-0.11897017 -0.42518333 0.058680467
-0.11916428 -0.4253155 0.058594156
-0.11933254 -0.42542168 0.058577262
-0.11951503 -0.42553398 0.058578782
-0.11970262 -0.42564741 0.058594145
-0.11986244 -0.42574555 0.058596916
-0.12004659 -0.42587274 0.058502566
-0.120222 -0.42597482 0.058544546
-0.12038323 -0.42608216 0.058489565
-0.12055377 -0.4261896 0.058473818
-0.12073988 -0.42630613 0.058461469
-0.12089752 -0.42641145 0.05840534
-0.12108645 -0.42652956 0.05839413
-0.12124021 -0.4266201 0.058423504
-0.12142435 -0.42673257 0.058430791
-0.12160972 -0.42685434 0.058379173
-0.12179338 -0.42696601 0.058389924
-0.12194741 -0.42706376 0.058370784
-0.12210919 -0.42716292 0.05837471
-0.12229703 -0.42728606 0.058324233
-0.12248784 -0.42740449 0.058318794
-0.12265769 -0.42750612 0.058340013
-0.1228257 -0.42762303 0.058248028
-0.12298307 -0.4277178 0.058263529
-0.12317263 -0.42783362 0.05827079
-0.12335684 -0.42796269 0.058163732
-0.12352628 -0.4280569 0.058234617
-0.12369236 -0.42815572 0.058259316
-0.12387147 -0.42827848 0.058174226
-0.12405045 -0.42838627 0.058191925
-0.12421654 -0.42849329 0.058160029
-0.12437592 -0.42859548 0.058132783
-0.12454287 -0.42870587 0.058081239
-0.12472374 -0.42882052 0.05805967
-0.12489761 -0.42892933 0.058048524
-0.12505962 -0.42901593 0.058140233
-0.12524661 -0.42914322 0.058057413
-0.12542081 -0.42926276 0.057973497
-0.12557322 -0.42933375 0.058132246
-0.12575731 -0.42947078 0.057969738
-0.12593651 -0.4295817 0.05796665
-0.12610643 -0.42968756 0.057958998
-0.12628125 -0.4298023 0.057910889
-0.12644401 -0.42989123 0.05798988
-0.12660852 -0.42999727 0.057957988
-0.12678686 -0.43011671 0.057892531
-0.12695715 -0.43021443 0.057942621
-0.12715293 -0.43035233 0.05782396
-0.12732464 -0.43045664 0.057834774
-0.12749271 -0.43055683 0.057858311
-0.12764755 -0.43064606 0.057901531
-0.12782079 -0.43075782 0.057867285
-0.12800363 -0.430877 0.057822604
-0.12817621 -0.4309867 0.05779992
-0.12834138 -0.43108696 0.057810754
-0.12849717 -0.43119633 0.057718843
-0.12867261 -0.43129289 0.057798937
-0.12883677 -0.43140391 0.057731234
-0.1290061 -0.43153015 0.057580344
-0.12918715 -0.43162701 0.057682365
-0.12935083 -0.43171966 0.057739414
-0.12951939 -0.43184474 0.057593144
-0.12969495 -0.43194157 0.057672091
-0.12987433 -0.43206581 0.057577766
-0.13004851 -0.43217382 0.057573549
-0.13021493 -0.43226567 0.057647903
-0.13040353 -0.43239895 0.057530429
-0.13056181 -0.43249562 0.057536684
-0.13072655 -0.43259895 0.057524428
-0.13088891 -0.43270886 0.057456732
-0.13106173 -0.43280616 0.057520665
-0.13123573 -0.43291691 0.057496816
-0.1314154 -0.43302545 0.057512216
-0.1315833 -0.43313625 0.057461821
-0.13176306 -0.43324804 0.057455271
-0.13193338 -0.43335232 0.057460308
-0.13210078 -0.43345946 0.057433031
-0.13227126 -0.43357137 0.057386093
-0.13244162 -0.43368337 0.057337999
-0.13258712 -0.43378103 0.057283081
-0.13275394 -0.43388048 0.057306625
-0.13293017 -0.43400529 0.057194971
-0.13309997 -0.43409571 0.057293572
-0.13326058 -0.4341948 0.057292886
-0.13343042 -0.43429863 0.057299085
-0.13360322 -0.43440813 0.057278711
-0.13379142 -0.43452561 0.057268657
-0.13395132 -0.43463701 0.057180181
-0.13412111 -0.43473679 0.057214096
-0.13430347 -0.43484098 0.057271071
-0.13447213 -0.43495911 0.057173319
-0.13462582 -0.43505862 0.057140321
-0.13478631 -0.43515334 0.057169653
-0.13496143 -0.43526608 0.057136551
-0.13513058 -0.43537182 0.057126589
-0.13530701 -0.43547085 0.057193972
-0.13546921 -0.43557948 0.057134368
-0.13562524 -0.43568313 0.057082873
-0.1357978 -0.43578678 0.057101764
-0.13597003 -0.43589273 0.057103336
-0.13613653 -0.435992 0.057126876
-0.13629177 -0.43609816 0.057054594
-0.13646804 -0.43621916 0.056969509
-0.13664007 -0.43632466 0.05697339
-0.13681507 -0.43643251 0.056973785
-0.13697253 -0.43652451 0.057008915
-0.13713706 -0.43663254 0.056963161
-0.13729565 -0.43673527 0.056928989
-0.13746679 -0.4368439 0.05690746
-0.13763542 -0.43694797 0.05690673
-0.13780558 -0.43705985 0.056858644
-0.13797511 -0.43716013 0.05688794
-0.13814634 -0.43725446 0.056965746
-0.13830574 -0.43736553 0.056877278
-0.13846962 -0.43748507 0.056749515
-0.13864031 -0.43759307 0.056730293
-0.13881624 -0.43767306 0.056927055
-0.13897671 -0.43779016 0.056801617
-0.13914658 -0.43791121 0.056688838
-0.1393175 -0.43800732 0.05675279
-0.13947678 -0.43811518 0.056686267
-0.13964683 -0.43821394 0.056728274
-0.13981716 -0.4383122 0.056774892
-0.13997595 -0.43842056 0.056702591
-0.14013915 -0.43852699 0.056662627
-0.14031248 -0.43863645 0.056644544
-0.14048098 -0.43874797 0.056591846
-0.14064609 -0.43884069 0.056654658
-0.14081296 -0.43894684 0.056631997
-0.14097986 -0.43904451 0.056668237
-0.1411484 -0.43913898 0.056733347
-0.14130783 -0.43925995 0.056576733
-0.14147103 -0.43938825 0.056385443
-0.14165366 -0.43946353 0.056643393
-0.14181285 -0.43956828 0.056597658
-0.14196563 -0.4396843 0.056446843
-0.14215444 -0.43977979 0.05659157
-0.14231233 -0.43988624 0.056528509
-0.1424661 -0.44000623 0.056354593
-0.14263241 -0.4401117 0.056334238
-0.14280452 -0.44020119 0.056449004
-0.14297614 -0.44031182 0.056415915
-0.14314596 -0.44042498 0.056357432
-0.14331238 -0.44051731 0.056428332
-0.14347386 -0.44061714 0.05642648
-0.14363706 -0.44072071 0.05640614
-0.14379783 -0.44083363 0.056310732
-0.14396435 -0.44093239 0.056337744
-0.14413816 -0.44103932 0.056339301
-0.14429736 -0.44113609 0.056349009
-0.14445709 -0.44124368 0.056285951
-0.14462206 -0.4413445 0.056292169
-0.14478627 -0.44145188 0.056249879
-0.14495242 -0.44156227 0.056194875
-0.14512345 -0.44167218 0.056164104
-0.14529064 -0.44177032 0.056198038
-0.14544789 -0.44187441 0.056148842
-0.14561643 -0.4419764 0.056161985
-0.1457755 -0.44208345 0.056100082
-0.14594911 -0.44217506 0.056206748
-0.1461194 -0.44228047 0.056203708
-0.14627714 -0.44239354 0.056094456
-0.14645043 -0.44249097 0.056159548
-0.14659911 -0.44258824 0.056120791
-0.14676306 -0.44270429 0.05601728
-0.14694312 -0.44280508 0.056088123
-0.14711754 -0.44291121 0.056097765
-0.14726488 -0.443014 0.056015119
-0.14742778 -0.44311655 0.056000557
-0.1475848 -0.44321963 0.055957139
-0.1477541 -0.44332114 0.055977207
-0.1479165 -0.44342402 0.055958025
-0.14808612 -0.44352537 0.055980396
-0.14824617 -0.44362581 0.055968158
-0.14840189 -0.44372961 0.05591435
-0.14857025 -0.44383618 0.055895146
-0.14872871 -0.44394186 0.055840176
-0.14889662 -0.44404864 0.0558175
-0.14906517 -0.44414681 0.055857204
-0.14923115 -0.44424289 0.05590038
-0.14938948 -0.44434446 0.055873126
-0.14954525 -0.44445163 0.055796228
-0.1497141 -0.4445577 0.055782791
-0.14987911 -0.44465852 0.055789016
-0.15004177 -0.44475707 0.055801019
-0.15020153 -0.44486886 0.055709083
-0.15036403 -0.44497502 0.055667952
-0.1505345 -0.44507253 0.055720352
-0.15069927 -0.4451662 0.055775084
-0.15086062 -0.44528031 0.055673897
-0.15102059 -0.44538775 0.055613153
-0.15118019 -0.4454881 0.055599753
-0.15134257 -0.44559398 0.055559784
-0.15153018 -0.44568619 0.055721834
-0.15168311 -0.44578326 0.055702694
-0.15183668 -0.44589725 0.055569205
-0.15201046 -0.44600752 0.055547666
-0.15218157 -0.44610208 0.055623163
-0.15233085 -0.44620758 0.055530116
-0.15248525 -0.44631377 0.055454366
-0.15267105 -0.44641823 0.055524029
-0.15282938 -0.44652244 0.055478293
-0.15299411 -0.44662043 0.055502996
-0.15315467 -0.44672039 0.055496532
-0.15331389 -0.44682732 0.05543578
-0.15348676 -0.44692835 0.055474307
-0.1536319 -0.44703162 0.055378966
-0.15380532 -0.44713563 0.055399016
-0.15398182 -0.44723538 0.055461783
-0.15413521 -0.44733825 0.055404522
-0.15428823 -0.4474442 0.055324167
-0.15444903 -0.44755015 0.055277266
-0.15461972 -0.44764629 0.055340055
-0.15478443 -0.44775078 0.055319719
-0.15493791 -0.44785035 0.055285558
-0.15510465 -0.44795409 0.055279069
-0.1552626 -0.44806379 0.055194065
-0.15539992 -0.44816574 0.055074498
-0.15557903 -0.44826242 0.055169597
-0.15575305 -0.44836095 0.05523007
-0.15590732 -0.44846871 0.055142768
-0.15607232 -0.44857019 0.05514437
-0.15622997 -0.44866833 0.055137917
-0.15640348 -0.44876739 0.055192616
-0.15656793 -0.44887474 0.055151477
-0.15674779 -0.4489722 0.055244263
-0.1568967 -0.44908115 0.055125803
-0.15707254 -0.44918266 0.055173561
-0.15724623 -0.44928217 0.055225946
-0.15739064 -0.44939202 0.055082098
-0.15755378 -0.44950223 0.055015553
-0.15770574 -0.44959402 0.055028766
-0.15788899 -0.44970194 0.055063773
-0.15803832 -0.44980228 0.055006538
-0.15819529 -0.44990081 0.054994311
-0.15834536 -0.45000347 0.054924354
-0.15850896 -0.4501031 0.0549329
-0.15869746 -0.45021525 0.054960959
-0.15885347 -0.45031154 0.054960292
-0.15901156 -0.45041996 0.054884523
-0.1591745 -0.45052236 0.05487112
-0.15933478 -0.4506253 0.05484271
-0.15949766 -0.45072281 0.054862794
-0.15966111 -0.45082521 0.054851703
-0.15983461 -0.45092827 0.054878671
-0.16000082 -0.45102784 0.05489875
-0.16015048 -0.45113024 0.054828797
-0.16032508 -0.45123333 0.054860387
-0.16047569 -0.45133314 0.054812379
-0.16064064 -0.45143542 0.054808211
-0.16079232 -0.45154208 0.054717459
-0.16095068 -0.45164299 0.054694831
-0.16112162 -0.45174447 0.054721814
-0.16128491 -0.45184708 0.054708406
-0.16144405 -0.45195484 0.05464188
-0.16162489 -0.45205525 0.054718494
-0.16178083 -0.45215884 0.054667
-0.161939 -0.45226213 0.054627039
-0.16210125 -0.45236495 0.054607861
-0.16226299 -0.45246559 0.054601394
-0.16243248 -0.4525677 0.054617986
-0.16260636 -0.45267385 0.054625325
-0.16275729 -0.45277786 0.05454959
-0.16291659 -0.45287669 0.054545444
-0.16308042 -0.45297945 0.054533191
-0.16322596 -0.45308167 0.054447081
-0.16341752 -0.45318651 0.05453866
-0.16358367 -0.45328921 0.05453679
-0.16372323 -0.45339391 0.054407977
-0.16389117 -0.45349437 0.054429203
-0.16406807 -0.45359853 0.054463089
-0.16423294 -0.45370564 0.054425422
-0.16437702 -0.45380977 0.054319683
-0.16455135 -0.453908 0.054383621
-0.16473138 -0.45401224 0.054430198
-0.16488244 -0.45411801 0.054342922
-0.16502951 -0.45422181 0.054252192
-0.1651873 -0.45432106 0.054238811
-0.16538915 -0.45442474 0.05438232
-0.16556419 -0.45453158 0.054389656
-0.16573133 -0.45463875 0.054361217
-0.16588242 -0.45474237 0.05428895
-0.16605143 -0.45484552 0.0542963
-0.16620208 -0.45495301 0.054195158
-0.16638492 -0.45505399 0.054276384
-0.16653493 -0.45515561 0.054213367
-0.16668344 -0.45525911 0.054130718
-0.16685215 -0.45536241 0.05413577
-0.16701034 -0.45546389 0.054108515
-0.16718717 -0.45556918 0.05413432
-0.16737705 -0.45567265 0.054228224
-0.16753298 -0.45577809 0.054164022
-0.16768371 -0.45587963 0.054104462
-0.1678541 -0.45598513 0.054101415
-0.16801724 -0.45608681 0.054093782
-0.16817811 -0.45619413 0.054037645
-0.16834615 -0.45629966 0.054024212
-0.16850351 -0.45639947 0.054005057
-0.168679 -0.45650342 0.05403433
-0.16883762 -0.45660701 0.05399438
-0.16901329 -0.45671475 0.053998247
-0.16916563 -0.45681998 0.053920202
-0.16933987 -0.45692047 0.053967953
-0.16950595 -0.45701897 0.053994965
-0.16969909 -0.45712948 0.054054197
-0.16981958 -0.45722976 0.053874642
-0.16999482 -0.45733237 0.053912006
-0.17013186 -0.45743501 0.053786669
-0.17031883 -0.45754188 0.053844765
-0.17049162 -0.45764637 0.05385904
-0.17064843 -0.45774999 0.053811006
-0.17079145 -0.45785278 0.053709894
-0.17098258 -0.45796022 0.053781845
-0.17113267 -0.45806172 0.053719975
-0.17131862 -0.45816728 0.053782713
-0.17148225 -0.45827144 0.053760055
-0.1716457 -0.45837733 0.053724699
-0.17181247 -0.45848176 0.053713586
-0.17197871 -0.45858622 0.053700168
-0.17213385 -0.45868981 0.053645212
-0.17232856 -0.45879829 0.053725224
-0.17247692 -0.45890138 0.053644892
-0.17265692 -0.45900711 0.053681076
-0.17281376 -0.45911092 0.053631887
-0.17297788 -0.4592154 0.05360923
-0.17314458 -0.45932013 0.053595811
-0.1733094 -0.45942634 0.053563915
-0.17348748 -0.45953226 0.053590864
-0.17363477 -0.45963517 0.053507071
-0.17379944 -0.4597398 0.053485569
-0.17398784 -0.45984858 0.053536728
-0.17416111 -0.45995584 0.053533677
-0.17432344 -0.46006039 0.053502943
-0.17445385 -0.46016142 0.053360309
-0.17463186 -0.46026927 0.0533734
-0.17482778 -0.46037766 0.053459186
-0.17498532 -0.46048173 0.053411148
-0.17515258 -0.46058697 0.053396568
-0.17537004 -0.46069828 0.053553879
-0.17549217 -0.46079972 0.053373158
-0.17566262 -0.46090859 0.053347018
-0.17582905 -0.46101701 0.053307023
-0.1759885 -0.46111673 0.053297102
-0.17619295 -0.46123323 0.053363215
-0.17634703 -0.46133703 0.053302482
-0.17650068 -0.46143919 0.053250998
-0.17669155 -0.46154797 0.053312551
-0.17685808 -0.46165812 0.053261012
-0.17700168 -0.46175894 0.053176071
-0.1771754 -0.46186247 0.053200737
-0.17736918 -0.46197805 0.053227618
-0.17749968 -0.46207699 0.053100005
-0.17767625 -0.4621841 0.053111952
-0.17786905 -0.46229225 0.053186193
-0.17802663 -0.46239668 0.053135853
-0.17820108 -0.46250519 0.053129323
-0.17835836 -0.46260962 0.053077821
-0.17851278 -0.46271211 0.053027492
-0.17875315 -0.46282819 0.053249381
-0.17882267 -0.46291873 0.052919894
-0.17904268 -0.46303329 0.053065632
-0.17923528 -0.46314797 0.053093679
-0.17939638 -0.46325609 0.05303292
-0.17955671 -0.46336406 0.052969862
-0.17972887 -0.46347114 0.052963339
-0.17990373 -0.46357873 0.052964896
-0.18008475 -0.46368745 0.052984916
-0.18024015 -0.46379322 0.052916087
-0.18042202 -0.46390364 0.052928012
-0.18058355 -0.46401051 0.052877653
-0.18074453 -0.4641102 0.052874643
-0.18091567 -0.46422166 0.052833479
-0.18109041 -0.46432817 0.052841969
-0.18127155 -0.46444014 0.052840035
-0.18145692 -0.46455854 0.052811518
-0.18160877 -0.46465677 0.052779675
-0.18175428 -0.46475244 0.052738618
-0.18197769 -0.4648726 0.052860096
-0.18213132 -0.46497962 0.052775115
-0.18231109 -0.46509439 0.052747771
-0.18246832 -0.46519798 0.052702051
-0.18262257 -0.46529683 0.052675966
-0.18279755 -0.46540666 0.052662514
-0.18297645 -0.46551323 0.052688308
-0.18314208 -0.46562132 0.052647166
-0.18332297 -0.46572977 0.052668337
-0.18349321 -0.46583885 0.052639883
-0.18364602 -0.46594036 0.052589551
-0.1838221 -0.46605068 0.052577246
-0.18401545 -0.46616736 0.052594889
-0.18416028 -0.46626726 0.052521497
-0.18434162 -0.46637616 0.052541506
-0.18450582 -0.46648419 0.0524946
-0.18468782 -0.46659735 0.05248804
-0.18486135 -0.46670479 0.052484985
-0.185067 -0.46682185 0.052552246
-0.18522748 -0.46692792 0.052503042
-0.18540309 -0.46703729 0.052495357
-0.18556514 -0.46713981 0.05247733
-0.18572988 -0.46724951 0.052421171
-0.18592973 -0.46736833 0.052451506
-0.18609461 -0.46747813 0.052395344
-0.18625088 -0.46758208 0.052342698
-0.18641327 -0.46768615 0.052315429
-0.18659742 -0.46779779 0.052328505
-0.18674271 -0.46790317 0.052219301
-0.18695781 -0.46802205 0.05231424
-0.18714119 -0.46813372 0.052323844
-0.18730053 -0.46823859 0.052278113
-0.18750498 -0.46836042 0.052307263
-0.18767917 -0.46846759 0.052308824
-0.096711546 -0.41167048 0.05722522
-0.09690886 -0.41179794 0.057185158
-0.097116604 -0.41193616 0.057115011
-0.097327441 -0.41208047 0.057015985
-0.097536907 -0.41222128 0.056935448
-0.097750269 -0.41236499 0.056851424
-0.097955242 -0.41250286 0.056772064
-0.09817493 -0.41265699 0.056642972
-0.098370478 -0.41278368 0.056600604
-0.098557711 -0.41290024 0.056592904
-0.098758049 -0.41303104 0.056542434
-0.098957837 -0.41316354 0.056478098
-0.099150449 -0.41328508 0.056458831
-0.099347547 -0.41341457 0.056403749
-0.099547759 -0.41354597 0.056348652
-0.099749431 -0.41368163 0.056270458
-0.099951565 -0.41381592 0.056203805
-0.10014766 -0.41394496 0.056147564
-0.10034636 -0.41407526 0.056093633
-0.10054085 -0.41420263 0.056042027
-0.10074072 -0.41433483 0.055980001
-0.10093737 -0.4144654 0.055915676
-0.1011316 -0.41459078 0.055876777
-0.1013331 -0.41472799 0.055787027
-0.10153268 -0.4148607 0.055720389
-0.10172881 -0.41499141 0.055652611
-0.1019253 -0.41512054 0.055597529
-0.10212681 -0.41525641 0.055517022
-0.10232869 -0.41539305 0.05543305
-0.10252302 -0.41552234 0.055367582
-0.10271279 -0.41564345 0.055339083
-0.10290607 -0.41577175 0.055275936
-0.10309864 -0.41589695 0.055231266
-0.10329297 -0.41602707 0.05516002
-0.10348474 -0.41615161 0.055116504
-0.10367571 -0.41627765 0.055059142
-0.10387152 -0.41640803 0.054992519
-0.10405917 -0.41653001 0.054949023
-0.10425213 -0.41665694 0.054893956
-0.10444166 -0.41677943 0.054855067
-0.10463162 -0.41690266 0.054812722
-0.10479759 -0.41699573 0.054876711
-0.10501426 -0.41714099 0.054796141
-0.10518971 -0.41724977 0.054791968
-0.10537453 -0.4173792 0.054684963
-0.10557344 -0.41751832 0.054570969
-0.10577194 -0.417647 0.054527439
-0.10593113 -0.41773373 0.054606467
-0.1061324 -0.41787949 0.054456666
-0.10632288 -0.41800523 0.054399304
-0.10651201 -0.41812932 0.05434772
-0.10669492 -0.41824737 0.054311171
-0.10688087 -0.41836733 0.054274611
-0.10706764 -0.41849127 0.054213792
-0.10725494 -0.41861355 0.054166831
-0.10745496 -0.41875169 0.054064389
-0.10762879 -0.41885763 0.05407292
-0.10780393 -0.41896555 0.054073356
-0.1079893 -0.4190858 0.05403218
-0.10818487 -0.41921568 0.053967871
-0.10835574 -0.4193233 0.05395215
-0.10853507 -0.41943797 0.053923711
-0.10871801 -0.4195554 0.053891778
-0.10889636 -0.41966897 0.053866804
-0.10908175 -0.41979039 0.053817537
-0.1092582 -0.41990146 0.053801805
-0.10944184 -0.42002064 0.053760637
-0.10962036 -0.42013517 0.053729884
-0.10981034 -0.42025858 0.053686377
-0.10998002 -0.42036581 0.053668357
-0.11015971 -0.42047971 0.053646833
-0.11033855 -0.42059544 0.053609151
-0.1105109 -0.42069829 0.053632699
-0.1106917 -0.42081738 0.053579997
-0.11087281 -0.42093417 0.053544607
-0.11105109 -0.4210467 0.053526554
-0.11122903 -0.42115885 0.053509664
-0.11139908 -0.4212648 0.053502038
-0.11157099 -0.42137071 0.0535025
-0.11174038 -0.42146957 0.053541072
-0.11190372 -0.42156184 0.053599294
-0.1120668 -0.42164728 0.053703722
-0.11220879 -0.42170465 0.053912174
-0.11170228 -0.42030278 0.06144166
-0.11186253 -0.42037344 0.061636176
-0.11202744 -0.42044446 0.061848
-0.11220112 -0.42054412 0.06189926
-0.1123945 -0.42068434 0.061754115
-0.112719 -0.42083764 0.06207731
-0.11285872 -0.42088243 0.062363137
-0.11317094 -0.42100459 0.062849216
-0.11337063 -0.42113751 0.062781423
-0.1143571 -0.42227724 0.059108391
-0.11454915 -0.42241046 0.059005976
-0.11474452 -0.42253071 0.059007481
-0.11489861 -0.42263082 0.05897221
-0.11508635 -0.42274132 0.059008401
-0.11530054 -0.42288873 0.058902435
-0.11546433 -0.42298728 0.058919087
-0.11562756 -0.42308086 0.058968082
-0.11580876 -0.42319584 0.058945399
-0.11598386 -0.42331192 0.058889255
-0.11618793 -0.42344171 0.058861859
-0.11635903 -0.42353794 0.05892583
-0.11654261 -0.4236626 0.058846548
-0.11672105 -0.42378193 0.058782302
-0.11689036 -0.42387921 0.058831267
-0.11707681 -0.42400163 0.058779694
-0.11724894 -0.42410469 0.058800943
-0.11743467 -0.42422616 0.058752835
-0.11761682 -0.42434976 0.058674712
-0.11778418 -0.42445272 0.05867634
-0.11796374 -0.42455769 0.058716021
-0.11813967 -0.42467862 0.058629841
-0.11829939 -0.42477551 0.058640748
-0.11848852 -0.42488655 0.058679238
-0.11867106 -0.42501274 0.058584951
-0.11883867 -0.42510733 0.058645472
-0.11902028 -0.42521724 0.058659747
-0.11917922 -0.42532301 0.058605976
-0.11933888 -0.42542556 0.058577605
-0.11953603 -0.42554989 0.058558322
-0.11971093 -0.42565581 0.058571465
-0.11990785 -0.42578536 0.058515232
-0.12005877 -0.42589021 0.058433775
-0.12022518 -0.42599875 0.058392666
-0.12041896 -0.42610565 0.058479652
-0.1205799 -0.42620161 0.058502089
-0.12075709 -0.42631948 0.058442473
-0.12091982 -0.42642578 0.058401383
-0.12108244 -0.42652044 0.058439985
-0.12127095 -0.42664948 0.05835145
-0.1214488 -0.42674655 0.058438495
-0.12164603 -0.42688012 0.058355689
-0.12181897 -0.4269892 0.058338821
-0.12198734 -0.42709294 0.058339283
-0.1221441 -0.42718551 0.058367513
-0.12230907 -0.42729333 0.058325261
-0.12249862 -0.42741498 0.05829215
-0.12269126 -0.4275454 0.058211681
-0.12283941 -0.42763516 0.058222625
-0.12301093 -0.42773515 0.058262348
-0.12317498 -0.4278419 0.058223568
-0.12336996 -0.4279736 0.058144242
-0.12351874 -0.42806575 0.058141328
-0.12371226 -0.42818686 0.05812899
-0.12389283 -0.42829946 0.058120169
-0.12405374 -0.42839843 0.058121815
-0.12422476 -0.42852086 0.058004476
-0.12440382 -0.42862183 0.058069572
-0.12455354 -0.42870203 0.058153272
-0.12472833 -0.4288134 0.058128301
-0.12490211 -0.42893016 0.058061771
-0.12508599 -0.42904699 0.058037922
-0.12525111 -0.42914423 0.058069587
-0.1254283 -0.42926526 0.057988018
-0.1255945 -0.42937571 0.057933062
-0.12575561 -0.42945907 0.058043271
-0.12594453 -0.42960542 0.057836931
-0.12610587 -0.42968962 0.057942517
-0.12627791 -0.42979395 0.057954524
-0.1264461 -0.42990392 0.057911109
-0.12663125 -0.43001866 0.057906885
-0.12678955 -0.43011102 0.057943199
-0.12695813 -0.43021274 0.05795867
-0.12714152 -0.43034345 0.057836667
-0.12730524 -0.43044817 0.05781059
