# .PCD v0.7 - Point Cloud Data file format
VERSION 0.7
FIELDS x y z
SIZE 4 4 4
TYPE F F F
COUNT 1 1 1
WIDTH 1272
HEIGHT 1
VIEWPOINT 0 0 0 1 0 0 0
POINTS 1272
DATA ascii
-0.14259022 -0.48906392 0.048024982
-0.1427069 -0.48917031 0.04788243
-0.14281675 -0.48927554 0.047718
-0.14292115 -0.489375 0.047565132
-0.14302778 -0.489481 0.047382262
-0.14313219 -0.489577 0.047250159
-0.14327204 -0.4896802 0.047225166
-0.14340223 -0.48978657 0.047140222
-0.14355716 -0.48989701 0.047135912
-0.14370261 -0.49000746 0.047091268
-0.14385515 -0.49011603 0.047088113
-0.14401321 -0.49022871 0.047083784
-0.14417209 -0.49034002 0.047090977
-0.14432134 -0.49045125 0.047057852
-0.14447571 -0.49056187 0.047050074
-0.14465782 -0.49067909 0.047120601
-0.14479056 -0.49078593 0.047043726
-0.14493461 -0.49089327 0.047011778
-0.14507794 -0.49100205 0.046968296
-0.14524297 -0.49111792 0.046974309
-0.1454064 -0.49123055 0.046993017
-0.14554587 -0.49133715 0.046946108
-0.14569983 -0.49144807 0.046934873
-0.14585792 -0.49156132 0.046927072
-0.14602026 -0.4916755 0.046931949
-0.14616913 -0.49178705 0.046895355
-0.14631827 -0.49189568 0.046877228
-0.14646317 -0.49200499 0.046837199
-0.14662147 -0.49211705 0.046837479
-0.14678279 -0.49223125 0.046837751
-0.14694285 -0.49234381 0.046842631
-0.14708903 -0.49245498 0.046796832
-0.14723538 -0.49256474 0.046760254
-0.14739519 -0.49267882 0.046754755
-0.14755529 -0.49279159 0.046758495
-0.14770438 -0.49290347 0.046720751
-0.14785293 -0.49301383 0.046689928
-0.1480218 -0.49313012 0.046709765
-0.14817053 -0.49324059 0.046678953
-0.14831851 -0.49335092 0.046645824
-0.14848366 -0.49346516 0.046662223
-0.14865631 -0.49358258 0.046691269
-0.14879136 -0.4936901 0.046620145
-0.14895143 -0.49380478 0.046612337
-0.14910866 -0.49391744 0.046604544
-0.14925642 -0.49402934 0.046561044
-0.14940451 -0.49413994 0.046526767
-0.14957097 -0.49425492 0.046544306
-0.14971769 -0.49436665 0.046497349
-0.1498751 -0.49448097 0.046480324
-0.1500358 -0.49459475 0.0464806
-0.15020962 -0.49471456 0.0465004
-0.15039772 -0.49483794 0.046559352
-0.15051079 -0.49494159 0.046417985
-0.15064648 -0.49504802 0.046356086
-0.15082499 -0.49516922 0.0463874
-0.15099736 -0.49528626 0.046417594
-0.15115561 -0.49539983 0.046408646
-0.15131439 -0.49551359 0.046400853
-0.15148608 -0.49563342 0.046411436
-0.15163666 -0.49574789 0.046364464
-0.15178043 -0.49585524 0.046331361
-0.1519435 -0.49597704 0.046293546
-0.15211189 -0.49609223 0.046317995
-0.15225029 -0.49619961 0.046261854
-0.15242068 -0.49631545 0.046290912
-0.15257259 -0.49642915 0.0462543
-0.15274021 -0.49654704 0.046259146
-0.15289453 -0.49666014 0.04623637
-0.15303047 -0.49676964 0.046157174
-0.15321945 -0.49689612 0.046201125
-0.15335472 -0.49700284 0.046135772
-0.070241287 -0.43674201 0.054509625
-0.070969217 -0.43727654 0.054395817
-0.071145155 -0.43740284 0.054385569
-0.071323641 -0.43753058 0.054377615
-0.071489386 -0.4376393 0.054429736
-0.07167469 -0.43778011 0.054372139
-0.071866706 -0.43792883 0.054296024
-0.072025061 -0.43802917 0.054366656
-0.07220313 -0.43815702 0.054356396
-0.072388589 -0.43829894 0.054293014
-0.072588608 -0.4384608 0.054171871
-0.072762266 -0.4385851 0.054163944
-0.072944008 -0.43871939 0.054130584
-0.073097587 -0.43881023 0.054238159
-0.073282667 -0.43894994 0.054186333
-0.07346496 -0.43908828 0.05413105
-0.073602244 -0.43917814 0.054175254
-0.073803514 -0.43932202 0.054167174
-0.073979869 -0.43944883 0.054155771
-0.074154638 -0.43957606 0.054135147
-0.074331939 -0.43970469 0.054116823
-0.07454399 -0.43989164 0.053896368
-0.074711353 -0.44000494 0.053927712
-0.074874148 -0.44011942 0.053932536
-0.075027093 -0.44022384 0.053955883
-0.075210117 -0.44034559 0.054003298
-0.075391293 -0.44048157 0.053957254
-0.075543538 -0.44059089 0.053948298
-0.075744338 -0.44074196 0.053895213
-0.075901434 -0.44083914 0.053979691
-0.076080754 -0.44097283 0.053939432
-0.076260388 -0.44111025 0.053878397
-0.076430693 -0.44122949 0.053886648
-0.076592736 -0.44133806 0.053923786
-0.076776236 -0.44147956 0.053854659
-0.076949552 -0.44160727 0.053824805
-0.077118695 -0.44172513 0.053836521
-0.077294573 -0.44185448 0.053807814
-0.077469081 -0.4419817 0.053786043
-0.077641249 -0.44210821 0.053758517
-0.077821314 -0.44224536 0.053700939
-0.077982023 -0.44235259 0.05374039
-0.078156561 -0.44248059 0.053714003
-0.078320682 -0.44259393 0.053731516
-0.078492455 -0.44271749 0.053720143
-0.078661352 -0.44283938 0.053706482
-0.078839421 -0.44297433 0.053653535
-0.079009384 -0.44309524 0.053650238
-0.079175606 -0.44320968 0.053670052
-0.079344578 -0.4433324 0.053651772
-0.079523765 -0.44347024 0.053586122
-0.079697661 -0.44360223 0.053533196
-0.079863675 -0.44371688 0.053550698
-0.080026701 -0.44382963 0.053567071
-0.080198765 -0.44395551 0.053543005
-0.080369979 -0.44408345 0.053502783
-0.080544211 -0.44421378 0.053461399
-0.080701008 -0.44431207 0.053537801
-0.080878615 -0.44444901 0.053471006
-0.081046581 -0.44457179 0.053448115
-0.081212819 -0.44468793 0.053457547
-0.0813777 -0.44480526 0.05345428
-0.081550047 -0.44493327 0.053418674
-0.081720114 -0.44506079 0.053376161
-0.081887417 -0.44517964 0.053374037
-0.082061708 -0.44531211 0.053319961
-0.082232945 -0.44543895 0.053286664
-0.082396284 -0.44555441 0.053288035
-0.082559481 -0.4456659 0.053312473
-0.082727522 -0.44579086 0.053276889
-0.082899906 -0.4459208 0.053229745
-0.083065912 -0.44603834 0.053229943
-0.083228841 -0.44614986 0.053253233
-0.083397821 -0.44627759 0.053204946
-0.083571352 -0.44641083 0.053142793
-0.083739445 -0.44653738 0.053097982
-0.083906323 -0.44665766 0.053085484
-0.084066242 -0.44676375 0.053128403
-0.084230796 -0.44687948 0.053133227
-0.084396571 -0.44700205 0.053102266
-0.084569588 -0.44713593 0.05303435
-0.084728263 -0.44724402 0.053059973
-0.084899113 -0.44737387 0.053007066
-0.085063376 -0.44749421 0.052983046
-0.08522357 -0.44760165 0.053019043
-0.085394904 -0.44773337 0.052956901
-0.085556 -0.44784299 0.052983664
-0.085723847 -0.44797203 0.052922696
-0.085889965 -0.44809312 0.052902121
-0.086046144 -0.44819677 0.052943911
-0.086211801 -0.44831714 0.05292565
-0.086378172 -0.44843936 0.052899309
-0.086537339 -0.44855475 0.052883394
-0.086705647 -0.44867718 0.052863959
-0.086863577 -0.44878533 0.052886128
-0.087025255 -0.44889748 0.052900199
-0.0871929 -0.4490287 0.05282538
-0.087350644 -0.44913191 0.052876398
-0.087480105 -0.44919738 0.053033728
-0.08766818 -0.44935328 0.052897643
-0.087841257 -0.44948873 0.052820496
-0.088009112 -0.449617 0.052764148
-0.088172488 -0.44973978 0.052721661
-0.088334963 -0.44985539 0.052718416
-0.088495553 -0.4499718 0.052702494
-0.088652655 -0.45007956 0.052723512
-0.088817 -0.45020592 0.052663714
-0.088978522 -0.45031989 0.052666243
-0.089133464 -0.45042247 0.052709199
-0.089302063 -0.45055532 0.052628607
-0.08946608 -0.45068222 0.052564211
-0.089628704 -0.45080006 0.052548267
-0.089786537 -0.45091105 0.052553128
-0.089949504 -0.45103025 0.052530266
-0.090118021 -0.45117113 0.052401219
-0.090271279 -0.45126405 0.052494951
-0.090425022 -0.45136422 0.052547138
-0.09058883 -0.45149311 0.052470043
-0.090749219 -0.45161262 0.052434504
-0.090907305 -0.45171934 0.052465893
-0.091063149 -0.45182604 0.052488077
-0.091224328 -0.45194209 0.05247676
-0.091382071 -0.45205471 0.052471235
-0.091543958 -0.45217338 0.052447226
-0.091702148 -0.45228785 0.052432466
-0.091865078 -0.45241746 0.052347299
-0.092022032 -0.45252877 0.052346397
-0.092179514 -0.45263469 0.052380107
-0.092340425 -0.45275921 0.052316867
-0.092498764 -0.45286822 0.052335568
-0.092658103 -0.45298836 0.052291963
-0.092813328 -0.45309496 0.05231183
-0.092969723 -0.4532057 0.052312091
-0.093133092 -0.4533329 0.052243069
-0.093291707 -0.45345214 0.05220177
-0.093451522 -0.45356777 0.052187003
-0.093604624 -0.4536677 0.052238047
-0.093752757 -0.45377508 0.052223347
-0.093902364 -0.45389715 0.052126713
-0.094080716 -0.45402208 0.052134909
-0.094237387 -0.45414552 0.052060165
-0.094369091 -0.45424566 0.052019022
-0.094533436 -0.45434394 0.052127685
-0.094683573 -0.45445177 0.052118741
-0.094863281 -0.45458364 0.052091174
-0.095024429 -0.45470852 0.052026786
-0.095180497 -0.45482245 0.052006267
-0.0953153 -0.45492807 0.051945485
-0.095483966 -0.45504519 0.051959518
-0.095648646 -0.45515525 0.051998958
-0.095805436 -0.45527413 0.0519519
-0.095959149 -0.45537871 0.051977552
-0.096115284 -0.45549542 0.051940881
-0.096273445 -0.45561045 0.05192266
-0.096430421 -0.45573276 0.051855985
-0.096574649 -0.45584083 0.051820539
-0.096725859 -0.45593306 0.05190967
-0.096894979 -0.45605531 0.051894851
-0.097043745 -0.45616177 0.051888224
-0.097201146 -0.45629033 0.051785778
-0.097345896 -0.45640454 0.051715713
-0.097507663 -0.45651522 0.051739011
-0.097669788 -0.45662826 0.051749617
-0.097825237 -0.45673081 0.051794872
-0.097979851 -0.45684546 0.051763982
-0.098133855 -0.45695645 0.051752709
-0.098273888 -0.45705977 0.051727675
-0.098424837 -0.45716819 0.051718727
-0.098594695 -0.45728287 0.051752359
-0.098753408 -0.45741469 0.051636055
-0.098907776 -0.457533 0.051582094
-0.099043481 -0.45762464 0.051609002
-0.099194571 -0.45773873 0.051566593
-0.099367298 -0.45785871 0.0515806
-0.099520229 -0.45796543 0.0515901
-0.099675879 -0.45807314 0.051605351
-0.099828899 -0.45818186 0.051603325
-0.099982277 -0.4582966 0.051566664
-0.10013266 -0.45840862 0.051533494
-0.10028834 -0.45852017 0.051525678
-0.10043849 -0.45863169 0.051494807
-0.1005744 -0.45873266 0.051466338
-0.1007412 -0.45885366 0.051449221
-0.10089981 -0.45898059 0.051361766
-0.10104062 -0.45906928 0.051427878
-0.10120716 -0.45918915 0.051416535
-0.10134247 -0.45927623 0.051468831
-0.10150615 -0.45940021 0.051420573
-0.10166687 -0.45951727 0.05140119
-0.10180774 -0.45962468 0.051355373
-0.10197107 -0.45974284 0.051340587
-0.10210912 -0.45983747 0.051359411
-0.10227236 -0.45995498 0.051348083
-0.10242152 -0.46006075 0.051347226
-0.10258148 -0.46018478 0.051282842
-0.10273302 -0.46029821 0.051246203
-0.10288574 -0.46038863 0.051352624
-0.10303689 -0.46050698 0.051284831
-0.10318561 -0.46061534 0.05126667
-0.10334277 -0.46072835 0.051256534
-0.10348554 -0.46083498 0.051223397
-0.10363565 -0.46095818 0.051122151
-0.1037954 -0.46107206 0.051117774
-0.1039479 -0.46116868 0.051186122
-0.10409865 -0.46128175 0.051148325
-0.10424586 -0.46139789 0.051077098
-0.1043964 -0.46151042 0.051041614
-0.10453475 -0.46162143 0.050963506
-0.10469441 -0.46173275 0.050974123
-0.104856 -0.46183136 0.051068969
-0.10500564 -0.4619475 0.051008102
-0.10515996 -0.46205327 0.051029135
-0.10530469 -0.46216014 0.051002912
-0.10545135 -0.46227303 0.050948992
-0.10561158 -0.46238068 0.050983839
-0.10576293 -0.46248513 0.051000278
-0.10589583 -0.46258575 0.050961435
-0.1060326 -0.46268293 0.050959487
-0.10620638 -0.46280253 0.050980408
-0.10635156 -0.46291915 0.05089765
-0.10648771 -0.46301821 0.050881866
-0.10666712 -0.4631539 0.050830062
-0.10681884 -0.46325594 0.050862648
-0.10697278 -0.46336222 0.050879069
-0.10711972 -0.46346968 0.050858606
-0.10725643 -0.46357742 0.050793204
-0.10739839 -0.4636783 0.050791238
-0.10753475 -0.46377519 0.050789289
-0.1077113 -0.4638958 0.050815966
-0.10784816 -0.46399111 0.050825566
-0.10799448 -0.46410951 0.050737023
-0.10816008 -0.46422157 0.050768379
-0.10830913 -0.4643313 0.050743293
-0.10845976 -0.46444604 0.05069511
-0.10861275 -0.46456337 0.050641157
-0.10875808 -0.46466357 0.05065763
-0.10890809 -0.46476996 0.050656766
-0.1090495 -0.46487102 0.050651334
-0.10920707 -0.46499354 0.05058581
-0.10937575 -0.4651151 0.050573293
-0.109519 -0.46521977 0.050554011
-0.10965607 -0.4653137 0.050572839
-0.10980475 -0.46543032 0.05050505
-0.1099512 -0.46552783 0.050542284
-0.11012229 -0.46565148 0.050527453
-0.11026748 -0.46575174 0.050542776
-0.11040891 -0.46585935 0.050498117
-0.11056116 -0.46596059 0.050537616
-0.11071274 -0.46607754 0.050480209
-0.11084665 -0.46617019 0.050493278
-0.11100366 -0.46629077 0.050436988
-0.11116666 -0.46640059 0.050470669
-0.11130139 -0.46651193 0.050375272
-0.11144933 -0.4666205 0.050352503
-0.11161797 -0.46674049 0.050349213
-0.11175574 -0.46682683 0.050416507
-0.1118952 -0.46693596 0.050354548
-0.1120588 -0.46705121 0.050358217
-0.1122024 -0.46715978 0.050317004
-0.11234821 -0.46726492 0.050305776
-0.11249854 -0.46736941 0.050317612
-0.11263888 -0.4674705 0.050307564
-0.11278187 -0.46757361 0.050296362
-0.1129279 -0.46768969 0.050220519
-0.11307583 -0.46780288 0.050170053
-0.11324238 -0.4679139 0.05021178
-0.11337609 -0.46801758 0.050157934
-0.11353116 -0.46812138 0.050193962
-0.11368656 -0.46823564 0.050168838
-0.11381574 -0.46833378 0.050128859
-0.11396733 -0.46844187 0.050124526
-0.1141158 -0.46855351 0.050085597
-0.11427042 -0.46866319 0.050084695
-0.11440913 -0.46877542 0.050000824
-0.11455657 -0.46887285 0.050042663
-0.11471366 -0.46897483 0.050098296
-0.11485856 -0.46907529 0.050111309
-0.11500855 -0.46919456 0.050033133
-0.11515234 -0.46930557 0.049978081
-0.11530562 -0.46940696 0.050021045
-0.11545096 -0.46950698 0.050038669
-0.11560009 -0.4696264 0.04995589
-0.1157411 -0.46973044 0.049930837
-0.11589454 -0.46983194 0.049973801
-0.11604295 -0.46993816 0.049967177
-0.11619049 -0.47004953 0.049925942
-0.11633115 -0.4701668 0.049820133
-0.1164858 -0.47026742 0.049873471
-0.1166347 -0.4703688 0.049897999
-0.11678503 -0.47048175 0.049859058
-0.11693254 -0.47059274 0.049820125
-0.11708415 -0.47070447 0.049793862
-0.11723039 -0.470808 0.049794182
-0.11738386 -0.4709101 0.049833678
-0.1175328 -0.47101977 0.049808592
-0.11767628 -0.47112942 0.049760461
-0.11782409 -0.47123578 0.049750369
-0.11797217 -0.47134197 0.049742598
-0.11811572 -0.47144744 0.049719844
-0.11826833 -0.47155431 0.049727045
-0.11841588 -0.47165704 0.049737729
-0.11856533 -0.47176608 0.04971841
-0.11870832 -0.47186807 0.049714126
-0.11885069 -0.47197789 0.049660221
-0.11900827 -0.47208542 0.049684703
-0.11915357 -0.4722006 0.049611174
-0.11929495 -0.47231433 0.04952959
-0.11944667 -0.47242174 0.049529865
-0.119594 -0.47252816 0.049517479
-0.11974114 -0.47263116 0.04952471
-0.1198824 -0.47273749 0.049486972
-0.12003308 -0.47284552 0.049479175
-0.12018824 -0.47294766 0.049525589
-0.12034576 -0.473059 0.049526993
-0.12048772 -0.47316486 0.049495019
-0.12063538 -0.47327787 0.049444553
-0.12077978 -0.47338238 0.049431033
-0.12092741 -0.47348863 0.049420945
-0.12106681 -0.47359884 0.049352068
-0.12121145 -0.47370642 0.049321227
-0.12136421 -0.47381341 0.049328431
-0.12151279 -0.47391918 0.049325265
-0.12165978 -0.47402245 0.04933019
-0.12180804 -0.47413471 0.049286641
-0.12196255 -0.47423795 0.049323827
-0.12212043 -0.474343 0.049364455
-0.12225766 -0.4744505 0.049302511
-0.12240563 -0.47456893 0.04922089
-0.12256332 -0.47466806 0.049296133
-0.12271784 -0.47477168 0.049331013
-0.12284646 -0.47487926 0.049232192
-0.12298568 -0.47499165 0.049149465
-0.12313405 -0.47510052 0.049126696
-0.12328901 -0.47520408 0.049163871
-0.12343833 -0.47531268 0.049146861
-0.12358873 -0.47542086 0.049136758
-0.12373896 -0.47553203 0.049108207
-0.12389009 -0.47564289 0.049085408
-0.12402923 -0.47574618 0.04905691
-0.12417867 -0.4758462 0.049091827
-0.12432285 -0.47595075 0.049077149
-0.1244818 -0.47605926 0.049101613
-0.12462182 -0.47616509 0.049061581
-0.12476294 -0.47627056 0.049028452
-0.12491469 -0.47638395 0.048992962
-0.12505791 -0.4764888 0.048972528
-0.1252017 -0.47659886 0.048923235
-0.12535198 -0.47670716 0.048911981
-0.1255043 -0.47680962 0.048944563
-0.12566708 -0.47691485 0.049004782
-0.12581283 -0.47702709 0.04895087
-0.12596203 -0.47713578 0.048932701
-0.12609436 -0.47724059 0.048866168
-0.12625624 -0.47735155 0.048888315
-0.12641126 -0.4774538 0.048933569
-0.12655222 -0.47756433 0.048869293
-0.12670527 -0.47767481 0.048856873
-0.12684114 -0.47777867 0.048811093
-0.12697256 -0.47788593 0.048726104
-0.12713128 -0.47799021 0.048774809
-0.12729186 -0.47809678 0.04881772
-0.12744334 -0.47820267 0.04882608
-0.12758167 -0.47831097 0.048764128
-0.1277293 -0.47841761 0.048751742
-0.12787262 -0.47852251 0.048731297
-0.12802044 -0.47863638 0.048676223
-0.12816419 -0.47874123 0.048658088
-0.12831306 -0.47884527 0.048666459
-0.12846377 -0.47896102 0.048612505
-0.12860858 -0.47907045 0.048571289
-0.12875068 -0.47917315 0.048558928
-0.12889031 -0.47927621 0.048533898
-0.12904674 -0.47938406 0.048551455
-0.12920257 -0.47948977 0.04857941
-0.12935527 -0.47959596 0.048591219
-0.12950777 -0.47970679 0.048574183
-0.12966296 -0.47981051 0.048611369
-0.12980694 -0.47991782 0.04857938
-0.12996878 -0.48002779 0.048607301
-0.13011518 -0.48013487 0.048586838
-0.13026366 -0.48024404 0.048562907
-0.13039468 -0.48035696 0.048442151
-0.13054463 -0.48046368 0.048438981
-0.13068429 -0.48057351 0.048373561
-0.13083367 -0.48067811 0.048380774
-0.13098371 -0.48078492 0.0483776
-0.13113357 -0.48089176 0.048373278
-0.1312736 -0.48100147 0.048310157
-0.13143197 -0.48110783 0.048345014
-0.13158549 -0.4812167 0.048344132
-0.13171864 -0.48132458 0.0482626
-0.13187575 -0.48143545 0.048265148
-0.13202354 -0.48153833 0.048275836
-0.13216242 -0.48164588 0.048220813
-0.13230951 -0.48175097 0.048215345
-0.13245934 -0.48186222 0.048184477
-0.13260593 -0.48196945 0.048164025
-0.13276863 -0.48207828 0.048202317
-0.13292101 -0.48218751 0.048194509
-0.13305622 -0.48229304 0.048136037
-0.13321474 -0.48240218 0.048154745
-0.13335671 -0.48250961 0.04811354
-0.13351646 -0.48261482 0.048161078
-0.1336634 -0.48272827 0.048104849
-0.13380422 -0.48283371 0.04807058
-0.13396129 -0.48294511 0.048069667
-0.13410322 -0.48305058 0.048040003
-0.13425596 -0.48316005 0.048032206
-0.1344097 -0.4832637 0.048063628
-0.13456863 -0.48337141 0.048092712
-0.13470361 -0.48348272 0.047998473
-0.13485071 -0.48359224 0.047966469
-0.13498966 -0.48369771 0.047924131
-0.13514662 -0.48380557 0.047943987
-0.135298 -0.48391715 0.047917739
-0.13544832 -0.48402491 0.047909945
-0.13559756 -0.48413268 0.047897547
-0.13574804 -0.48423862 0.047901291
-0.13589129 -0.48434812 0.047853161
-0.13605687 -0.48445669 0.047905285
-0.13619813 -0.48456612 0.047849089
-0.13634878 -0.48467413 0.047841292
-0.13650262 -0.48478419 0.047834639
-0.13664016 -0.48489153 0.047775
-0.13679792 -0.48500186 0.047783323
-0.13694419 -0.48511156 0.047746703
-0.13709615 -0.48521799 0.047753911
-0.1372519 -0.48533019 0.047742628
-0.13740024 -0.48543829 0.047724463
-0.13753884 -0.48554388 0.047679819
-0.13769422 -0.48565257 0.047688156
-0.13784239 -0.48576072 0.047668837
-0.13797137 -0.48586911 0.047566559
-0.13809536 -0.48597878 0.047435459
-0.13853146 -0.48623919 0.04772602
-0.13873212 -0.48635244 0.047899093
-0.13907853 -0.48657098 0.048059791
-0.13922033 -0.48667213 0.048055515
-0.13937809 -0.48678017 0.048077676
-0.13951781 -0.48688984 0.048013408
-0.13971812 -0.48701805 0.048095331
-0.13986947 -0.48712903 0.048072543
-0.14003195 -0.48723617 0.048120063
-0.14017795 -0.48733473 0.048149221
-0.14032513 -0.48744199 0.048131064
-0.14046715 -0.48754868 0.048094481
-0.14063852 -0.48766905 0.048100416
-0.14079203 -0.48777887 0.048093755
-0.14094622 -0.48789555 0.048049022
-0.14109753 -0.48800516 0.048034303
-0.14160623 -0.48842579 0.047672532
-0.14176276 -0.48854104 0.047646247
-0.14191511 -0.48865408 0.04761536
-0.1420438 -0.48876536 0.04749462
-0.1421185 -0.48885566 0.047270346
-0.14222877 -0.48895428 0.047147401
-0.14233805 -0.48904622 0.047060236
-0.14250909 -0.48915714 0.047121558
-0.14268394 -0.48927036 0.047185171
-0.14282455 -0.48937833 0.047134735
-0.14298901 -0.4894917 0.047153406
-0.14314829 -0.48960274 0.04716403
-0.14329141 -0.48970965 0.04713089
-0.14344706 -0.48982176 0.047119617
-0.14358819 -0.48992991 0.047070339
-0.14373216 -0.49003857 0.047030274
-0.14388724 -0.49014914 0.047025923
-0.14402521 -0.49025834 0.046957053
-0.14419951 -0.49037233 0.047013737
-0.14434657 -0.49048316 0.046973657
-0.14450201 -0.49059397 0.046969302
-0.14464588 -0.49070275 0.046928089
-0.14480625 -0.49081457 0.046938702
-0.14495386 -0.49092561 0.046899781
-0.14510635 -0.49103606 0.046885055
-0.14528292 -0.49115106 0.046945184
-0.14542827 -0.49125877 0.04691666
-0.14557844 -0.49136895 0.046893869
-0.14572832 -0.49147907 0.046869926
-0.14588828 -0.49159271 0.046867847
-0.1460319 -0.49170169 0.046824325
-0.1461744 -0.49181044 0.046777349
-0.14633691 -0.49192473 0.046782184
-0.14647758 -0.49203315 0.046729449
-0.14663391 -0.49214479 0.046723932
-0.14681742 -0.49226359 0.046790954
-0.14697176 -0.49237499 0.046778526
-0.14710264 -0.49248147 0.046695851
-0.14727333 -0.49259636 0.046731785
-0.147425 -0.49270582 0.046719372
-0.14756662 -0.49281609 0.046659715
-0.14772388 -0.49292976 0.046646111
-0.1478903 -0.49304256 0.046676312
-0.1480287 -0.49315074 0.046615511
-0.14818372 -0.49326259 0.04660308
-0.14833446 -0.49337354 0.046577986
-0.14849681 -0.49348715 0.046586271
-0.14864948 -0.49360004 0.046557706
-0.14879847 -0.4937107 0.046526842
-0.14896937 -0.49382785 0.046550088
-0.14910884 -0.49393639 0.046491589
-0.14925803 -0.49404722 0.046460737
-0.14941581 -0.49416006 0.046454057
-0.14958432 -0.49427554 0.046477318
-0.14972846 -0.49438527 0.046431482
-0.14989489 -0.49450177 0.046439756
-0.15003587 -0.49461079 0.046384707
-0.15020163 -0.49472585 0.046398755
-0.15035141 -0.49483705 0.046367895
-0.15050671 -0.49495104 0.046343926
-0.15063277 -0.49505508 0.046255507
-0.15081501 -0.49517721 0.046297148
-0.1509777 -0.49529317 0.046292741
-0.15115401 -0.49541128 0.046333265
-0.15130985 -0.49552563 0.046309292
-0.15142798 -0.49562904 0.046190921
-0.1516107 -0.49575037 0.046239488
-0.15175694 -0.49586099 0.046197101
-0.15191524 -0.49597481 0.046186961
-0.15208353 -0.49609128 0.046203293
-0.152255 -0.49621135 0.046211537
-0.15238339 -0.49631876 0.046112727
-0.15254 -0.49643096 0.046104897
-0.15269805 -0.4965423 0.046108596
-0.15286213 -0.49666193 0.046088036
-0.15302503 -0.49678132 0.046064023
-0.15317878 -0.496889 0.046071216
-0.15334204 -0.49700594 0.046063349
-0.070307441 -0.43683064 0.05425917
-0.07049498 -0.43697113 0.054213069
-0.070659876 -0.43708077 0.054255947
-0.070835099 -0.43720332 0.054265298
-0.07099174 -0.43730074 0.054346293
-0.071178488 -0.43744069 0.054300196
-0.071370721 -0.43759164 0.054211378
-0.071534425 -0.43769735 0.054272722
-0.071728706 -0.43785191 0.054171208
-0.071924523 -0.43800905 0.054060455
-0.072094768 -0.43812767 0.054072145
-0.072250634 -0.43822187 0.05416929
-0.072429158 -0.4383533 0.054139398
-0.072603658 -0.43847609 0.054144148
-0.072778985 -0.43860292 0.05412811
-0.072970435 -0.43875217 0.054046229
-0.073139578 -0.43886983 0.054059077
-0.073299967 -0.43897128 0.05413197
-0.073504195 -0.43914384 0.053964633
-0.073673084 -0.43925878 0.053992491
-0.073835149 -0.43936583 0.054038834
-0.074024081 -0.43951252 0.053961579
-0.074188344 -0.43962327 0.053995229
-0.074384838 -0.43978244 0.053875234
-0.074573375 -0.43993211 0.053778373
-0.074717045 -0.4400188 0.053868666
-0.0748979 -0.44014534 0.053877987
-0.075073004 -0.44027126 0.053866584
-0.075239271 -0.44038591 0.053885214
-0.075420395 -0.44052187 0.053839151
-0.075589947 -0.44064212 0.053838156
-0.075774781 -0.44078457 0.053769004
-0.075930938 -0.44088319 0.053840768
-0.076111421 -0.44101888 0.053793557
-0.076280549 -0.44113904 0.053791415
-0.076461181 -0.44127542 0.05374074
-0.076642036 -0.44141543 0.0536693
-0.076818526 -0.4415454 0.053639419
-0.076990493 -0.44167101 0.053616486
-0.0771707 -0.44180769 0.053562354
-0.077328041 -0.4419181 0.053568348
-0.07750079 -0.44203332 0.053611182
-0.077676892 -0.44216669 0.053559378
-0.077844352 -0.44228235 0.053576853
-0.078005426 -0.44238716 0.053632442
-0.078185216 -0.44252431 0.053573698
-0.078365564 -0.44266587 0.053490728
-0.078517407 -0.44275489 0.053601746
-0.07870011 -0.44290102 0.053501446
-0.078874886 -0.44303036 0.053468116
-0.079050571 -0.44316477 0.053408243
-0.079203039 -0.44325501 0.053514645
-0.079371825 -0.4433907 0.053417895
-0.079548031 -0.44350681 0.053469926
-0.079734765 -0.44366196 0.053332686
-0.079892904 -0.44376257 0.053400986
-0.080073074 -0.44390652 0.053303018
-0.080248013 -0.44403788 0.053258147
-0.080416918 -0.44416192 0.053231768
-0.080587342 -0.44428548 0.053214613
-0.080751181 -0.44440052 0.053220581
-0.08091478 -0.44451174 0.053248458
-0.08108788 -0.4446443 0.0531886
-0.081249133 -0.44475135 0.053231489
-0.081417263 -0.44487503 0.053203966
-0.081582926 -0.44499061 0.053214531
-0.08174675 -0.44511005 0.053193953
-0.081928432 -0.44525295 0.053108666
-0.082090467 -0.44536576 0.053120404
-0.082262643 -0.44549459 0.053079009
-0.082439043 -0.44563568 0.052982219
-0.082594886 -0.44573313 0.053059753
-0.082766689 -0.44586575 0.052994132
-0.082923301 -0.44599164 0.052904382
-0.083078019 -0.44610637 0.052873474
-0.08325734 -0.44621605 0.052977405
-0.08342918 -0.44634193 0.05295217
-0.083586298 -0.44644222 0.05301816
-0.083748408 -0.44655663 0.053020671
-0.083923742 -0.44669425 0.05294003
-0.084083565 -0.44680431 0.052958712
-0.084256306 -0.44693723 0.052895393
-0.084427744 -0.44707191 0.052815925
-0.084582075 -0.44717094 0.052877322
-0.084753796 -0.44730678 0.052792095
-0.084920622 -0.44742838 0.052771498
-0.085070506 -0.44751814 0.052869834
-0.085247114 -0.4476611 0.05276265
-0.085398585 -0.44775426 0.052847143
-0.085574985 -0.44789746 0.05273765
-0.085733637 -0.44800651 0.052757487
-0.085893668 -0.44811425 0.052791156
-0.086060159 -0.448241 0.05273826
-0.086215317 -0.44834256 0.052788116
-0.086391151 -0.44849095 0.052645169
-0.08655142 -0.44859979 0.052673075
-0.086712316 -0.44871485 0.052666362
-0.086873554 -0.44882613 0.052683871
-0.087041236 -0.44895738 0.052609045
-0.087201282 -0.44907108 0.052606955
-0.087329857 -0.44914475 0.052711185
-0.087524265 -0.44930092 0.05260044
-0.087685719 -0.44941849 0.052581035
-0.087855019 -0.4495503 0.052509658
-0.087995924 -0.4496541 0.05248576
-0.0881745 -0.44977322 0.0525297
-0.088329263 -0.44987512 0.052576095
-0.088497788 -0.45001155 0.052473579
-0.088663273 -0.45014086 0.052401073
-0.088820614 -0.45024437 0.052448604
-0.088977404 -0.45035189 0.052469604
-0.089143679 -0.45047867 0.05241555
-0.089304313 -0.45059663 0.052390382
-0.089466967 -0.45072028 0.052339822
-0.089623384 -0.45082757 0.052360818
-0.089788079 -0.45095149 0.052317165
-0.089945674 -0.45106229 0.052322
-0.09010575 -0.45117408 0.052331448
-0.09023983 -0.4512561 0.052409109
-0.090398133 -0.45139375 0.052255895
-0.090563491 -0.45150873 0.052268762
-0.090735778 -0.45163113 0.052266594
-0.090886742 -0.45174298 0.05223687
-0.091061547 -0.45186678 0.052236997
-0.091222599 -0.45198947 0.052185282
-0.091357708 -0.45206797 0.052288316
-0.091518946 -0.45219848 0.052190457
-0.09170159 -0.4523336 0.052155934
-0.09185946 -0.45244786 0.052141156
-0.09201549 -0.45257086 0.052066404
-0.092170574 -0.45266235 0.052176245
-0.092331618 -0.45278022 0.052153379
-0.092495516 -0.45291534 0.052039348
-0.092652366 -0.45302773 0.05203151
-0.092791252 -0.45312604 0.052031849
-0.092938647 -0.45324576 0.051939838
-0.093101941 -0.45335755 0.051963098
-0.093252636 -0.45345747 0.052003749
-0.093408525 -0.45356765 0.052005142
-0.093565449 -0.45368186 0.05198691
-0.093750678 -0.45382342 0.051924676
-0.093917862 -0.45394179 0.051924843
-0.094072498 -0.4540484 0.051942404
-0.094233498 -0.45417064 0.051892992
-0.094389021 -0.45428112 0.051890928
-0.094543882 -0.45438924 0.051900398
-0.094701298 -0.45450801 0.051856786
-0.09486039 -0.4546243 0.051835082
-0.095016964 -0.45474052 0.051803015
-0.09517739 -0.45486355 0.0517467
-0.095326707 -0.45497003 0.05174236
-0.095470622 -0.45507422 0.051728815
-0.095620647 -0.45517328 0.051771779
-0.095778637 -0.45528689 0.05176162
-0.095935024 -0.45540491 0.051718015
-0.096081994 -0.45551339 0.051691771
-0.096233644 -0.45562112 0.051689722
-0.096385233 -0.45571595 0.051764973
-0.096575491 -0.45587128 0.051641561
-0.096717842 -0.45598379 0.051571507
-0.096856415 -0.45607591 0.051607609
-0.097036168 -0.45620337 0.051606555
-0.097184837 -0.45631075 0.051594142
-0.097327769 -0.45641422 0.051580608
-0.097480521 -0.45653239 0.051520865
-0.097642608 -0.45666292 0.051426463
-0.097817384 -0.45677724 0.051483124
-0.097941823 -0.45684281 0.051618535
-0.098098561 -0.45695531 0.051609535
-0.098268226 -0.45708835 0.051532388
-0.098411754 -0.45720053 0.051469248
-0.098576732 -0.45731947 0.051456738
-0.098725393 -0.45743334 0.051405102
-0.098866485 -0.45752707 0.051442344
-0.099020243 -0.4576413 0.051410295
-0.099176958 -0.45775998 0.051364377
-0.099344149 -0.45787892 0.051361084
-0.099496976 -0.45798615 0.051367108
-0.099649593 -0.45809114 0.051385827
-0.099797368 -0.45820326 0.051341109
-0.099948369 -0.45832515 0.051251389
-0.10012002 -0.45843536 0.051319607
-0.10027882 -0.45855662 0.05126676
-0.1004424 -0.45866764 0.051295787
-0.10060063 -0.45878121 0.051286779
-0.10073663 -0.45889035 0.051209845
-0.10088637 -0.4590033 0.051168576
-0.1010441 -0.45910862 0.051206876
-0.10119642 -0.45922127 0.051178291
-0.10133721 -0.45931169 0.051233996
-0.10150072 -0.45943668 0.051178813
-0.10165843 -0.45955124 0.051161736
-0.10179633 -0.45965636 0.051117077
-0.10196516 -0.45977512 0.051121857
-0.10211408 -0.4598892 0.051070213
-0.1022462 -0.45998311 0.051068284
-0.10239865 -0.46007043 0.051191997
-0.10254734 -0.46018493 0.051136896
-0.10270193 -0.46029401 0.051139444
-0.10285394 -0.46039641 0.051170859
-0.10300405 -0.4605304 0.051004991
-0.10315891 -0.46063176 0.051054846
-0.10331069 -0.46073595 0.051074721
-0.10346701 -0.460857 0.051012658
-0.10363101 -0.46098986 0.050912477
-0.10377857 -0.46110433 0.050852761
-0.10394086 -0.46122003 0.05084835
-0.10409021 -0.46131611 0.050906304
-0.10424314 -0.46143362 0.050851189
-0.1043902 -0.46154812 0.050789181
-0.10454773 -0.46165195 0.05083555
-0.10470174 -0.46175927 0.050846182
-0.10485756 -0.46187496 0.050814122
-0.10502164 -0.46199673 0.050780851
-0.10517909 -0.46210146 0.050821453
-0.10532518 -0.46221739 0.050746758
-0.10548335 -0.46231821 0.050813902
-0.10562268 -0.46243492 0.050705783
-0.10576921 -0.46254617 0.050661083
-0.10592783 -0.46266019 0.050650921
-0.10609154 -0.46276551 0.050714564
-0.10624626 -0.46288237 0.05067097
-0.10638502 -0.46298349 0.050654002
-0.10655785 -0.46310547 0.050656449
-0.10671527 -0.46322328 0.050618596
-0.10684371 -0.46332514 0.050553244
-0.10698555 -0.4634138 0.050623931
-0.10713263 -0.46353179 0.050541162
-0.10727791 -0.46363214 0.050556455
-0.10744261 -0.46374643 0.050570488
-0.10762073 -0.46387219 0.050572895
-0.10777259 -0.46398392 0.050547771
-0.10791171 -0.4640924 0.050488118
-0.1080595 -0.46420529 0.050438792
-0.10821886 -0.46431446 0.050460935
-0.10837934 -0.46443021 0.050448451
-0.10852235 -0.46452683 0.050476458
-0.10867505 -0.46463513 0.05047556
-0.10881502 -0.46473959 0.050443586
-0.1089855 -0.46486551 0.050412588
-0.10911711 -0.46497232 0.050331049
-0.10925873 -0.46506351 0.050385598
-0.10941374 -0.46516594 0.050429683
-0.10956097 -0.46527788 0.050383821
-0.10970898 -0.46539575 0.050305657
-0.10986542 -0.46550304 0.050326653
-0.11002196 -0.4656179 0.050302658
-0.11017872 -0.46573216 0.050283276
-0.11032222 -0.46583527 0.050274353
-0.11048267 -0.46594945 0.050271109
-0.11062471 -0.46605518 0.050240278
-0.11078653 -0.46616668 0.050258934
-0.1109313 -0.46626726 0.050270781
-0.11106884 -0.46636692 0.05025728
-0.11121703 -0.46646836 0.050278325
-0.111363 -0.46656033 0.050346687
-0.1115064 -0.46668956 0.050180867
-0.11166418 -0.46681395 0.05010495
-0.11182817 -0.46692815 0.050116677
-0.11197267 -0.46702889 0.050126214
-0.11212753 -0.4671447 0.050089534
-0.11225958 -0.46724567 0.05004492
-0.11242389 -0.46735334 0.050097022
-0.11258877 -0.4674722 0.050084516
-0.11273556 -0.46757555 0.050088271
-0.11287659 -0.46768671 0.050020523
-0.1130242 -0.46779448 0.050001197
-0.11316833 -0.46790114 0.049973808
-0.1133198 -0.46800375 0.050001767
-0.11347274 -0.46811548 0.049981248
-0.11363786 -0.46823356 0.049974509
-0.11377211 -0.46833068 0.049962189
-0.11392362 -0.4684439 0.04992668
-0.11406954 -0.468548 0.049922362
-0.11421521 -0.46865746 0.049884588
-0.11436117 -0.46875635 0.049911425
-0.11451598 -0.46887058 0.049883977
-0.11466239 -0.46897402 0.049885422
-0.11480676 -0.4690845 0.049836118
-0.1149613 -0.46918911 0.049865205
-0.11511777 -0.4692966 0.049885053
-0.11525794 -0.46941102 0.049794234
-0.11541404 -0.46951884 0.049810626
-0.11555475 -0.4696323 0.049727883
-0.1157071 -0.46972996 0.049789295
-0.1158542 -0.46984622 0.049716894
-0.11600074 -0.46995381 0.049694113
-0.11616325 -0.47005156 0.04979815
-0.11631229 -0.47017014 0.049719967
-0.11645443 -0.4702771 0.049682215
-0.11662124 -0.47038889 0.049720462
-0.11676884 -0.47049972 0.049682677
-0.11691843 -0.47060466 0.049688715
-0.11706151 -0.47070649 0.049685571
-0.11720894 -0.47081318 0.049672015
-0.11735847 -0.47092634 0.049628451
-0.11750556 -0.47103721 0.049588356
-0.11765487 -0.47114235 0.049592089
-0.11780575 -0.4712503 0.049585439
-0.11795103 -0.47135836 0.049554586
-0.11809725 -0.4714734 0.049485654
-0.11825259 -0.47158203 0.04949398
-0.11840796 -0.47169068 0.049502295
-0.11855054 -0.47180027 0.049450688
-0.11870458 -0.47190607 0.049470551
-0.11885414 -0.47201848 0.049431592
-0.11900014 -0.47212568 0.049408816
-0.11913784 -0.47222701 0.049386084
-0.11928811 -0.47233877 0.049354054
-0.11943529 -0.47244874 0.049319729
-0.11958547 -0.47255331 0.049330384
-0.11973144 -0.47265685 0.049329527
-0.11988673 -0.47276217 0.049357459
-0.12004102 -0.47286811 0.049377322
-0.12019226 -0.4729827 0.049332585
-0.12033822 -0.47309315 0.049290199
-0.12047892 -0.47319949 0.049250145
-0.12062831 -0.47330466 0.049253885
-0.12076934 -0.47341737 0.049176909
-0.12092272 -0.47352058 0.049209464
-0.12106875 -0.47362742 0.049188986
-0.12120678 -0.47373801 0.049112037
-0.12134488 -0.47384518 0.049055848
-0.12149947 -0.47395116 0.049076855
-0.1216598 -0.47405469 0.04913706
-0.12181182 -0.47415885 0.049158085
-0.12197424 -0.47425863 0.049249422
-0.12213112 -0.47436413 0.049283117
-0.12229072 -0.47447482 0.04929718
-0.12244311 -0.47458231 0.049299743
-0.12258139 -0.47469848 0.049190477
-0.12272952 -0.47480756 0.049165376
-0.12287073 -0.47491926 0.049095329
-0.1230063 -0.47502697 0.049025305
-0.1231463 -0.47513586 0.048966795
-0.12330311 -0.47524458 0.048980873
-0.12344921 -0.47535416 0.048944253
-0.12359875 -0.47545964 0.048946835
-0.12374241 -0.4755671 0.048912529
-0.12388121 -0.47567615 0.048848256
-0.1240257 -0.47578323 0.048819728
-0.12416822 -0.47589374 0.048762355
-0.12432577 -0.47599393 0.048830651
-0.12448332 -0.47609988 0.048864335
-0.12464887 -0.47621191 0.048895668
-0.12479968 -0.47632003 0.048887853
-0.12494782 -0.47643164 0.048847765
-0.12507156 -0.47653902 0.048729353
-0.12522326 -0.47664681 0.048727307
-0.12538353 -0.4767524 0.048774824
-0.12555979 -0.4768647 0.048849933
-0.12568621 -0.47696841 0.048764963
-0.12582424 -0.47707707 0.048699543
-0.12598473 -0.4771803 0.048762057
-0.12614642 -0.47728863 0.048799172
-0.12628131 -0.47739795 0.048716474
-0.12642239 -0.47750321 0.048684496
-0.12657982 -0.47761005 0.048712406
-0.12673363 -0.47772029 0.048704583
-0.12688656 -0.47782567 0.048722144
-0.12701751 -0.47793299 0.048634846
-0.1271769 -0.47804219 0.048656978
-0.12734324 -0.47815263 0.048700999
-0.12748624 -0.47826254 0.048649389
-0.12763332 -0.47837165 0.048619688
-0.12777987 -0.47848329 0.048572678
-0.12791453 -0.47858956 0.048507277
-0.12806624 -0.47869542 0.048516776
-0.12822169 -0.47880319 0.048530851
-0.12837574 -0.47891358 0.048523024
-0.12851933 -0.4790208 0.048489884
-0.12865333 -0.47912702 0.048422176
-0.12880889 -0.47923252 0.048450097
-0.1289563 -0.47933689 0.048450392
-0.12910452 -0.47945046 0.048398752
-0.1292455 -0.47955567 0.048366774
-0.12940715 -0.47966298 0.048409671
-0.12955166 -0.47977009 0.048381131
-0.12969401 -0.47987971 0.048328377
-0.12986222 -0.47997975 0.048442762
-0.13002969 -0.48009142 0.048484456
-0.13015932 -0.48020682 0.048342943
-0.13030426 -0.48031616 0.04830287
-0.13045074 -0.48042312 0.048283551
-0.13059431 -0.48053035 0.048250396
-0.13074887 -0.48063669 0.048269108
-0.13089198 -0.48074394 0.048233647
-0.13104181 -0.4808529 0.048216615
-0.13118479 -0.48095584 0.048206545
-0.13135067 -0.48106599 0.048250567
-0.13150308 -0.48117062 0.048270438
-0.1316549 -0.48128176 0.048248779
-0.13179511 -0.4813914 0.048186805
-0.13194795 -0.48150247 0.048169758
-0.13211514 -0.48161086 0.048229922
-0.1322476 -0.48172078 0.048133388
-0.13238464 -0.48182625 0.048082963
-0.13252911 -0.4819335 0.048053276
-0.13269168 -0.4820444 0.048078857
-0.1328363 -0.4821558 0.04802493
-0.13297518 -0.48226526 0.047958359
-0.13313267 -0.48236617 0.048022036
-0.1332956 -0.48247731 0.048047617
-0.13341899 -0.48258293 0.047938447
-0.13360609 -0.48268789 0.048103478
-0.1337501 -0.48280138 0.048034564
-0.13388371 -0.48290884 0.047957633
-0.1340536 -0.48302031 0.048010852
-0.13420756 -0.4831318 0.047996107
-0.13434082 -0.4832392 0.047918029
-0.13448474 -0.48334664 0.047884874
-0.134647 -0.48345634 0.047916226
-0.13479881 -0.48356402 0.047915332
-0.13495687 -0.48367766 0.047905177
-0.13508968 -0.48378685 0.047814399
-0.13524553 -0.48389661 0.047818102
-0.13539664 -0.48400629 0.047802217
-0.13554929 -0.48411223 0.047815155
-0.13569996 -0.48422197 0.047796972
-0.13582832 -0.48432708 0.047711991
-0.1359977 -0.48443949 0.047757141
-0.13614428 -0.48454538 0.047744751
-0.13629071 -0.48465499 0.047709271
-0.13644654 -0.48476514 0.047710665
-0.13657077 -0.48487172 0.047599178
-0.13674286 -0.48497912 0.047685854
-0.13692147 -0.48509079 0.047774792
-0.13705054 -0.48520312 0.047649428
-0.13719074 -0.48530698 0.047622073
-0.13735944 -0.48542008 0.04766031
-0.13750967 -0.48553374 0.047616739
-0.13766202 -0.48564219 0.047613535
-0.13781293 -0.48575056 0.047604568
-0.13795948 -0.4858622 0.047557559
-0.13812092 -0.48597151 0.047587756
-0.13826093 -0.48607907 0.047537327
-0.13840714 -0.48618892 0.047499549
-0.13855733 -0.48629564 0.047497515
-0.13870391 -0.48640555 0.047460884
-0.13886712 -0.48651534 0.047495693
-0.13902263 -0.48662794 0.04748093
-0.13917473 -0.48673677 0.047474265
-0.13931926 -0.4868466 0.04742958
-0.13945964 -0.48695424 0.047380295
-0.13961954 -0.4870657 0.047390897
-0.13977671 -0.48717526 0.04740151
-0.13990851 -0.48728028 0.047331508
-0.1400836 -0.48739368 0.047395088
-0.14024256 -0.48750699 0.047390692
-0.14039801 -0.48761994 0.04737363
-0.14056292 -0.48773074 0.047409579
-0.14069392 -0.48783904 0.047316514
-0.14084546 -0.48794824 0.047305234
-0.14099894 -0.4880594 0.047290493
-0.14115201 -0.4881722 0.047264203
-0.14129435 -0.48827699 0.047240298
-0.1414527 -0.48838893 0.047241665
-0.14160746 -0.48850042 0.047230378
-0.14174841 -0.48860672 0.047191478
-0.14189103 -0.48871654 0.047138724
-0.14205162 -0.48882735 0.047156241
-0.14220196 -0.48893994 0.047119588
-0.14235704 -0.48905164 0.047108289
-0.14250135 -0.48916015 0.047070522
-0.14266583 -0.48927182 0.047099553
-0.14282604 -0.48938447 0.047104381
-0.14299694 -0.48950046 0.047134526
-0.14313444 -0.48960647 0.047082949
-0.14329575 -0.48972106 0.047080852
-0.1434354 -0.48982742 0.047036193
-0.14357054 -0.48993614 0.046958104
-0.14374126 -0.49005088 0.04699517
-0.14387956 -0.49015704 0.046945896
-0.14404374 -0.49027079 0.046961084
-0.14419185 -0.49038026 0.046933681
-0.14435084 -0.49049321 0.046931587
-0.14449473 -0.49060354 0.046881136
-0.14465536 -0.49071532 0.046892881
-0.14481026 -0.49082771 0.046876971
-0.1449708 -0.49093962 0.046887569
-0.14512959 -0.49105284 0.046883166
-0.14527997 -0.49116448 0.046852294
-0.14543301 -0.49127668 0.046829466
-0.14558387 -0.49138847 0.046799742
-0.14573486 -0.49149883 0.046779245
-0.14588478 -0.49160901 0.046755284
-0.14605042 -0.49172533 0.046761233
-0.14621288 -0.49183959 0.046766046
-0.14637902 -0.49195319 0.046790451
-0.14653912 -0.4920671 0.046787202
-0.14668201 -0.49217463 0.046749443
-0.14682618 -0.49228534 0.046697829
-0.14698359 -0.49239737 0.046694603
-0.14713171 -0.49250895 0.046654504
-0.14730039 -0.49262491 0.046675432
-0.14744847 -0.49273801 0.046626106
-0.1476094 -0.49285102 0.046632081
-0.14776325 -0.49296397 0.046608098
-0.14794135 -0.49308085 0.04666359
-0.14808318 -0.49319124 0.046603911
-0.1482179 -0.49330008 0.046523523
-0.14839268 -0.49341789 0.046559405
-0.148544 -0.49352905 0.046535447
-0.14870594 -0.49364409 0.046533335
-0.14884485 -0.49375108 0.046481762
-0.14901316 -0.4938691 0.046488844
-0.14917451 -0.49398276 0.046492506
-0.14931667 -0.49409339 0.046432834
-0.14947426 -0.49420765 0.046416909
-0.14963892 -0.49432367 0.046420563
-0.14978302 -0.49443203 0.046382796
-0.149948 -0.4945496 0.046378359
-0.15011707 -0.49466547 0.046401594
-0.15025248 -0.49477458 0.046322342
-0.1504135 -0.4948886 0.046322558
-0.15056306 -0.49500123 0.046282452
-0.1507214 -0.49511468 0.046274591
-0.15087277 -0.49522778 0.046239093
-0.15106329 -0.49534944 0.046318732
-0.15118456 -0.49545643 0.046192266
-0.15139461 -0.49558461 0.046315629
-0.1515214 -0.49569437 0.046196051
-0.1517069 -0.49581918 0.046235342
-0.15186957 -0.49593687 0.046220537
-0.1520066 -0.49604252 0.046168976
-0.15216692 -0.49615428 0.04617957
-0.15231955 -0.49626812 0.046145216
-0.15246399 -0.49638113 0.046080913
-0.15262716 -0.49649781 0.046074186
-0.15278527 -0.49661189 0.046061717
-0.15295485 -0.49673042 0.046071101
-0.15312333 -0.49684742 0.046085112
-0.15327375 -0.4969635 0.046027694
-0.15343891 -0.49708104 0.046024416
-0.07030648 -0.43682465 0.054290995
-0.070464686 -0.43692935 0.054335043
-0.070666537 -0.43708634 0.054250814
-0.07082025 -0.43719208 0.054269508
-0.071004137 -0.4373152 0.054312252
-0.071196735 -0.43746412 0.054237299
-0.071373656 -0.43759227 0.054220106
-0.071537808 -0.43771929 0.0541557
-0.071745187 -0.43787327 0.054112952
-0.071918398 -0.43799382 0.054125778
-0.072092682 -0.43811607 0.054132815
-0.072271995 -0.43824613 0.054114461
-0.072445095 -0.43836948 0.054109976
-0.072612382 -0.43848139 0.054149359
-0.072802559 -0.43863127 0.054058269
-0.072988898 -0.43877286 0.054000653
-0.073150449 -0.43887627 0.054066598
-0.073347457 -0.43903485 0.0539524
-0.073511481 -0.43915311 0.053939898
-0.073697895 -0.43929571 0.053876512
-0.07387425 -0.43941733 0.05389623
-0.074041747 -0.43953052 0.053928696
-0.074218988 -0.43966201 0.053893041
-0.074380904 -0.43978319 0.053854022
-0.074555181 -0.43989083 0.053948723
-0.074738063 -0.440029 0.053896897
-0.074921824 -0.44017163 0.053822003
-0.075100079 -0.44030285 0.053792112
-0.075269453 -0.4404228 0.053792268
-0.075441413 -0.44054419 0.053794708
-0.075623482 -0.44068503 0.053723279
-0.07580173 -0.44081703 0.053688779
-0.075981602 -0.44095191 0.053643882
-0.076146051 -0.44106162 0.053684432
-0.076325454 -0.44119906 0.05362225
-0.07649596 -0.44131902 0.053627007
-0.076664627 -0.44143903 0.053623699
-0.076832868 -0.44155547 0.053640012
-0.076998092 -0.44166994 0.053655185
-0.077166326 -0.44178656 0.053670336
-0.077350296 -0.44192994 0.053591974
-0.077508122 -0.44202918 0.053667162
-0.077678069 -0.44216144 0.053595804
-0.077865943 -0.44230604 0.053526647
-0.078054547 -0.44245845 0.053413659
-0.078213662 -0.44256034 0.053478457
-0.078384891 -0.44268638 0.053449765
-0.078554913 -0.44280738 0.053446449
-0.078721732 -0.44292605 0.053443164
-0.078898631 -0.44305941 0.053394832
-0.079066753 -0.44318077 0.053381145
-0.079239778 -0.4433077 0.053354755
-0.079412408 -0.44343746 0.053309906
-0.079576135 -0.44354817 0.053341232
-0.079744935 -0.4436681 0.053339086
-0.079909116 -0.44378319 0.053346179
-0.08007592 -0.44389975 0.053355582
-0.080259874 -0.44404772 0.053249534
-0.080425672 -0.44416627 0.053242795
-0.080595061 -0.44428813 0.053231411
-0.080758899 -0.44440338 0.053236209
-0.080930196 -0.44452909 0.053209819
-0.081102073 -0.44465965 0.053156905
-0.081268027 -0.44477582 0.053165153
-0.081432477 -0.44489282 0.053161874
-0.081602439 -0.44501683 0.053140111
-0.08177159 -0.44514316 0.053101044
-0.081939429 -0.44526353 0.053091981
-0.082108401 -0.44538626 0.053073682
-0.082270324 -0.44549552 0.053106181
-0.082440041 -0.44562376 0.053057887
-0.082604244 -0.44573772 0.053071912
-0.082774498 -0.44586751 0.0530167
-0.082942851 -0.44599 0.052997246
-0.08309678 -0.44608781 0.053064384
-0.083267584 -0.44621551 0.053024165
-0.08343783 -0.44634625 0.052963182
-0.083606601 -0.44647035 0.052935656
-0.083772302 -0.44658846 0.052931216
-0.083946049 -0.44672322 0.052860994
-0.084102906 -0.44682753 0.052901588
-0.084270753 -0.44695061 0.052876376
-0.084436566 -0.44707379 0.052841946
-0.08460559 -0.44719982 0.052804038
-0.084765837 -0.44731176 0.052813478
-0.084929116 -0.44742602 0.052821741
-0.085089408 -0.44755971 0.05270084
-0.085252777 -0.44766596 0.052757546
-0.085434109 -0.44780686 0.052682661
-0.085590243 -0.44790626 0.052749787
-0.085762493 -0.44804111 0.052672643
-0.085921235 -0.4481464 0.052715529
-0.086079769 -0.44825575 0.052733045
-0.08624807 -0.44838262 0.052687071
-0.086415298 -0.44851199 0.052621499
-0.086580247 -0.44863185 0.052603222
-0.086742274 -0.44874522 0.052611489
-0.086904339 -0.44885883 0.052618608
-0.087067731 -0.44898048 0.052583043
-0.087228656 -0.44909173 0.052599397
-0.087391719 -0.44920814 0.05259382
-0.087560713 -0.44933897 0.052527074
-0.087723576 -0.44946045 0.052490361
-0.087889001 -0.44958332 0.052455932
-0.088047653 -0.44969508 0.052459612
-0.088212013 -0.44981587 0.052433271
-0.088376433 -0.44993711 0.05240462
-0.088537186 -0.4500494 0.052414045
-0.088696606 -0.45016381 0.05240503
-0.088856898 -0.45027518 0.052417926
-0.089017361 -0.45039263 0.052395064
-0.089180008 -0.4505105 0.052379113
-0.089343429 -0.45063064 0.052352764
-0.08950641 -0.45074987 0.05232989
-0.089662828 -0.45085752 0.052348569
-0.08982826 -0.45098391 0.052293383
-0.089989804 -0.45110002 0.052283205
-0.09015169 -0.45121732 0.052267257
-0.090311833 -0.45133609 0.052235171
-0.090473019 -0.45145196 0.052224994
-0.090630643 -0.45156413 0.052221749
-0.090794004 -0.45168671 0.052180424
-0.09095037 -0.4517957 0.052191034
-0.091112234 -0.45191455 0.052165858
-0.091271222 -0.45203173 0.052138384
-0.091431409 -0.45214608 0.052132823
-0.091584131 -0.45225152 0.052149225
-0.0917399 -0.45235258 0.052204825
-0.091903299 -0.45247751 0.05214965
-0.092057467 -0.45261645 0.051971119
-0.092231199 -0.45273238 0.052013919
-0.092389829 -0.45284334 0.052022208
-0.092547879 -0.45296004 0.051993601
-0.092706501 -0.45307139 0.051999576
-0.092861891 -0.45317966 0.052010193
-0.093019679 -0.45329639 0.051980428
-0.093180493 -0.45341602 0.051946029
-0.093340285 -0.45353243 0.051926631
