# .PCD v0.7 - Point Cloud Data file format
VERSION 0.7
FIELDS x y z
SIZE 4 4 4
TYPE F F F
COUNT 1 1 1
WIDTH 1157
HEIGHT 1
VIEWPOINT 0 0 0 1 0 0 0
POINTS 1157
DATA ascii
-0.21786709 -0.46922582 0.046667136
-0.21801713 -0.46931511 0.046590205
-0.21818639 -0.46940377 0.046582382
-0.21835086 -0.46949592 0.046535362
-0.21851969 -0.46958593 0.046517149
-0.21869338 -0.46967918 0.046494305
-0.2188572 -0.46976605 0.046479579
-0.21902765 -0.46985638 0.046464831
-0.21918902 -0.4699457 0.046425894
-0.21938121 -0.47003862 0.046467535
-0.21953458 -0.47012842 0.046398666
-0.21973042 -0.47022319 0.046440281
-0.21990433 -0.47031549 0.046424352
-0.22007066 -0.47040561 0.046396933
-0.22024627 -0.47049949 0.046376377
-0.22042656 -0.47059011 0.046392709
-0.22060639 -0.47068334 0.046390586
-0.22077452 -0.47077388 0.04636661
-0.22094285 -0.47086576 0.046334565
-0.13039175 -0.42283946 0.054469943
-0.13058726 -0.42294416 0.054445811
-0.13079137 -0.42305648 0.054400869
-0.13098104 -0.42315286 0.054411367
-0.13118286 -0.42326295 0.054373354
-0.13136692 -0.42335537 0.054390814
-0.13156912 -0.42346618 0.054349333
-0.13176726 -0.42357472 0.05430904
-0.13196459 -0.42368034 0.054284897
-0.13216253 -0.42378685 0.054257281
-0.13233529 -0.42386475 0.054331321
-0.13255137 -0.42399442 0.054213636
-0.13806145 -0.42690232 0.053813357
-0.13825768 -0.42701182 0.053760376
-0.13843642 -0.42709935 0.053791702
-0.13862906 -0.42720717 0.053737592
-0.13882175 -0.4273127 0.053698476
-0.13900021 -0.42740273 0.053712498
-0.13919064 -0.4275057 0.053682625
-0.13937408 -0.42760238 0.053670093
-0.1395641 -0.42770514 0.053640224
-0.13975258 -0.42780867 0.053599972
-0.1399359 -0.427903 0.053602438
-0.14011994 -0.42800105 0.053582978
-0.14030692 -0.42810047 0.05356466
-0.14049 -0.42819485 0.053565968
-0.14068688 -0.42830765 0.053493381
-0.14086474 -0.4283981 0.053502783
-0.14104325 -0.42848676 0.053526044
-0.14121537 -0.42856964 0.053565484
-0.14141092 -0.42868143 0.053495198
-0.14159986 -0.42878735 0.053441107
-0.14178061 -0.42887944 0.053449359
-0.14195977 -0.42897233 0.053447232
-0.14214665 -0.4290731 0.053419676
-0.14232594 -0.42916641 0.053415235
-0.14250757 -0.42926019 0.053415403
-0.14269243 -0.42936152 0.053377479
-0.14287716 -0.42945993 0.053358026
-0.14305563 -0.42955264 0.05335474
-0.14324498 -0.42965785 0.053306416
-0.14342509 -0.42975318 0.053291593
-0.1474109 -0.43499967 0.032487448
-0.14755931 -0.43508142 0.032454342
-0.14771931 -0.43516701 0.032435015
-0.14788099 -0.43524998 0.032438748
-0.1480327 -0.43532637 0.032451764
-0.14818226 -0.43540233 0.032460183
-0.14833179 -0.43547565 0.032485895
-0.14848413 -0.43555588 0.03247584
-0.14862904 -0.43562788 0.03249466
-0.14878091 -0.43570486 0.032504216
-0.1489259 -0.43577707 0.032521885
-0.14907274 -0.43584934 0.032545313
-0.14921956 -0.43592158 0.032568734
-0.1493701 -0.43600249 0.032548301
-0.14952093 -0.43607825 0.032562479
-0.149664 -0.43613619 0.032666676
-0.14771217 -0.43200174 0.053071007
-0.14790085 -0.43211493 0.052968465
-0.14808765 -0.43222183 0.052900538
-0.14826009 -0.43230912 0.052912295
-0.14844368 -0.43241489 0.052840926
-0.1486239 -0.43251169 0.052816875
-0.14879659 -0.43259981 0.052824005
-0.148966 -0.43268251 0.052855384
-0.1491411 -0.4327749 0.052842896
-0.14932472 -0.43288192 0.052763451
-0.14950125 -0.43297714 0.052737121
-0.14967893 -0.43307069 0.052725762
-0.1498553 -0.43316603 0.052698269
-0.15001275 -0.43326393 0.052590139
-0.15020216 -0.4333469 0.052687157
-0.15037571 -0.43343776 0.052679289
-0.15054038 -0.4335129 0.052744143
-0.15072662 -0.43362272 0.052655466
-0.15088749 -0.43369517 0.052724957
-0.15107092 -0.43380457 0.052629363
-0.15123433 -0.43389019 0.052621551
-0.15142033 -0.43398803 0.052610159
-0.15158704 -0.43408012 0.052571181
-0.15177357 -0.43418372 0.052524023
-0.15193379 -0.43426397 0.052540462
-0.15208988 -0.43434528 0.052536145
-0.15223795 -0.4344157 0.052575715
-0.15240651 -0.43450326 0.052572493
-0.15260687 -0.43462586 0.052447975
-0.15277317 -0.43470943 0.052463222
-0.15297353 -0.43481895 0.052424055
-0.15316199 -0.43492848 0.052344594
-0.15331271 -0.43500966 0.05232301
-0.15349276 -0.43509787 0.052354328
-0.15365279 -0.43516919 0.052428436
-0.15379778 -0.43523872 0.052463401
-0.1540128 -0.43536043 0.052394174
-0.15418823 -0.43545932 0.052340157
-0.15436986 -0.43557188 0.05221805
-0.15453362 -0.43565148 0.052250605
-0.154678 -0.43572548 0.052254442
-0.15486184 -0.43582821 0.052203834
-0.15504429 -0.43591201 0.052272055
-0.15520017 -0.43600133 0.052214682
-0.15536965 -0.43607771 0.052287586
-0.15552513 -0.43615535 0.052305192
-0.15572762 -0.43627426 0.052211806
-0.15589336 -0.4363533 0.05225474
-0.15603772 -0.43642819 0.052252807
-0.15622915 -0.43654543 0.052132946
-0.1563578 -0.43660051 0.052207224
-0.15652637 -0.43668067 0.052252449
-0.15674177 -0.43680325 0.052178603
-0.15690668 -0.43687427 0.05227115
-0.15705112 -0.43694371 0.052304968
-0.15721498 -0.43703753 0.052245244
-0.15738864 -0.43713111 0.052220069
-0.15758273 -0.43725255 0.052081749
-0.15774968 -0.43735608 0.051968936
-0.15791264 -0.43742874 0.05204419
-0.1580964 -0.43753073 0.051998205
-0.15825363 -0.4376156 0.051974274
-0.15840898 -0.43768823 0.052024186
-0.15859607 -0.43779334 0.051968943
-0.15878284 -0.43789813 0.051914863
-0.15894584 -0.43799379 0.051840156
-0.15909885 -0.43807524 0.05182432
-0.15925053 -0.43815285 0.051829264
-0.15941127 -0.4382346 0.051837623
-0.15959603 -0.43832687 0.051858529
-0.15976936 -0.43840736 0.051917568
-0.15993245 -0.43849704 0.051882081
-0.16011021 -0.43859237 0.051859193
-0.16029504 -0.43869439 0.051816653
-0.16045149 -0.43877128 0.051842339
-0.16062963 -0.43887848 0.051743317
-0.16079387 -0.43896487 0.0517332
-0.16093546 -0.43903655 0.051742807
-0.16109274 -0.4391273 0.051680807
-0.1612443 -0.43919653 0.051739976
-0.16141245 -0.43928868 0.051705599
-0.16158593 -0.43938109 0.051687356
-0.16174957 -0.43946666 0.051680699
-0.16191368 -0.43955439 0.051661346
-0.16208088 -0.43964428 0.051638525
-0.16225055 -0.4397333 0.051629517
-0.16241674 -0.43981931 0.051628616
-0.1625863 -0.43990844 0.051618461
-0.16275364 -0.4400005 0.051581793
-0.16292006 -0.44008857 0.051568203
-0.16309333 -0.44018388 0.051530343
-0.16325456 -0.4402599 0.051577911
-0.16343476 -0.44036373 0.051507719
-0.1636124 -0.44045389 0.051518284
-0.16379789 -0.44055784 0.051465373
-0.16397032 -0.44065148 0.051435597
-0.16412623 -0.44073004 0.051448587
-0.16430077 -0.4408198 0.051451091
-0.1644657 -0.44090214 0.051469803
-0.16462222 -0.44098562 0.051452808
-0.16479319 -0.44107074 0.051473789
-0.16495599 -0.44115955 0.051442914
-0.16511385 -0.44125661 0.051341698
-0.16526146 -0.44134095 0.051288988
-0.16541296 -0.44140786 0.05136314
-0.16558047 -0.44148922 0.051396839
-0.16577397 -0.44160086 0.051320799
-0.16593324 -0.44168979 0.051277254
-0.1661067 -0.44177336 0.051316686
-0.16625367 -0.44185719 0.051265128
-0.16642436 -0.44194463 0.051269963
-0.16658023 -0.44203255 0.051221818
-0.16673876 -0.4421165 0.051208273
-0.16690364 -0.44221261 0.051137004
-0.16706815 -0.44230267 0.051103808
-0.16724142 -0.44238561 0.051146701
-0.16741464 -0.44245899 0.051251881
-0.16759132 -0.44257587 0.051084813
-0.1677555 -0.44265023 0.051153127
-0.16791356 -0.44273785 0.051114209
-0.16808978 -0.4428322 0.051092479
-0.16824767 -0.44291762 0.051067401
-0.16842093 -0.44300285 0.051095296
-0.16857578 -0.44308352 0.051090986
-0.1687483 -0.44318393 0.051017378
-0.1689215 -0.4432691 0.051045276
-0.16906126 -0.4433386 0.051062971
-0.16922519 -0.4434222 0.051070154
-0.16939409 -0.44352198 0.050988484
-0.16958308 -0.44360775 0.051065899
-0.16973706 -0.44369465 0.051017761
-0.16988762 -0.44378212 0.050954647
-0.17006268 -0.44387853 0.050915629
-0.17022263 -0.4439657 0.050885916
-0.17037469 -0.44403839 0.050924316
-0.1705589 -0.44413707 0.050901394
-0.17071459 -0.44422945 0.050823256
-0.1708847 -0.44431219 0.050856937
-0.17104113 -0.44439843 0.050821476
-0.17120466 -0.44448128 0.05083213
-0.17137976 -0.44457313 0.050823104
-0.17152411 -0.44465187 0.050795786
-0.17170656 -0.44473994 0.050836317
-0.17185546 -0.44481257 0.050864346
-0.1720383 -0.44491458 0.050814897
-0.17219304 -0.4450058 0.050741382
-0.17233673 -0.44508561 0.050704841
-0.17250532 -0.44517463 0.050692391
-0.17267229 -0.4452695 0.050636109
-0.17283475 -0.44534245 0.050707903
-0.17301722 -0.44544303 0.050666533
-0.17317437 -0.44552293 0.0506749
-0.17333305 -0.4456093 0.050646357
-0.17348634 -0.44569021 0.050635137
-0.17365603 -0.44577467 0.050656136
-0.17381912 -0.44586843 0.050594103
-0.17398402 -0.44595638 0.050575905
-0.1741522 -0.44604501 0.050564606
-0.17430291 -0.44612247 0.050567247
-0.17447364 -0.44621363 0.050547868
-0.17464533 -0.44630212 0.050549239
-0.17481001 -0.44638997 0.050531037
-0.17495964 -0.44646105 0.050571751
-0.17512938 -0.44655418 0.050536215
-0.17528072 -0.44663 0.050551545
-0.17544191 -0.44673374 0.050418008
-0.17562333 -0.44682479 0.050435483
-0.17578983 -0.44690794 0.050454188
-0.17595972 -0.44699976 0.050427884
-0.17612319 -0.44708911 0.050395843
-0.17627026 -0.44715813 0.050441187
-0.17643517 -0.44724452 0.050433364
-0.17658789 -0.44734672 0.050281417
-0.17675926 -0.44742778 0.050330088
-0.17691536 -0.44750872 0.050328083
-0.17709419 -0.44759756 0.05035134
-0.17725413 -0.44768542 0.050317012
-0.17740723 -0.44777137 0.050272342
-0.1775687 -0.44785634 0.050262239
-0.17772122 -0.44793651 0.050253332
-0.17789565 -0.44802606 0.050256997
-0.17806393 -0.44811895 0.050218016
-0.17821193 -0.44819358 0.0502299
-0.17838511 -0.44828498 0.050217424
-0.17855938 -0.44838062 0.050180707
-0.1787134 -0.44845256 0.050230633
-0.17888483 -0.44854057 0.050234314
-0.17904542 -0.44863212 0.050178066
-0.17920725 -0.44871622 0.050174877
-0.1793327 -0.44878769 0.050131515
-0.17949177 -0.44886979 0.050131805
-0.17967477 -0.44896981 0.050096199
-0.17985222 -0.44905543 0.050135601
-0.17999662 -0.44913989 0.050071374
-0.1801364 -0.44920903 0.050091378
-0.18029875 -0.44929746 0.050061654
-0.18045683 -0.44938067 0.05005157
-0.18063803 -0.4494822 0.049999822
-0.18079586 -0.4495607 0.05001973
-0.1809649 -0.44965115 0.0499992
-0.18111958 -0.44973314 0.049985666
-0.18126902 -0.44981119 0.049980246
-0.18144745 -0.44989643 0.050025411
-0.18162371 -0.44999331 0.049987532
-0.18176068 -0.45007017 0.049947567
-0.18192498 -0.45015609 0.04994091
-0.18208165 -0.45024934 0.049860455
-0.18224168 -0.45032597 0.049899962
-0.18240081 -0.45039487 0.049986772
-0.18256429 -0.45049027 0.049915511
-0.18272136 -0.45057842 0.049869668
-0.18287583 -0.45066878 0.049800765
-0.18306133 -0.4507485 0.049905889
-0.18256907 -0.45203632 0.039840337
-0.18344972 -0.45290592 0.037133917
-0.18381934 -0.45335469 0.035451174
-0.18397784 -0.45342451 0.035529908
-0.18412395 -0.45350257 0.035512958
-0.18427333 -0.45357546 0.035540991
-0.18442141 -0.45364925 0.035558634
-0.18457267 -0.45372117 0.035599347
-0.18472011 -0.45379552 0.035611235
-0.18487158 -0.45386752 0.035651933
-0.19093369 -0.45494556 0.049056705
-0.19109161 -0.45502323 0.049082376
-0.1912448 -0.45509738 0.049114987
-0.19140795 -0.45517862 0.049134869
-0.19156687 -0.45526421 0.049112085
-0.19171417 -0.45535401 0.049022462
-0.19186899 -0.45543042 0.049045838
-0.19200952 -0.45551199 0.048987396
-0.19218722 -0.45559615 0.049037188
-0.19235434 -0.45567891 0.049060509
-0.19252639 -0.4557704 0.049043417
-0.19269003 -0.45585704 0.049029835
-0.19284555 -0.45594123 0.049004767
-0.19300105 -0.45603299 0.04893009
-0.19316015 -0.45611849 0.048908461
-0.19332246 -0.45620301 0.048904125
-0.19347879 -0.45628443 0.048899807
-0.19363859 -0.45636979 0.048881635
-0.19380185 -0.45645657 0.048865754
-0.19394973 -0.4565405 0.048816491
-0.19410872 -0.45662364 0.04880986
-0.19425336 -0.4567036 0.048775624
-0.19444196 -0.45678106 0.048906095
-0.19460812 -0.45687199 0.048872892
-0.19475594 -0.45696068 0.048792496
-0.19493012 -0.4570471 0.048815772
-0.19509111 -0.45713463 0.048787214
-0.19525363 -0.45721713 0.04879671
-0.1954107 -0.45730567 0.04874856
-0.19556423 -0.4573904 0.048713114
-0.19571751 -0.45747519 0.048676521
-0.19589303 -0.45756161 0.048704404
-0.19605486 -0.45764446 0.048709296
-0.19621959 -0.45773572 0.048669174
-0.19638047 -0.45782107 0.048654456
-0.19654149 -0.45790422 0.048654731
-0.19669978 -0.4579902 0.048627339
-0.19685262 -0.4580707 0.048617281
-0.19703327 -0.4581587 0.04865206
-0.19717531 -0.45824578 0.048562456
-0.19734702 -0.45832917 0.048597287
-0.19749792 -0.45841661 0.048535325
-0.19766355 -0.45850125 0.048541345
-0.1978159 -0.45858839 0.0484863
-0.1979887 -0.45867181 0.048524577
-0.19816676 -0.45875651 0.048572063
-0.19829403 -0.458848 0.048404105
-0.19844869 -0.45892838 0.04840095
-0.1986497 -0.45901155 0.048535973
-0.19880559 -0.45910847 0.048429001
-0.19895934 -0.4591912 0.048407402
-0.19912988 -0.45927751 0.048419166
-0.1992915 -0.45936114 0.04841828
-0.19944896 -0.45944545 0.048398972
-0.19961038 -0.45953321 0.048370402
-0.19976413 -0.45961806 0.048334964
-0.19994476 -0.45970324 0.048388198
-0.20010006 -0.4597919 0.048333138
-0.20026319 -0.45987755 0.048324175
-0.20041952 -0.4599641 0.048286404
-0.20057634 -0.46004859 0.048263632
-0.20074262 -0.46013394 0.04826735
-0.20091151 -0.46022096 0.048268735
-0.20107128 -0.46030521 0.048257481
-0.20122993 -0.46039158 0.048228934
-0.20139672 -0.46048087 0.048208416
-0.20155035 -0.46056584 0.048171822
-0.20172475 -0.46065062 0.048206631
-0.20189112 -0.46074006 0.048183803
-0.20205571 -0.46082592 0.048178293
-0.20221901 -0.46091008 0.048179708
-0.20237984 -0.46099824 0.048146535
-0.20252663 -0.46108392 0.048082292
-0.20271651 -0.46116963 0.048163168
-0.20288141 -0.46125937 0.048133429
-0.20302832 -0.46134686 0.048057649
-0.2031945 -0.46143287 0.048056737
-0.20335367 -0.46152124 0.048016652
-0.20352781 -0.46160674 0.048045695
-0.20367968 -0.46169204 0.04800104
-0.2038333 -0.46177542 0.047974825
-0.2040154 -0.46186242 0.04802113
-0.20417565 -0.46194905 0.047996026
-0.20436059 -0.46203962 0.048028477
-0.20450798 -0.462127 0.047955003
-0.20465624 -0.4622108 0.047908049
-0.20482598 -0.46229529 0.047929045
-0.20499046 -0.46238357 0.04790739
-0.20515704 -0.4624666 0.047927242
-0.20534849 -0.46255556 0.047991954
-0.20549046 -0.46264318 0.047898892
-0.20564337 -0.46273202 0.047834616
-0.20579495 -0.46281576 0.047799181
-0.20596884 -0.46290219 0.047821306
-0.20614444 -0.46299377 0.047815736
-0.20631132 -0.46308225 0.047800988
-0.20645703 -0.46316791 0.047733288
-0.20662333 -0.46325305 0.047738157
-0.20679206 -0.46333826 0.04775108
-0.20694961 -0.46342701 0.047702927
-0.20712441 -0.46351552 0.047714658
-0.20729768 -0.46360412 0.047720641
-0.20744978 -0.46368971 0.047674824
-0.20761886 -0.46377844 0.047665831
-0.20778693 -0.46386558 0.047663759
-0.20794901 -0.46395281 0.047640957
-0.2081251 -0.46404004 0.04766538
-0.2082849 -0.46412572 0.047644898
-0.20844555 -0.46421629 0.047595575
-0.20861366 -0.46430045 0.047613122
-0.20877746 -0.46438786 0.04759492
-0.20892256 -0.46447513 0.047514539
-0.20910457 -0.46456277 0.047556225
-0.20925945 -0.46465015 0.047508094
-0.20942244 -0.4647361 0.047496825
-0.20958589 -0.46482208 0.0474867
-0.20975322 -0.46491131 0.047468487
-0.20991638 -0.46499893 0.04744684
-0.21008213 -0.46508664 0.047433242
-0.21025524 -0.46517304 0.047453061
-0.21040913 -0.46525744 0.047421083
-0.2105878 -0.46534565 0.047447793
-0.21074462 -0.46543634 0.047384653
-0.21090277 -0.46552399 0.047345724
-0.21106789 -0.4656119 0.047328673
-0.21124597 -0.46570036 0.047351927
-0.21140173 -0.46579102 0.047285326
-0.21157616 -0.46587792 0.047306295
-0.2117383 -0.4659659 0.047278885
-0.21189022 -0.46605191 0.04722961
-0.2120918 -0.46614173 0.0473231
-0.21224701 -0.46623248 0.047254194
-0.21241057 -0.46632063 0.047230233
-0.21256824 -0.46640557 0.047207464
-0.21274538 -0.46649599 0.047214571
-0.21291438 -0.46658751 0.047187112
-0.21308686 -0.4666734 0.047208093
-0.21324621 -0.46676153 0.047170319
-0.21342812 -0.46685249 0.047190093
-0.21358772 -0.46694213 0.047143076
-0.21373892 -0.46702689 0.047099575
-0.21390715 -0.46711713 0.047077898
-0.214073 -0.46720436 0.047067761
-0.21425164 -0.46729538 0.047076024
-0.2144161 -0.46738118 0.047070514
-0.21460065 -0.46747705 0.047067195
-0.21473625 -0.467558 0.046996094
-0.21492338 -0.46764705 0.047045831
-0.2150887 -0.46773455 0.047032237
-0.21523638 -0.46782207 0.046958763
-0.21541958 -0.46791247 0.046986606
-0.2155965 -0.46800241 0.046996027
-0.21572879 -0.46808872 0.0468788
-0.21593004 -0.46817943 0.046965376
-0.21610911 -0.46827668 0.046934403
-0.21627273 -0.46836293 0.046923131
-0.21642208 -0.46844658 0.046880789
-0.21659938 -0.46853691 0.046889056
-0.2167708 -0.46862948 0.046862744
-0.21692738 -0.46871936 0.046804216
-0.21710822 -0.46880746 0.046838991
-0.21727712 -0.46889856 0.046813842
-0.21743964 -0.46898636 0.046788737
-0.21761566 -0.46907285 0.046817768
-0.21778545 -0.46916282 0.046803001
-0.21793005 -0.4692516 0.046711084
-0.21810915 -0.46934128 0.046729721
-0.21826695 -0.46942878 0.046690796
-0.21844272 -0.46951956 0.046690993
-0.21860719 -0.46961048 0.04665203
-0.2187728 -0.46970025 0.046624597
-0.21895111 -0.46979144 0.046630543
-0.2191377 -0.46988234 0.046666447
-0.21929774 -0.46997294 0.046614818
-0.21946999 -0.470061 0.046620805
-0.21963112 -0.47014916 0.046588778
-0.21980013 -0.47023696 0.046585552
-0.21994871 -0.47032496 0.046512071
-0.22013873 -0.47041798 0.04654564
-0.22030647 -0.47050709 0.046529733
-0.22046684 -0.47059661 0.046486173
-0.22063537 -0.47068718 0.046463344
-0.22080839 -0.47077706 0.046460088
-0.22099629 -0.47087145 0.04647753
-0.13045223 -0.42287031 0.054472502
-0.13064525 -0.42297018 0.054471448
-0.13084456 -0.4230772 0.054444976
-0.13103247 -0.42317161 0.054462396
-0.13122492 -0.42327332 0.054447502
-0.13143227 -0.42338979 0.054386374
-0.13161758 -0.42348376 0.054398045
-0.13182607 -0.4236019 0.054329995
-0.13201305 -0.4236958 0.054347429
-0.13220987 -0.423801 0.054324429
-0.13240606 -0.42390782 0.054288745
-0.13259085 -0.42399955 0.054313112
-0.13278688 -0.42410648 0.05427628
-0.13299336 -0.42422339 0.054209389
-0.13317829 -0.42431787 0.054216456
-0.13337344 -0.42442203 0.054194614
-0.13356352 -0.42452267 0.054178581
-0.13374807 -0.42461923 0.054170642
-0.13394275 -0.42472103 0.054162651
-0.13414216 -0.42483073 0.054118883
-0.13432981 -0.42492908 0.054109767
-0.13452286 -0.42503163 0.054091409
-0.13470533 -0.42512411 0.054103099
-0.13488799 -0.42521456 0.054128624
-0.13508046 -0.42531911 0.054095272
-0.13527168 -0.42541999 0.054081529
-0.13546318 -0.4255237 0.05405049
-0.13564911 -0.42561847 0.054058693
-0.13584247 -0.42572471 0.054017268
-0.13603289 -0.42582521 0.054003529
-0.13622706 -0.42593274 0.053956319
-0.13640673 -0.42602041 0.053989939
-0.13659719 -0.42612374 0.053957745
-0.1367836 -0.42621985 0.053959038
-0.1369729 -0.42632204 0.053930312
-0.13716635 -0.4264271 0.053896949
-0.13735738 -0.42653176 0.053857833
-0.13754743 -0.42663294 0.053838331
-0.1377286 -0.42672563 0.053844258
-0.13792691 -0.42683744 0.05378319
-0.1381087 -0.42693114 0.053784497
-0.13829203 -0.42702442 0.053793874
-0.13847753 -0.42712307 0.053775553
-0.13865755 -0.42721233 0.053799942
-0.13884947 -0.42731941 0.053748138
-0.13903984 -0.42742217 0.053719401
-0.13921839 -0.42751244 0.053732265
-0.13940088 -0.42760527 0.053741645
-0.13959369 -0.42771423 0.053680602
-0.13977922 -0.42781129 0.053672664
-0.13996437 -0.42791063 0.053648576
-0.14014691 -0.42800403 0.053654496
-0.14033279 -0.42810464 0.053624637
-0.14051896 -0.42820308 0.053609774
-0.14069729 -0.42829394 0.053618025
-0.14088725 -0.42839772 0.053581227
-0.14107022 -0.42849505 0.053562909
-0.14124651 -0.42858079 0.053597711
-0.14144211 -0.42869544 0.05350896
-0.14162344 -0.42878821 0.053514887
-0.14180361 -0.42888233 0.053508133
-0.1419853 -0.42897582 0.053510599
-0.14216478 -0.42906922 0.053506151
-0.142355 -0.42917472 0.053458959
-0.14253882 -0.42927444 0.053427961
-0.14272133 -0.42936957 0.053422347
-0.14290696 -0.42947218 0.053378649
-0.14308277 -0.42955819 0.053409982
-0.14326903 -0.42966199 0.053360514
-0.14344621 -0.42975014 0.053382613
-0.14363536 -0.42985845 0.053313512
-0.14380996 -0.42994314 0.053349469
-0.14399332 -0.43004349 0.053312704
-0.14417516 -0.43013883 0.053303633
-0.14435604 -0.43023595 0.053279568
-0.14453572 -0.4303284 0.053282037
-0.14472221 -0.43043411 0.053221032
-0.14490011 -0.4305242 0.053232744
-0.14508359 -0.43062589 0.053187903
-0.14525308 -0.43070367 0.053251572
-0.14543931 -0.43080977 0.053187106
-0.1456296 -0.43091899 0.053115692
-0.15338442 -0.43500742 0.052579418
-0.15355951 -0.4350996 0.052568071
-0.15373766 -0.43519834 0.052524418
-0.15390967 -0.43528944 0.052509628
-0.15408592 -0.43538472 0.052482128
-0.15426116 -0.43547806 0.052463867
-0.15443 -0.43555781 0.052512541
-0.15460533 -0.43565685 0.052457362
-0.15477706 -0.43575898 0.0523699
-0.15495089 -0.43583938 0.052431237
-0.1551235 -0.43592781 0.052436061
-0.15529995 -0.4360306 0.05236011
-0.15547085 -0.4361155 0.052382242
-0.15564522 -0.43621421 0.052325919
-0.15581346 -0.43629313 0.052378058
-0.15598755 -0.43638587 0.052359801
-0.15616384 -0.43648416 0.052312694
-0.15633452 -0.43657514 0.052294455
-0.15650383 -0.4366751 0.052212775
-0.15664947 -0.43676603 0.052110456
-0.15684563 -0.43685341 0.052201666
-0.15698922 -0.43691444 0.0522874
-0.15715152 -0.43701062 0.052206907
-0.15735176 -0.43711478 0.052202355
-0.15753943 -0.43721911 0.052154031
-0.15771301 -0.43731317 0.052125387
-0.15788254 -0.4373965 0.052153293
-0.15805399 -0.4374921 0.052107364
-0.15822296 -0.43757406 0.052142203
-0.15839574 -0.43767405 0.052072041
-0.15856574 -0.43775919 0.052089565
-0.15873699 -0.4378556 0.052037869
-0.15890937 -0.43794814 0.052014999
-0.15908119 -0.43803936 0.051999062
-0.15925382 -0.43813327 0.051968124
-0.15941881 -0.43821177 0.052012205
-0.15958813 -0.43829566 0.052035503
-0.15975909 -0.43839332 0.05197458
-0.15992963 -0.43848157 0.051973645
-0.16009696 -0.43856797 0.051973879
-0.16026992 -0.43866488 0.051924482
-0.16044003 -0.43875238 0.051927011
-0.16061142 -0.43884462 0.051902998
-0.16077819 -0.43893003 0.051907852
-0.16094968 -0.43902317 0.051878072
-0.16111568 -0.43910608 0.05189677
-0.16128689 -0.43919891 0.051868148
-0.16146123 -0.43930468 0.051765673
-0.1616285 -0.43938255 0.051821277
-0.1617832 -0.43945289 0.051883876
-0.16196321 -0.43954992 0.051857509
-0.16213299 -0.43965033 0.051774673
-0.16230267 -0.43973902 0.051767975
-0.16246922 -0.43982607 0.051761296
-0.16264006 -0.43992084 0.051718831
-0.16280983 -0.44001099 0.051702905
-0.16297835 -0.44009519 0.051721588
-0.16314417 -0.44017977 0.051728759
-0.16331503 -0.44027683 0.051671293
-0.16347748 -0.44035894 0.051683091
-0.16365013 -0.44045165 0.051660221
-0.16381596 -0.44053763 0.051658165
-0.16398498 -0.44062632 0.051649161
-0.16415507 -0.44072247 0.051595159
-0.1643118 -0.44080567 0.051580466
-0.16448072 -0.44089541 0.051564533
-0.16465569 -0.44098824 0.051548578
-0.16482449 -0.44107822 0.05153035
-0.16498145 -0.44116598 0.051486805
-0.16514915 -0.44124782 0.051518183
-0.16532691 -0.44134244 0.051499903
-0.16549535 -0.44143191 0.051483985
-0.16566102 -0.44152382 0.051442705
-0.16582607 -0.44160977 0.051438332
-0.1659824 -0.44169736 0.051393647
-0.16615295 -0.44177979 0.051430773
-0.16632131 -0.44187361 0.05138601
-0.16648939 -0.44196519 0.051355097
-0.16664772 -0.44204164 0.051389992
-0.16679978 -0.44210953 0.051459525
-0.16694658 -0.44219556 0.051392972
-0.16714858 -0.44233069 0.051192291
-0.16732818 -0.44242486 0.051183231
-0.16748631 -0.44249749 0.051242352
-0.16795617 -0.44534248 0.034257151
-0.16810325 -0.44541967 0.034249425
-0.16824761 -0.44549507 0.034244023
-0.16838922 -0.44557029 0.034230556
-0.16852808 -0.44564426 0.034215946
-0.16867495 -0.44572151 0.034207072
-0.16881654 -0.44579422 0.034209751
-0.16897166 -0.44587097 0.034231968
-0.16911837 -0.44594866 0.034219634
-0.16926265 -0.44602188 0.034228072
-0.16940966 -0.44609568 0.034242257
-0.16955104 -0.4461697 0.034235712
-0.16969566 -0.44623959 0.034267224
-0.16984566 -0.44631243 0.034297541
-0.16998982 -0.44638652 0.034300208
-0.17014013 -0.44645756 0.034343228
-0.17028488 -0.44652787 0.034372427
-0.17043161 -0.44660434 0.03436815
-0.17058115 -0.44668117 0.034370799
-0.17072836 -0.44675452 0.034388445
-0.17087242 -0.44682926 0.034386508
-0.17101966 -0.4469026 0.034404155
-0.17116402 -0.44697571 0.03441374
-0.17130335 -0.44704464 0.034433737
-0.17144994 -0.4471212 0.034428325
-0.17160276 -0.44719654 0.034451701
-0.17174792 -0.44726637 0.034485515
-0.17189573 -0.44733807 0.034515847
-0.17204009 -0.44741154 0.034523133
-0.17218727 -0.44748592 0.034533862
-0.17233178 -0.44755894 0.034544609
-0.1724788 -0.44763395 0.034550719
-0.17262414 -0.44770423 0.034582224
-0.17276894 -0.4477765 0.034598723
-0.17291707 -0.4478482 0.034630217
-0.1730651 -0.44792038 0.034658246
-0.17320481 -0.44798949 0.034678243
-0.17334792 -0.44805807 0.034713209
-0.17350215 -0.44813117 0.034756206
-0.17471716 -0.44635329 0.050457474
-0.17486915 -0.44643617 0.050428957
-0.1750216 -0.44650888 0.05046849
-0.17518809 -0.44658336 0.050543714
-0.17534949 -0.4466531 0.050632801
-0.17550676 -0.44674084 0.050590418
-0.17566091 -0.44682696 0.050548039
-0.17583033 -0.44690421 0.050615169
-0.17599773 -0.44697827 0.050696157
-0.17615108 -0.44707355 0.050591495
-0.17630859 -0.447175 0.050460279
-0.1764778 -0.44726044 0.050473191
-0.17664641 -0.44733992 0.050523017
-0.17681257 -0.44742414 0.050533645
-0.17696896 -0.44751903 0.050441656
-0.1771315 -0.4476026 0.050444227
-0.1773048 -0.44768786 0.050472111
-0.17746378 -0.4477841 0.050380111
-0.17761882 -0.44786042 0.050404634
-0.17779207 -0.44794583 0.050431371
-0.17794506 -0.44803187 0.050385542
-0.17810771 -0.44810897 0.05043079
-0.17827509 -0.44820353 0.050377965
-0.17843546 -0.44829023 0.05035286
-0.17860079 -0.44838142 0.050315041
-0.17876714 -0.44845939 0.050367191
-0.17893018 -0.44855365 0.050301701
-0.17908865 -0.44864821 0.050218929
-0.17925991 -0.44872534 0.050292965
-0.17940259 -0.4488073 0.050239123
-0.17957684 -0.44888633 0.050310835
-0.17974372 -0.44896969 0.050329529
-0.17992255 -0.44908041 0.050209735
-0.18010786 -0.44916728 0.050267551
-0.18027799 -0.44924685 0.050321989
-0.18044242 -0.44932821 0.050345313
-0.18622124 -0.45244148 0.049510721
-0.18639873 -0.45251903 0.049603183
-0.18655658 -0.45260549 0.049571171
-0.1867207 -0.4526881 0.049585272
-0.18688472 -0.45277086 0.04959821
-0.1870316 -0.45285374 0.049552415
-0.18717386 -0.45293266 0.049517028
-0.1873164 -0.45301136 0.049483951
-0.18748885 -0.45308948 0.049555674
-0.18764876 -0.45317468 0.04953865
-0.18780598 -0.45325816 0.049523942
-0.18796502 -0.45334384 0.049501155
-0.18812907 -0.45342058 0.049553316
-0.18829022 -0.45350522 0.049544353
-0.18845516 -0.45359409 0.049520385
-0.18862408 -0.45368096 0.04952291
-0.18878737 -0.45376459 0.049527783
-0.18894668 -0.45385921 0.049447317
-0.18910536 -0.45394203 0.049441829
-0.18926948 -0.45403421 0.049393639
-0.18941391 -0.45411476 0.049354773
-0.18957596 -0.45419896 0.049351577
-0.18973851 -0.45428008 0.049370304
-0.18991043 -0.45436004 0.049428191
-0.19008279 -0.45444566 0.049450312
-0.19024175 -0.45453712 0.049389452
-0.19039854 -0.45462656 0.049334373
-0.19055589 -0.4547101 0.049319677
-0.19071031 -0.4547976 0.049269218
-0.19088078 -0.4548814 0.04929712
-0.19103105 -0.454965 0.049258232
-0.19119413 -0.45505449 0.049223885
-0.19135089 -0.45513827 0.04920572
-0.19151783 -0.45522359 0.049211726
-0.19168785 -0.45531052 0.049217712
-0.19184306 -0.45539489 0.049190328
-0.19199787 -0.45547676 0.049177952
-0.19215849 -0.45556447 0.049147066
-0.19231674 -0.45564777 0.04913697
-0.19247521 -0.455731 0.049128033
-0.19265191 -0.45581079 0.049203195
-0.19281019 -0.45590189 0.049142338
-0.1929785 -0.45598969 0.049136806
-0.19313343 -0.45607921 0.049074821
-0.19328859 -0.45616108 0.049063582
-0.19345888 -0.45624831 0.049068417
-0.19362426 -0.45633462 0.049062893
-0.19376799 -0.45641994 0.048990589
-0.1939358 -0.45650554 0.048997737
-0.19410536 -0.4565931 0.048997961
-0.19426695 -0.45667812 0.048987847
-0.19441636 -0.45675933 0.048961651
-0.19458024 -0.45684376 0.048963055
-0.19474697 -0.45692986 0.04896329
-0.19490179 -0.45701441 0.048933607
-0.19505577 -0.45710149 0.048884314
-0.19521286 -0.45718545 0.048866145
-0.1953783 -0.45726964 0.048874468
-0.19554916 -0.45735258 0.048909284
-0.1956954 -0.45744151 0.048821971
-0.19586357 -0.45752746 0.048827969
-0.19600447 -0.4576152 0.048730291
-0.19617611 -0.4576959 0.048782423
-0.19634123 -0.45777816 0.048802275
-0.19651896 -0.45786446 0.048838217
-0.19667235 -0.45795161 0.048786614
-0.19682948 -0.45803577 0.048767298
-0.19699246 -0.45812309 0.048746798
-0.19715428 -0.4582063 0.048749361
-0.19731057 -0.45829284 0.04871159
-0.19748163 -0.45838082 0.048714116
-0.19763158 -0.45846424 0.048675228
-0.19779338 -0.45854974 0.048662804
-0.19793853 -0.45863825 0.048574336
-0.19811049 -0.45871982 0.048621845
-0.1982737 -0.45880303 0.048629019
-0.19843747 -0.45888832 0.048624665
-0.19860283 -0.45897335 0.048627216
-0.19877101 -0.45906213 0.048614759
-0.19892564 -0.45914692 0.048582759
-0.19907579 -0.45923239 0.048531182
-0.19924758 -0.45931864 0.04854754
-0.19940276 -0.45940742 0.048491322
-0.19954769 -0.45948756 0.048457071
-0.19971994 -0.45957384 0.048474584
-0.19983375 -0.45966032 0.048294004
-0.20004027 -0.45974597 0.0484313
-0.20022401 -0.45983291 0.048483353
-0.20038806 -0.45991462 0.04850322
-0.20051153 -0.4600015 0.048352581
-0.20068781 -0.46008563 0.04839775
-0.20085931 -0.46017244 0.048409496
-0.20102449 -0.46026003 0.048394755
-0.20119171 -0.46034354 0.048413444
-0.20134357 -0.46042883 0.048368771
-0.20150898 -0.46051267 0.048379403
-0.20166785 -0.46060106 0.04833816
-0.20183533 -0.46068665 0.048344161
-0.20199142 -0.46077344 0.048304085
-0.20216379 -0.4608568 0.048341203
-0.20231143 -0.46094629 0.04825503
-0.20247537 -0.46102864 0.048270278
-0.20264089 -0.46111465 0.048267063
-0.20279297 -0.46120182 0.048210859
-0.20295829 -0.46128789 0.048206497
-0.20312995 -0.46137354 0.048226312
-0.2032852 -0.46145865 0.048194319
-0.20345964 -0.46154785 0.048200283
-0.20361654 -0.4616347 0.048162509
-0.20377673 -0.46171954 0.048148934
-0.20393823 -0.46180612 0.048128445
-0.20410338 -0.46188891 0.048144836
-0.20426932 -0.46197706 0.048128929
-0.20442544 -0.46206227 0.048099231
-0.20459335 -0.46215039 0.048090242
-0.2047458 -0.46223584 0.048046723
-0.20491798 -0.46231678 0.04809884
-0.20507538 -0.46240902 0.048027612
-0.20525247 -0.46249342 0.048073936
-0.20539995 -0.46258086 0.048000451
-0.20556012 -0.46266603 0.047984578
-0.20572698 -0.46275273 0.047981352
-0.20589864 -0.46284103 0.047983874
-0.20606194 -0.46292624 0.04797836
-0.20622143 -0.46301159 0.04795903
-0.20638898 -0.46309847 0.047956951
-0.20654812 -0.46318558 0.047924936
-0.20671614 -0.46327588 0.047902092
-0.20687306 -0.46335974 0.047883935
-0.20703633 -0.46344352 0.047887649
-0.20719841 -0.46353233 0.047854457
-0.20733616 -0.46361652 0.047769498
-0.20752974 -0.463705 0.047844566
-0.20769121 -0.46379229 0.047819454
-0.20785399 -0.46387792 0.047809336
-0.2080248 -0.46396685 0.047804944
-0.20819253 -0.46405259 0.047810942
-0.20836014 -0.46414161 0.04779502
-0.20851879 -0.46422741 0.047769923
-0.2086886 -0.46431652 0.047760915
-0.20884046 -0.46440393 0.047702406
-0.20901176 -0.46449152 0.047708385
-0.20918009 -0.46457437 0.047735147
-0.20934182 -0.46466354 0.047698501
-0.20949803 -0.46474949 0.047664192
-0.2096581 -0.4648371 0.047632169
-0.20983773 -0.46492511 0.04766348
-0.20997834 -0.46501234 0.047568116
-0.21016358 -0.46510062 0.047616705
-0.21033835 -0.46518716 0.047641125
-0.21048036 -0.46527442 0.047550373
-0.21063988 -0.46535909 0.04753565
-0.21081014 -0.46544719 0.047534719
-0.21099328 -0.46554035 0.047544096
-0.21114685 -0.46562496 0.047509801
-0.2112927 -0.46570927 0.047451321
-0.21149658 -0.46579885 0.04755402
-0.21164227 -0.46588928 0.047455169
-0.21179715 -0.46597701 0.047404721
-0.21198192 -0.46606308 0.047465999
-0.21214589 -0.46615428 0.047423568
-0.21231054 -0.46624106 0.047412276
-0.21245237 -0.46632823 0.047321528
-0.21263532 -0.46641603 0.047365509
-0.21281204 -0.46650356 0.047389917
-0.21298994 -0.46659422 0.047398172
-0.21314815 -0.46668527 0.047337316
-0.21330005 -0.46676865 0.047305338
-0.21347758 -0.46686086 0.04730206
-0.21365353 -0.46695015 0.047312625
-0.21380852 -0.46703672 0.047270246
-0.21397489 -0.46712404 0.047261264
-0.21415833 -0.46721542 0.047283329
-0.21431199 -0.46730343 0.047227114
-0.21447782 -0.4673894 0.047225051
-0.21465693 -0.46747926 0.047242526
-0.21481191 -0.46756741 0.047189765
-0.2149625 -0.46765524 0.047124334
-0.2151528 -0.46774608 0.047172897
-0.21534495 -0.46783721 0.047226053
-0.2155083 -0.46792474 0.047205552
-0.21567367 -0.46801668 0.047163118
-0.21583104 -0.46810377 0.04712534
-0.21600923 -0.46819544 0.047127817
-0.2161825 -0.46828952 0.047098033
-0.21633528 -0.46837354 0.047064893
-0.21654125 -0.46846509 0.04716181
-0.21668015 -0.46855482 0.047044542
-0.21684201 -0.46864387 0.047009051
-0.21702699 -0.46873376 0.047046103
-0.21719311 -0.46882465 0.047012888
-0.21736392 -0.46891606 0.046992339
-0.21752441 -0.46900511 0.046952236
-0.21767382 -0.46909037 0.046899509
-0.21786255 -0.46918502 0.046918083
-0.21804288 -0.46927622 0.046930935
-0.21820608 -0.46936703 0.046888519
-0.21839014 -0.46945873 0.04691058
-0.21854809 -0.46954772 0.046862412
-0.21871321 -0.46963617 0.046841901
-0.21891013 -0.46973082 0.046888109
-0.21907051 -0.46982017 0.046845708
-0.21923925 -0.46991047 0.046825167
-0.2194096 -0.47000235 0.04680001
-0.21958011 -0.47009164 0.04679215
-0.21975943 -0.47018725 0.046772715
-0.21991417 -0.47027087 0.046748787
-0.22009766 -0.47036317 0.046765082
-0.22027227 -0.47045317 0.046766438
-0.22039095 -0.47053507 0.04663197
-0.22057708 -0.47062784 0.04665402
-0.22078338 -0.47072452 0.046718638
-0.22093067 -0.47081259 0.046640545
-0.13040036 -0.42280295 0.054737255
-0.13060613 -0.42291895 0.054673854
-0.13076487 -0.42299739 0.054697212
-0.13096309 -0.4231095 0.054633852
-0.13119131 -0.42323431 0.054588787
-0.13138075 -0.42333269 0.054585442
-0.13157319 -0.42343456 0.054569408
-0.13176571 -0.42353666 0.054552209
-0.13195337 -0.42363551 0.054539647
-0.13214688 -0.42373902 0.054516684
-0.13233083 -0.42383173 0.054531828
-0.13253435 -0.42394695 0.054466128
-0.13272062 -0.42404473 0.054455895
-0.13290042 -0.424133 0.054486044
-0.13309371 -0.42423689 0.054459624
-0.13329476 -0.42434993 0.05439971
-0.13347659 -0.42444086 0.054419473
-0.13368392 -0.42456156 0.054330699
-0.13386163 -0.42465016 0.054351643
-0.13403301 -0.42472914 0.054414131
-0.13423929 -0.42485142 0.054311529
-0.13442618 -0.42494881 0.054305889
-0.13461475 -0.42504835 0.05429218
-0.13479787 -0.42514151 0.05430156
-0.13499105 -0.42524907 0.054250915
-0.13517876 -0.42534795 0.05423836
-0.13535178 -0.42542937 0.054290462
-0.13555004 -0.42554113 0.054229416
-0.13574199 -0.42564788 0.054179925
-0.13592513 -0.42574176 0.054184694
-0.13610761 -0.42583495 0.054191776
-0.13631111 -0.42595387 0.054101862
-0.13649206 -0.42604786 0.054098576
-0.13667972 -0.42614779 0.054079093
-0.1368615 -0.42624059 0.054086179
-0.13703823 -0.42632729 0.054116346
-0.1372301 -0.42643523 0.054058801
-0.13741216 -0.42652872 0.054062415
-0.13760328 -0.42663363 0.054022159
-0.13778333 -0.42672485 0.054033861
-0.13794577 -0.42681649 0.05398339
-0.13816585 -0.42693833 0.053930294
-0.13834918 -0.42703408 0.053923525
-0.13852507 -0.42712051 0.053952556
-0.1387036 -0.42721286 0.05395158
-0.13889807 -0.42732322 0.053887092
-0.13908352 -0.4274222 0.053866472
-0.13926694 -0.4275187 0.053855091
-0.13944542 -0.42760894 0.053867962
-0.13963689 -0.42771614 0.053813867
-0.13981107 -0.42780361 0.053830214
-0.1399945 -0.42790064 0.053815372
-0.14017998 -0.42800051 0.053788994
-0.14036548 -0.42810056 0.053761456
-0.14053701 -0.42818224 0.053806648
-0.14073218 -0.42829543 0.05372601
-0.14090514 -0.42838192 0.05374467
-0.14109077 -0.42848274 0.053712521
-0.14126854 -0.42857313 0.053721927
-0.14145675 -0.42867777 0.053673618
-0.14163926 -0.42877486 0.053655326
-0.14181723 -0.42886591 0.053661272
-0.14200273 -0.42896736 0.053624514
-0.14218082 -0.42905882 0.05362815
-0.1423637 -0.42915696 0.053604096
-0.14254799 -0.42925727 0.053570796
-0.14272708 -0.4293505 0.053566355
-0.14289331 -0.42943457 0.053578135
-0.14308152 -0.42953494 0.053557508
-0.14326373 -0.42963293 0.053532299
-0.14344087 -0.42972389 0.053535938
-0.14361906 -0.42981645 0.053532667
-0.1438031 -0.42991751 0.053493597
-0.14398788 -0.43001986 0.053448766
-0.14416654 -0.43011352 0.053439721
-0.14434958 -0.43021372 0.053402979
-0.14451426 -0.43029964 0.053397458
-0.14470465 -0.43039852 0.053394116
-0.14488585 -0.43049651 0.053365454
-0.14506999 -0.43059903 0.053317167
-0.14524356 -0.43068284 0.053355429
-0.14542569 -0.43078274 0.053317532
-0.14560638 -0.43088067 0.053287711
-0.14578812 -0.43098035 0.053249814
-0.14596264 -0.43106925 0.053258087
-0.14613724 -0.43115836 0.053265214
-0.14631486 -0.43125221 0.053251565
-0.14649215 -0.4313457 0.053239055
-0.14667441 -0.43144709 0.053191938
-0.14684801 -0.43153515 0.053202517
-0.14703096 -0.43163458 0.053170383
-0.14720401 -0.43172202 0.053183284
-0.14737847 -0.43181175 0.053185791
-0.1475613 -0.43191501 0.05312828
-0.14773451 -0.43200305 0.053137712
-0.14791837 -0.43210843 0.053069822
-0.14809519 -0.43219906 0.053074624
-0.14827216 -0.43229362 0.053054061
-0.14844418 -0.43238387 0.053045049
-0.14862497 -0.43247777 0.053041752
-0.14880334 -0.4325752 0.053007334
-0.14897302 -0.43266195 0.053013332
-0.14915495 -0.43275821 0.052998502
-0.14933075 -0.43285182 0.052980244
-0.14950815 -0.43294451 0.052973505
-0.14966181 -0.43302348 0.052976131
-0.14980653 -0.43309096 0.053023778
-0.15002213 -0.43321523 0.052939571
-0.1502101 -0.43331516 0.052921236
-0.15037963 -0.43339863 0.052947994
-0.15056355 -0.43350387 0.052881263
-0.15073758 -0.43359569 0.052868769
-0.15091406 -0.43369213 0.052834362
-0.1510835 -0.43377593 0.052858811
-0.15125863 -0.43386602 0.052861322
-0.1514347 -0.43396226 0.052826915
-0.1516117 -0.43405613 0.05281096
-0.15178667 -0.43415073 0.052783482
-0.15196352 -0.43424472 0.052766364
-0.1521353 -0.43433359 0.052765425
-0.15231657 -0.434441 0.052675642
-0.15246579 -0.43451363 0.052704807
-0.15261319 -0.43459642 0.052661337
-0.15280713 -0.43472981 0.052444622
-0.15295584 -0.43478328 0.052597195
-0.15314637 -0.43487781 0.05262268
-0.15336049 -0.4349916 0.052601907
-0.15353091 -0.43507907 0.052605592
-0.15370338 -0.43516603 0.052619636
-0.15387972 -0.43526611 0.052561015
-0.15404883 -0.43535131 0.052575085
-0.15422164 -0.43544444 0.052549925
-0.15439734 -0.43553889 0.0525259
-0.15455015 -0.43561515 0.052543517
-0.15470937 -0.43571079 0.052456163
-0.15491562 -0.43582016 0.052437738
-0.15505973 -0.4358882 0.052479621
-0.15522163 -0.43597445 0.052462585
-0.15543023 -0.43608978 0.052413017
-0.15558681 -0.43620369 0.052197665
-0.15577404 -0.43627602 0.05235694
-0.15595271 -0.43636811 0.05235827
-0.1561254 -0.43645781 0.052355018
-0.15629497 -0.43654609 0.05235064
-0.15646979 -0.43664131 0.052318551
-0.15663771 -0.43672591 0.052332629
-0.15677014 -0.43678385 0.052401096
-0.15697746 -0.43689889 0.052349225
-0.15715097 -0.43699166 0.052328669
-0.15731566 -0.43707478 0.052341614
-0.15749855 -0.43718621 0.052231058
-0.1576689 -0.43727824 0.05220475
-0.15784346 -0.4373751 0.052161135
-0.15800944 -0.43745568 0.052194826
-0.15818334 -0.43755132 0.052156974
-0.15835367 -0.43764439 0.052123748
-0.15850568 -0.43772182 0.052130993
-0.15869106 -0.43781456 0.052150745
-0.15885435 -0.43790278 0.052125636
-0.15900762 -0.43798438 0.052109808
-0.15919712 -0.43807432 0.052161824
-0.15935636 -0.43815866 0.052148264
-0.1595386 -0.43826672 0.052057315
-0.15970746 -0.43835765 0.052033335
-0.15988162 -0.4384405 0.052079663
-0.16005002 -0.4385303 0.052061446
-0.16021952 -0.43861517 0.052078974
-0.16038632 -0.43871829 0.051968511
-0.16053472 -0.43879455 0.051971156
-0.16070071 -0.43886736 0.05205559
-0.16088158 -0.4389751 0.051962353
-0.16104674 -0.4390648 0.051933773
-0.16120906 -0.43914384 0.051965177
-0.16137999 -0.43922505 0.05201152
-0.16157715 -0.43934685 0.051881284
-0.16172647 -0.43941721 0.051925443
-0.16189885 -0.43950483 0.051934887
-0.16207638 -0.43961507 0.051813982
-0.16223943 -0.43969837 0.051820006
-0.16240858 -0.43978465 0.051827159
-0.1625874 -0.43987808 0.051820423
-0.16275477 -0.43996963 0.051787212
-0.16292456 -0.44005996 0.051770147
-0.163092 -0.44015297 0.051727708
-0.16326112 -0.44024083 0.051724486
-0.16342697 -0.4403263 0.051725887
-0.16358088 -0.44040751 0.051714666
-0.16376191 -0.4405005 0.051718295
-0.16392018 -0.44059211 0.051654
-0.16406222 -0.44067109 0.051617473
-0.16425391 -0.44076109 0.051676396
-0.16441734 -0.44085166 0.051636301
-0.1645986 -0.44094846 0.0516157
-0.16475479 -0.4410291 0.051616006
-0.16492644 -0.44111899 0.051608149
-0.16507933 -0.4411965 0.051617697
-0.16526172 -0.44130677 0.051512912
-0.16543242 -0.44138998 0.051545423
-0.1655935 -0.44146326 0.051610276
-0.16573082 -0.44153097 0.051631436
-0.16590683 -0.44164234 0.051497858
-0.16608398 -0.44173384 0.051498041
-0.16625534 -0.44182763 0.051463667
-0.16643232 -0.44191852 0.051467311
-0.16660024 -0.44200701 0.051456012
-0.16676199 -0.44209245 0.051443599
-0.16692339 -0.44216925 0.051486548
-0.1670575 -0.44223583 0.051504262
-0.16721655 -0.44233915 0.051366158
-0.16739938 -0.44243765 0.051339798
-0.16756374 -0.44251421 0.051394254
-0.16774039 -0.44259802 0.05144288
-0.16788664 -0.44266698 0.051485907
-0.16805691 -0.44277364 0.051363878
-0.1682242 -0.44286269 0.051346827
-0.16840065 -0.44295329 0.051350471
-0.16855922 -0.44302422 0.051422268
-0.16871108 -0.44310862 0.051383384
-0.16886495 -0.44321066 0.051236078
