# .PCD v0.7 - Point Cloud Data file format
VERSION 0.7
FIELDS x y z
SIZE 4 4 4
TYPE F F F
COUNT 1 1 1
WIDTH 1294
HEIGHT 1
VIEWPOINT 0 0 0 1 0 0 0
POINTS 1294
DATA ascii
-0.30358595 -0.23266992 0.049340062
-0.3037872 -0.23266691 0.04935693
-0.30398911 -0.23266357 0.049377263
-0.30416989 -0.23266675 0.049330592
-0.30436167 -0.23266755 0.049308151
-0.30456305 -0.23266686 0.049300689
-0.30476642 -0.23266286 0.049327955
-0.30495363 -0.23266643 0.049276602
-0.30514354 -0.23266415 0.049286611
-0.30533454 -0.23266761 0.04923638
-0.3055293 -0.23266673 0.049231295
-0.30573907 -0.23266137 0.049272403
-0.30593455 -0.23266225 0.049248777
-0.30610746 -0.23266988 0.049155843
-0.30631864 -0.23266186 0.049224745
-0.30650166 -0.23266777 0.049149096
-0.30669093 -0.23266815 0.049131315
-0.30688402 -0.23267038 0.049093809
-0.30709359 -0.23266357 0.049149983
-0.30726749 -0.23267241 0.049044296
-0.30746046 -0.23267277 0.049026482
-0.30765828 -0.23267055 0.04903527
-0.30786437 -0.23266399 0.049089156
-0.30806127 -0.23266619 0.049051616
-0.30823323 -0.23267582 0.048937842
-0.30844203 -0.23266803 0.049004447
-0.30864739 -0.23266214 0.049051385
-0.30883318 -0.23266825 0.048973404
-0.30901152 -0.23267993 0.048837576
-0.30921122 -0.23267341 0.048891515
-0.30943301 -0.23266312 0.048983485
-0.30961812 -0.23266771 0.048921723
-0.30981639 -0.23267287 0.048852906
-0.31001496 -0.232669 0.048879057
-0.31020957 -0.23266715 0.048884384
-0.31040323 -0.23267278 0.048810974
-0.31060073 -0.23266958 0.048830178
-0.31077421 -0.23267621 0.048747674
-0.31096849 -0.23267633 0.048732158
-0.31117141 -0.23267409 0.048740901
-0.31136632 -0.23267399 0.048727702
-0.31157991 -0.23266518 0.048804685
-0.31177321 -0.23266928 0.048747487
-0.31196544 -0.23266886 0.048737787
-0.31213966 -0.23267505 0.048659902
-0.3123309 -0.23268004 0.048593454
-0.31254113 -0.23267312 0.048650783
-0.3127467 -0.23266844 0.048684981
-0.31293944 -0.23266956 0.048659056
-0.31313294 -0.23267035 0.048636608
-0.31331384 -0.23267673 0.04855635
-0.31352431 -0.23267168 0.048593979
-0.31370556 -0.2326763 0.048532255
-0.31389523 -0.23267567 0.048524894
-0.31407493 -0.23268403 0.048423797
-0.31425291 -0.23268998 0.048348188
-0.31448311 -0.23267524 0.048486419
-0.31466192 -0.23268239 0.048398074
-0.31487256 -0.23267613 0.048448443
-0.31505591 -0.23267984 0.048395969
-0.31528404 -0.23266798 0.048504099
-0.31543308 -0.23268743 0.048288599
-0.31565094 -0.23267695 0.048382923
-0.31583589 -0.23268154 0.048321165
-0.31604943 -0.23267449 0.048379615
-0.31624469 -0.23267494 0.048360627
-0.31644028 -0.23267527 0.04834279
-0.31662586 -0.23267964 0.048283339
-0.31683424 -0.23267493 0.048317511
-0.31702295 -0.23267807 0.048270773
-0.31723279 -0.23267291 0.048309572
-0.3174119 -0.23267841 0.048238598
-0.31761396 -0.2326764 0.048245028
-0.31781957 -0.23267446 0.048250273
-0.31800714 -0.23267673 0.048212815
-0.31819987 -0.2326784 0.048181094
-0.31838852 -0.23268165 0.048133206
-0.31860328 -0.23267503 0.048187025
-0.31879383 -0.23267759 0.048146054
-0.31898323 -0.23268062 0.048100479
-0.31918046 -0.23268072 0.048084937
-0.31938896 -0.23267667 0.048112169
-0.3195928 -0.23267442 0.048120908
-0.31976593 -0.23268349 0.048012905
-0.31995207 -0.23268774 0.047954615
-0.32017839 -0.23267742 0.048046552
-0.32035258 -0.23268604 0.047943186
-0.32055661 -0.2326839 0.047950752
-0.32078683 -0.23267245 0.048054248
-0.32096925 -0.23267683 0.047994822
-0.32114518 -0.2326861 0.04788449
-0.32134938 -0.23268408 0.047890902
-0.32155034 -0.2326858 0.04785797
-0.32178572 -0.232673 0.047975309
-0.32194248 -0.23268889 0.047796804
-0.32217252 -0.23267812 0.047893342
-0.32236719 -0.23268087 0.047850028
-0.32256091 -0.23268397 0.04780326
-0.32276052 -0.2326813 0.04781666
-0.3229509 -0.23268431 0.047771063
-0.32316935 -0.23268285 0.047770415
-0.323356 -0.23268469 0.047737595
-0.32354835 -0.23268339 0.047737159
-0.32374132 -0.23268561 0.047699653
-0.32393295 -0.23268707 0.047670264
-0.3241342 -0.23268659 0.047660485
-0.32431227 -0.23269497 0.047559403
-0.32449406 -0.23269606 0.047534734
-0.32474121 -0.23268197 0.047664717
-0.32490754 -0.23269174 0.047549836
-0.32514811 -0.2326788 0.047668297
-0.32533565 -0.23268534 0.047585659
-0.32554498 -0.23268494 0.047574658
-0.32574615 -0.23268479 0.047561415
-0.32594872 -0.23268542 0.047540046
-0.32613754 -0.23268689 0.04751068
-0.32635042 -0.23268668 0.047497325
-0.32654029 -0.23268904 0.047458693
-0.32675469 -0.23268728 0.047461543
-0.32693896 -0.2326868 0.047453072
-0.32714188 -0.23268521 0.047454856
-0.32734931 -0.23268801 0.047410291
-0.3275359 -0.23268807 0.047395997
-0.32775354 -0.23268442 0.047418512
-0.32791513 -0.23269323 0.047314096
-0.32813275 -0.23269077 0.047323868
-0.32834324 -0.23268716 0.047346443
-0.32854003 -0.23268881 0.047314703
-0.32876471 -0.23268555 0.047332525
-0.32895488 -0.23268922 0.047279995
-0.32913738 -0.23269184 0.047239095
-0.32936987 -0.23268424 0.04730203
-0.32957071 -0.23268378 0.047292255
-0.3297635 -0.23268786 0.04723506
-0.32994476 -0.23269203 0.047177963
-0.33014467 -0.232693 0.047153141
-0.33033839 -0.23269577 0.047109839
-0.33055809 -0.23269221 0.047131181
-0.33077577 -0.23268823 0.047157168
-0.33096966 -0.2326889 0.047135875
-0.33115077 -0.23269428 0.047066037
-0.33137262 -0.23268928 0.047102422
-0.3315908 -0.23268749 0.047105242
-0.33177432 -0.2326933 0.047030754
-0.33197451 -0.23269449 0.047003612
-0.33218557 -0.23269165 0.047018081
-0.33238026 -0.2326944 0.046974763
-0.33257097 -0.23269621 0.046941921
-0.33278352 -0.23269412 0.046948262
-0.33299786 -0.23269367 0.046937212
-0.3331978 -0.23269717 0.046885751
-0.33342761 -0.23269367 0.046905853
-0.33362722 -0.23269629 0.046863664
-0.33381131 -0.23269901 0.046821594
-0.33403391 -0.23269553 0.046841759
-0.33423051 -0.23269498 0.046833172
-0.33441213 -0.23270147 0.046751752
-0.33464679 -0.23269396 0.046813507
-0.33485001 -0.2326948 0.046789821
-0.33505589 -0.23269297 0.0467939
-0.33523214 -0.23270093 0.046697464
-0.22777419 -0.23291837 0.052276753
-0.2280139 -0.23292173 0.052223798
-0.22826272 -0.23292758 0.052144125
-0.2285074 -0.23293245 0.052074909
-0.22875494 -0.2329382 0.05199641
-0.22900569 -0.23294491 0.05190745
-0.22927262 -0.23295383 0.051794033
-0.22952273 -0.23296286 0.051680759
-0.22974598 -0.23296259 0.051667329
-0.2299706 -0.23296274 0.051649254
-0.23021287 -0.23296775 0.051578905
-0.23044759 -0.23297082 0.051529467
-0.23067568 -0.23297216 0.051498614
-0.23090898 -0.23297502 0.051451504
-0.23115288 -0.23298089 0.051371872
-0.23139325 -0.23298591 0.051301539
-0.23163918 -0.23299144 0.051225364
-0.23186679 -0.23299311 0.051191047
-0.2320995 -0.2329963 0.051140472
-0.23234524 -0.23300327 0.051049236
-0.23258065 -0.23300743 0.050988212
-0.23281379 -0.23301107 0.050932996
-0.23304772 -0.23301502 0.050874293
-0.23328206 -0.23301919 0.05081328
-0.23351902 -0.23302422 0.050742976
-0.23376045 -0.23303066 0.05065757
-0.23399763 -0.23303482 0.050596524
-0.23422939 -0.23303868 0.050539006
-0.23447767 -0.2330475 0.050428055
-0.2346999 -0.23304877 0.050398417
-0.23492694 -0.23305155 0.050352518
-0.2351573 -0.23305541 0.05029501
-0.23538913 -0.23305982 0.050231699
-0.23561665 -0.23306304 0.050181158
-0.2358446 -0.23306648 0.050128303
-0.23607716 -0.23307145 0.050059192
-0.2363034 -0.23307335 0.050022565
-0.23653105 -0.233077 0.049967393
-0.23676121 -0.23308153 0.049902942
-0.23698646 -0.23308466 0.049853574
-0.23721495 -0.23308766 0.049805354
-0.23743892 -0.23309056 0.049758315
-0.23765638 -0.23309155 0.04973219
-0.23788457 -0.23309597 0.049668908
-0.23811185 -0.23309897 0.049620688
-0.23833428 -0.23310179 0.04957483
-0.23855305 -0.23310351 0.049540579
-0.23877928 -0.23310775 0.049479634
-0.23900436 -0.23311043 0.049434908
-0.23922297 -0.23311238 0.049398348
-0.23943967 -0.2331138 0.049367592
-0.2396594 -0.2331163 0.049325228
-0.23993787 -0.2331344 0.049114417
-0.24013919 -0.23312324 0.049217004
-0.24028893 -0.23310789 0.04936751
-0.24050725 -0.23311546 0.049271878
-0.24081486 -0.23314144 0.048976257
-0.24103436 -0.23314978 0.048872501
-0.24125479 -0.23315062 0.048847504
-0.24140865 -0.23313138 0.049038522
-0.24162972 -0.23313652 0.048968352
-0.24184711 -0.23313914 0.048924848
-0.24206679 -0.2331413 0.04888596
-0.24228086 -0.23314296 0.048852913
-0.24250486 -0.23314412 0.048824415
-0.24270736 -0.23314595 0.048790302
-0.24292725 -0.23314856 0.048746772
-0.24314249 -0.23315097 0.048705615
-0.24335933 -0.23315129 0.048686434
-0.24356519 -0.23315188 0.048665036
-0.24377613 -0.23315302 0.048637811
-0.24400532 -0.23315667 0.048582628
-0.2442041 -0.23315631 0.048571713
-0.24441087 -0.23315614 0.048558421
-0.24462126 -0.23315737 0.048530035
-0.24483056 -0.23315829 0.048505135
-0.24503881 -0.23315887 0.048483718
-0.24523912 -0.23315653 0.048493639
-0.24544457 -0.23315328 0.048512794
-0.24563384 -0.23314826 0.048551768
-0.24581783 -0.23313974 0.04862785
-0.24598831 -0.23312448 0.048775867
-0.24492195 -0.23235616 0.056933936
-0.24524298 -0.23240253 0.056422748
-0.24540432 -0.23237896 0.056658879
-0.24557468 -0.23235719 0.05687524
-0.24614404 -0.23232129 0.057211086
-0.24663591 -0.23225051 0.057919424
-0.24831522 -0.23261201 0.053994812
-0.24853073 -0.23261234 0.053975653
-0.24875695 -0.2326072 0.054013167
-0.24900933 -0.23261356 0.053927675
-0.24919859 -0.23260942 0.05395738
-0.24940927 -0.2326079 0.053957958
-0.24963287 -0.23260874 0.053932935
-0.24984506 -0.23261502 0.053851254
-0.25001767 -0.2326123 0.053867191
-0.25027919 -0.23261476 0.053822163
-0.2504766 -0.23261641 0.053790417
-0.2506766 -0.23261397 0.053801507
-0.25089434 -0.23260899 0.053837925
-0.25109631 -0.23260388 0.053876795
-0.25128248 -0.23260228 0.053879894
-0.25151339 -0.23261651 0.053713482
-0.25170788 -0.23262092 0.053652801
-0.25193551 -0.2326117 0.053733159
-0.25215474 -0.23260957 0.053739451
-0.25233847 -0.23261087 0.053712443
-0.25258118 -0.23261476 0.053653672
-0.25278726 -0.23261206 0.053667031
-0.25296357 -0.23261373 0.053636607
-0.25316459 -0.23261049 0.053655799
-0.25340539 -0.23261386 0.053602833
-0.25361192 -0.23261358 0.0535907
-0.25383204 -0.23261839 0.053524002
-0.25404015 -0.23261908 0.053501431
-0.25422424 -0.23261531 0.053527705
-0.25444424 -0.23261636 0.053500395
-0.25463375 -0.23261553 0.053495355
-0.25482237 -0.23261018 0.053537812
-0.25505179 -0.23262066 0.053410806
-0.25523689 -0.23261765 0.053428967
-0.25544083 -0.23261242 0.05346898
-0.25568783 -0.23261839 0.053388171
-0.25585639 -0.23261051 0.05345859
-0.25607452 -0.23261975 0.053345576
-0.25627813 -0.23261452 0.053385593
-0.25648272 -0.23261634 0.053351462
-0.25668818 -0.23261441 0.053356715
-0.25688869 -0.23260964 0.053392116
-0.25710109 -0.23261407 0.053330123
-0.25728482 -0.23260842 0.053376094
-0.25750968 -0.23262046 0.053232908
-0.25773737 -0.23262313 0.05318816
-0.25793171 -0.2326172 0.053236373
-0.25812078 -0.23261262 0.053270709
-0.2583279 -0.23261917 0.053186752
-0.25853962 -0.23262171 0.053144455
-0.2587373 -0.23261796 0.053169459
-0.25895765 -0.23261902 0.053142149
-0.25915492 -0.23261747 0.053143989
-0.25936025 -0.23262116 0.053090163
-0.25956827 -0.23262186 0.053067591
-0.25977427 -0.23262379 0.053032294
-0.25994101 -0.23261724 0.053088836
-0.26015288 -0.23261318 0.053116038
-0.26036793 -0.23262396 0.052986834
-0.26057112 -0.23262183 0.052994408
-0.26077235 -0.23261839 0.053015921
-0.26098245 -0.23262635 0.052916877
-0.26116771 -0.23262234 0.052945461
-0.26139235 -0.23262239 0.052928541
-0.26157305 -0.23262854 0.052850582
-0.26178542 -0.23262535 0.052868526
-0.26199946 -0.23262613 0.052844737
-0.26218081 -0.23261388 0.052960239
-0.26239404 -0.23261972 0.052883178
-0.26257241 -0.23261069 0.052965101
-0.26278949 -0.23262544 0.052794177
-0.26299438 -0.23262538 0.052779738
-0.26320073 -0.23262367 0.05278267
-0.26340398 -0.23261955 0.052811101
-0.26359767 -0.23261967 0.052795589
-0.26380205 -0.23261951 0.052782319
-0.26401958 -0.23263018 0.052654251
-0.26420492 -0.23262991 0.052643456
-0.26440495 -0.23262648 0.052664965
-0.26461375 -0.23263048 0.052607633
-0.2648159 -0.23262581 0.052641869
-0.2650153 -0.23262513 0.052634422
-0.26519179 -0.23261744 0.052702464
-0.2654044 -0.23262857 0.05256981
-0.26561549 -0.2326287 0.052552998
-0.26580638 -0.23262399 0.052588493
-0.26599789 -0.23262666 0.05254636
-0.26622245 -0.23263277 0.052465729
-0.26643443 -0.23263422 0.052435011
-0.26664129 -0.23263085 0.052455306
-0.26685035 -0.23262967 0.052452423
-0.26705325 -0.23263337 0.052398615
-0.26722541 -0.23262493 0.052474797
-0.26742074 -0.23262493 0.05246044
-0.26762414 -0.23262952 0.052397363
-0.26784465 -0.23262915 0.052385107
-0.26802272 -0.23263068 0.052355833
-0.26821095 -0.23262744 0.052376281
-0.26841602 -0.2326265 0.052371107
-0.26862723 -0.23262431 0.052378632
-0.26883855 -0.23263061 0.052296951
-0.26903775 -0.23262751 0.052314993
-0.2692484 -0.23263778 0.052191623
-0.26942569 -0.23263933 0.052162345
-0.269633 -0.23262857 0.05226025
-0.26984087 -0.2326318 0.052211042
-0.27003056 -0.23263536 0.05215966
-0.27019823 -0.23261583 0.052352875
-0.27042702 -0.23262741 0.052214295
-0.27061146 -0.23262936 0.052180327
-0.27079567 -0.23263109 0.052148692
-0.27100554 -0.2326331 0.052112199
-0.27120316 -0.23263353 0.052093182
-0.27140582 -0.23263085 0.052106567
-0.27161059 -0.23263124 0.052087501
-0.2717942 -0.23263285 0.052057013
-0.27198875 -0.23262912 0.052082043
-0.27221215 -0.23263049 0.052051239
-0.27239698 -0.23262869 0.052056652
-0.27258423 -0.23263083 0.05202036
-0.27278078 -0.23263051 0.052009456
-0.272982 -0.23263201 0.051978841
-0.27319011 -0.23263933 0.05188676
-0.27338791 -0.23262885 0.051982425
-0.27358899 -0.2326372 0.051879972
-0.27376822 -0.23263246 0.051916726
-0.27395964 -0.23263006 0.051927876
-0.27416787 -0.23263924 0.051816102
-0.27437648 -0.23264258 0.051765732
-0.27457717 -0.23263726 0.051806927
-0.2747688 -0.23262793 0.051891059
-0.27495205 -0.23263176 0.051837415
-0.27514163 -0.23263378 0.051802255
-0.27535012 -0.232638 0.051742606
-0.27554274 -0.23264804 0.051622853
-0.27574036 -0.23264419 0.051649027
-0.27593392 -0.23263913 0.051687963
-0.27612713 -0.23262307 0.051842742
-0.27632052 -0.23262683 0.051789008
-0.27651852 -0.23264456 0.051588133
-0.27672213 -0.23263679 0.05165479
-0.27690956 -0.23263477 0.051662501
-0.27710992 -0.23263958 0.051597133
-0.27730787 -0.23264937 0.05147966
-0.27750471 -0.23262966 0.051672637
-0.27770388 -0.23263107 0.051643185
-0.27790409 -0.23263711 0.051565066
-0.2780982 -0.23263326 0.05159127
-0.27829093 -0.23263967 0.051509745
-0.2784903 -0.23264427 0.051446699
-0.27869579 -0.23264389 0.051435728
-0.2788825 -0.23263966 0.051466621
-0.27907288 -0.23263517 0.051499791
-0.27927512 -0.23263755 0.051459886
-0.27945855 -0.23263478 0.051475748
-0.27964914 -0.23263128 0.051498495
-0.27984935 -0.2326501 0.051286008
-0.28005826 -0.23265234 0.051247217
-0.28024724 -0.23263112 0.05145647
-0.28043115 -0.23263516 0.051400505
-0.28063709 -0.23265029 0.051226202
-0.28083417 -0.23263301 0.051393695
-0.28102154 -0.23264419 0.051262405
-0.28122291 -0.23265108 0.051175013
-0.28142056 -0.23263566 0.05132281
-0.2816253 -0.23264608 0.051198326
-0.28181219 -0.2326425 0.051222265
-0.28200951 -0.23264745 0.051155761
-0.2822074 -0.23264028 0.051216677
-0.28240174 -0.23263489 0.051259082
-0.28259146 -0.2326422 0.051168311
-0.28278863 -0.23264451 0.051129617
-0.28298238 -0.23264441 0.051116429
-0.28318015 -0.232641 0.051137958
-0.28337017 -0.2326417 0.051116694
-0.28356358 -0.23264347 0.051083818
-0.28375384 -0.23264219 0.051083397
-0.28395405 -0.23264536 0.051035397
-0.28414786 -0.23264395 0.051036116
-0.28434151 -0.23264329 0.051028721
-0.28454238 -0.23264238 0.051023584
-0.28474379 -0.23263916 0.051042762
-0.28492892 -0.23264396 0.050978675
-0.28513235 -0.23264657 0.050936449
-0.28532037 -0.23264001 0.050991654
-0.28549638 -0.23263815 0.050998308
-0.28569311 -0.2326507 0.050851878
-0.28588873 -0.23264311 0.050917447
-0.28608173 -0.2326439 0.050894998
-0.28627914 -0.23265249 0.050790265
-0.28648442 -0.23264846 0.050817527
-0.2866644 -0.23264536 0.050836887
-0.28685325 -0.23264718 0.050804045
-0.28706354 -0.23264885 0.050771024
-0.28725415 -0.23264614 0.050785664
-0.28743815 -0.23264225 0.050813098
-0.28762349 -0.23264363 0.050784923
-0.28782478 -0.23264129 0.050794836
-0.28800842 -0.23264611 0.050730772
-0.28820807 -0.23264708 0.050705943
-0.28839976 -0.23264964 0.050664973
-0.28860077 -0.23264773 0.050670259
-0.2887902 -0.23264755 0.050658263
-0.28898361 -0.23264658 0.050654344
-0.28917718 -0.23264539 0.050652742
-0.2893689 -0.23264112 0.050683592
-0.28955221 -0.23265772 0.050495572
-0.28975248 -0.23265098 0.050551835
-0.28994134 -0.23264563 0.050594289
-0.2901291 -0.23265383 0.050494269
-0.29032579 -0.23265317 0.050486848
-0.2905167 -0.23265044 0.050501488
-0.29071739 -0.23264381 0.050556581
-0.29090175 -0.23265104 0.050467022
-0.29109147 -0.23265538 0.050407536
-0.29128945 -0.23265284 0.050419793
-0.29147866 -0.23265266 0.050407797
-0.29168111 -0.23264414 0.050482579
-0.29187426 -0.23264846 0.050423063
-0.29205295 -0.23266222 0.050265197
-0.29224449 -0.23266809 0.050189476
-0.29244918 -0.23265703 0.050290868
-0.29263535 -0.23265609 0.050287012
-0.29283196 -0.23265113 0.050324768
-0.29302931 -0.2326584 0.050233945
-0.29324487 -0.23265222 0.05028313
-0.29342133 -0.23265025 0.050290935
-0.29361024 -0.23264633 0.050318323
-0.29379737 -0.23265266 0.05023801
-0.29400101 -0.23265229 0.050227053
-0.29418948 -0.23264903 0.050247498
-0.29437366 -0.23266211 0.050096549
-0.29456934 -0.2326587 0.050118096
-0.29476511 -0.23265529 0.050139643
-0.29496303 -0.23265715 0.050105561
-0.29515854 -0.23265781 0.050084252
-0.29534781 -0.23265752 0.050073419
-0.295546 -0.23265906 0.050042819
-0.29574087 -0.23266028 0.050015721
-0.2959224 -0.23266059 0.049999163
-0.29611632 -0.23265246 0.050070532
-0.29631379 -0.23265465 0.050032988
-0.29652521 -0.23265047 0.050061349
-0.2967048 -0.23265597 0.04999036
-0.29687965 -0.23265919 0.049943741
-0.29707482 -0.23265688 0.049953707
-0.29726112 -0.23265937 0.049913935
-0.29745984 -0.23265715 0.049922716
-0.29765916 -0.2326545 0.049936119
-0.29784983 -0.2326532 0.049935699
-0.29802868 -0.23266499 0.04979869
-0.29822245 -0.232664 0.049794771
-0.29839182 -0.23267442 0.049672894
-0.29860765 -0.23265536 0.049857609
-0.29878256 -0.2326698 0.049692828
-0.29897475 -0.2326673 0.049705137
-0.29918069 -0.23265678 0.049800735
-0.29939681 -0.23264971 0.049859181
-0.29958212 -0.23265561 0.049783513
-0.29976743 -0.23266417 0.049680039
-0.29999238 -0.23264791 0.049834553
-0.30018809 -0.23264857 0.049813241
-0.30036646 -0.23266213 0.049657702
-0.30055571 -0.23266217 0.049643394
-0.30073738 -0.23265994 0.049653471
-0.30091667 -0.23266721 0.049563948
-0.30112997 -0.23265775 0.049647905
-0.30131134 -0.23266345 0.04957458
-0.30151722 -0.23265943 0.049601838
-0.3017039 -0.23266135 0.04956786
-0.30189043 -0.23266339 0.049532719
-0.30207473 -0.23266204 0.049533509
-0.30227241 -0.2326638 0.049500592
-0.30247551 -0.23266187 0.049505867
-0.302659 -0.23266593 0.049449898
-0.30284929 -0.23266309 0.049465697
-0.30304009 -0.23266467 0.049435161
-0.30323499 -0.2326659 0.049408063
-0.30342659 -0.23266922 0.049358983
-0.30361605 -0.23266706 0.049367838
-0.30381408 -0.23266408 0.049384736
-0.30401391 -0.23266229 0.049388867
-0.30420005 -0.23266676 0.049328253
-0.30439198 -0.23266767 0.049304657
-0.30459902 -0.23266375 0.049330737
-0.30479047 -0.23266499 0.049303666
-0.30497429 -0.23266651 0.049274348
-0.30517143 -0.23266649 0.049259972
-0.30536687 -0.2326654 0.049257189
-0.30556449 -0.23266308 0.049267143
-0.30577135 -0.23266169 0.049266584
-0.30595487 -0.23266551 0.049212944
-0.30613908 -0.23266889 0.049163923
-0.30634612 -0.23266344 0.04920622
-0.30652738 -0.23266847 0.049139857
-0.30672342 -0.23266925 0.049117379
-0.3069213 -0.23266704 0.049126163
-0.30711743 -0.2326678 0.049103696
-0.30730346 -0.23267019 0.049065087
-0.30749041 -0.23267399 0.049011406
-0.30769593 -0.23266974 0.049040981
-0.30791011 -0.23265906 0.049137674
-0.30807459 -0.23267479 0.048960231
-0.30827829 -0.23267166 0.048978236
-0.30848685 -0.2326642 0.049041387
-0.30868486 -0.2326642 0.049027003
-0.30885765 -0.23267712 0.04887845
-0.30904412 -0.23267926 0.048842154
-0.30926466 -0.23266602 0.048965435
-0.30946693 -0.23266575 0.048953339
-0.30965853 -0.23267084 0.048885718
-0.30986017 -0.23267093 0.048870154
-0.31005934 -0.23266694 0.048897464
-0.31025749 -0.23266704 0.048881918
-0.31044906 -0.23266861 0.048851371
-0.31063029 -0.23267344 0.048787318
-0.31081304 -0.23267749 0.048731364
-0.3110207 -0.23267312 0.048762076
-0.3112109 -0.23267536 0.048724595
-0.31142622 -0.23266754 0.048791155
-0.31162605 -0.23266873 0.048764013
-0.31181589 -0.23266953 0.048741587
-0.31199872 -0.23267359 0.048685633
-0.31219372 -0.2326737 0.048670121
-0.31237578 -0.23267809 0.048610691
-0.3125903 -0.23267269 0.048651777
-0.31279796 -0.23266722 0.04869407
-0.31298479 -0.23267114 0.048639245
-0.31317776 -0.23267391 0.048595939
-0.31336871 -0.23267758 0.048543397
-0.31358224 -0.23266976 0.048609972
-0.31375119 -0.23267829 0.048507791
-0.31394413 -0.23267953 0.048480712
-0.31411964 -0.23268825 0.048376154
-0.31433061 -0.23268177 0.048428852
-0.31452209 -0.23268522 0.048378617
-0.31473738 -0.23267706 0.048448652
-0.31492186 -0.23268044 0.048399631
-0.31514937 -0.23266889 0.048504323
-0.31531575 -0.23268285 0.048345402
-0.31551158 -0.23268153 0.048344944
-0.31571034 -0.23268206 0.048324764
-0.31592298 -0.23267546 0.048378602
-0.31611934 -0.23267558 0.048363078
-0.31631938 -0.23267423 0.048362575
-0.31651095 -0.23267779 0.048311178
-0.31671202 -0.2326761 0.04831415
-0.31690812 -0.23267786 0.048281249
-0.31711507 -0.23267394 0.048307341
-0.31731164 -0.23267417 0.048290651
-0.31749335 -0.2326802 0.048213847
-0.31771705 -0.23267277 0.048275705
-0.31790203 -0.23267613 0.048226684
-0.31809479 -0.23267792 0.048193809
-0.31828085 -0.23268229 0.048134353
-0.31850335 -0.23267418 0.04820317
-0.31870034 -0.23267584 0.048171423
-0.31888857 -0.23267941 0.048120052
-0.3190819 -0.23268108 0.048088327
-0.31929079 -0.23267835 0.048101656
-0.31950006 -0.2326742 0.04813005
-0.31969038 -0.23267843 0.048071712
-0.31987417 -0.23268369 0.048002996
-0.32007763 -0.23268177 0.048008267
-0.32026175 -0.23268823 0.047926817
-0.3204816 -0.23268048 0.047992181
-0.32070518 -0.23267283 0.048056357
-0.32091528 -0.23266877 0.048083577
-0.32107195 -0.23268764 0.047873765
-0.32128796 -0.23268025 0.047935687
-0.32148442 -0.23268497 0.047871515
-0.32171524 -0.23267385 0.047971539
-0.32187539 -0.23268741 0.047817308
-0.32210428 -0.2326784 0.047895338
-0.32230824 -0.23267934 0.04787048
-0.32249492 -0.23268369 0.047811009
-0.32270432 -0.23268031 0.047831286
-0.3228977 -0.23268242 0.047794931
-0.32311562 -0.23268251 0.04777807
-0.32330155 -0.23268466 0.047741782
-0.32350141 -0.23268344 0.047740128
-0.323695 -0.23268433 0.047716513
-0.32388631 -0.23268722 0.047672067
-0.32408789 -0.23268674 0.047662295
-0.32427621 -0.23269187 0.047594704
-0.32445213 -0.23269618 0.047536485
-0.32471028 -0.23267983 0.047689572
-0.32487145 -0.23269138 0.047556177
-0.32510602 -0.23268047 0.047653861
-0.32531035 -0.23268174 0.047625527
-0.3255192 -0.23268397 0.047586724
-0.32571858 -0.23268451 0.047566548
-0.32591879 -0.23268481 0.04754867
-0.32611063 -0.23268659 0.047515806
-0.32633379 -0.23268445 0.047522068
-0.32652277 -0.23268835 0.047467213
-0.32673571 -0.23268715 0.047464292
-0.32692522 -0.23268631 0.047459245
-0.32713395 -0.23268303 0.04747837
-0.32734561 -0.2326858 0.047433756
-0.32753265 -0.23268697 0.04740788
-0.32775176 -0.23268297 0.047433868
-0.32792473 -0.23269071 0.047339767
-0.32813469 -0.23268843 0.047348451
-0.32834193 -0.23268813 0.04733631
-0.32854962 -0.23268664 0.04733691
-0.32877174 -0.23268537 0.047333911
-0.32896531 -0.23268814 0.047290608
-0.3291539 -0.23269017 0.047255449
-0.32938486 -0.23268312 0.047312617
-0.32958645 -0.23268364 0.047292408
-0.32978192 -0.23268707 0.047242139
-0.32996547 -0.23269066 0.047190808
-0.33016729 -0.23269118 0.047170602
-0.3303633 -0.23269449 0.04712148
-0.33057907 -0.23269217 0.047130127
-0.33080286 -0.2326887 0.047150277
-0.33100668 -0.23268667 0.047156703
-0.33118856 -0.23269193 0.047088012
-0.3314068 -0.23268805 0.047112845
-0.33162403 -0.2326877 0.047100618
-0.3318148 -0.23269159 0.04704576
-0.33202088 -0.2326923 0.047023196
-0.33223194 -0.23268956 0.04703651
-0.33243072 -0.2326934 0.046981573
-0.3326138 -0.23269635 0.046937205
-0.33283889 -0.23269199 0.046966612
-0.33305159 -0.23269211 0.046949796
-0.33325544 -0.2326957 0.046897136
-0.33348081 -0.23269452 0.046892956
-0.3336755 -0.23269652 0.046857744
-0.33387744 -0.23269659 0.046842176
-0.33409542 -0.23269448 0.046848483
-0.33429241 -0.23269393 0.046839893
-0.33448231 -0.23270135 0.046747968
-0.33471179 -0.2326943 0.046805147
-0.33492407 -0.23269388 0.04679412
-0.33512816 -0.23269163 0.04680286
-0.33531788 -0.23269916 0.046709776
-0.22775169 -0.23291761 0.052286364
-0.22798991 -0.23292054 0.052238021
-0.22823806 -0.23292617 0.052160636
-0.22849478 -0.23293307 0.052069262
-0.22874326 -0.23293903 0.051988386
-0.22898725 -0.23294392 0.05191914
-0.22925231 -0.23295233 0.051811479
-0.22951145 -0.23296373 0.051672593
-0.22973682 -0.23296398 0.051653318
-0.22996441 -0.2329638 0.051638663
-0.23019922 -0.23296675 0.051590353
-0.23043448 -0.23296994 0.051539712
-0.23066862 -0.23297289 0.051491406
-0.23090684 -0.23297594 0.051441893
-0.23114461 -0.2329801 0.051380813
-0.23138472 -0.232985 0.051311597
-0.23162754 -0.23299079 0.05123309
-0.23186509 -0.23299406 0.051181279
-0.23209712 -0.23299703 0.051132984
-0.2323384 -0.23300271 0.051055647
-0.2325743 -0.23300698 0.050993424
-0.23281687 -0.2330121 0.050921869
-0.23305015 -0.23301584 0.050865453
-0.23328459 -0.23302002 0.050804399
-0.23351717 -0.23302376 0.050747991
-0.23376119 -0.23302975 0.050667152
-0.23400119 -0.23303588 0.050585192
-0.23423304 -0.23303974 0.050527636
-0.23447701 -0.23304726 0.050430581
-0.23470294 -0.23304841 0.050402034
-0.23493373 -0.23305227 0.050344486
-0.23516022 -0.23305495 0.050299715
-0.23539719 -0.23306087 0.050220102
-0.23562768 -0.23306374 0.050172981
-0.23585176 -0.23306601 0.050132859
-0.23608373 -0.23307075 0.050066032
-0.23631181 -0.23307441 0.050010826
-0.23654278 -0.23307782 0.049957909
-0.2367695 -0.23308128 0.049905021
-0.2369945 -0.23308431 0.049856789
-0.23722441 -0.23308894 0.049791135
-0.23745096 -0.2330914 0.049748685
-0.23766851 -0.23309237 0.04972253
-0.23789759 -0.23309581 0.049669623
-0.23812006 -0.23309852 0.04962489
-0.23834667 -0.23310263 0.049565058
-0.23856485 -0.23310415 0.049533103
-0.23879302 -0.2331077 0.049479049
-0.23901433 -0.23311041 0.049434327
-0.23923624 -0.23311213 0.049400017
-0.23945731 -0.23311496 0.049354129
-0.23967713 -0.23311746 0.049311738
-0.23995893 -0.23313665 0.049089231
-0.24016775 -0.23312666 0.04917901
-0.24031012 -0.23311014 0.049342338
-0.24052656 -0.23311575 0.04926753
-0.24084961 -0.23314956 0.048888262
-0.24104771 -0.23314801 0.048890077
-0.24127209 -0.23314883 0.048865028
-0.24142534 -0.23313335 0.049016677
-0.24164842 -0.23313782 0.048953399
-0.24186844 -0.23313998 0.048914481
-0.24208251 -0.23314153 0.048882559
-0.24230015 -0.23314305 0.048850611
-0.24253011 -0.23314625 0.048800014
-0.24273247 -0.23314667 0.04878094
-0.24294773 -0.23314898 0.048740894
-0.24316593 -0.23315105 0.048703145
-0.24338134 -0.23315081 0.048689749
-0.24359119 -0.23315282 0.048653238
-0.24380279 -0.23315416 0.048623648
-0.24402641 -0.23315577 0.048590489
-0.24422707 -0.23315607 0.048572581
-0.24444179 -0.2331574 0.048542976
-0.24465224 -0.23315863 0.04851456
-0.24485987 -0.23315889 0.048496604
-0.24506442 -0.23315807 0.048490249
-0.24527237 -0.23315568 0.048500083
-0.24547209 -0.23315313 0.048512317
-0.24565749 -0.23314659 0.048567533
-0.24584216 -0.23313829 0.048641291
-0.24601036 -0.23312062 0.048814833
-0.24499728 -0.23237725 0.056706648
-0.24528342 -0.23240501 0.056393728
-0.24540661 -0.23236282 0.056828342
-0.24561104 -0.23235792 0.056864865
-0.24583963 -0.23236126 0.056813121
-0.2461638 -0.23231342 0.057292387
-0.24670717 -0.23226734 0.05773738
-0.24696505 -0.23228304 0.057553314
-0.24836425 -0.23261321 0.053978786
-0.24856938 -0.23260731 0.054025728
-0.24882261 -0.23261048 0.053973779
-0.24905606 -0.23261367 0.053923156
-0.24924457 -0.23260744 0.053974871
-0.24945909 -0.23260932 0.053939473
-0.24968728 -0.23261045 0.053910919
-0.24988803 -0.23261857 0.053810745
-0.25006497 -0.232609 0.053898476
-0.25032032 -0.23261745 0.053790893
-0.25051495 -0.23261604 0.053791583
-0.25074229 -0.23261364 0.053800099
-0.25094724 -0.23260808 0.053843565
-0.25114006 -0.23260227 0.053890616
-0.2513524 -0.2326057 0.053839009
-0.25156114 -0.23262225 0.05364956
-0.25175107 -0.23261525 0.053709373
-0.25200787 -0.23261257 0.053718802
-0.25221527 -0.23261029 0.053727485
-0.25241444 -0.23261347 0.053679477
-0.25264382 -0.23261459 0.053650901
-0.2528339 -0.23261155 0.053669002
-0.25301969 -0.23261216 0.053648904
-0.25325957 -0.232613 0.053622566
-0.25347018 -0.23261468 0.053589508
-0.2536945 -0.2326156 0.053563297
-0.25390977 -0.23262188 0.053481549
-0.25410321 -0.23261695 0.053519309
-0.25429621 -0.23261377 0.053538553
-0.25451684 -0.23261715 0.053486876
-0.25469729 -0.2326135 0.053512014
-0.25487745 -0.23260766 0.053560317
-0.25512135 -0.23262179 0.053393755
-0.25530562 -0.23261207 0.053482577
-0.25555944 -0.23261535 0.053429462
-0.25575715 -0.23261721 0.053395361
-0.25592813 -0.23261066 0.053451866
-0.25617126 -0.23261896 0.053346705
-0.25637388 -0.23261529 0.053370491
-0.25657678 -0.23261613 0.053346783
-0.25676498 -0.23261079 0.053389229
-0.25699732 -0.23261343 0.053344414
-0.25718477 -0.23261437 0.053320818
-0.25737804 -0.23261207 0.053330779
-0.25762922 -0.2326286 0.053138658
-0.25782537 -0.23262143 0.053199586
-0.25801751 -0.23261409 0.053262856
-0.25822678 -0.2326172 0.053214751
-0.25842553 -0.23261862 0.053185269
-0.25863642 -0.23262063 0.053148746
-0.25884357 -0.23261803 0.05316091
-0.25906718 -0.23261875 0.053137019
-0.25925502 -0.23262078 0.053101841
-0.25946948 -0.23262067 0.053087302
-0.2596823 -0.232622 0.053057708
-0.25985858 -0.23262168 0.053048123
-0.26005313 -0.23261355 0.053119477
-0.26026887 -0.23262213 0.053013392
-0.2604835 -0.23262511 0.052966408
-0.26069182 -0.23261876 0.053017952
-0.2608932 -0.23262313 0.05295717
-0.26109016 -0.23262721 0.052899905
-0.26129916 -0.23261876 0.052973457
-0.26149365 -0.23262395 0.052904636
-0.26170135 -0.23263071 0.05281831
-0.26191029 -0.23262502 0.052862901
-0.26211101 -0.23261596 0.052943479
-0.26232085 -0.23262194 0.052865244
-0.26251537 -0.2326138 0.052936606
-0.26271904 -0.23262103 0.052845679
-0.26292309 -0.23262593 0.052779093
-0.26312292 -0.23262195 0.052806377
-0.26333946 -0.23262525 0.0527559
-0.26353207 -0.23261856 0.052812219
-0.26373413 -0.2326194 0.052788503
-0.26395205 -0.2326272 0.052690506
-0.26414722 -0.23263183 0.052627467
-0.26434442 -0.23262908 0.052642033
-0.26454622 -0.23262706 0.052648447
-0.2647571 -0.23262654 0.052638564
-0.26496333 -0.23262846 0.052603237
-0.2651391 -0.23262011 0.052678235
-0.26534408 -0.23262435 0.052618578
-0.26555887 -0.23263095 0.052533358
-0.26575813 -0.23262709 0.052559495
-0.26594236 -0.23262298 0.052589223
-0.26617408 -0.23263554 0.052440137
-0.26638004 -0.23263471 0.052433774
-0.26658425 -0.23263225 0.052444804
-0.26679829 -0.23262861 0.052467339
-0.26700354 -0.2326345 0.052390307
-0.26718992 -0.23262917 0.052432772
-0.26737499 -0.23262241 0.052490309
-0.26757786 -0.23263009 0.052394759
-0.26779127 -0.23262987 0.052381381
-0.2679846 -0.23263188 0.052346162
-0.26816592 -0.232629 0.052363172
-0.26836896 -0.23262575 0.052382331
-0.26856992 -0.23262431 0.052382953
-0.26880035 -0.23263125 0.052292965
-0.26899171 -0.23262744 0.052319169
-0.26920399 -0.23263516 0.052222386
-0.26937577 -0.23263873 0.052172277
-0.26959112 -0.23262869 0.052262001
-0.26979762 -0.23263007 0.052232455
-0.26997897 -0.23263676 0.052148677
-0.27016488 -0.23262174 0.052293107
-0.2703754 -0.23262386 0.052255414
-0.27056521 -0.23263261 0.052149553
-0.27075273 -0.23262891 0.052174628
-0.27096185 -0.23263468 0.052098714
-0.27116156 -0.23263279 0.052103989
-0.27135739 -0.2326306 0.052112773
-0.27156287 -0.23263186 0.052084401
-0.27175319 -0.23263244 0.05206427
-0.2719453 -0.23263039 0.052071922
-0.27216059 -0.23263027 0.052057374
-0.27235416 -0.23263061 0.052039526
-0.2725437 -0.23263045 0.052027516
-0.27273709 -0.23263068 0.052010827
-0.27293435 -0.23263144 0.051988315
-0.27313888 -0.23263867 0.051897381
-0.27334279 -0.23263235 0.051948972
-0.27354631 -0.23263836 0.051870793
-0.27372217 -0.23263398 0.051904075
-0.27391183 -0.23262806 0.051952306
-0.27412105 -0.2326389 0.051823102
-0.27432662 -0.23264314 0.051763449
-0.27452764 -0.23263827 0.051799994
-0.27471963 -0.2326296 0.051877175
-0.27490234 -0.232632 0.051838562
-0.27509093 -0.23263159 0.051828869
-0.2753005 -0.23263791 0.051747162
-0.27548864 -0.23264557 0.051652893
-0.275691 -0.2326442 0.05165235
-0.27588576 -0.23264191 0.051662311
-0.27607524 -0.23262553 0.051820606
-0.27626714 -0.2326249 0.051813196
-0.27646571 -0.23264362 0.051601823
-0.27667019 -0.23263828 0.051642977
-0.27685729 -0.23263493 0.051664576
-0.27705708 -0.23263744 0.051623512
-0.27725714 -0.23265384 0.051436447
-0.27744916 -0.23262985 0.051674671
-0.27764848 -0.23263137 0.051644035
-0.27785242 -0.23263739 0.051565856
-0.27804688 -0.23263465 0.051580448
-0.27823579 -0.23263943 0.051516294
-0.27843517 -0.23264349 0.051459007
-0.27864128 -0.23264575 0.051420204
-0.27882797 -0.23264085 0.051458027
-0.27901822 -0.23263527 0.051502779
-0.279217 -0.23263779 0.051461719
-0.27940431 -0.23263642 0.05146246
-0.27959466 -0.2326304 0.051511839
-0.27979487 -0.23264723 0.051320143
-0.27999717 -0.23265392 0.051235031
-0.28018972 -0.23263235 0.051447764
-0.28037712 -0.2326334 0.051423013
-0.28057978 -0.23265055 0.051227823
-0.28078055 -0.23263466 0.051380232
-0.28096798 -0.23264308 0.051277857
-0.28116953 -0.23265187 0.05117074
-0.28137082 -0.23263663 0.051316194
-0.2815685 -0.23264688 0.051194038
-0.28175551 -0.23264275 0.051223744
-0.28195655 -0.2326479 0.051154859
-0.28215447 -0.2326414 0.051208813
-0.28234532 -0.23263516 0.051260509
-0.28253517 -0.2326429 0.051165067
-0.28273606 -0.23264498 0.051128622
-0.28292984 -0.23264565 0.051107295
-0.28312415 -0.2326417 0.051134631
-0.28331423 -0.23264273 0.051109865
-0.28350788 -0.23264351 0.051087387
-0.28370181 -0.23264244 0.051084597
-0.28390208 -0.23264594 0.051033106
-0.28409255 -0.23264377 0.051041931
-0.28428599 -0.23264456 0.051019445
-0.28448743 -0.23264156 0.051036298
-0.2846882 -0.23264153 0.051021874
-0.28487751 -0.23264423 0.05097973
-0.28507727 -0.23264761 0.050929397
-0.28526217 -0.23263966 0.050999675
-0.28544581 -0.23263654 0.051018983
-0.28564218 -0.23265074 0.05085513
-0.28583801 -0.23264281 0.050924163
-0.28603435 -0.23264469 0.050890073
-0.28622779 -0.23265474 0.050770275
-0.28643382 -0.23264885 0.05081721
-0.28661722 -0.23264639 0.050829574
-0.28680626 -0.23264799 0.05079902
-0.28701618 -0.23265088 0.050753228
-0.28720817 -0.23264496 0.050801437
-0.28739181 -0.23264217 0.050817274
-0.28758082 -0.23264354 0.050789043
-0.28778219 -0.23264119 0.050798941
-0.28797325 -0.23264575 0.050737083
-0.28816569 -0.23264709 0.050708823
-0.28835785 -0.23264888 0.050675925
-0.28856149 -0.23264906 0.050659157
-0.28875554 -0.23264709 0.050665647
-0.28894439 -0.23264813 0.050640877
-0.2891387 -0.23264572 0.050651994
-0.28933209 -0.23264498 0.050645735
-0.28951663 -0.23265959 0.050478503
-0.28972292 -0.23264885 0.050576419
-0.28990597 -0.23264739 0.050578352
-0.29009527 -0.23265328 0.050502621
-0.29029521 -0.23265325 0.050488193
-0.29048637 -0.23265031 0.050505131
-0.29068914 -0.23264609 0.05053471
-0.29087549 -0.23265044 0.05047521
-0.29106778 -0.23265642 0.05039829
-0.29126313 -0.23265268 0.050423294
-0.29146042 -0.23265137 0.050422795
-0.29166445 -0.23264569 0.050467439
-0.2918576 -0.23265013 0.050406728
-0.29203203 -0.23266491 0.050238416
-0.29223379 -0.23266686 0.050203126
-0.29243928 -0.23265491 0.050313782
-0.29262498 -0.23265477 0.050301805
-0.2928305 -0.23265217 0.050313979
-0.29303342 -0.23265709 0.050247394
-0.29324186 -0.23265107 0.050295461
-0.29342183 -0.2326493 0.050300904
-0.29361627 -0.23264325 0.050350256
-0.29379788 -0.23265602 0.050202742
-0.29401082 -0.2326493 0.050257735
-0.29418987 -0.2326526 0.050209887
-0.29438138 -0.23266552 0.050059967
-0.29457492 -0.23265685 0.050137132
-0.29477516 -0.23265639 0.050127342
-0.29497313 -0.23266199 0.050053846
-0.29517037 -0.23265725 0.05008927
-0.29536182 -0.23265849 0.050062168
-0.2955603 -0.2326598 0.050033856
-0.29575157 -0.23266116 0.050005607
-0.29594129 -0.23266055 0.049998216
-0.29614484 -0.23265015 0.050092679
-0.29633975 -0.2326549 0.050028473
-0.296543 -0.23265837 0.049976945
-0.29672733 -0.23265626 0.049985826
-0.29690969 -0.23265921 0.049941424
-0.29710251 -0.23265912 0.049928222
-0.29729536 -0.23265903 0.049915019
-0.29750302 -0.23265533 0.049938764
-0.29768902 -0.23265506 0.049927942
-0.29788178 -0.23265818 0.04988113
-0.29806107 -0.23266654 0.049779989
-0.29825842 -0.23266862 0.04974357
-0.29844537 -0.23266748 0.049742006
-0.29865247 -0.23266158 0.04978893
-0.29883295 -0.23266575 0.049731802
-0.29902932 -0.23266289 0.04974753
-0.29924294 -0.2326521 0.049845383
-0.29945189 -0.2326508 0.049843632
-0.29963642 -0.23266013 0.049732007
-0.29982784 -0.23266402 0.049677107
-0.30005622 -0.23264532 0.049857095
-0.30024174 -0.23265906 0.049699124
-0.30042812 -0.23266132 0.049661636
-0.30061173 -0.23266295 0.04963113
-0.30080241 -0.23265946 0.049653865
-0.30098787 -0.23266491 0.049582794
-0.30119464 -0.23266277 0.049590319
-0.30139619 -0.23265933 0.049611807
-0.30158454 -0.23266268 0.049562722
-0.30177811 -0.23266236 0.049551826
-0.30196595 -0.2326611 0.049551409
-0.30215144 -0.23266391 0.049508143
-0.30235657 -0.23266309 0.049501784
-0.30255762 -0.23266505 0.049466502
-0.30274233 -0.23266359 0.04946842
-0.30293283 -0.23266307 0.049459878
-0.30312562 -0.23266806 0.049393374
-0.30333027 -0.23266536 0.049406722
-0.30350992 -0.23266953 0.049349599
-0.30370817 -0.23266645 0.049367629
-0.30391288 -0.23266385 0.049379814
-0.30409873 -0.23266634 0.049340021
-0.30429491 -0.23266691 0.049319841
-0.30449417 -0.23266777 0.049296148
-0.30469429 -0.23266378 0.049323432
-0.30488437 -0.23266591 0.049287077
-0.30507773 -0.23266396 0.049293574
-0.30526686 -0.23266664 0.049251433
-0.3054674 -0.23266475 0.049256701
-0.30567491 -0.23266302 0.049259592
-0.30586717 -0.23266393 0.04923597
-0.30604729 -0.23266767 0.049183473
-0.30625662 -0.23266296 0.049217638
-0.3064433 -0.23266909 0.049139597
-0.30663574 -0.23266791 0.049137987
-0.30682951 -0.23266803 0.049122456
-0.30703849 -0.23266377 0.049151987
-0.30721238 -0.23267283 0.049043931
-0.30740419 -0.2326721 0.049037687
-0.30761218 -0.23266849 0.04906027
-0.30781934 -0.2326616 0.049117621
-0.30800575 -0.23266959 0.049019895
-0.30818895 -0.23267354 0.048965059
-0.30840373 -0.23266472 0.049042046
-0.3086119 -0.23266134 0.049062312
-0.30878583 -0.23267195 0.04893804
-0.30896044 -0.23268023 0.04883809
-0.30917913 -0.23266974 0.048932426
-0.30939406 -0.23266314 0.048986234
-0.3095803 -0.23266739 0.048927888
-0.30977654 -0.23267378 0.048846304
-0.30997798 -0.23266868 0.048885167
-0.31018147 -0.23266621 0.048896205
-0.31036073 -0.23267381 0.048803166
-0.31056458 -0.23267123 0.048815355
-0.31074613 -0.2326742 0.048770968
-0.31094286 -0.23267508 0.048747301
-0.31113765 -0.23267519 0.048731759
-0.31134397 -0.2326716 0.048754364
-0.31155068 -0.23266791 0.048778117
-0.31174776 -0.23267044 0.048737071
-0.31193724 -0.23267148 0.048712309
-0.31212479 -0.23267175 0.048695669
-0.31230718 -0.23267934 0.048602615
-0.31252941 -0.23267047 0.048679538
-0.31273618 -0.23266545 0.048717186
-0.31292278 -0.23267114 0.048643786
-0.31311899 -0.23267092 0.048631709
-0.3133069 -0.23267758 0.048547879
-0.3135238 -0.23266831 0.048629474
-0.31368878 -0.23267864 0.048508752
-0.31389865 -0.23267415 0.048540592
-0.3140637 -0.23268592 0.048404805
-0.31426379 -0.23268567 0.048392698
-0.31447029 -0.23268121 0.048424564
-0.31467909 -0.23267739 0.048449468
-0.31487265 -0.2326785 0.048423506
-0.31509057 -0.23267099 0.048486564
-0.31526846 -0.23267871 0.048392374
-0.31545272 -0.23268375 0.048325956
-0.31565994 -0.23268081 0.048341587
-0.31586829 -0.23267601 0.048376918
-0.31606585 -0.23267567 0.048365995
-0.31627217 -0.2326733 0.048375841
-0.3164635 -0.23267554 0.048338324
-0.31666106 -0.23267674 0.04831117
-0.31685668 -0.2326773 0.048290998
-0.31706515 -0.23267426 0.048307788
-0.31726721 -0.23267235 0.048313044
-0.31744617 -0.23268093 0.048209582
-0.3176665 -0.23267341 0.048272613
-0.3178547 -0.23267698 0.048221212
-0.31804988 -0.23267788 0.048197567
-0.31824121 -0.23268166 0.048143819
-0.31845891 -0.23267403 0.048208036
-0.31865573 -0.23267579 0.048175097
-0.31884375 -0.23267949 0.048122544
-0.31903958 -0.23268026 0.048100047
-0.31925017 -0.23267831 0.048105232
-0.31946141 -0.23267479 0.048126623
-0.31965327 -0.23267715 0.048087947
-0.31983939 -0.23268293 0.048013385
-0.32003492 -0.23268262 0.048002481
-0.32022688 -0.23268759 0.047935985
-0.32044402 -0.23267955 0.048004836
-0.32066864 -0.23267287 0.048058562
-0.32088479 -0.23266669 0.048107728
-0.32103753 -0.23268701 0.047882829
-0.32125583 -0.23267883 0.047952838
-0.32144633 -0.2326857 0.047866661
-0.32167527 -0.23267525 0.047959745
-0.32184801 -0.23268576 0.047836635
-0.32207817 -0.23267762 0.047905385
-0.3222762 -0.23267938 0.047872439
-0.32246578 -0.23268405 0.047809444
-0.32267314 -0.23268013 0.047835514
-0.32286829 -0.23268168 0.047804911
-0.32308498 -0.23268221 0.04778339
-0.32327455 -0.23268567 0.047733143
-0.3234697 -0.23268481 0.047728024
-0.32367158 -0.23268543 0.04770663
-0.32385951 -0.23268703 0.047676086
-0.32406497 -0.23268653 0.047666252
-0.32425171 -0.23269221 0.047592852
-0.32443288 -0.23269483 0.047551945
-0.32468557 -0.23268028 0.047686536
-0.32485241 -0.23269005 0.047571592
-0.32508948 -0.23267956 0.047664605
-0.32528976 -0.23268218 0.047622379
-0.32549214 -0.23268412 0.047587074
-0.32570103 -0.23268405 0.047572579
-0.32590547 -0.23268422 0.047555804
-0.32609493 -0.2326868 0.047514815
-0.32631367 -0.2326849 0.047518775
-0.32651183 -0.23268831 0.047468454
-0.32671979 -0.23268637 0.047473658
-0.32691011 -0.2326853 0.047470901
-0.32712096 -0.23268257 0.047484197
-0.32733139 -0.23268689 0.047423337
-0.32752135 -0.23268606 0.04741827
-0.32774442 -0.23268203 0.047444206
-0.32791853 -0.23268834 0.047365118
-0.32812995 -0.23268792 0.047354069
-0.32833722 -0.23268653 0.047353495
-0.328547 -0.23268557 0.047348253
-0.32877302 -0.23268318 0.047356784
-0.32895759 -0.23268867 0.047285713
-0.3291505 -0.23268946 0.047263242
-0.32938197 -0.23268341 0.047309961
-0.32958174 -0.23268448 0.047283955
-0.32978392 -0.232686 0.047253296
-0.32995865 -0.23269218 0.047175355
-0.3301695 -0.23269121 0.047170114
-0.33036295 -0.23269421 0.04712446
-0.33058387 -0.23269153 0.047136515
-0.33080947 -0.2326865 0.047172852
-0.33100894 -0.23268682 0.047154963
-0.33119255 -0.23269163 0.047090858
-0.33142307 -0.23268646 0.047128316
-0.33162868 -0.23268729 0.047104571
-0.33182225 -0.2326915 0.047046173
-0.33202007 -0.23269348 0.047010917
-0.33223799 -0.23268993 0.047032256
-0.33243507 -0.23269323 0.0469831
-0.33262932 -0.23269522 0.046947874
-0.33285251 -0.23269142 0.046971485
-0.33306187 -0.23269147 0.046955824
-0.3332774 -0.23269399 0.046913467
-0.33349931 -0.23269482 0.046888426
-0.33369568 -0.23269537 0.046868246
-0.3338986 -0.23269522 0.046854958
-0.3340961 -0.23269555 0.046837077
-0.33431354 -0.23269366 0.046841048
-0.33450907 -0.23269863 0.046774521
-0.33473307 -0.23269206 0.046827096
-0.33493477 -0.23269446 0.046787169
-0.33513856 -0.23269331 0.046784304
-0.33534226 -0.23269625 0.046738565
-0.22767213 -0.23291697 0.05229887
-0.22791876 -0.23292096 0.052238818
-0.22816335 -0.23292564 0.052171823
-0.22841287 -0.2329306 0.052101314
-0.22866359 -0.23293711 0.052014574
-0.22891305 -0.2329423 0.051941741
-0.22917588 -0.23295005 0.051840995
-0.22944377 -0.23296151 0.051700804
-0.22967085 -0.23296331 0.051665254
-0.22989936 -0.23296334 0.051648222
-0.23013709 -0.23296706 0.051591717
-0.23037891 -0.23297086 0.051534027
-0.23061128 -0.23297219 0.051503055
-0.23084611 -0.23297428 0.051463954
-0.23108439 -0.23297854 0.051401656
-0.23133413 -0.23298493 0.051316082
-0.23157592 -0.2329904 0.051241007
-0.23181629 -0.23299442 0.051181003
-0.23204267 -0.23299579 0.051150087
-0.23228808 -0.23300144 0.051072661
-0.23253021 -0.23300745 0.050991789
-0.23276682 -0.23301084 0.05093877
-0.23300098 -0.23301481 0.050879978
-0.23323952 -0.23301895 0.050818831
-0.23348069 -0.23302397 0.0507484
-0.23372629 -0.23303039 0.05066286
-0.23395899 -0.23303437 0.050604079
-0.23419528 -0.23303832 0.050545268
-0.23444378 -0.23304714 0.050434209
-0.23467417 -0.23304959 0.050391678
-0.23489703 -0.23305108 0.05035964
-0.2351319 -0.23305504 0.050300844
-0.23536609 -0.23306011 0.050230462
-0.23559558 -0.23306265 0.050186772
-0.23582584 -0.23306675 0.050126858
-0.23605718 -0.23307128 0.050062299
-0.236285 -0.23307362 0.050020952
-0.23651569 -0.23307694 0.049969137
-0.23674606 -0.23308027 0.049917337
-0.23697534 -0.23308459 0.049855113
-0.23720506 -0.23308793 0.049803305
-0.2374309 -0.23309138 0.04975038
-0.23765001 -0.23309158 0.049732283
-0.23787868 -0.23309612 0.049667746
-0.23810579 -0.23309903 0.049620602
-0.2383294 -0.23310217 0.049571168
-0.23855051 -0.23310335 0.049542621
-0.23877588 -0.23310725 0.049485069
-0.23900548 -0.23311135 0.049425151
-0.2392239 -0.2331132 0.049389679
-0.23944458 -0.2331146 0.049358808
-0.23966414 -0.233117 0.049317531
-0.23993661 -0.23313439 0.049114726
-0.24015854 -0.23312873 0.049158014
-0.2403118 -0.23311192 0.049323551
-0.24051763 -0.23311529 0.049273111
-0.24083117 -0.23314454 0.048942499
-0.24104246 -0.23314874 0.048882745
-0.24126495 -0.23315024 0.048850704
-0.24142626 -0.23313217 0.049028926
-0.24164747 -0.23313731 0.048958663
-0.24186465 -0.23313984 0.048916236
-0.24208507 -0.23314223 0.048874952
-0.24229987 -0.2331441 0.048839502
-0.24252492 -0.23314559 0.048807438
-0.24273328 -0.23314673 0.048780154
-0.24294767 -0.23314872 0.048743553
-0.24316834 -0.23315166 0.048696466
-0.24338469 -0.23315176 0.048679546
-0.24359247 -0.23315302 0.048651107
-0.2438067 -0.23315391 0.048626091
-0.24403712 -0.23315658 0.048581243
-0.24423371 -0.2331568 0.048564482
-0.24444206 -0.23315717 0.048545312
-0.24465692 -0.2331586 0.0485145
-0.24486515 -0.23315908 0.048494168
-0.24507467 -0.23315868 0.048483104
-0.24527973 -0.23315665 0.048489451
-0.24548125 -0.23315331 0.048509743
