# .PCD v0.7 - Point Cloud Data file format
VERSION 0.7
FIELDS x y z
SIZE 4 4 4
TYPE F F F
COUNT 1 1 1
WIDTH 1278
HEIGHT 1
VIEWPOINT 0 0 0 1 0 0 0
POINTS 1278
DATA ascii
-0.34504449 -0.10118403 0.053219154
-0.34523606 -0.10110641 0.053214855
-0.34540921 -0.10104854 0.053122964
-0.24570547 -0.14105377 0.058205634
-0.24593639 -0.14096913 0.058136545
-0.24617425 -0.14088294 0.058058202
-0.24640571 -0.14079857 0.057985649
-0.2466408 -0.14071141 0.057922319
-0.24686658 -0.14063032 0.057842866
-0.24713352 -0.14054227 0.057692856
-0.24736564 -0.14045988 0.057604156
-0.2475713 -0.14037715 0.057595175
-0.24777934 -0.14029442 0.057579264
-0.24800086 -0.14021134 0.057526365
-0.24822676 -0.14012827 0.057460763
-0.24844326 -0.14004418 0.057429809
-0.24866255 -0.13996154 0.057380393
-0.248887 -0.13987888 0.057315938
-0.2491191 -0.13979618 0.057229549
-0.2493524 -0.13971217 0.057148919
-0.24956238 -0.13963026 0.057121452
-0.24978293 -0.13954823 0.057063948
-0.25000605 -0.13946629 0.056998361
-0.25023335 -0.13938296 0.056930438
-0.25045657 -0.13930129 0.056862537
-0.25067252 -0.13921985 0.056814283
-0.25089467 -0.13913846 0.056747541
-0.25111729 -0.13905574 0.056688875
-0.25134766 -0.13897455 0.056596726
-0.25156832 -0.1388936 0.056531139
-0.25178623 -0.13881281 0.056472495
-0.25201869 -0.1387306 0.056381486
-0.25222397 -0.13865012 0.056357503
-0.25244418 -0.13856824 0.056299999
-0.25265604 -0.13848796 0.056255221
-0.25288028 -0.13840783 0.056173481
-0.25309035 -0.13832781 0.056132175
-0.25330654 -0.13824643 0.056082759
-0.25352621 -0.1381667 0.056011416
-0.25373507 -0.13808703 0.055971265
-0.25394672 -0.13800749 0.055921879
-0.25416094 -0.13792659 0.055874784
-0.25437587 -0.13784733 0.055813842
-0.25459141 -0.1377667 0.05576098
-0.25480041 -0.13768762 0.05571622
-0.25501004 -0.13760714 0.055679526
-0.25521848 -0.13752827 0.055634767
-0.25543401 -0.13744813 0.055578444
-0.25564262 -0.13736951 0.055531371
-0.25585273 -0.13728949 0.055490065
-0.25605932 -0.13721105 0.055447623
-0.25627181 -0.13713135 0.055397075
-0.25647458 -0.13705303 0.055365033
-0.25668067 -0.13697334 0.055332974
-0.25688809 -0.13689539 0.055284757
-0.2571252 -0.13680756 0.055220261
-0.25726879 -0.13672903 0.055362679
-0.25745231 -0.13665515 0.055354942
-0.25768292 -0.13657694 0.055240866
-0.2579959 -0.13650252 0.054858766
-0.25833267 -0.13633989 0.055038407
-0.25852388 -0.13626853 0.054990266
-0.25873217 -0.13619006 0.054943196
-0.2589328 -0.13611293 0.05490886
-0.25913846 -0.13603455 0.054868724
-0.25933832 -0.13595757 0.054835536
-0.2595557 -0.13587683 0.054778054
-0.25973979 -0.13580242 0.054772623
-0.25994316 -0.13572434 0.054737106
-0.26015455 -0.13564523 0.054685414
-0.26033956 -0.13556947 0.054686904
-0.26053944 -0.13549311 0.054649111
-0.26074159 -0.13541538 0.05461476
-0.26094064 -0.13533583 0.054602347
-0.2611337 -0.13526097 0.054573804
-0.26132742 -0.13518457 0.054554492
-0.26152906 -0.13510719 0.054518983
-0.2617214 -0.13503085 0.054503139
-0.26191086 -0.13495263 0.054509226
-0.26209486 -0.13487744 0.054509573
-0.26228052 -0.134799 0.054528359
-0.26244971 -0.13472083 0.054593373
-0.26261884 -0.13463913 0.054683775
-0.26275015 -0.13455722 0.054886233
-0.26145768 -0.13401526 0.062540874
-0.26167804 -0.13393751 0.062453374
-0.2617774 -0.13384072 0.062855572
-0.26198816 -0.13376382 0.062790029
-0.26241627 -0.13349557 0.063458428
-0.26447147 -0.13313772 0.060013682
-0.26469234 -0.13305943 0.059928492
-0.26485646 -0.13297123 0.060080051
-0.2651186 -0.1328795 0.05997045
-0.26531836 -0.13280046 0.059952263
-0.26548102 -0.13272978 0.059982691
-0.26569644 -0.13264532 0.059957512
-0.26589903 -0.13256498 0.059940472
-0.26609454 -0.13249768 0.059850775
-0.26627061 -0.13241927 0.059897296
-0.2665171 -0.13233231 0.059799306
-0.26669812 -0.13225688 0.059810042
-0.26689562 -0.1321741 0.059825316
-0.26707882 -0.13209295 0.05987066
-0.26723817 -0.13202411 0.059897643
-0.26745951 -0.13194369 0.059826292
-0.26768225 -0.13188043 0.059628032
-0.26784497 -0.13180618 0.059683844
-0.26806921 -0.13170573 0.059747458
-0.26824731 -0.13163231 0.059752434
-0.26846042 -0.13155524 0.059681125
-0.26865983 -0.13147345 0.059683703
-0.26883715 -0.13140437 0.059659854
-0.26901206 -0.13133273 0.059661381
-0.26924908 -0.13124172 0.059619956
-0.26941171 -0.13117413 0.059628464
-0.26963681 -0.13108733 0.059591711
-0.2698454 -0.13101245 0.059518106
-0.27001354 -0.13093743 0.059563518
-0.27020159 -0.13086253 0.059549991
-0.27040625 -0.13078263 0.059523709
-0.27058029 -0.13070908 0.059541397
-0.27075502 -0.13064252 0.059507169
-0.27097356 -0.1305663 0.05941391
-0.27114451 -0.13048531 0.059493918
-0.27137285 -0.13039576 0.059467524
-0.27154109 -0.13032329 0.059494477
-0.27172923 -0.13025834 0.059409425
-0.27193126 -0.13017386 0.059423529
-0.27212626 -0.13009694 0.059404209
-0.27232012 -0.13001983 0.059389509
-0.27249107 -0.12994593 0.059418753
-0.2726998 -0.12986356 0.059398212
-0.27287254 -0.12979265 0.059400916
-0.27307156 -0.12972213 0.059323892
-0.27331042 -0.12963684 0.059236314
-0.27348608 -0.12955973 0.059274755
-0.27364954 -0.12948631 0.059322499
-0.27385163 -0.12941487 0.05924315
-0.27404809 -0.12933686 0.059227288
-0.2742407 -0.12926026 0.059212591
-0.27443734 -0.12918249 0.059194416
-0.27462986 -0.12910093 0.059215494
-0.27481815 -0.12903076 0.059167363
-0.27500924 -0.12895656 0.059139982
-0.27522323 -0.12887478 0.059099808
-0.27536848 -0.12881346 0.059114158
-0.27554742 -0.12873003 0.059188366
-0.27576324 -0.12866233 0.059042051
-0.2759572 -0.12858438 0.059033118
-0.27613983 -0.12850234 0.059086531
-0.27634403 -0.12843101 0.059000257
-0.27652135 -0.12836321 0.058967177
-0.27671924 -0.12827624 0.059011292
-0.27690408 -0.12821974 0.058875494
-0.27709773 -0.12813674 0.058903489
-0.27729878 -0.12805395 0.058908369
-0.27745107 -0.12797365 0.059038065
-0.27765414 -0.12790293 0.058950633
-0.27781594 -0.12782358 0.05904568
-0.27803868 -0.12775582 0.058879718
-0.27822864 -0.12768577 0.05882581
-0.27841249 -0.12760451 0.058869988
-0.27860376 -0.12752363 0.058889911
-0.278786 -0.12745336 0.058860268
-0.27897066 -0.12737837 0.05885715
-0.27919039 -0.12730491 0.05874081
-0.27936679 -0.12723829 0.058701962
-0.27954993 -0.12715992 0.058727682
-0.27974764 -0.12708558 0.058681816
-0.27992874 -0.12700626 0.058720246
-0.28010875 -0.12692948 0.058743682
-0.28027591 -0.12685551 0.05878447
-0.28048328 -0.12678966 0.058649726
-0.28067899 -0.12670858 0.058658101
-0.28085288 -0.12663509 0.058675788
-0.28103954 -0.1265685 0.058606893
-0.28125009 -0.12648925 0.058558661
-0.28144744 -0.12641266 0.0585301
-0.28163734 -0.126332 0.05855234
-0.28182501 -0.12625338 0.058566511
-0.28203049 -0.12617846 0.058502153
-0.28218368 -0.12610665 0.058568388
-0.28236961 -0.12603389 0.058545649
-0.28256005 -0.12596399 0.058489427
-0.28275856 -0.12588191 0.058496624
-0.28293273 -0.12581961 0.058433563
-0.28310907 -0.12574479 0.058453552
-0.28330019 -0.12566525 0.058464248
-0.28348961 -0.12558463 0.058487628
-0.28369638 -0.12551193 0.058403648
-0.28387851 -0.1254338 0.058430538
-0.28408536 -0.12536897 0.058290031
-0.28425083 -0.12530552 0.058260463
-0.284444 -0.12521289 0.058358826
-0.28463572 -0.12514181 0.058307216
-0.28481013 -0.12507361 0.058285683
-0.2849541 -0.12499072 0.05845809
-0.28517449 -0.12491795 0.058334827
-0.28534225 -0.12485276 0.058311019
-0.28553262 -0.1247853 0.058237497
-0.2857205 -0.12470805 0.058241282
-0.28590664 -0.12463763 0.058201231
-0.28609619 -0.12455777 0.058218852
-0.28628018 -0.12448581 0.05819612
-0.28646046 -0.12441923 0.058145724
-0.28664061 -0.12433997 0.05818646
-0.28684288 -0.12425846 0.058178641
-0.28701103 -0.12419022 0.058175594
-0.28719303 -0.12412132 0.05813672
-0.28737882 -0.12404718 0.058124363
-0.28756624 -0.12397464 0.058095846
-0.28776777 -0.12390197 0.058026884
-0.28793862 -0.12381844 0.058125347
-0.28812945 -0.12375417 0.058027595
-0.28829777 -0.12368667 0.058018778
-0.28847852 -0.12361281 0.058019139
-0.28867695 -0.12354271 0.057940964
-0.28887972 -0.12346292 0.057919301
-0.289049 -0.12338696 0.057968166
-0.28921968 -0.12330738 0.058038935
-0.28940129 -0.12324478 0.057956219
-0.28958496 -0.12317971 0.057885036
-0.28977519 -0.12310683 0.057850748
-0.28996211 -0.12304609 0.057739161
-0.29014644 -0.12296674 0.057768349
-0.29032034 -0.12288003 0.05788064
-0.29048377 -0.12279645 0.058001056
-0.29067582 -0.12273735 0.057862919
-0.290869 -0.12268034 0.057706319
-0.29105052 -0.12259149 0.057811655
-0.29123622 -0.12251948 0.0577843
-0.29142261 -0.12246041 0.057662345
-0.29160392 -0.12237681 0.05773076
-0.29177889 -0.12229611 0.057796903
-0.29196709 -0.12222195 0.057777613
-0.29215813 -0.12215212 0.057719089
-0.29233769 -0.12207809 0.057724059
-0.29252121 -0.12201665 0.057627492
-0.29271194 -0.12194727 0.057566658
-0.29289582 -0.12186712 0.057602767
-0.29306716 -0.12179355 0.05762855
-0.29324645 -0.12171932 0.057635833
-0.2934351 -0.12164707 0.057601541
-0.29360458 -0.12157007 0.057657324
-0.29378679 -0.12150851 0.057565384
-0.29398516 -0.12145487 0.05736953
-0.29416725 -0.1213637 0.057489865
-0.29433265 -0.12127852 0.057616036
-0.29451749 -0.12122346 0.05746986
-0.29470927 -0.12114269 0.057487477
-0.29488528 -0.12106205 0.057550143
-0.29507342 -0.12101581 0.057331271
-0.29526126 -0.12092665 0.057420429
-0.29543987 -0.12085156 0.057435796
-0.29563034 -0.12078599 0.05734843
-0.29580286 -0.12071516 0.057351124
-0.29599333 -0.12064089 0.057326056
-0.29616773 -0.12055525 0.05742912
-0.29634267 -0.12049054 0.057381049
-0.29652879 -0.12042545 0.057302922
-0.29671454 -0.12034923 0.057305567
-0.29689717 -0.12027492 0.057303607
-0.2970753 -0.12019842 0.057330508
-0.29725313 -0.12013252 0.057282425
-0.29743025 -0.12006466 0.057250492
-0.2976141 -0.11999484 0.057212763
-0.29780138 -0.11992429 0.057170406
-0.29797432 -0.11984233 0.057251558
-0.29816234 -0.11977485 0.057184964
-0.29834074 -0.11969904 0.057206094
-0.29853377 -0.11962308 0.057185635
-0.29870769 -0.11955893 0.057136402
-0.29889381 -0.11948498 0.057121746
-0.29906517 -0.11940978 0.057159059
-0.2992298 -0.11935394 0.057077575
-0.29941911 -0.11927868 0.057062894
-0.29959467 -0.11920646 0.057066735
-0.2997877 -0.11913242 0.057032425
-0.29998106 -0.119061 0.056978498
-0.30015558 -0.11898226 0.057031948
-0.30032885 -0.11891823 0.056983881
-0.30050835 -0.11884939 0.05695194
-0.30070037 -0.11876996 0.056959171
-0.30086562 -0.11869871 0.056986131
-0.30104828 -0.11862778 0.056959946
-0.30122411 -0.11855834 0.056943022
-0.30140331 -0.11848817 0.056921463
-0.30158922 -0.11841673 0.056889493
-0.30177152 -0.11834352 0.056880612
-0.30195388 -0.1182719 0.05686019
-0.30213946 -0.11819736 0.056851294
-0.30231833 -0.1181233 0.056858581
-0.30250061 -0.11804978 0.056852013
-0.30267292 -0.11797968 0.056850094
-0.30285203 -0.11791842 0.056765087
-0.30303428 -0.11785636 0.056676608
-0.30321318 -0.11776295 0.05682233
-0.30338863 -0.11770543 0.056721188
-0.30356738 -0.11763867 0.056676559
-0.30374959 -0.11756244 0.056689601
-0.3039287 -0.1174836 0.056730341
-0.30410749 -0.11741441 0.056703012
-0.30428588 -0.11735135 0.056633003
-0.30447114 -0.11727919 0.056607954
-0.30464664 -0.1172086 0.056600265
-0.30483288 -0.11712379 0.056662895
-0.30501822 -0.11705145 0.056639001
-0.30519608 -0.11698989 0.056559771
-0.30536896 -0.11694406 0.056382488
-0.3055557 -0.11685615 0.056465879
-0.30573559 -0.11677457 0.056523927
-0.30590743 -0.11670806 0.05649779
-0.3060993 -0.11663225 0.05647964
-0.30628869 -0.11655179 0.056501869
-0.30646473 -0.11647792 0.0565161
-0.30663642 -0.1164121 0.05648534
-0.3068158 -0.11633719 0.056497239
-0.30699936 -0.11627378 0.056414522
-0.30717713 -0.11619099 0.056487571
-0.30735207 -0.11613996 0.056341436
-0.30754709 -0.11606303 0.056322116
-0.30771714 -0.11598933 0.056352515
-0.30790266 -0.11591449 0.056345921
-0.30808991 -0.11584573 0.056290872
-0.30826628 -0.1157714 0.056307402
-0.30845138 -0.1156985 0.056288127
-0.30863631 -0.11562633 0.056264233
-0.30880761 -0.11556082 0.056232326
-0.30898064 -0.1154885 0.056244262
-0.30916119 -0.11541037 0.056275763
-0.30934712 -0.11533456 0.056274943
-0.30953991 -0.11526594 0.056202561
-0.30970085 -0.1152058 0.056162633
-0.30988145 -0.11512813 0.05619067
-0.31005785 -0.11506491 0.0561276
-0.31023759 -0.11499032 0.056136034
-0.31042197 -0.11491048 0.056168679
-0.31059453 -0.11484076 0.0561633
-0.31077668 -0.11477713 0.056086354
-0.31095046 -0.11471239 0.056041744
-0.31113148 -0.11465149 0.055948649
-0.3113063 -0.11456666 0.056044783
-0.31148791 -0.11450373 0.055964388
-0.3116571 -0.11444345 0.055901337
-0.31184122 -0.11435741 0.055978976
-0.3120364 -0.11426494 0.056070402
-0.3122218 -0.11419159 0.056053437
-0.31239766 -0.11413584 0.055938441
-0.31258988 -0.11404472 0.056028739
-0.31278634 -0.11395059 0.056128241
-0.31295323 -0.11390996 0.055931374
-0.31312877 -0.11384031 0.055916764
-0.31330672 -0.11377162 0.055888288
-0.31348228 -0.11370197 0.055873666
-0.31366256 -0.11362782 0.055877484
-0.31384164 -0.11356286 0.055819012
-0.31403223 -0.11347773 0.055871245
-0.31420776 -0.11341454 0.055810478
-0.31439012 -0.11334213 0.055795826
-0.31455299 -0.11327668 0.055788178
-0.31473771 -0.11320507 0.055760834
-0.31492549 -0.11312688 0.055771545
-0.31510505 -0.11306062 0.055721138
-0.31527489 -0.112992 0.055715773
-0.3154546 -0.11291969 0.055708062
-0.3156364 -0.11285411 0.055646107
-0.31582284 -0.11277906 0.055638369
-0.31599411 -0.11271309 0.055609927
-0.31618264 -0.11263396 0.055625241
-0.3163622 -0.11255703 0.055650987
-0.31653741 -0.11249381 0.055591367
-0.31672114 -0.11242422 0.05555249
-0.3169086 -0.11234263 0.055588581
-0.31708929 -0.11226895 0.055587787
-0.31726909 -0.11220193 0.055541992
-0.31744698 -0.11212875 0.055545822
-0.31762454 -0.11206102 0.055511579
-0.31780913 -0.11198527 0.055514231
-0.31800151 -0.11190039 0.055559531
-0.31817654 -0.11183724 0.055499919
-0.31834537 -0.11178033 0.055413797
-0.31854334 -0.11168606 0.055509839
-0.31871662 -0.11163024 0.055402935
-0.31889319 -0.11155985 0.055390619
-0.31907719 -0.11148565 0.055384032
-0.31926864 -0.11140321 0.055414338
-0.31943819 -0.11134472 0.055337451
-0.31961307 -0.11128148 0.05527899
-0.31980115 -0.11120076 0.055307008
-0.31999791 -0.11110619 0.055408817
-0.32017004 -0.11105551 0.055268455
-0.32034314 -0.11099106 0.055223849
-0.32053372 -0.11090286 0.055298001
-0.320721 -0.11082408 0.055314481
-0.32089573 -0.1107688 0.055199493
-0.32106793 -0.11070955 0.055120286
-0.32125834 -0.11061852 0.055215202
-0.32144943 -0.11053803 0.055232815
-0.32163307 -0.11046895 0.055190478
-0.32182273 -0.11039081 0.055195406
-0.32200202 -0.11032093 0.055171534
-0.32218465 -0.11024614 0.055173036
-0.32236296 -0.11018133 0.055115726
-0.32253557 -0.11011773 0.055066504
-0.32271394 -0.11005273 0.055010341
-0.32289743 -0.10997341 0.055041831
-0.32307929 -0.10990345 0.05501103
-0.32327121 -0.10981584 0.055077098
-0.3234629 -0.10973897 0.055067025
-0.32363981 -0.10966941 0.055047788
-0.32381013 -0.10961238 0.054958198
-0.32399547 -0.10953777 0.054950465
-0.32416493 -0.10947852 0.054879341
-0.32436433 -0.10938801 0.054944217
-0.32455859 -0.10930155 0.05499528
-0.32473528 -0.10923579 0.0549495
-0.3249124 -0.10917261 0.054884113
-0.32509685 -0.10910272 0.054845229
-0.3252908 -0.10901089 0.054935507
-0.32544839 -0.10896727 0.054787152
-0.32563466 -0.10888891 0.054803625
-0.32579726 -0.10884147 0.054667935
-0.32598689 -0.10875883 0.054705169
-0.32617608 -0.10867991 0.054717019
-0.32636496 -0.10859855 0.054747336
-0.32654172 -0.10853276 0.054701563
-0.32674572 -0.10843539 0.054802191
-0.32691452 -0.10838268 0.054686077
-0.32708621 -0.10832042 0.054629937
-0.32727984 -0.10823937 0.054644078
-0.3274684 -0.1081562 0.054688245
-0.32765236 -0.10808166 0.054683968
-0.32783705 -0.10800636 0.054683156
-0.32801595 -0.10794099 0.054628137
-0.32819957 -0.10786709 0.054620411
-0.32838508 -0.1077937 0.054603435
-0.32857275 -0.10771509 0.054617602
-0.32876211 -0.10763723 0.054621384
-0.32893354 -0.10758088 0.054523721
-0.32913327 -0.10748816 0.054603592
-0.32930744 -0.10742584 0.05454053
-0.3294909 -0.10735522 0.054509722
-0.32966611 -0.10729168 0.054452419
-0.32986686 -0.10720097 0.054514982
-0.33005285 -0.10712496 0.054515317
-0.33023119 -0.10706046 0.054455698
-0.33040866 -0.10699439 0.054409914
-0.3306025 -0.10691214 0.054432139
-0.33079347 -0.10683071 0.054456674
-0.33097479 -0.1067629 0.05441203
-0.33114865 -0.10670105 0.054346658
-0.33133012 -0.1066306 0.054320481
-0.33151484 -0.10655899 0.054293126
-0.33170348 -0.10648062 0.054302681
-0.33190808 -0.10638703 0.054374453
-0.33210725 -0.10629971 0.054417413
-0.33226037 -0.10626321 0.054230999
-0.33245346 -0.1061803 0.054260146
-0.33264536 -0.10610592 0.05423161
-0.3328431 -0.10601578 0.054298803
-0.33301988 -0.1059603 0.054179192
-0.33321118 -0.10587505 0.054230258
-0.33340392 -0.10580001 0.054204028
-0.33358732 -0.10573038 0.054166302
-0.33376908 -0.10565336 0.054186266
-0.33395216 -0.1055842 0.054146238
-0.33415213 -0.10550169 0.054152273
-0.33433807 -0.10543184 0.054108769
-0.33451936 -0.10535792 0.054107964
-0.33469695 -0.10529019 0.054073721
-0.33487529 -0.10522392 0.054026794
-0.33505982 -0.105149 0.054023661
-0.33524546 -0.10507959 0.053977855
-0.33540207 -0.10502928 0.053880252
-0.33562922 -0.10491279 0.054049999
-0.33579245 -0.10486656 0.053903915
-0.33599553 -0.10477085 0.053995315
-0.33619186 -0.1046908 0.053994443
-0.33637911 -0.10462219 0.053938247
-0.33657217 -0.10454556 0.053922385
-0.33675727 -0.10447283 0.053901963
-0.33693624 -0.10440421 0.053870022
-0.33713722 -0.10431983 0.053886443
-0.33731985 -0.10425182 0.053839486
-0.33751428 -0.10417415 0.053827092
-0.33768499 -0.10410568 0.053818263
-0.33787572 -0.10402565 0.053833567
-0.33807415 -0.10395038 0.053792313
-0.33824933 -0.1038838 0.05375693
-0.3384549 -0.10379352 0.053802174
-0.33860487 -0.10374963 0.053678069
-0.3387998 -0.10366789 0.053693354
-0.3389979 -0.10358517 0.053706329
-0.33919063 -0.10350578 0.053711243
-0.33938336 -0.10343042 0.053687315
-0.33957058 -0.10335843 0.053655341
-0.33974934 -0.10329071 0.053617641
-0.3399621 -0.10319445 0.053684767
-0.34014997 -0.10311816 0.053681634
-0.34032723 -0.10305588 0.053609315
-0.34050483 -0.10298943 0.053565852
-0.3406876 -0.10291813 0.053541966
-0.34087008 -0.10284904 0.053503089
-0.34106833 -0.10276707 0.053510293
-0.341272 -0.10268016 0.053537082
-0.34145567 -0.1026064 0.053528193
-0.34163207 -0.10254318 0.053465113
-0.34183174 -0.10245837 0.053488459
-0.34203073 -0.10237805 0.053481817
-0.34220606 -0.1023159 0.053414129
-0.3424058 -0.10223318 0.053422473
-0.34259015 -0.10215913 0.053413585
-0.34278005 -0.10208557 0.053385057
-0.34295356 -0.10202336 0.05332315
-0.3431519 -0.1019404 0.053337269
-0.34335211 -0.10185764 0.053344462
-0.34354088 -0.10178889 0.053284787
-0.34374958 -0.10170218 0.053295404
-0.34393981 -0.10163041 0.053253032
-0.34412226 -0.10155682 0.053246461
-0.34432727 -0.10147017 0.053267475
-0.34450671 -0.10139942 0.053249378
-0.34467143 -0.10134709 0.05314251
-0.34488603 -0.1012504 0.053207327
-0.34507886 -0.10117146 0.053208783
-0.34527284 -0.10109156 0.053213693
-0.34544533 -0.10103412 0.053120632
-0.24566171 -0.14107206 0.058202654
-0.24588288 -0.14098784 0.058158971
-0.2461108 -0.14090346 0.058096793
-0.24634804 -0.14081883 0.058009181
-0.24658845 -0.14073144 0.057931945
-0.24681512 -0.14065032 0.057850163
-0.24705775 -0.14056315 0.057764836
-0.24731496 -0.14047843 0.057619452
-0.24752265 -0.14039843 0.057585057
-0.24772678 -0.14031583 0.057579532
-0.24794906 -0.14023134 0.057534691
-0.24816898 -0.14014843 0.057485238
-0.24838944 -0.14006564 0.057433486
-0.24860874 -0.139983 0.057384036
-0.24883068 -0.13990042 0.057326507
-0.24905607 -0.13981786 0.057258572
-0.2492844 -0.13973396 0.057191771
-0.2495124 -0.13965163 0.057114594
-0.24972379 -0.13956979 0.057082489
-0.24994819 -0.1394878 0.057013407
-0.25016728 -0.13940606 0.056958199
-0.25038728 -0.13932443 0.056899518
-0.25061595 -0.13924134 0.056825794
-0.25083569 -0.13915996 0.056765966
-0.25105467 -0.13907874 0.056707285
-0.25127983 -0.13899758 0.05663012
-0.2515054 -0.13891657 0.056550652
-0.25172296 -0.13883577 0.056493141
-0.25195426 -0.13875355 0.056405555
-0.25217074 -0.13867304 0.056349196
-0.25237536 -0.13859266 0.05632636
-0.25259125 -0.13851237 0.056270003
-0.25281322 -0.13843073 0.056205552
-0.25302806 -0.13835071 0.056150351
-0.25324184 -0.1382708 0.05609747
-0.2534557 -0.13819101 0.056043435
-0.25367519 -0.13810991 0.055982456
-0.25388381 -0.13803034 0.055942282
-0.25409752 -0.13795093 0.055885941
-0.25430673 -0.13787161 0.055842306
-0.25451848 -0.1377909 0.055800974
-0.25473896 -0.13771197 0.055721525
-0.25494158 -0.13763289 0.055695236
-0.25515044 -0.13755402 0.055649292
-0.2553615 -0.13747378 0.055606812
-0.25557655 -0.13739529 0.055540077
-0.25577968 -0.13731664 0.055509165
-0.25598598 -0.13723819 0.055467855
-0.25619704 -0.13715841 0.055421915
-0.2563991 -0.13708006 0.055392154
-0.25660828 -0.13700202 0.055339299
-0.25681242 -0.13692394 0.055301461
-0.25703943 -0.13684364 0.055212744
-0.25723109 -0.13675743 0.05526958
-0.25759587 -0.1366066 0.05528295
-0.25779927 -0.13652577 0.055267047
-0.25831795 -0.13637926 0.054799695
-0.258434 -0.13629469 0.055065729
-0.25864691 -0.13622287 0.054957461
-0.25884935 -0.13614582 0.054917328
-0.2590512 -0.13606721 0.054889888
-0.25925109 -0.13599023 0.05485668
-0.25945008 -0.1359133 0.05482579
-0.25966409 -0.1358341 0.054767136
-0.25985393 -0.13575846 0.05475359
-0.26005223 -0.13568181 0.054722708
-0.26026526 -0.13560124 0.054676749
-0.26044619 -0.13552859 0.054667864
-0.26064736 -0.13545075 0.054636966
-0.26085985 -0.13537218 0.054578319
-0.26104355 -0.13529663 0.054582112
-0.26123297 -0.13521987 0.054577801
-0.26143217 -0.13514397 0.054538831
-0.26163083 -0.13506815 0.054501016
-0.26182485 -0.13499032 0.054490916
-0.26200774 -0.13491333 0.054507416
-0.26219326 -0.13483833 0.054501969
-0.26237595 -0.13476142 0.054518461
-0.26254338 -0.13468137 0.054601945
-0.26270387 -0.13460062 0.054710846
-0.26283389 -0.13451681 0.054930672
-0.26176989 -0.13389742 0.06247168
-0.26186484 -0.13380195 0.062877446
-0.2620832 -0.13372791 0.062769152
-0.26248848 -0.13345882 0.06351047
-0.26453975 -0.13310945 0.060016446
-0.26476046 -0.13303122 0.05993123
-0.26493636 -0.1329408 0.060064293
-0.26518619 -0.13285328 0.059960477
-0.26537815 -0.13277711 0.059944622
-0.26554871 -0.13270371 0.059971549
-0.26576453 -0.1326194 0.059944049
-0.26596305 -0.13254249 0.059914313
-0.26615161 -0.13247415 0.05985231
-0.26632828 -0.13239792 0.059881531
-0.26655993 -0.13231669 0.059785869
-0.26674896 -0.13223656 0.059806943
-0.26694775 -0.13215405 0.059816442
-0.26712897 -0.13207468 0.059854861
-0.2672874 -0.13200572 0.059885312
-0.26750728 -0.13192719 0.059804708
-0.26772636 -0.13186336 0.059621405
-0.26788768 -0.13178678 0.059697993
-0.26810774 -0.13168979 0.059748948
-0.26828545 -0.13161846 0.059740074
-0.26850247 -0.13154012 0.059666403
-0.26869243 -0.13146074 0.059679404
-0.26887068 -0.13139193 0.059650909
-0.26904148 -0.13132164 0.059654757
-0.26927465 -0.13123205 0.05961448
-0.26944199 -0.13116333 0.059617199
-0.26966146 -0.13107756 0.059589684
-0.269869 -0.13100471 0.059504509
-0.27003857 -0.13093008 0.059542991
-0.27022052 -0.13085605 0.059541024
-0.27042285 -0.13077791 0.059508964
-0.27059385 -0.13070367 0.059540506
-0.27075657 -0.13063878 0.059529394
-0.27098498 -0.13056275 0.059406053
-0.27115384 -0.13048357 0.059479155
-0.2713806 -0.13039368 0.059459675
-0.2715483 -0.13032112 0.059488934
-0.27173686 -0.13025633 0.059401549
-0.27193725 -0.13017382 0.059406415
-0.27212533 -0.13009745 0.05940327
-0.27231088 -0.13002518 0.059378207
-0.2724852 -0.12994991 0.059407424
-0.27269018 -0.12986891 0.059388049
-0.27286494 -0.12979862 0.059380345
-0.27305695 -0.12972614 0.059337948
-0.27329829 -0.12964402 0.059220314
-0.27346924 -0.12956803 0.059264559
-0.27363425 -0.12949511 0.0593042
-0.27383491 -0.12942328 0.059231762
-0.27402529 -0.1293484 0.059211291
-0.27421308 -0.1292728 0.059203539
-0.27440941 -0.12919499 0.059186507
-0.27460188 -0.12911347 0.059207566
-0.274791 -0.12904361 0.059154801
-0.27498439 -0.12896766 0.059133157
-0.27519163 -0.1288888 0.059091844
-0.27534178 -0.1288266 0.059098095
-0.27552 -0.12874298 0.059175767
-0.27572963 -0.12867573 0.059044439
-0.2759198 -0.12860173 0.059018202
-0.27610028 -0.12851895 0.059083167
-0.27630019 -0.12844872 0.059001498
-0.27648318 -0.1283804 0.058955684
-0.27667168 -0.12829533 0.059013683
-0.27685732 -0.12823641 0.058892842
-0.27704909 -0.12816094 0.058872372
-0.2772451 -0.1280762 0.058906116
-0.2774075 -0.12799451 0.059016168
-0.27760839 -0.12792291 0.058941416
-0.27776968 -0.12784342 0.059038781
-0.27798036 -0.12777624 0.058903977
-0.27816927 -0.12771146 0.058815442
-0.27835038 -0.12762907 0.058875792
-0.2785469 -0.12755056 0.058863372
-0.27872762 -0.12747671 0.058863714
-0.27891108 -0.12740417 0.058846742
-0.27912745 -0.12732916 0.058751151
-0.2793 -0.12726671 0.058693837
-0.27948314 -0.12719139 0.058697633
-0.27967554 -0.12711455 0.058685236
-0.279865 -0.12703328 0.058713242
-0.28004763 -0.12695783 0.058719352
-0.28020668 -0.12688605 0.05876825
-0.28040418 -0.12681827 0.058676209
-0.28060427 -0.12674265 0.058632616
-0.28078046 -0.12666726 0.058657218
-0.28095791 -0.12659894 0.058627576
-0.28117067 -0.12652412 0.058541231
-0.28136849 -0.12644459 0.058532275
-0.28155324 -0.12636764 0.058542982
-0.28173533 -0.12628922 0.058572181
-0.28195038 -0.12621313 0.058488123
-0.28210315 -0.12614454 0.058532454
-0.2822713 -0.12607147 0.058564007
-0.2824685 -0.12600219 0.058483504
-0.28266194 -0.12592396 0.05847802
-0.28284615 -0.12585402 0.058440279
-0.28301057 -0.12578924 0.058423385
-0.28319684 -0.12570669 0.058469869
-0.28337896 -0.12563209 0.058471359
-0.28359115 -0.12555574 0.05839771
-0.28377625 -0.12547606 0.058426887
-0.28399298 -0.12540318 0.058315143
-0.28414837 -0.12535128 0.058232512
-0.28432935 -0.12526152 0.058345944
-0.28452465 -0.12518543 0.058319684
-0.28470641 -0.12511873 0.05826579
-0.28485149 -0.12503684 0.058427855
-0.28505984 -0.12495898 0.058376145
-0.28524071 -0.12489975 0.058271486
-0.28542098 -0.12482851 0.058254525
-0.28561372 -0.12475509 0.058216736
-0.28579324 -0.12468349 0.058204398
-0.28597787 -0.1246079 0.058205876
-0.28616995 -0.12453022 0.058200404
-0.28634804 -0.12446598 0.058139604
-0.28652719 -0.1243902 0.05815842
-0.28673112 -0.12430593 0.058165576
-0.28690419 -0.12423342 0.05817866
-0.28707945 -0.12416728 0.058139794
-0.28726235 -0.12409496 0.058122821
-0.28744641 -0.12402379 0.0580943
-0.28764459 -0.12395249 0.058025334
-0.2878232 -0.12387193 0.058079928
-0.28801742 -0.12380176 0.058014438
-0.28818327 -0.12373655 0.057996389
-0.28835282 -0.12366098 0.058041789
-0.28855833 -0.12359331 0.05792547
-0.28875449 -0.12351638 0.057902671
-0.2889356 -0.12343836 0.05793187
-0.28910547 -0.12335812 0.058009572
-0.28928179 -0.12329477 0.057947636
-0.28946209 -0.12322593 0.057913359
-0.28965673 -0.12315287 0.05786749
-0.28984264 -0.12309609 0.057730485
-0.29002467 -0.12301413 0.057785064
-0.29020527 -0.12293565 0.057818875
-0.29037261 -0.1228463 0.057969291
-0.29054961 -0.12277945 0.057930421
-0.29075551 -0.12273274 0.057662942
-0.29093534 -0.12264201 0.057786759
-0.29111233 -0.12257016 0.057783663
-0.29129818 -0.12250438 0.057711288
-0.29149148 -0.12243734 0.057626188
-0.29165742 -0.12234436 0.057806619
-0.29184663 -0.12227172 0.057773463
-0.29204097 -0.12220054 0.057714891
-0.292216 -0.12212612 0.057736035
-0.29240113 -0.12206063 0.057663664
-0.29258421 -0.12199888 0.057570532
-0.29278001 -0.12191791 0.057577733
-0.29295102 -0.12184399 0.057606965
-0.29312876 -0.12176733 0.057636179
-0.29331785 -0.12169588 0.057594948
-0.29349554 -0.12161908 0.057625312
-0.29367006 -0.12155114 0.057601441
-0.29386243 -0.12150108 0.057397492
-0.29405388 -0.12142012 0.057417415
-0.29422218 -0.12132554 0.057602443
-0.29440099 -0.12126648 0.057502404
-0.29459965 -0.12119968 0.05739997
-0.29477093 -0.12110969 0.057543449
-0.29495567 -0.12105598 0.057387996
-0.29514802 -0.12098544 0.057330586
-0.2953237 -0.12089543 0.057461351
-0.29551527 -0.12083232 0.057353176
-0.29569119 -0.12076043 0.057353549
-0.29587942 -0.12069029 0.057305396
-0.29606512 -0.1206044 0.05737726
-0.29623383 -0.12053368 0.057390362
-0.29641995 -0.12046859 0.057312213
-0.29660356 -0.12039712 0.057287157
-0.29678887 -0.12031995 0.057297863
-0.2969673 -0.12024461 0.057315536
-0.2971482 -0.12017667 0.057273187
-0.29732513 -0.1201084 0.057244696
-0.29751158 -0.12003495 0.057225406
-0.29769546 -0.11996561 0.057184197
-0.2978729 -0.11988682 0.057229552
-0.2980569 -0.11981825 0.05718258
-0.29824254 -0.11974239 0.057182908
-0.298428 -0.1196658 0.057188995
-0.29860872 -0.11959969 0.057133954
-0.29879177 -0.1195286 0.057107747
-0.29896602 -0.11945046 0.05715774
-0.29913652 -0.1193882 0.057105057
-0.29932415 -0.11932281 0.057024591
-0.29950178 -0.11924314 0.057075731
-0.29969177 -0.11917213 0.057028722
-0.29987928 -0.11910824 0.056937873
-0.30006644 -0.11902129 0.057013195
-0.30023578 -0.11895498 0.056992818
-0.30041537 -0.11888707 0.056953944
-0.30061051 -0.11880525 0.056969222
-0.3007828 -0.11873532 0.056966148
-0.30095521 -0.11866616 0.056957301
-0.30113107 -0.11859751 0.056934588
-0.30131653 -0.11852141 0.056937221
-0.30149937 -0.11845508 0.056877553
-0.30168146 -0.11837988 0.056883663
-0.30186397 -0.11831126 0.056841306
-0.30204934 -0.11823422 0.056850858
-0.30223152 -0.11816043 0.056846589
-0.30241048 -0.11809053 0.056823861
-0.30259261 -0.11801498 0.056832284
-0.30276817 -0.11794402 0.056826882
-0.30295056 -0.11789417 0.056650668
-0.30313259 -0.11779948 0.056796398
-0.3033081 -0.1177342 0.056750614
-0.30349004 -0.11767162 0.056666717
-0.30366889 -0.1175958 0.056686684
-0.30385101 -0.11752155 0.056685872
-0.30403018 -0.11744091 0.056739304
-0.30421171 -0.11738028 0.056642719
-0.30439344 -0.11731263 0.056595754
-0.30457553 -0.11723838 0.056594934
-0.30475447 -0.11716381 0.056605671
-0.30494067 -0.11707983 0.056662545
-0.30512542 -0.11701272 0.056602865
-0.30530158 -0.11696687 0.056416288
-0.30549055 -0.11688674 0.056437373
-0.30566755 -0.11680183 0.056527738
-0.30584228 -0.11673704 0.056480806
-0.30603182 -0.1166546 0.056516878
-0.30622661 -0.11657985 0.05648255
-0.30640945 -0.11650142 0.05650942
-0.30657479 -0.11643626 0.056492534
-0.30675149 -0.11635858 0.056532122
-0.30694002 -0.11630202 0.05638589
-0.30712467 -0.11621448 0.05647276
-0.30729741 -0.11615872 0.05636698
-0.30749086 -0.11608968 0.05629573
-0.30766782 -0.1160114 0.056338791
-0.30785003 -0.11593759 0.05633451
-0.30803731 -0.11586832 0.056282904
-0.30821386 -0.11579295 0.056306344
-0.30839562 -0.11572126 0.056288224
-0.30858728 -0.11564569 0.056268901
-0.30876178 -0.11557922 0.056234658
-0.30893713 -0.11550917 0.056223489
-0.30911225 -0.11542873 0.05628733
-0.3092964 -0.11535946 0.056244966
-0.30949026 -0.1152867 0.056199089
-0.30965537 -0.11522196 0.056179896
-0.30984059 -0.11514837 0.056165218
-0.31001544 -0.1150803 0.056141362
-0.31019714 -0.11500879 0.056122079
-0.31037831 -0.11492961 0.056159351
-0.31055656 -0.11485999 0.056136627
-0.31073821 -0.11478883 0.056115046
-0.31091228 -0.11473189 0.056013882
-0.31109697 -0.11465979 0.055989977
-0.31127173 -0.11459177 0.055966109
-0.31145835 -0.11450601 0.056034517
-0.31162381 -0.11445627 0.055906847
-0.31180906 -0.11437477 0.055948708
-0.31199634 -0.11428809 0.056021728
-0.31219631 -0.11419817 0.056080837
-0.31236827 -0.11414532 0.055956598
-0.31256068 -0.11406798 0.05594765
-0.3127597 -0.1139599 0.056139473
-0.31293088 -0.11391543 0.055957541
-0.31310531 -0.1138485 0.055926759
-0.31328446 -0.11378352 0.055868257
-0.31345922 -0.11370903 0.055890553
-0.31363246 -0.11364485 0.055843629
-0.31382549 -0.11356646 0.055840462
-0.31401426 -0.11348547 0.055868458
-0.31418842 -0.11342525 0.055790372
-0.31436479 -0.11335382 0.055786118
-0.31454545 -0.11327903 0.05579339
-0.31472155 -0.11321433 0.055741828
-0.31490859 -0.11313757 0.055744458
-0.31509477 -0.1130628 0.05573554
-0.31526598 -0.11299685 0.055707086
-0.31544927 -0.1129226 0.055702802
-0.31563032 -0.11285846 0.055632759
-0.31581604 -0.11277935 0.055656157
-0.31598696 -0.11271933 0.055586159
-0.31617644 -0.11263821 0.055613011
-0.31635937 -0.11255974 0.055639885
-0.31653848 -0.11249397 0.055587161
-0.31671643 -0.11242528 0.055558667
-0.31690466 -0.11234708 0.055568211
-0.31709677 -0.11226665 0.055582352
-0.31727037 -0.11220136 0.055542346
-0.31745291 -0.11212434 0.055559997
-0.31763241 -0.11205778 0.055511873
-0.31781518 -0.11198518 0.05549721
-0.31800821 -0.11189906 0.055549428
-0.31819165 -0.11183006 0.055507071
-0.31835791 -0.1117776 0.055396706
-0.31856003 -0.1116805 0.055500802
-0.31872666 -0.11162724 0.055395059
-0.31891 -0.11155393 0.055383854
-0.31909204 -0.11148294 0.05535996
-0.31929025 -0.11139341 0.055421382
-0.31945741 -0.1113388 0.055323705
-0.31963661 -0.1112725 0.055274442
-0.31982398 -0.11119288 0.055296686
-0.320025 -0.11109544 0.055406556
-0.32019785 -0.1110435 0.055273078
-0.32037345 -0.110979 0.055221524
-0.32056725 -0.11088966 0.055294514
-0.3207542 -0.11081133 0.055308677
-0.32092801 -0.1107574 0.055186737
-0.32110029 -0.11069796 0.055108652
-0.32129896 -0.11060179 0.055216234
-0.32148916 -0.11052263 0.055226922
-0.32167375 -0.11045203 0.055192638
-0.3218644 -0.11037607 0.055179089
-0.32204115 -0.11030627 0.055162143
-0.32223815 -0.11022465 0.055170499
-0.32241043 -0.1101615 0.055118956
-0.3225888 -0.11009651 0.055062767
-0.32275942 -0.11003565 0.054999694
-0.32295489 -0.10994949 0.055044979
-0.32313162 -0.10988341 0.05500149
-0.32333332 -0.10978875 0.055089436
-0.32351869 -0.10971735 0.05505861
-0.32370317 -0.10964392 0.055045091
-0.32386774 -0.10959149 0.054939352
-0.32405609 -0.10951599 0.054929275
-0.32423404 -0.10944827 0.054893862
-0.32443246 -0.10935913 0.054951828
-0.32462227 -0.10927867 0.054972898
-0.32480419 -0.10920902 0.054939777
-0.32497934 -0.10914841 0.05486168
-0.32517272 -0.10906972 0.054859661
-0.32535684 -0.10899093 0.054885387
-0.32552814 -0.1089322 0.054804996
-0.32570869 -0.1088644 0.054762647
-0.3258746 -0.10881256 0.054648824
-0.32607964 -0.10871299 0.05476214
-0.32625327 -0.10865413 0.054675978
-0.3264533 -0.10856143 0.054754701
-0.32662651 -0.10850017 0.054687001
-0.3268396 -0.10839426 0.054822214
-0.32699087 -0.10836353 0.054599985
-0.32718843 -0.1082717 0.054679878
-0.32736957 -0.10820623 0.054619055
-0.32756904 -0.10811522 0.054687399
-0.32775125 -0.10804285 0.054672737
-0.32793677 -0.10796931 0.054656912
-0.3281146 -0.10790518 0.054596115
-0.32830864 -0.10782139 0.054628707
-0.32848933 -0.10775384 0.054584049
-0.32868484 -0.10766848 0.054623567
-0.32885629 -0.10760938 0.054545484
-0.32904983 -0.1075266 0.05457231
-0.32924053 -0.10744996 0.054563381
-0.32941988 -0.10738152 0.054529123
-0.32960078 -0.10731388 0.054484464
-0.32978383 -0.10724377 0.054451335
-0.32998461 -0.10715302 0.054513901
-0.33017129 -0.10708143 0.054480761
-0.33034503 -0.10701703 0.054433823
-0.33053073 -0.10694406 0.054413375
-0.33073178 -0.10685612 0.054455169
-0.33092034 -0.10678004 0.05444856
-0.33108637 -0.10672702 0.054342806
-0.33126277 -0.10666218 0.054291248
-0.33146974 -0.10656554 0.054378022
-0.3316457 -0.10650379 0.054305691
-0.33183849 -0.10642083 0.054335989
-0.33205038 -0.10631927 0.054443505
-0.33220494 -0.10628125 0.054263953
-0.33239371 -0.10620541 0.054255035
-0.33257923 -0.10613558 0.054212663
-0.33276817 -0.10605967 0.054203745
-0.33297947 -0.1059619 0.054285876
-0.33314466 -0.10590953 0.054177828
-0.33334559 -0.10582326 0.054208085
-0.33352822 -0.10575444 0.054166876
-0.33371586 -0.10567567 0.054182194
-0.33390719 -0.10559765 0.054181337
-0.33409029 -0.10553074 0.054125138
-0.33428431 -0.10545453 0.054103494
-0.33446547 -0.10538292 0.054086536
-0.33464402 -0.1053119 0.054073043
-0.33482176 -0.1052462 0.054023787
-0.3350102 -0.10516936 0.054022938
-0.33519894 -0.1050945 0.054007091
-0.33535737 -0.10504668 0.05388638
-0.33556962 -0.1049411 0.054021597
-0.33574554 -0.10488179 0.053931952
-0.33593419 -0.10480294 0.053944957
-0.33614454 -0.10470636 0.054021332
-0.33632702 -0.1046447 0.053929351
-0.33652025 -0.10456784 0.053914644
-0.33670714 -0.10449326 0.053902272
-0.33689195 -0.1044208 0.053880669
-0.33708417 -0.10434306 0.053875193
-0.33727133 -0.10427256 0.053832818
-0.33746815 -0.10419248 0.053830784
-0.3376472 -0.10411979 0.053827681
-0.33782747 -0.10404596 0.053829178
-0.33802229 -0.10397218 0.053787917
-0.33820653 -0.1039027 0.053746704
-0.33841005 -0.10381036 0.05381272
-0.33858117 -0.10375381 0.053717338
-0.33874694 -0.10369445 0.053657744
-0.33895302 -0.1036059 0.053689133
-0.33915573 -0.1035168 0.053734392
-0.33933914 -0.1034504 0.053673558
-0.33953214 -0.10337476 0.053650782
-0.3397117 -0.10330623 0.053616509
-0.33992732 -0.10320913 0.053681321
-0.3401157 -0.10313039 0.053694326
-0.34029171 -0.10306926 0.053617373
-0.34047785 -0.10299852 0.053579621
-0.34064889 -0.10293636 0.053524625
-0.34084117 -0.10285989 0.05350991
-0.34103787 -0.10277937 0.053511348
-0.34123981 -0.1026959 0.053518511
-0.34142613 -0.10261961 0.053519994
-0.34160215 -0.10255671 0.053455736
-0.34180546 -0.10246848 0.053492907
-0.34200731 -0.10238731 0.053483933
-0.34218478 -0.10232317 0.053424288
-0.34237984 -0.10224655 0.05340264
-0.34256792 -0.10216904 0.053407572
-0.34275901 -0.10209436 0.053383641
-0.34293374 -0.10203101 0.05332632
-0.34312943 -0.10195042 0.053331211
-0.34333122 -0.10186799 0.053331465
-0.34352052 -0.10179693 0.053286768
-0.34373865 -0.10170701 0.053292714
-0.3439216 -0.10163823 0.053250358
-0.34410331 -0.10156704 0.053228777
-0.34430853 -0.10148191 0.053238239
-0.34449327 -0.10140466 0.053251259
-0.34466416 -0.1013503 0.053140879
-0.34488028 -0.10125394 0.053198755
-0.34506863 -0.10117892 0.053185228
-0.34526864 -0.10109366 0.053210873
-0.34543845 -0.10103683 0.053121258
-0.24579382 -0.14102149 0.058178455
-0.24601856 -0.14093582 0.058134757
-0.24625376 -0.14085121 0.058052916
-0.24649468 -0.14076653 0.057954896
-0.24672508 -0.14068243 0.057883468
-0.24695757 -0.14059699 0.0578155
-0.24721947 -0.14050923 0.057678156
-0.24745527 -0.14042678 0.057579007
-0.24765989 -0.14034417 0.057572309
-0.24787149 -0.14025998 0.057556361
-0.24809536 -0.14017694 0.057496488
-0.24831623 -0.14009267 0.057453956
-0.24853477 -0.14001003 0.057406813
-0.24875554 -0.13992743 0.057352737
-0.24897936 -0.13984488 0.057289414
-0.24920325 -0.13976246 0.057224937
-0.24943389 -0.13968003 0.057140816
-0.24964954 -0.13959807 0.057097144
-0.24986948 -0.13951613 0.057040762
-0.25009361 -0.1394328 0.056982063
-0.25031412 -0.13935111 0.05692222
-0.25053963 -0.1392695 0.056847349
-0.25075823 -0.1391881 0.056790974
-0.25097734 -0.13910684 0.056732286
-0.25119853 -0.13902567 0.056666669
-0.25142181 -0.13894464 0.056594118
-0.25164998 -0.1388637 0.056506548
-0.25186935 -0.1387815 0.05645363
-0.25209954 -0.13870087 0.056357969
-0.25229946 -0.1386205 0.056348991
-0.25251821 -0.13854016 0.056284543
-0.25273031 -0.13845997 0.056238577
-0.25295553 -0.13837992 0.056153327
-0.25316387 -0.13829997 0.056116611
-0.25337666 -0.13822015 0.056066029
-0.25359148 -0.13814045 0.056008521
-0.25380522 -0.13806088 0.055953328
-0.25401708 -0.13798143 0.055902753
-0.25422829 -0.13790208 0.05585333
-0.25443578 -0.13782281 0.055814315
-0.25465292 -0.13774379 0.055745255
-0.25486419 -0.13766329 0.055703912
-0.25507048 -0.13758433 0.055666063
-0.25528029 -0.13750556 0.055616647
-0.25548643 -0.13742684 0.055577636
-0.2556994 -0.13734838 0.055516675
-0.255905 -0.13726987 0.055477671
-0.25611112 -0.13719149 0.05543635
-0.25631693 -0.1371132 0.055395033
-0.25651959 -0.13703494 0.055362958
-0.25672603 -0.13695689 0.05531818
-0.2569322 -0.13687895 0.055273399
-0.2571834 -0.1367933 0.055152263
-0.25732532 -0.13671318 0.05531086
-0.25771558 -0.13656664 0.055219099
-0.25802615 -0.13648741 0.054878443
-0.25838971 -0.13632935 0.054947186
-0.25854897 -0.13625811 0.054991473
-0.25875822 -0.13618135 0.054929368
-0.25895801 -0.13610423 0.05489732
-0.25915903 -0.13602728 0.054860633
-0.25935841 -0.13595033 0.054828584
-0.259574 -0.13586953 0.054776832
-0.25975755 -0.13579679 0.054761004
-0.25995699 -0.13572015 0.054726638
-0.26016206 -0.13564233 0.05468417
-0.26035151 -0.13556525 0.054682173
-0.26055163 -0.13548897 0.054643188
-0.26074952 -0.13541263 0.054611135
-0.26095384 -0.13533352 0.054580204
-0.26113832 -0.13525976 0.054568995
-0.26133162 -0.13518336 0.054550804
-0.26153168 -0.13510761 0.054508362
-0.26172045 -0.13503273 0.054492511
-0.26191244 -0.13495477 0.054489341
-0.2620931 -0.13487934 0.054501221
-0.26227778 -0.13480258 0.054510772
-0.2624498 -0.13472471 0.054565385
-0.26261637 -0.13464631 0.05463963
-0.26275739 -0.13456365 0.054819006
-0.26137757 -0.13401483 0.062778011
-0.26164111 -0.13394544 0.0625045
-0.26176625 -0.13385345 0.062797025
-0.26195577 -0.13377038 0.062837712
-0.26216257 -0.13369316 0.062786005
-0.26242 -0.13351627 0.063299492
-0.26289704 -0.13325661 0.063763514
-0.2631442 -0.1331847 0.063555852
-0.26463664 -0.13307819 0.059956975
-0.26482055 -0.13299675 0.060002305
-0.26503795 -0.13291037 0.059985172
-0.26526269 -0.13282518 0.059937999
-0.26543814 -0.13275251 0.059945293
-0.26563969 -0.13267195 0.059932835
-0.26583707 -0.13259083 0.059936561
-0.26604193 -0.132521 0.05983755
-0.26619554 -0.13245112 0.059888784
-0.26644447 -0.13236251 0.05979535
-0.26662582 -0.13228922 0.059789911
-0.26681677 -0.13220944 0.059802897
-0.26700395 -0.13212699 0.059845902
-0.26717976 -0.13205078 0.059877425
-0.26736054 -0.13197756 0.059873141
-0.26760024 -0.13190901 0.059663206
-0.26776674 -0.13184176 0.059657834
-0.26797923 -0.13174336 0.05974111
-0.26816514 -0.13166724 0.059742577
-0.26833975 -0.13159959 0.059716407
-0.26856384 -0.13151419 0.059672698
-0.26875395 -0.131437 0.059669536
-0.26892668 -0.13137141 0.059634134
-0.26912364 -0.13128932 0.05964594
-0.2693322 -0.13120976 0.05960577
-0.26951522 -0.13113354 0.05961648
-0.26972863 -0.13105749 0.059537053
-0.26991394 -0.13098192 0.059536211
-0.27008411 -0.13090964 0.059556216
-0.27029529 -0.13082902 0.059516028
-0.2704621 -0.13076052 0.059518732
-0.27063084 -0.13068575 0.059560671
-0.27086437 -0.13061085 0.05941423
-0.27102244 -0.1305427 0.059440047
-0.27122605 -0.13045387 0.059480667
-0.27143922 -0.13037211 0.059442788
-0.27159008 -0.13030447 0.05948595
-0.2718178 -0.13022904 0.059360299
-0.27198839 -0.1301527 0.059407994
-0.27218217 -0.1300779 0.059377123
-0.27236351 -0.13000217 0.059389003
-0.27255219 -0.12992138 0.059415836
-0.2727547 -0.1298493 0.059339918
-0.27291477 -0.12977484 0.059404962
-0.27314064 -0.129705 0.059244715
-0.27335238 -0.12961914 0.059240296
-0.27351785 -0.12954393 0.059294935
-0.27369332 -0.12947173 0.059298754
-0.27389485 -0.12940022 0.059221692
-0.27409115 -0.12932228 0.0592058
-0.27427524 -0.12924802 0.059199199
-0.27447519 -0.12916891 0.059180994
-0.27465665 -0.12909396 0.059187099
-0.27485126 -0.12902088 0.059141219
-0.27504593 -0.1289454 0.059112638
-0.27524257 -0.12887071 0.059072524
-0.27538928 -0.12880217 0.05913417
-0.27557752 -0.12872204 0.059157554
-0.27579045 -0.12865344 0.059026197
-0.27597398 -0.12857442 0.059055373
-0.27616569 -0.12849577 0.059057973
-0.2763629 -0.1284273 0.058971688
-0.27653393 -0.12835449 0.05899284
-0.2767399 -0.12827341 0.058971144
-0.27691233 -0.12821762 0.058866516
-0.27710429 -0.12813129 0.058923341
-0.27731192 -0.12804841 0.05890971
-0.27746722 -0.12797219 0.059001319
-0.27766448 -0.12789917 0.058947355
-0.27782491 -0.12782215 0.059029713
-0.27804363 -0.12775844 0.058846399
-0.27822471 -0.12768751 0.058824815
-0.27842006 -0.1276056 0.058840089
-0.27860174 -0.12752637 0.058876194
-0.27878955 -0.12745576 0.058832645
-0.27897465 -0.12738109 0.058826044
-0.27918598 -0.12730975 0.058718935
-0.27935526 -0.12724283 0.058703173
-0.27953905 -0.12716484 0.058724258
-0.27973601 -0.12709324 0.058661066
-0.27992269 -0.12701066 0.058706373
-0.28009975 -0.12693557 0.058726348
-0.2802636 -0.12686312 0.058765993
-0.28046507 -0.12679742 0.058647387
-0.28066191 -0.126717 0.058647655
-0.28083539 -0.12664337 0.058667637
-0.28101689 -0.12657727 0.058610272
-0.28122857 -0.1264987 0.058553938
-0.28142652 -0.12642251 0.058520734
-0.28161684 -0.12634216 0.058539495
-0.28180265 -0.12626591 0.05854211
-0.28200421 -0.12619212 0.058481194
-0.28215694 -0.12612016 0.058549747
-0.2823391 -0.12604864 0.058529302
-0.28252771 -0.12597769 0.058485761
-0.28272757 -0.12589653 0.058482543
-0.28290075 -0.12583366 0.058426376
-0.28307366 -0.12576026 0.05844637
-0.28325856 -0.1256839 0.058452461
-0.28344434 -0.1256046 0.058477011
-0.28365168 -0.12553231 0.058388371
-0.28383633 -0.12545235 0.058421001
-0.28403831 -0.12538791 0.058292001
-0.28420243 -0.12532727 0.05824627
-0.28438932 -0.12523785 0.058340039
-0.28458557 -0.12516251 0.058305696
-0.28475896 -0.12509745 0.058264516
-0.2849021 -0.1250141 0.058442734
-0.28512329 -0.12493811 0.058340192
-0.28529543 -0.1248763 0.05827941
-0.28547615 -0.12480939 0.058230128
-0.28566206 -0.12473471 0.058221214
-0.28584951 -0.12466135 0.058198445
-0.28603315 -0.12458502 0.058207996
-0.28622252 -0.12450926 0.058196761
-0.28640059 -0.12444504 0.058135957
-0.28657904 -0.12436873 0.058160532
-0.28678024 -0.12428637 0.058161929
-0.28695005 -0.12421536 0.058173858
-0.28712866 -0.12414786 0.058134969
-0.28731078 -0.12407489 0.058124918
-0.28749505 -0.12400395 0.058094088
-0.28769067 -0.12393483 0.058017038
-0.28786507 -0.12385485 0.058079723
-0.28806344 -0.12378413 0.058006134
-0.28822893 -0.1237186 0.057991538
-0.28839487 -0.12364416 0.058039255
-0.28860024 -0.1235764 0.057924088
-0.28879714 -0.12350029 0.057893202
-0.28897712 -0.12342111 0.057933927
-0.28915066 -0.12333987 0.058008146
-0.28931996 -0.12327891 0.057949685
-0.2894969 -0.12321144 0.057915427
-0.2896919 -0.12313886 0.057864923
-0.28987774 -0.12308211 0.057727922
-0.29005998 -0.12300039 0.05778018
-0.29023814 -0.12292437 0.057803608
-0.29040509 -0.12283453 0.057958636
-0.29058087 -0.12276623 0.057933614
-0.29078329 -0.12272079 0.057667293
-0.29096407 -0.12263128 0.057779565
