# .PCD v0.7 - Point Cloud Data file format
VERSION 0.7
FIELDS x y z
SIZE 4 4 4
TYPE F F F
COUNT 1 1 1
WIDTH 555
HEIGHT 1
VIEWPOINT 0 0 0 1 0 0 0
POINTS 555
DATA ascii
-0.22468057 -0.28243324 0.062580012
-0.22491208 -0.28242481 0.06256289
-0.22514969 -0.28242001 0.062516913
-0.22537097 -0.28240845 0.062526345
-0.2255996 -0.28239936 0.062515005
-0.22583051 -0.2823911 0.062496722
-0.22606984 -0.28238732 0.06244266
-0.22630182 -0.28237963 0.062419765
-0.22653641 -0.28237292 0.062388793
-0.22675267 -0.2823602 0.062408615
-0.22698057 -0.28235301 0.062383432
-0.22721922 -0.28234801 0.062338606
-0.22743976 -0.28233695 0.062344585
-0.22766736 -0.28232837 0.062329777
-0.22789502 -0.28232151 0.062302288
-0.22812533 -0.28231409 0.062278252
-0.22834581 -0.28230333 0.062281925
-0.22857761 -0.2822966 0.062252104
-0.22881228 -0.282291 0.062213063
-0.2290266 -0.28227833 0.062232904
-0.22924492 -0.28226879 0.062228512
-0.22948466 -0.28226531 0.062172152
-0.22971086 -0.28225711 0.062155046
-0.22993913 -0.28224975 0.06213101
-0.23013715 -0.28223157 0.062197037
-0.23037997 -0.28222966 0.062127981
-0.23061681 -0.2822274 0.06206356
-0.23084863 -0.28222176 0.062025674
-0.23107901 -0.28221574 0.061991256
-0.23129106 -0.28220302 0.062012255
-0.23152359 -0.28219798 0.061969765
-0.23173642 -0.2821857 0.061987303
-0.2319532 -0.28217497 0.061992139
-0.23219125 -0.28217235 0.061930023
-0.23241717 -0.28216699 0.061892159
-0.23263185 -0.28215572 0.061901629
-0.23283359 -0.28213957 0.061951496
-0.23306364 -0.28213432 0.061911315
-0.23329231 -0.28212869 0.061874602
-0.23352608 -0.28212515 0.061820567
-0.23374055 -0.28211421 0.061827727
-0.23388523 -0.28209177 0.061943553
-0.23423612 -0.28211886 0.061623849
-0.23441769 -0.28209516 0.061736062
-0.23464511 -0.28208974 0.061698195
-0.23485301 -0.2820766 0.061723821
-0.23507266 -0.28206825 0.061710209
-0.23529592 -0.28206143 0.061683893
-0.23552273 -0.28205618 0.061644875
-0.2357273 -0.28204194 0.061679751
-0.23595469 -0.28203714 0.061637275
-0.23617636 -0.28203011 0.061613269
-0.23639373 -0.28202137 0.061603121
-0.23660114 -0.28200856 0.061626442
-0.23682758 -0.28200379 0.061583973
-0.23703142 -0.28199145 0.061605006
-0.23727331 -0.28199163 0.061520964
-0.23750289 -0.28198862 0.061464649
-0.23770061 -0.28197014 0.061532974
-0.23791733 -0.28196174 0.061520524
-0.23812863 -0.2819511 0.061526544
-0.23837444 -0.28195563 0.061409056
-0.23857823 -0.28194189 0.06144046
-0.23881592 -0.2819432 0.061349519
-0.23902258 -0.28193089 0.061369393
-0.2392374 -0.28192228 0.061359249
-0.23944257 -0.28190941 0.061383747
-0.23967279 -0.28190792 0.061315887
-0.23987675 -0.28189465 0.061343845
-0.24009492 -0.28188792 0.061318703
-0.24031752 -0.28188333 0.061276242
-0.2405334 -0.28187579 0.061258037
-0.24074815 -0.2818678 0.061243284
-0.24094144 -0.28184983 0.06130933
-0.24117289 -0.28184986 0.061229937
-0.24138622 -0.28184149 0.06121866
-0.24159488 -0.28183097 0.061224684
-0.24183233 -0.2818343 0.061118752
-0.24202934 -0.28181836 0.061168648
-0.24224462 -0.2818113 0.061146967
-0.24245852 -0.28180367 0.06112992
-0.24267313 -0.28179649 0.061109409
-0.24288085 -0.28178599 0.061115436
-0.24309857 -0.28178054 0.06108107
-0.24331807 -0.2817761 0.061038632
-0.2435202 -0.28176308 0.061065443
-0.24373303 -0.28175551 0.061048388
-0.24394712 -0.28174865 0.061025571
-0.24416128 -0.28174195 0.061001606
-0.24438724 -0.28174144 0.060928006
-0.24460036 -0.28173226 0.060922485
-0.24481858 -0.28172806 0.060878895
-0.24496052 -0.28170151 0.061025865
-0.24521586 -0.28169933 0.060954452
-0.24543346 -0.28169951 0.060878575
-0.2456463 -0.28169286 0.060854614
-0.24585967 -0.28168213 0.060860619
-0.2460508 -0.28167069 0.060879409
-0.24628356 -0.28167066 0.060800008
-0.24648619 -0.28165886 0.060817592
-0.24670739 -0.28165275 0.060786679
-0.24691501 -0.28164387 0.060781185
-0.24711087 -0.28162843 0.06082762
-0.24731004 -0.2816312 0.060739137
-0.24749279 -0.28162014 0.060757965
-0.2477182 -0.28161466 0.060721256
-0.24796778 -0.28160664 0.060694836
-0.24818778 -0.28160545 0.060628176
-0.24839778 -0.28159863 0.060606524
-0.24858584 -0.28158626 0.060633399
-0.24876416 -0.28157055 0.060687982
-0.24896128 -0.28157574 0.060582221
-0.24922529 -0.28156739 0.060553424
-0.24944015 -0.28155908 0.060540982
-0.24963292 -0.28154239 0.060597807
-0.24981284 -0.28154525 0.060515173
-0.25006726 -0.28153655 0.060492188
-0.25027558 -0.28152966 0.060471706
-0.25046024 -0.28151819 0.060492821
-0.25067624 -0.28150609 0.060508035
-0.25087339 -0.28149235 0.060541786
-0.25105402 -0.28148875 0.060506426
-0.25130337 -0.2814931 0.060388919
-0.25151563 -0.28148416 0.060382254
-0.25172365 -0.28148571 0.060299501
-0.25190604 -0.28146529 0.060387507
-0.25213385 -0.28145888 0.060356554
-0.25232276 -0.28145084 0.060351133
-0.25250629 -0.28144461 0.060334217
-0.25275645 -0.28144017 0.060281262
-0.25296214 -0.28143293 0.060264248
-0.25315291 -0.2814182 0.060307249
-0.25336152 -0.28141037 0.060293671
-0.25357065 -0.28140578 0.060255885
-0.25377688 -0.28139928 0.060233101
-0.25398052 -0.28138822 0.06024491
-0.25419366 -0.28138688 0.060181752
-0.25439313 -0.28137583 0.060194738
-0.25459737 -0.28136835 0.060180031
-0.25481027 -0.28136733 0.060114548
-0.25500327 -0.28135175 0.060163308
-0.25521228 -0.28134811 0.060118604
-0.25541344 -0.28133869 0.060118899
-0.25562304 -0.2813358 0.060068429
-0.25582576 -0.28132477 0.060080253
-0.2560291 -0.28131732 0.060065545
-0.25622416 -0.28130352 0.060100451
-0.25643331 -0.28130081 0.060048833
-0.25664374 -0.28129929 0.059987981
-0.25684726 -0.28129244 0.059968665
-0.25703984 -0.28127688 0.060017429
-0.25725064 -0.28127611 0.059950806
-0.2574358 -0.28127059 0.059928112
-0.25761077 -0.28125349 0.059994236
-0.25786746 -0.28125891 0.059866324
-0.25806296 -0.2812559 0.05982168
-0.25824323 -0.28124338 0.059852041
-0.25842887 -0.28123549 0.059846636
-0.25862688 -0.28122827 0.059831955
-0.25885954 -0.28121746 0.059832118
-0.25907665 -0.28121704 0.059760861
-0.25927517 -0.28120369 0.059791148
-0.25947723 -0.28119707 0.059770681
-0.25964302 -0.28117865 0.059849527
-0.25985679 -0.28118652 0.059718333
-0.26005769 -0.28116119 0.059836235
-0.26021206 -0.28115001 0.059865557
-0.26045752 -0.28115568 0.059739988
-0.26065913 -0.28115299 0.059690699
-0.2608673 -0.28114939 0.059645999
-0.26106763 -0.28114206 0.059631318
-0.26125127 -0.28112972 0.059659354
-0.26146048 -0.28112763 0.059603117
-0.26165342 -0.28111705 0.059614982
-0.26188403 -0.28111756 0.059532136
-0.26208669 -0.28110138 0.059582002
-0.26223594 -0.28108937 0.059619412
-0.26246029 -0.28110003 0.05946397
-0.26265201 -0.28108451 0.05951272
-0.26287633 -0.2810753 0.059503697
-0.26309109 -0.28106827 0.059482023
-0.26328579 -0.28105605 0.05950541
-0.26344907 -0.28104699 0.05951624
-0.26365006 -0.28105482 0.05938971
-0.26386192 -0.28104508 0.059388813
-0.26405638 -0.28103286 0.059412196
-0.26426771 -0.28102708 0.059382468
-0.2644482 -0.28102082 0.05936671
-0.26464945 -0.28101239 0.059360091
-0.26486325 -0.28101006 0.059303831
-0.26507896 -0.2809917 0.059365176
-0.26524955 -0.28098294 0.059371371
-0.26544234 -0.28097361 0.059374001
-0.26565301 -0.28097287 0.059307382
-0.26586089 -0.28097367 0.05923041
-0.26605263 -0.28095844 0.059276864
-0.26627108 -0.28095374 0.059236728
-0.26645011 -0.28094676 0.059226744
-0.26665509 -0.2809394 0.059210882
-0.26684919 -0.280938 0.059154708
-0.26703471 -0.28092462 0.059189662
-0.26725212 -0.28092483 0.059113793
-0.26744267 -0.28091341 0.059132583
-0.2676481 -0.28090194 0.059146695
-0.26783159 -0.28089681 0.059121698
-0.2680302 -0.28088644 0.059130073
-0.26821271 -0.28088588 0.059071649
-0.26839611 -0.28088701 0.059000537
-0.26861113 -0.2808615 0.059114918
-0.26881036 -0.28086457 0.05902414
-0.26901183 -0.28084701 0.059084386
-0.26921096 -0.28085056 0.058990151
-0.26941088 -0.28083667 0.059023887
-0.2696071 -0.28083581 0.05896309
-0.26981381 -0.28082758 0.058952995
-0.27000248 -0.28082705 0.058892235
-0.2701956 -0.28081459 0.058917921
-0.27038997 -0.2808044 0.058926322
-0.27057612 -0.28079978 0.058896709
-0.27077487 -0.28079832 0.058839366
-0.27097997 -0.2807878 0.058846563
-0.27117404 -0.28078499 0.058800764
-0.27136278 -0.280779 0.058780365
-0.27156582 -0.28077233 0.05875989
-0.27175483 -0.28075927 0.058791377
-0.27195218 -0.28074834 0.058804363
-0.2721394 -0.28073943 0.058805875
-0.27231625 -0.28072348 0.058862768
-0.27251726 -0.28072992 0.058746614
-0.27271089 -0.28071913 0.05875963
-0.27290815 -0.28070819 0.058772624
-0.27315906 -0.28068447 0.058861487
-0.27334368 -0.28064939 0.059056696
-0.27352908 -0.28061503 0.059246145
-0.27371815 -0.28058976 0.059367552
-0.27390409 -0.28055444 0.059563916
-0.27409199 -0.2805236 0.059726838
-0.27428043 -0.28049317 0.059886299
-0.27446729 -0.28045642 0.06009303
-0.27465728 -0.28042811 0.060236342
-0.27485141 -0.28040028 0.060375027
-0.27504218 -0.28037223 0.06051603
-0.27523068 -0.28033477 0.060727365
-0.27542281 -0.2803089 0.060852218
-0.22460486 -0.28243783 0.062572122
-0.22483674 -0.28242797 0.062565349
-0.22506547 -0.28241873 0.062555142
-0.22531578 -0.28241506 0.062496401
-0.22553305 -0.28240228 0.062516227
-0.22577353 -0.28239718 0.062471367
-0.22599915 -0.28238732 0.062466923
-0.22623737 -0.28238013 0.062438227
-0.22648187 -0.28237674 0.062379509
-0.2267125 -0.28236723 0.062370438
-0.22693138 -0.28235546 0.062382184
-0.2271737 -0.2823517 0.062326934
-0.22739825 -0.28234202 0.062321357
-0.22762427 -0.28233135 0.062322687
-0.22784717 -0.28232127 0.062320575
-0.22809 -0.28231654 0.062272239
-0.22830406 -0.28230357 0.062294379
-0.22854696 -0.28230074 0.062232211
-0.22877249 -0.28229195 0.062219713
-0.22899678 -0.28228119 0.062222201
-0.2292207 -0.28227198 0.062213168
-0.22945511 -0.28226498 0.062184475
-0.2297011 -0.28226388 0.06210845
-0.22991726 -0.28225222 0.06212021
-0.23012483 -0.28223753 0.06215737
-0.23035133 -0.28222808 0.062149476
-0.23059148 -0.28222537 0.06208732
-0.2308376 -0.28222328 0.062018212
-0.23106414 -0.28221586 0.061995331
-0.23127536 -0.2822029 0.062018633
-0.23150298 -0.28219604 0.061991125
-0.23172691 -0.28218624 0.061986696
-0.23195255 -0.28217885 0.061963823
-0.23218088 -0.28217086 0.061944384
-0.23240933 -0.28216478 0.061911102
-0.23263165 -0.28215644 0.061896309
-0.23283479 -0.28214085 0.061941564
-0.23306078 -0.28213236 0.061926745
-0.23330024 -0.28213093 0.061855365
-0.23352602 -0.28212431 0.061826713
-0.23374221 -0.28211409 0.061828092
-0.23389296 -0.28209227 0.061936989
-0.23424593 -0.28212026 0.06161027
-0.23442999 -0.28209582 0.061727099
-0.23464781 -0.28208661 0.061720394
-0.23486897 -0.2820788 0.061702143
-0.23508608 -0.28206947 0.061696596
-0.23531011 -0.28206122 0.061680634
-0.23554099 -0.28205767 0.061627738
-0.23573582 -0.28203949 0.061694942
-0.23596589 -0.2820358 0.061643213
-0.23619112 -0.28202844 0.061620329
-0.23641418 -0.28202212 0.061590537
-0.23661873 -0.28200632 0.061636932
-0.23685312 -0.28200495 0.061566733
-0.23703609 -0.281995 0.061577469
-0.23728999 -0.28198913 0.061533704
-0.23753139 -0.28198931 0.061449636
-0.23771687 -0.28196749 0.061546862
-0.23793711 -0.28196067 0.061521687
-0.23815127 -0.28195131 0.061517306
-0.23839244 -0.28195387 0.061415941
-0.23860364 -0.2819415 0.061434627
-0.23883866 -0.28194168 0.061352894
-0.2390478 -0.28193051 0.061363518
-0.23926632 -0.28192362 0.061339516
-0.23947531 -0.28191057 0.061363988
-0.23970008 -0.28190669 0.06131573
-0.23990613 -0.28189442 0.061335608
-0.24012482 -0.28188798 0.061308131
-0.24034905 -0.28188223 0.06127372
-0.24056669 -0.28187552 0.061248571
-0.24078134 -0.28186753 0.061233807
-0.24097483 -0.28184974 0.061298706
-0.24121219 -0.28185058 0.061211191
-0.2414227 -0.28184092 0.061210282
-0.24163637 -0.28183079 0.061211664
-0.24186981 -0.28183231 0.061120704
-0.2420679 -0.28181693 0.061165981
-0.24228249 -0.2818096 0.061146609
-0.24250282 -0.28180307 0.061119132
-0.24271645 -0.28179547 0.061102062
-0.24292117 -0.28178358 0.061119623
-0.24313879 -0.28177813 0.06108525
-0.24336264 -0.28177381 0.061040465
-0.24356666 -0.28176177 0.061059181
-0.24377884 -0.2817539 0.061044428
-0.24399252 -0.28174692 0.061022751
-0.24420133 -0.28173968 0.061004557
-0.24443132 -0.28173915 0.06092976
-0.24464267 -0.28172913 0.060931154
-0.2448575 -0.28172317 0.060901389
-0.24501258 -0.28170136 0.061009128
-0.2452642 -0.28169951 0.06093654
-0.24549286 -0.28170121 0.060845606
-0.24570286 -0.28169316 0.060833171
-0.24590468 -0.28168076 0.060855363
-0.24608743 -0.28167158 0.060860336
-0.24633601 -0.28166893 0.060794689
-0.24653432 -0.28165936 0.060797296
-0.24675383 -0.28165242 0.060773276
-0.24695925 -0.28164238 0.060777001
-0.24713847 -0.28162694 0.060829274
-0.24735457 -0.28162766 0.060749933
-0.24753423 -0.28162193 0.060730703
-0.24777703 -0.28161469 0.060700826
-0.24801046 -0.28160694 0.060677905
-0.24822535 -0.28160289 0.060634308
-0.24843702 -0.28159708 0.060604565
-0.24862596 -0.28158528 0.060626812
-0.24878618 -0.28156617 0.060712613
-0.24900831 -0.28157899 0.060542136
-0.24927002 -0.28156447 0.060559459
-0.24947746 -0.2815567 0.060545877
-0.24966992 -0.28153986 0.060603861
-0.24985 -0.28154537 0.060501598
-0.25009817 -0.28153288 0.060508601
-0.25031018 -0.28152832 0.060469635
-0.25050178 -0.28151876 0.060474567
-0.25071183 -0.2815055 0.060500186
-0.25090337 -0.28148824 0.060561635
-0.25107592 -0.28148988 0.060490549
-0.25134259 -0.28148985 0.060399443
-0.25155079 -0.28148359 0.060374334
-0.25175595 -0.28147542 0.060364217
-0.25195253 -0.28146437 0.060378369
-0.25216848 -0.28146088 0.060330145
-0.25233987 -0.28145191 0.060337488
-0.2525484 -0.28144908 0.060286999
-0.25279248 -0.28144336 0.060245588
-0.2529881 -0.28143203 0.060262039
-0.25317234 -0.28141838 0.0602993
-0.25339046 -0.28141168 0.060274139
-0.25360075 -0.28140798 0.060229406
-0.25380147 -0.28140047 0.060215853
-0.2540054 -0.28138971 0.060225353
-0.25421393 -0.28138515 0.060187552
-0.25441191 -0.28137308 0.060208611
-0.25462013 -0.28136852 0.060170807
-0.25482816 -0.28136399 0.060133014
-0.25502864 -0.28135401 0.060137913
-0.25523436 -0.28134802 0.060111653
-0.25543839 -0.28134084 0.060094625
-0.25564614 -0.28133664 0.060054526
-0.25584504 -0.28132579 0.06006635
-0.25604865 -0.28131863 0.060049325
-0.25623411 -0.28130352 0.060096961
-0.2564553 -0.28130418 0.060016438
-0.25665593 -0.2812981 0.059992507
-0.25685754 -0.28128979 0.059984718
-0.2570523 -0.28127599 0.060019627
-0.25725931 -0.28127542 0.059953
-0.25744405 -0.28126961 0.059932597
-0.25764522 -0.2812613 0.059924807
-0.2578809 -0.2812624 0.059836157
-0.25807506 -0.28125504 0.059823789
-0.25826049 -0.28124699 0.059819527
-0.25845325 -0.28123862 0.059815228
-0.25865406 -0.28123394 0.059780926
-0.25885561 -0.28121984 0.059815802
-0.25909191 -0.28121933 0.05973867
-0.25928631 -0.28120586 0.05977127
-0.25948599 -0.28119716 0.059766956
-0.25963342 -0.28117976 0.059844732
-0.25987279 -0.28118631 0.059714545
-0.26003388 -0.28115636 0.059879906
-0.26023149 -0.28116044 0.059782185
-0.26046437 -0.28116167 0.059693545
-0.2606672 -0.28115657 0.05966153
-0.26088783 -0.28115019 0.059632901
-0.26106128 -0.28114301 0.059626389
-0.26125097 -0.28112915 0.059663627
-0.26145497 -0.28113341 0.059562415
-0.26165703 -0.28112054 0.059588064
-0.26189721 -0.28111923 0.059515532
-0.26206613 -0.28109595 0.059628971
-0.26223695 -0.28109846 0.059552126
-0.26245967 -0.2810995 0.059468135
-0.26264229 -0.28108659 0.05950078
-0.26287904 -0.28107852 0.059479009
-0.26308253 -0.28106761 0.05948966
-0.26326567 -0.2810553 0.0595177
-0.26343185 -0.28104955 0.059503146
-0.26364574 -0.28105915 0.05935923
-0.2638686 -0.28104907 0.059357107
-0.26403767 -0.28103834 0.059378289
-0.26424804 -0.28102711 0.059388913
-0.2644335 -0.28102237 0.059360441
-0.26462981 -0.28101256 0.059365354
-0.2648713 -0.28101182 0.059288204
-0.26504004 -0.28099155 0.059379727
-0.26521966 -0.28098941 0.05933398
-0.26541561 -0.28097948 0.059340056
-0.26562396 -0.28097102 0.059331089
-0.26584285 -0.28097144 0.059252881
-0.2660439 -0.28095862 0.059278533
-0.2662265 -0.28095132 0.059269674
-0.26642573 -0.28094625 0.059238829
-0.26661962 -0.28093925 0.059224151
-0.26682404 -0.28093126 0.059212893
-0.26700839 -0.28093219 0.059142906
-0.26721403 -0.28092638 0.059115499
-0.26741621 -0.28091568 0.059124995
-0.26760897 -0.28090212 0.059158761
-0.26781115 -0.28090271 0.059085242
-0.26798818 -0.28088802 0.059132908
-0.26817867 -0.28089413 0.059022538
-0.26837438 -0.28088546 0.059019387
-0.26858285 -0.28086746 0.059080765
-0.26877835 -0.28086457 0.059034936
-0.26898193 -0.28085679 0.059022531
-0.26917192 -0.28085136 0.05899749
-0.26938137 -0.28084129 0.059000049
-0.2695691 -0.28083861 0.058955416
-0.26978794 -0.28083232 0.058926791
-0.2699714 -0.28082922 0.058886796
-0.27015501 -0.28081298 0.05894367
-0.2703428 -0.28080437 0.058942854
-0.27055487 -0.28080699 0.05885084
-0.27073956 -0.28079993 0.058839664
-0.27094245 -0.28079247 0.058824953
-0.2711325 -0.28078908 0.058784917
-0.2713488 -0.2807793 0.058782831
-0.27153978 -0.28077838 0.058724351
-0.27172202 -0.28075889 0.058805436
-0.27191511 -0.28075489 0.058768854
-0.27209491 -0.2807377 0.058833811
-0.27228278 -0.28073895 0.058760352
-0.27249479 -0.28073704 0.058701772
-0.27267992 -0.28072369 0.058736734
-0.27287379 -0.28070462 0.058810852
-0.27312025 -0.2806789 0.058915883
-0.27330437 -0.28064257 0.05912035
-0.2734907 -0.28061083 0.059290223
-0.27368176 -0.28058094 0.059445076
-0.2738688 -0.28054884 0.059617259
-0.27405727 -0.28051969 0.059767514
-0.27424476 -0.28048649 0.059947755
-0.27443272 -0.28045326 0.060128
-0.27461615 -0.28042778 0.060252905
-0.27481744 -0.28039944 0.060392722
-0.2750071 -0.28036788 0.060560275
-0.22472394 -0.28243402 0.062559582
-0.22495227 -0.28242305 0.062562056
-0.22519639 -0.28241733 0.062520623
-0.22543222 -0.28240901 0.062501147
-0.22566235 -0.28240049 0.062485155
-0.22589554 -0.28239149 0.062471457
-0.22613305 -0.28238404 0.062445052
-0.22637355 -0.28237772 0.062409408
-0.22661373 -0.28237295 0.062362235
-0.22683436 -0.28236017 0.06238088
-0.22706503 -0.28235084 0.06237065
-0.22730559 -0.28234494 0.062331539
-0.22752798 -0.2823346 0.062331725
-0.22775629 -0.28232473 0.062326118
-0.22798628 -0.28231716 0.062303208
-0.22821772 -0.28230858 0.062287204
-0.22845039 -0.28230211 0.062255066
-0.22868012 -0.28229314 0.062242527
-0.22891182 -0.28228658 0.062211528
-0.2291344 -0.28227526 0.062218644
-0.22936207 -0.28226748 0.06219805
-0.22961147 -0.2822659 0.062124312
-0.22981688 -0.28225034 0.06216839
-0.23005445 -0.28224477 0.062128142
-0.23025079 -0.28222606 0.06219878
-0.23050663 -0.28222731 0.06210196
-0.23074728 -0.28222489 0.062037483
-0.23097873 -0.28221753 0.062012263
-0.23120096 -0.28220859 0.062002063
-0.23142853 -0.28220004 0.061987236
-0.23165295 -0.28219208 0.061968967
-0.23187305 -0.2821826 0.061963387
-0.23208849 -0.28217146 0.061971679
-0.2323292 -0.28216824 0.061912969
-0.23255342 -0.28216061 0.061892387
-0.23276499 -0.28214651 0.061923757
-0.23298009 -0.28213555 0.061930891
-0.23321497 -0.28213057 0.061887208
-0.23344733 -0.28212649 0.061837755
-0.23366654 -0.28211564 0.061842568
-0.23386575 -0.28210053 0.061885521
-0.23412548 -0.28210756 0.061744846
-0.2343622 -0.2821022 0.061703458
-0.23456562 -0.28208721 0.061744094
-0.23479842 -0.28208405 0.061687727
-0.23501292 -0.28207186 0.061704092
-0.23523405 -0.2820642 0.061684672
-0.2354638 -0.28205836 0.061649077
-0.23567484 -0.28204679 0.061661996
-0.23589352 -0.2820366 0.061662197
-0.23611178 -0.28202814 0.061649717
-0.2363538 -0.28202784 0.061569095
-0.23654999 -0.28201038 0.06163051
-0.23677406 -0.28200465 0.061596088
-0.23697904 -0.28200024 0.061558299
-0.23722535 -0.281993 0.061527241
-0.23746285 -0.28199339 0.06144318
-0.2376605 -0.28197491 0.061511502
-0.23787187 -0.28196427 0.061517507
-0.23808771 -0.28195375 0.06152118
-0.23832153 -0.28195304 0.061446354
-0.23854665 -0.28194678 0.061415397
-0.23877755 -0.28194511 0.061348654
-0.23899382 -0.28193519 0.061347716
-0.2392076 -0.28192616 0.061341014
-0.2394089 -0.28191158 0.061379351
-0.23963277 -0.28190726 0.061334554
-0.23985593 -0.28190076 0.061305903
-0.24006622 -0.28189048 0.061309602
