# .PCD v0.7 - Point Cloud Data file format
VERSION 0.7
FIELDS x y z
SIZE 4 4 4
TYPE F F F
COUNT 1 1 1
WIDTH 607
HEIGHT 1
VIEWPOINT 0 0 0 1 0 0 0
POINTS 607
DATA ascii
-0.23579505 -0.27306506 0.062577866
-0.23603149 -0.27304846 0.062548079
-0.23626207 -0.27303034 0.062533297
-0.2365163 -0.27301893 0.062453851
-0.23672162 -0.27299389 0.062506057
-0.23695441 -0.27297667 0.062483206
-0.23717216 -0.27295524 0.062500775
-0.23740445 -0.27293804 0.062477916
-0.23762685 -0.27291811 0.062481631
-0.23786947 -0.2729041 0.062428746
-0.2380881 -0.27288324 0.062441692
-0.23832017 -0.27286482 0.062428065
-0.23857464 -0.27285466 0.062339388
-0.2388069 -0.27283809 0.062311918
-0.23904216 -0.27282253 0.062275209
-0.23926207 -0.2728025 0.062281244
-0.23948668 -0.27278394 0.062273398
-0.23971549 -0.27276674 0.062252872
-0.23994644 -0.27275032 0.062225401
-0.24018672 -0.27273682 0.06217023
-0.24040714 -0.27271736 0.062171634
-0.24061547 -0.27269426 0.062207691
-0.24085097 -0.27267963 0.062164076
-0.2410606 -0.27265701 0.062195506
-0.24130535 -0.2726455 0.062123016
-0.24152163 -0.27262515 0.062133659
-0.24176571 -0.2726137 0.062061172
-0.24199238 -0.27259684 0.062039491
-0.24220765 -0.27257642 0.062051296
-0.24244192 -0.27256221 0.062005378
-0.24267268 -0.27254531 0.061981373
-0.24291965 -0.27253547 0.061895028
-0.24311741 -0.27250966 0.061957654
-0.24333173 -0.27248934 0.061969467
-0.24355677 -0.27247262 0.061947793
-0.24377412 -0.27245343 0.061949216
-0.24400094 -0.27243751 0.061920621
-0.24420607 -0.27241436 0.061958984
-0.24444608 -0.27240309 0.061887667
-0.2446817 -0.27239048 0.061829045
-0.24490786 -0.27237305 0.061811984
-0.24512178 -0.27235323 0.061820343
-0.24533591 -0.27233353 0.061827548
-0.24552913 -0.27232933 0.061734505
-0.24581316 -0.27231157 0.061682604
-0.24601023 -0.27228615 0.061742928
-0.24622655 -0.27226579 0.061753582
-0.24645886 -0.27225298 0.061698437
-0.24667047 -0.27223289 0.061710257
-0.24689664 -0.27221811 0.061673589
-0.24712478 -0.2722024 0.061642677
-0.24734834 -0.27218691 0.061612941
-0.24756888 -0.27217042 0.061592437
-0.24778235 -0.27215141 0.061595023
-0.24800372 -0.27213362 0.06158375
-0.24824542 -0.27212533 0.061489359
-0.24844269 -0.27210051 0.061545059
-0.24867097 -0.27208745 0.061494544
-0.24887277 -0.27206445 0.061534084
-0.24910757 -0.27205411 0.061459325
-0.24932338 -0.27203473 0.061463058
-0.2495331 -0.27201495 0.061473742
-0.24974304 -0.27199531 0.061483264
-0.24996561 -0.2719807 0.061447766
-0.25017753 -0.27196011 0.061463047
-0.25040579 -0.27194798 0.061405607
-0.25062895 -0.27193394 0.061365493
-0.25083932 -0.27191487 0.061370403
-0.25106239 -0.27189913 0.06134297
-0.2512753 -0.27188125 0.061337501
-0.25149184 -0.27186498 0.061318167
-0.25168526 -0.27183923 0.061383113
-0.25191885 -0.2718282 0.061314128
-0.25213081 -0.27181029 0.061309807
-0.2523604 -0.2717979 0.06125351
-0.25259382 -0.27178922 0.061167225
-0.25279593 -0.27176744 0.061197542
-0.25300801 -0.27174997 0.061189763
-0.25323263 -0.27173597 0.06114848
-0.25345039 -0.27172115 0.061117612
-0.25365803 -0.27170202 0.061124846
-0.25386971 -0.27168474 0.061115909
-0.25408691 -0.2716679 0.061100036
-0.25431067 -0.27165619 0.061042614
-0.254513 -0.271635 0.061068323
-0.25472096 -0.27162054 0.061040953
-0.2549518 -0.27160618 0.060998492
-0.25516504 -0.27159017 0.060979176
-0.25536978 -0.27157035 0.060993336
-0.25559351 -0.27156362 0.060899019
-0.25577727 -0.27155554 0.060840607
-0.25601208 -0.27152225 0.060934223
-0.25621617 -0.27150676 0.060917243
-0.25645819 -0.27150503 0.060774408
-0.25665522 -0.27147552 0.060864713
-0.25686565 -0.27145898 0.060851175
-0.25706249 -0.27143592 0.060894199
-0.25727838 -0.27142221 0.060856417
-0.25749004 -0.2714043 0.060852099
-0.25766525 -0.27138627 0.060872145
-0.25791276 -0.27137294 0.060811166
-0.2581239 -0.27136183 0.060757264
-0.25834417 -0.27134866 0.060712546
-0.25856128 -0.27133405 0.060680527
-0.25872344 -0.27131197 0.060738675
-0.25893477 -0.27129221 0.060748205
-0.2591694 -0.27127308 0.06073802
-0.25940102 -0.27126649 0.060637902
-0.25960779 -0.27124932 0.060631294
-0.25979796 -0.27123517 0.060613222
-0.25998449 -0.27121675 0.060628612
-0.2602056 -0.27119803 0.060624257
-0.2603597 -0.27117649 0.060683597
-0.26061687 -0.27118242 0.060474966
-0.26085967 -0.2711494 0.060561627
-0.26106644 -0.27113286 0.060550407
-0.26123682 -0.27111068 0.060603913
-0.2614491 -0.2711097 0.060475048
-0.26169792 -0.27108762 0.060477491
-0.26189652 -0.27106926 0.060484752
-0.262104 -0.27104858 0.06050352
-0.26232499 -0.27104086 0.060418434
-0.26249719 -0.27103266 0.060368147
-0.26268533 -0.27100846 0.060425047
-0.2629264 -0.27099004 0.060405612
-0.26308051 -0.27096614 0.060482249
-0.26334879 -0.27095133 0.060418881
-0.26356632 -0.27094251 0.060344197
-0.26376495 -0.27093279 0.060288031
-0.26394624 -0.27090982 0.060340341
-0.26419309 -0.27089843 0.060265534
-0.26439136 -0.27088624 0.06022783
-0.26459825 -0.27086341 0.060262732
-0.26480272 -0.27084723 0.060250368
-0.26502001 -0.27083668 0.060188368
-0.26519829 -0.27081195 0.060255684
-0.26542336 -0.27080119 0.060190178
-0.2656067 -0.27078542 0.060188293
-0.26581967 -0.27076694 0.060187414
-0.2660304 -0.27075556 0.060135819
-0.26624689 -0.2707454 0.060071513
-0.26644829 -0.27072507 0.060091458
-0.2666584 -0.27070794 0.060082525
-0.26686275 -0.27069271 0.060063247
-0.26705876 -0.27066877 0.060113188
-0.26727808 -0.27066433 0.060005054
-0.26748279 -0.27064672 0.060003065
-0.26768675 -0.27063167 0.059982628
-0.2678833 -0.27061132 0.060006049
-0.26809183 -0.27059981 0.059956767
-0.26826993 -0.27058434 0.05995604
-0.26849067 -0.27056989 0.059920549
-0.26868451 -0.27054772 0.059958965
-0.26888633 -0.27052534 0.0599939
-0.26910517 -0.27051607 0.059921503
-0.26931462 -0.27050933 0.05983647
-0.2695109 -0.27048931 0.059857585
-0.26970384 -0.27046987 0.059876405
-0.26990539 -0.27045411 0.059862904
-0.27009982 -0.27043927 0.059847124
-0.27032417 -0.27042231 0.05982776
-0.27050847 -0.27040944 0.05980394
-0.27074111 -0.27040306 0.059701517
-0.27093098 -0.27037808 0.059763014
-0.2711283 -0.2703594 0.059773751
-0.27130675 -0.27035236 0.059710741
-0.27154809 -0.27033693 0.059669398
-0.27171594 -0.27031747 0.059704468
-0.27192867 -0.27029836 0.059708219
-0.27212816 -0.27028561 0.059673958
-0.27231991 -0.27026957 0.059668563
-0.27253345 -0.27025151 0.059664242
-0.27273297 -0.27023545 0.059654206
-0.27292052 -0.27021948 0.05965114
-0.27314827 -0.27020755 0.059592552
-0.27331635 -0.2702038 0.059512302
-0.27353975 -0.27018815 0.059483707
-0.27371073 -0.27016044 0.059577577
-0.27390322 -0.27015769 0.059474163
-0.2741282 -0.2701242 0.059575882
-0.27436066 -0.27011815 0.059471142
-0.27456376 -0.27010679 0.059424192
-0.27473679 -0.27008909 0.059443094
-0.2749182 -0.27006361 0.059513856
-0.2751011 -0.27005213 0.059480824
-0.27532661 -0.27005687 0.059301149
-0.27551943 -0.27003103 0.059367254
-0.27571851 -0.27001625 0.059347998
-0.27591875 -0.26998976 0.05941407
-0.27613172 -0.26998195 0.059334785
-0.2763226 -0.26996711 0.059321322
-0.27655384 -0.26995832 0.059237354
-0.27673003 -0.26993582 0.059289686
-0.27693301 -0.26992181 0.059262328
-0.27710581 -0.26990443 0.059278935
-0.27732205 -0.26989257 0.05922731
-0.27751765 -0.26987952 0.059197687
-0.27770576 -0.26986694 0.05916924
-0.27790299 -0.26984149 0.05922956
-0.27809641 -0.26982597 0.059219554
-0.27829832 -0.26981661 0.059158765
-0.27849191 -0.26979649 0.059182189
-0.27870047 -0.26979125 0.059086781
-0.2788952 -0.26976761 0.059135579
-0.27910578 -0.26975513 0.059092052
-0.27929202 -0.26974115 0.059075147
-0.27949205 -0.26972502 0.059065107
-0.2796576 -0.26968679 0.059239727
-0.27986491 -0.26968122 0.059147775
-0.28008816 -0.26967704 0.059035003
-0.28028819 -0.26966721 0.058978844
-0.28048021 -0.26965117 0.05897345
-0.28067595 -0.26963511 0.058965731
-0.28086343 -0.26962417 0.058925763
-0.28107315 -0.26960015 0.058967583
-0.28125164 -0.2695809 0.058994524
-0.28144249 -0.2695761 0.058907259
-0.28165394 -0.2695615 0.058878727
-0.28184816 -0.26954353 0.058886006
-0.2820304 -0.26953793 0.058810309
-0.2822364 -0.26951408 0.058853291
-0.28242829 -0.26949897 0.058840983
-0.28261596 -0.26946887 0.0589417
-0.28281873 -0.26948205 0.058714844
-0.28302759 -0.26945654 0.058768198
-0.28321469 -0.26943997 0.05876974
-0.28341681 -0.26942351 0.058760848
-0.28359991 -0.26940653 0.058768176
-0.28378552 -0.26937893 0.058851607
-0.28397709 -0.26938036 0.058718204
-0.28417486 -0.26936305 0.058718555
-0.28440684 -0.26933002 0.058812179
-0.28460622 -0.26928979 0.058979735
-0.28479207 -0.26925182 0.059139278
-0.28498182 -0.26921335 0.059299953
-0.28516808 -0.26917443 0.059466414
-0.28535342 -0.26913196 0.059659407
-0.28554112 -0.26909447 0.059814326
-0.28572944 -0.26905769 0.059963472
-0.28591806 -0.26902059 0.060114931
-0.28610551 -0.26897904 0.060299836
-0.28629279 -0.26893547 0.060499735
-0.28648242 -0.26889765 0.060655802
-0.28666952 -0.2688503 0.060883377
-0.235798 -0.27306485 0.062577516
-0.23604783 -0.27305198 0.062511861
-0.23627958 -0.27303264 0.062505111
-0.23652899 -0.27301836 0.062449843
-0.23674829 -0.27299571 0.062475428
-0.23697175 -0.27297586 0.062477939
-0.23720255 -0.27295661 0.062471196
-0.23744154 -0.27294135 0.062429801
-0.23766804 -0.27292106 0.062433459
-0.23789936 -0.27290383 0.062411703
-0.23811342 -0.27288005 0.062448859
-0.23835173 -0.27286503 0.062406316
-0.23861687 -0.27285644 0.06229908
-0.23884664 -0.27283919 0.062278494
-0.23907173 -0.27281901 0.062282149
-0.23930749 -0.27280372 0.062243089
-0.23952119 -0.2727803 0.062277921
-0.23974881 -0.27276275 0.062260803
-0.23999913 -0.27275062 0.062189393
-0.24023107 -0.27273297 0.062169947
-0.24044237 -0.27271071 0.062197872
-0.24066553 -0.27269056 0.062202692
-0.24090101 -0.27267593 0.062159017
-0.24112886 -0.27265742 0.062148817
-0.24136139 -0.27264211 0.062112078
-0.24159071 -0.27262422 0.062096104
-0.24182965 -0.27261117 0.062038571
-0.24206112 -0.27259424 0.06201452
-0.24226905 -0.27257147 0.062048227
-0.24251096 -0.27255973 0.061979149
-0.24276072 -0.27254906 0.061897352
-0.24297643 -0.27252907 0.06190566
-0.24318318 -0.27250454 0.061953217
-0.24339786 -0.27248433 0.061963841
-0.24364601 -0.27247363 0.0618832
-0.24386695 -0.27245569 0.061873026
-0.24406987 -0.27243009 0.061930984
-0.24428351 -0.2724098 0.06194276
-0.24453115 -0.27239946 0.061859824
-0.24476011 -0.27238461 0.06182193
-0.24498478 -0.27236667 0.061809443
-0.24519469 -0.27234548 0.061830457
-0.24540758 -0.27233234 0.061790336
-0.24567924 -0.27233812 0.061573509
-0.24589072 -0.27230376 0.061690249
-0.24609315 -0.27228022 0.061733216
-0.24631937 -0.27226341 0.061711486
-0.24654241 -0.27224734 0.061686315
-0.24676885 -0.27223083 0.061662283
-0.24699073 -0.27221456 0.061639424
-0.24721321 -0.2721968 0.061626945
-0.24744225 -0.27218336 0.061578676
-0.24766067 -0.27216613 0.061565056
-0.24786858 -0.27214509 0.061586082
-0.24809605 -0.2721296 0.061553985
-0.2483037 -0.27210858 0.06157501
-0.24853006 -0.27209288 0.061545204
-0.248763 -0.27208161 0.061478473
-0.24897844 -0.27206194 0.061484475
-0.24920544 -0.27204868 0.061436225
-0.24940827 -0.27202433 0.061484948
-0.24962527 -0.27200738 0.061470184
-0.24984011 -0.27198967 0.061462343
-0.25006258 -0.27197507 0.061426796
-0.25028032 -0.2719568 0.061421257
-0.25051335 -0.27194664 0.061346456
-0.25069946 -0.27191588 0.061452918
-0.25095212 -0.27191389 0.061305363
-0.25116205 -0.27189282 0.06132523
-0.25138536 -0.27187926 0.061281607
-0.25158572 -0.27185637 0.061321113
-0.25179732 -0.27183816 0.061319064
-0.25202206 -0.27182353 0.061282352
-0.25223795 -0.27180728 0.061262973
-0.25247145 -0.27179661 0.06119163
-0.25268474 -0.27177951 0.061180338
-0.25289351 -0.27175856 0.061200209
-0.25312322 -0.27174866 0.06112542
-0.25333956 -0.27173319 0.061100271
-0.2535497 -0.2717151 0.061098229
-0.25375581 -0.27169329 0.06112618
-0.25397253 -0.27167824 0.061097573
-0.25419471 -0.27166367 0.06106203
-0.25440949 -0.27164802 0.061039198
-0.25462741 -0.27163175 0.061018664
-0.25484037 -0.27161548 0.061001606
-0.25505346 -0.27159932 0.060983401
-0.25525743 -0.27157912 0.061000984
-0.25547749 -0.27156425 0.060968906
-0.25570872 -0.27156961 0.060781084
-0.25590354 -0.27153262 0.060927875
-0.25611001 -0.27151814 0.060901623
-0.2563383 -0.271512 0.060800306
-0.25654262 -0.27148375 0.060876712
-0.25675645 -0.27146658 0.060865417
-0.25693309 -0.27144465 0.060913108
-0.25716916 -0.27142966 0.060871728
-0.25738254 -0.27141476 0.060844298
-0.25756437 -0.27139771 0.060852751
-0.25780201 -0.27138165 0.060818288
-0.25803074 -0.27137026 0.060755033
-0.25823963 -0.27135354 0.06074376
-0.25846073 -0.27134314 0.060678236
-0.25863463 -0.27132475 0.060701713
-0.25883037 -0.27130383 0.060729716
-0.25904739 -0.27128014 0.060764536
-0.25929296 -0.27127373 0.060653921
-0.2594963 -0.27125469 0.060663439
-0.25970921 -0.27124545 0.060594484
-0.25986969 -0.27122495 0.060642235
-0.26010936 -0.271209 0.060605466
-0.26026836 -0.27118531 0.06067745
-0.26051179 -0.27119324 0.060463041
-0.26075587 -0.2711609 0.06054388
-0.26095688 -0.27114108 0.060560331
-0.26114008 -0.27112362 0.060571082
-0.26133388 -0.27111951 0.06047684
-0.26159167 -0.27109995 0.06045498
-0.26179504 -0.27107933 0.06047602
-0.26199007 -0.27105644 0.060519017
-0.26220796 -0.27104679 0.06045004
-0.26240003 -0.27104253 0.060358115
-0.26259407 -0.27101922 0.060404569
-0.26282123 -0.27100533 0.060360931
-0.26299319 -0.27098694 0.060385566
-0.26323441 -0.27096099 0.060421444
-0.26344529 -0.27094802 0.060381338
-0.2636601 -0.27094021 0.060300834
-0.2638267 -0.27092403 0.060312811
-0.26406926 -0.27090454 0.06030025
-0.26428556 -0.27089548 0.060227819
-0.26447821 -0.2708717 0.060278893
-0.26468217 -0.2708551 0.060269959
-0.26490086 -0.27084807 0.060181364
-0.2650753 -0.27082631 0.060229056
-0.26529983 -0.27080682 0.060228106
-0.26551864 -0.27080041 0.060134903
-0.26568991 -0.27078506 0.060137633
-0.26591837 -0.27076286 0.060153965
-0.26613021 -0.270758 0.06005387
-0.26633254 -0.27073541 0.06008992
-0.26653609 -0.27071947 0.060076363
-0.26673913 -0.27070326 0.060065113
-0.26693523 -0.27067932 0.060115024
-0.267149 -0.2706708 0.060040303
-0.2673552 -0.27065715 0.060008287
-0.26755717 -0.27064058 0.060000502
-0.26776019 -0.27062482 0.059985794
-0.26796135 -0.27060783 0.05998148
-0.26815984 -0.27059814 0.059925266
-0.26837319 -0.27058119 0.059912831
-0.26855952 -0.27056268 0.059929334
-0.26874393 -0.27054274 0.059957378
-0.26896152 -0.27051976 0.059986439
-0.26918334 -0.2705192 0.059848249
-0.26936266 -0.27050191 0.05986017
-0.26956064 -0.27048317 0.059870861
-0.2697573 -0.27046341 0.059889626
-0.26994589 -0.27044705 0.059888825
-0.27018657 -0.27043322 0.0598359
-0.27036801 -0.27042124 0.059807442
-0.27059802 -0.27040914 0.059748799
-0.27079633 -0.27039114 0.059753723
-0.2709662 -0.2703698 0.059801433
-0.27116358 -0.27036145 0.059736006
-0.27140111 -0.27034602 0.059696928
-0.27157208 -0.27032566 0.059736568
-0.27177647 -0.27030981 0.059721857
-0.27199087 -0.27029577 0.059687495
-0.27217856 -0.27028325 0.059659012
-0.27238351 -0.27026826 0.059637383
-0.27257127 -0.27024868 0.0596608
-0.27276933 -0.27023494 0.059634581
-0.27299646 -0.27021852 0.059609406
-0.27317813 -0.27021611 0.059510589
-0.27339232 -0.27020299 0.059469312
-0.27356291 -0.27017108 0.059594288
-0.27375621 -0.27017283 0.05945738
-0.2739664 -0.27014047 0.059560284
-0.2741946 -0.27012992 0.059491262
-0.27440768 -0.27011645 0.059453443
-0.27459237 -0.27010244 0.05943767
-0.27476349 -0.27007866 0.059502676
-0.27494693 -0.2700676 0.059466142
-0.27516887 -0.27006403 0.059349861
-0.27535987 -0.27004462 0.05936981
-0.27557254 -0.27003166 0.059328534
-0.27575633 -0.27000439 0.059410792
-0.27597377 -0.26999259 0.059357964
-0.2761628 -0.26997995 0.059329476
-0.27639911 -0.26996776 0.059267346
-0.27656507 -0.26994237 0.059347365
-0.27677202 -0.26992819 0.059318811
-0.2769483 -0.26991948 0.059269615
-0.27714428 -0.26990655 0.059238791
-0.2773616 -0.26989129 0.05921134
-0.27755621 -0.26988178 0.059156302
-0.27774641 -0.26985726 0.059214313
-0.27794456 -0.26984274 0.059193861
-0.27813309 -0.26983091 0.059159607
-0.27833039 -0.2698105 0.059182987
-0.27854207 -0.26980406 0.059094433
-0.27874342 -0.26978406 0.059112027
-0.27896142 -0.26976576 0.059106484
-0.27914342 -0.26975107 0.059097633
-0.27933705 -0.26973662 0.059079509
-0.27950189 -0.26970848 0.059180304
-0.27969593 -0.26969463 0.059157558
-0.27991498 -0.26968959 0.059053976
-0.28013209 -0.26967642 0.059011534
-0.28032568 -0.26966259 0.058988795
-0.28050601 -0.26964614 0.058993794
-0.28071684 -0.26963571 0.058935225
-0.2809068 -0.26961654 0.058954019
-0.28109202 -0.26960203 0.0589417
-0.28129914 -0.26959252 0.058878541
-0.28149658 -0.26957336 0.058892682
-0.28168747 -0.26955602 0.058897637
-0.28188309 -0.26954702 0.058837987
-0.28207117 -0.2695249 0.05887986
-0.28227207 -0.26951218 0.058844402
-0.28245586 -0.26948899 0.058896672
-0.28266531 -0.26949281 0.058734309
-0.28287512 -0.26946908 0.058773786
-0.28306881 -0.26945055 0.058785647
-0.28325561 -0.26943323 0.058792926
-0.28344548 -0.26941454 0.05880826
-0.28361884 -0.26938474 0.058915935
-0.28382602 -0.26939502 0.058707453
-0.28402248 -0.26937467 0.058730826
-0.28423774 -0.26934609 0.058802575
-0.28446063 -0.26930869 0.058934256
-0.28464624 -0.2692706 0.059094932
-0.28483218 -0.26923233 0.059256755
-0.28501689 -0.26918989 0.059449732
-0.28520304 -0.26914987 0.059624247
-0.28539073 -0.26911286 0.059775688
-0.28558207 -0.26907444 0.059935182
-0.28577033 -0.26903674 0.060091235
-0.2859588 -0.26899853 0.06025074
-0.28614599 -0.26895529 0.060448319
-0.28633845 -0.26891518 0.060619339
-0.28652549 -0.26886833 0.060843445
-0.23580736 -0.27306506 0.06257008
-0.23605675 -0.27305049 0.062517099
-0.23629247 -0.27303222 0.062499925
-0.2365309 -0.27301481 0.062474668
-0.23676401 -0.27299756 0.062451743
-0.23698579 -0.27297565 0.062470376
-0.23721373 -0.27295557 0.062471703
-0.23745236 -0.27293861 0.062442973
-0.23769446 -0.27292278 0.062403865
-0.23792666 -0.27290422 0.062391326
-0.23813249 -0.2728796 0.062440015
-0.23837626 -0.27286455 0.062393978
-0.23863614 -0.27285442 0.062301748
-0.23886481 -0.2728352 0.062296137
-0.23909244 -0.27281573 0.062292833
-0.23932515 -0.27279791 0.062274523
-0.2395495 -0.27277765 0.062279306
-0.23978856 -0.27276194 0.062241364
-0.24002682 -0.2727477 0.062193051
-0.24025406 -0.27272859 0.062187448
-0.24047154 -0.27270657 0.062209561
-0.24070591 -0.27268985 0.062182024
-0.24094789 -0.2726756 0.062131375
-0.24117304 -0.2726562 0.062129237
-0.24139196 -0.27263659 0.062132895
-0.24162798 -0.27262083 0.062097274
-0.2418703 -0.27260718 0.062042013
-0.24209839 -0.27258909 0.062028345
-0.24232969 -0.27257216 0.062004264
-0.24256073 -0.27255526 0.061980195
-0.24280915 -0.27254578 0.061890319
-0.24301042 -0.27251935 0.061955184
-0.24323542 -0.27250078 0.061947271
-0.24347076 -0.2724857 0.061907042
-0.24369456 -0.2724669 0.061901458
-0.24391779 -0.272448 0.061897021
-0.24411422 -0.27242184 0.061963052
-0.24435818 -0.27241009 0.061892793
-0.24459516 -0.27239612 0.061843332
-0.24482229 -0.27237892 0.06182389
-0.24503611 -0.27235723 0.061846018
-0.2452556 -0.27233753 0.061849676
-0.24548486 -0.27234229 0.061667629
-0.24575329 -0.27231899 0.061666459
-0.24594729 -0.27229244 0.061737105
-0.24617198 -0.27227497 0.061721139
-0.24640636 -0.27226105 0.061672833
-0.24662565 -0.27224186 0.06167303
-0.2468507 -0.27222484 0.061653595
-0.24706997 -0.27220583 0.061652645
-0.24730536 -0.27219278 0.061597414
-0.2475349 -0.27217773 0.061560672
-0.24774802 -0.27215672 0.061578199
-0.2479576 -0.27213445 0.061607264
-0.24819398 -0.27212223 0.061545111
-0.24839513 -0.27209693 0.061601896
-0.24865164 -0.27209446 0.061455473
-0.24886055 -0.27207226 0.061484553
-0.24908441 -0.2720558 0.061461665
-0.24929042 -0.27203259 0.061499976
-0.24950996 -0.27201462 0.061490938
-0.24973322 -0.27199823 0.061468065
-0.24995366 -0.27198273 0.061440572
-0.25017777 -0.27196687 0.061413076
-0.25041074 -0.27195466 0.061353251
-0.25060278 -0.27192622 0.061438896
-0.2508446 -0.27191779 0.061345588
-0.25107259 -0.27190399 0.061300777
-0.25128433 -0.2718856 0.061299853
-0.25149953 -0.27186677 0.061300073
-0.25171489 -0.27184808 0.06129913
-0.25193697 -0.27183226 0.0612728
-0.25215107 -0.27181321 0.061275318
-0.25237304 -0.27179754 0.061247833
-0.25260502 -0.27178824 0.061167248
-0.25281149 -0.27176625 0.061196335
-0.25303343 -0.27175093 0.06116654
-0.253263 -0.27173901 0.061106727
-0.25347027 -0.2717196 0.0611162
-0.25367987 -0.27169922 0.061131433
-0.25390214 -0.27168447 0.061097018
-0.25411797 -0.271667 0.061086856
-0.25433651 -0.27165291 0.061050147
-0.25455666 -0.27163756 0.061021514
-0.25477481 -0.27162144 0.060999803
-0.25498411 -0.27160141 0.061012737
-0.25519145 -0.27158263 0.061017595
-0.25541198 -0.27156788 0.060984343
-0.25566044 -0.27156624 0.060836807
-0.25584838 -0.27153659 0.060934007
-0.25605527 -0.27152225 0.060906582
-0.25626436 -0.27151337 0.060837641
-0.25648457 -0.2714861 0.060896643
-0.25669888 -0.27146906 0.060884178
-0.25686932 -0.27144626 0.06094224
-0.25711823 -0.271433 0.060880043
-0.25733507 -0.27141747 0.060854882
-0.25752026 -0.27140203 0.060849458
-0.25776082 -0.27138507 0.060819581
-0.25798482 -0.27137348 0.060760945
-0.25819528 -0.27135521 0.060760029
-0.25841776 -0.27134311 0.060706012
-0.25859511 -0.27132413 0.060731761
-0.25879055 -0.27130526 0.060744748
-0.25900346 -0.27128398 0.060764581
-0.25925526 -0.27127373 0.060678147
-0.25946259 -0.27125669 0.060670324
-0.2596792 -0.271247 0.060602497
-0.25984359 -0.27122849 0.060632911
-0.26009178 -0.27120993 0.060609918
-0.26023972 -0.27118737 0.060680773
-0.26050404 -0.27119455 0.060458206
-0.26073465 -0.27116197 0.06054946
-0.26094082 -0.27114251 0.060560092
-0.26111582 -0.27112529 0.060574315
-0.26132926 -0.27112231 0.060459219
-0.2615771 -0.27109954 0.060467374
-0.26177943 -0.27107823 0.06049417
-0.26197484 -0.27105796 0.060517527
-0.26219735 -0.27104586 0.06046351
