# .PCD v0.7 - Point Cloud Data file format
VERSION 0.7
FIELDS x y z
SIZE 4 4 4
TYPE F F F
COUNT 1 1 1
WIDTH 1275
HEIGHT 1
VIEWPOINT 0 0 0 1 0 0 0
POINTS 1275
DATA ascii
-0.063797541 -0.30563661 0.058465645
-0.063960947 -0.30573156 0.058518223
-0.064125828 -0.30585253 0.058412746
-0.064281277 -0.30595198 0.058405351
-0.064441532 -0.3060607 0.058358714
-0.064603694 -0.3061609 0.058373231
-0.064764477 -0.30626664 0.058347367
-0.064924508 -0.30636129 0.058388427
-0.065081783 -0.30646649 0.058352184
-0.065238096 -0.3065747 0.058292873
-0.0654127 -0.30668133 0.058316577
-0.06558644 -0.30680314 0.058241062
-0.065773405 -0.30691665 0.058270499
-0.065913968 -0.30700377 0.058281615
-0.066067681 -0.30710685 0.058244228
-0.066249244 -0.30722558 0.058219455
-0.066405907 -0.30731955 0.058251292
-0.066570252 -0.30742353 0.0582508
-0.066725016 -0.30752289 0.058241099
-0.066896766 -0.30764693 0.058143675
-0.067046776 -0.30773854 0.058164001
-0.067215636 -0.30784976 0.058135796
-0.067391209 -0.30796304 0.05812142
-0.067546792 -0.30806878 0.058074813
-0.067730971 -0.30818862 0.058053493
-0.067895792 -0.30829051 0.058067992
-0.068049714 -0.30839062 0.058050223
-0.068214886 -0.30849183 0.058070499
-0.068378799 -0.30859572 0.058068853
-0.068550505 -0.30871606 0.057994492
-0.068720594 -0.30882329 0.057996295
-0.068888068 -0.30892777 0.058005016
-0.069036134 -0.30901542 0.058042645
-0.069213785 -0.30914629 0.057925589
-0.069378003 -0.3092491 0.057932019
-0.069541804 -0.30934539 0.057977669
-0.069686241 -0.30943239 0.058004931
-0.069862254 -0.30955765 0.057916723
-0.070035882 -0.30966568 0.057927731
-0.070198476 -0.30977109 0.057911091
-0.070335098 -0.3098771 0.057787232
-0.070483446 -0.30997115 0.057785634
-0.070685841 -0.31009388 0.05781848
-0.070844322 -0.31019855 0.057790324
-0.0710072 -0.31030926 0.05774137
-0.07116393 -0.3104099 0.057731673
-0.071334176 -0.3105101 0.057778463
-0.07149075 -0.31061098 0.05776646
-0.071660183 -0.31072438 0.057726726
-0.07182461 -0.31083244 0.05770085
-0.071977071 -0.31093255 0.057677317
-0.07215035 -0.31103504 0.057721786
-0.072310448 -0.31114823 0.057646316
-0.072473958 -0.31125149 0.057646979
-0.072627448 -0.31136653 0.057533447
-0.072791956 -0.3114576 0.057614874
-0.072950043 -0.31156695 0.057555556
-0.07312464 -0.31167358 0.057579264
-0.073287345 -0.31177762 0.057571851
-0.073447332 -0.31187424 0.057600211
-0.073612183 -0.31198624 0.057551265
-0.073761716 -0.3120887 0.057501204
-0.073928811 -0.31219313 0.057508774
-0.074102752 -0.31230062 0.057524405
-0.074246846 -0.31238866 0.057543587
-0.074392393 -0.31248021 0.057546608
-0.074560538 -0.31258857 0.057533417
-0.074728981 -0.31270137 0.057493687
-0.074866317 -0.31280035 0.057417125
-0.075025484 -0.31290725 0.057377413
-0.075196676 -0.31302178 0.057337675
-0.075371951 -0.31313267 0.05733715
-0.075523272 -0.31323701 0.057282478
-0.075668193 -0.31333327 0.057253189
-0.075871266 -0.31345645 0.057286046
-0.076035991 -0.31355846 0.057299394
-0.076180421 -0.31365076 0.057293188
-0.076360367 -0.3137708 0.05725342
-0.076506212 -0.3138662 0.057233371
-0.07668189 -0.31397679 0.057236306
-0.076835632 -0.31407461 0.05723238
-0.076995753 -0.31416783 0.057282671
-0.07716769 -0.31426913 0.057329454
-0.077329487 -0.31438556 0.057240129
-0.077485278 -0.31450188 0.057127751
-0.077624433 -0.31458974 0.057128482
-0.077799968 -0.31469658 0.057154495
-0.077964954 -0.31480262 0.057143614
-0.078117251 -0.31490517 0.057103932
-0.078292891 -0.3150273 0.05703418
-0.078456819 -0.31513008 0.057039455
-0.078625135 -0.31523401 0.057055101
-0.078787014 -0.31533441 0.057067309
-0.078947738 -0.31544286 0.057024132
-0.079075523 -0.31554091 0.056915302
-0.079281427 -0.31566349 0.056963138
-0.07943026 -0.31576037 0.056945391
-0.079596855 -0.31585479 0.057014111
-0.079760239 -0.31596163 0.056991696
-0.079908662 -0.3160623 0.056948569
-0.080086149 -0.31617919 0.056919187
-0.080264017 -0.31628895 0.056935966
-0.080411747 -0.31639323 0.05686745
-0.080562189 -0.31648254 0.056903914
-0.080726691 -0.3165921 0.056868806
-0.080892935 -0.31669417 0.056887917
-0.081062779 -0.31680784 0.056848183
-0.081234634 -0.3169173 0.05684305
-0.081388339 -0.31701526 0.056837976
-0.08153595 -0.31711268 0.056812149
-0.081698239 -0.31721663 0.056803588
-0.081863247 -0.31733218 0.056732718
-0.082010582 -0.3174296 0.056705736
-0.082180969 -0.31753027 0.056750223
-0.082370922 -0.31764826 0.056763493
-0.082519688 -0.31775132 0.056706514
-0.082678452 -0.3178536 0.056694504
-0.082837515 -0.3179588 0.056665182
-0.083019421 -0.31806475 0.056722324
-0.083184391 -0.31818888 0.056597218
-0.083342306 -0.31829739 0.056542523
-0.083470218 -0.31838655 0.05649022
-0.083619416 -0.31848019 0.056494389
-0.083804317 -0.31857669 0.056623057
-0.083974935 -0.31868681 0.056608699
-0.084147222 -0.31880221 0.056567796
-0.084309831 -0.31890914 0.056541923
-0.084484272 -0.31902096 0.056532174
-0.084639356 -0.31912163 0.056515552
-0.084788293 -0.31922409 0.056463186
-0.084925979 -0.31931576 0.056433931
-0.085106038 -0.31942603 0.056456469
-0.085263759 -0.31952599 0.056454845
-0.085415393 -0.31963584 0.056366697
-0.085600056 -0.31975046 0.056379993
-0.085762039 -0.31985477 0.056367971
-0.085924372 -0.31994557 0.056442473
-0.086069107 -0.32005158 0.056350891
-0.086229272 -0.32015109 0.056361943
-0.086414985 -0.32026839 0.056362547
-0.086574867 -0.32036808 0.05637129
-0.086739898 -0.32048494 0.056292344
-0.086882114 -0.32058078 0.056254998
-0.087050974 -0.32068631 0.056262571
-0.087228604 -0.32079777 0.056267798
-0.08740674 -0.3209092 0.056275345
-0.087557591 -0.32101598 0.056203362
-0.087701246 -0.321114 0.056157932
-0.087851614 -0.32121572 0.056115948
-0.088025428 -0.32131305 0.056195036
-0.088209108 -0.32142121 0.056245252
-0.088350385 -0.32153201 0.056109831
-0.088519499 -0.32163295 0.056147397
-0.08869873 -0.3217445 0.056158397
-0.088839814 -0.32184291 0.056100283
-0.088984802 -0.32194307 0.056046776
-0.089227639 -0.3220762 0.056175277
-0.08943627 -0.32216701 0.05643424
-0.089618161 -0.32225975 0.056574449
-0.089805581 -0.32235909 0.056695029
-0.090007558 -0.32246381 0.056839794
-0.090201065 -0.32256997 0.056941897
-0.096419208 -0.32659683 0.056337129
-0.096552044 -0.32670322 0.056195974
-0.096700333 -0.32681149 0.056104381
-0.096829847 -0.32692143 0.05592747
-0.096949585 -0.32703105 0.055713665
-0.097086586 -0.32713491 0.055604808
-0.09719988 -0.32723826 0.055404868
-0.097330548 -0.32733795 0.055297181
-0.097503841 -0.3274518 0.055270124
-0.097683221 -0.32756582 0.05526612
-0.097866058 -0.32767251 0.055322107
-0.098015666 -0.32777268 0.055287044
-0.098156527 -0.32787624 0.055195473
-0.098349884 -0.3279984 0.055196043
-0.098526254 -0.32811069 0.055190906
-0.098680228 -0.32820556 0.055206597
-0.098857403 -0.32831618 0.055215299
-0.09904477 -0.32841459 0.055341639
-0.099146552 -0.32852346 0.055060972
-0.099323139 -0.32862327 0.05513544
-0.099502124 -0.32873961 0.055115286
-0.099664003 -0.32884422 0.055100955
-0.099858403 -0.32896337 0.055124596
-0.09999983 -0.32906857 0.055024955
-0.10017651 -0.3291778 0.055040576
-0.10035408 -0.32928538 0.055070043
-0.10051569 -0.32939017 0.055053405
-0.10067022 -0.32948923 0.055044867
-0.10084605 -0.32960743 0.055000491
-0.10102497 -0.32971713 0.055021875
-0.1011771 -0.32981959 0.054982197
-0.1013511 -0.32993078 0.054974746
-0.10149565 -0.33002919 0.054930471
-0.10166752 -0.33013684 0.054936878
-0.10183698 -0.33025116 0.054891374
-0.10200049 -0.33035645 0.054879349
-0.10217963 -0.33046833 0.05488804
-0.10232179 -0.33056995 0.054813776
-0.10249898 -0.33068004 0.054825936
-0.10267472 -0.33079344 0.05481156
-0.1028237 -0.33089408 0.05477073
-0.10299984 -0.33100423 0.054778285
-0.10316673 -0.33111349 0.054754708
-0.103321 -0.33121309 0.05474155
-0.10348663 -0.33132228 0.054713357
-0.10366812 -0.33143491 0.054726664
-0.10382441 -0.3315365 0.054708891
-0.10401703 -0.33166039 0.054695621
-0.10418154 -0.33176959 0.054662813
-0.1043391 -0.33187148 0.054648496
-0.10450779 -0.33197635 0.054659531
-0.10469761 -0.33210012 0.054635882
-0.10485205 -0.33220497 0.054590426
-0.10501036 -0.33230549 0.054587647
-0.10516831 -0.332414 0.054532941
-0.10535707 -0.33251861 0.054625828
-0.10551926 -0.33263257 0.054553811
-0.10566558 -0.33273005 0.054522216
-0.10584816 -0.33284521 0.054523982
-0.10601932 -0.33295569 0.054509621
-0.10617696 -0.33306274 0.054462995
-0.10636885 -0.33317938 0.054492414
-0.10652924 -0.33328688 0.054453861
-0.10671619 -0.33340299 0.054467149
-0.10688786 -0.33351067 0.054472409
-0.10702828 -0.33360755 0.054421216
-0.10721429 -0.33372524 0.054420657
-0.10737699 -0.33383018 0.054407474
-0.10750698 -0.33393162 0.054285951
-0.10770953 -0.33405355 0.054324567
-0.10788739 -0.33415949 0.05436556
-0.10806188 -0.33427867 0.054309662
-0.10822807 -0.33438894 0.054276861
-0.10839744 -0.33449975 0.054253276
-0.10859206 -0.33461627 0.054294229
-0.10876043 -0.33472556 0.054276414
-0.10890477 -0.33482182 0.054244831
-0.10906868 -0.3349244 0.054251265
-0.10922034 -0.33503389 0.05416543
-0.10939701 -0.33514622 0.054161441
-0.10954894 -0.3352513 0.054104444
-0.10973265 -0.33536497 0.054120053
-0.10991295 -0.33548105 0.054106809
-0.11006255 -0.33557844 0.054089062
-0.11026214 -0.33570105 0.054111537
-0.11043227 -0.33581254 0.054086801
-0.11060338 -0.3359184 0.054101281
-0.11075617 -0.33602238 0.05405467
-0.11094093 -0.33613819 0.054061044
-0.11109303 -0.33624208 0.054012127
-0.11130831 -0.33636382 0.054102629
-0.11147194 -0.33647722 0.054039836
-0.11162238 -0.33658522 0.053958617
-0.111772 -0.33668444 0.053929321
-0.11196809 -0.33680284 0.053964503
-0.11215243 -0.33692184 0.05394895
-0.11230457 -0.33702028 0.053934649
-0.11250313 -0.33714789 0.053921364
-0.11267291 -0.33725989 0.053892005
-0.11282636 -0.33736157 0.053862702
-0.11298618 -0.33746594 0.05384146
-0.11320691 -0.33759701 0.053895019
-0.11337187 -0.3377054 0.053869147
-0.11349274 -0.33779761 0.053769562
-0.11368722 -0.33790946 0.053839352
-0.11386311 -0.33802861 0.053789221
-0.11405306 -0.33813834 0.053854406
-0.11421184 -0.33825254 0.053767398
-0.11440557 -0.33837292 0.053780664
-0.1145695 -0.33848411 0.053732868
-0.11475269 -0.33860642 0.053691942
-0.023512125 -0.27957445 0.062214784
-0.02369687 -0.2796939 0.062198032
-0.023961913 -0.2798779 0.06209448
-0.024144866 -0.27998817 0.062128499
-0.024332862 -0.2801027 0.062155582
-0.024535313 -0.28023887 0.062104158
-0.024733569 -0.28036723 0.062085055
-0.024927542 -0.28049248 0.062068269
-0.025120512 -0.28061661 0.062054962
-0.025312763 -0.2807399 0.062043943
-0.025515042 -0.28087428 0.062002905
-0.025708903 -0.28100005 0.061982661
-0.025904004 -0.28112513 0.06197165
-0.026098698 -0.28125232 0.061945636
-0.026294135 -0.28137818 0.061931156
-0.026492901 -0.28151125 0.061884351
-0.026697636 -0.28165013 0.061824851
-0.026870444 -0.28174812 0.061895829
-0.027072467 -0.28188363 0.061846714
-0.027264323 -0.28200793 0.06182763
-0.02746091 -0.28213632 0.061801609
-0.027645074 -0.28226858 0.061701775
-0.02784726 -0.28238681 0.061762281
-0.028034173 -0.28250489 0.061762828
-0.02822702 -0.28262872 0.061750662
-0.028428786 -0.28276792 0.061677314
-0.028613146 -0.28288016 0.061704412
-0.02879864 -0.2829968 0.061708428
-0.028989773 -0.28311881 0.061700884
-0.029183753 -0.28324777 0.06166102
-0.029377941 -0.28337449 0.061636172
-0.029561371 -0.28348869 0.06164711
-0.029754698 -0.28361449 0.061624561
-0.029942345 -0.28373504 0.06161242
-0.030137733 -0.28386414 0.061577175
-0.030327886 -0.28398868 0.061550014
-0.0305188 -0.28411165 0.061535552
-0.030705452 -0.28423139 0.061524563
-0.030895777 -0.28435382 0.061511252
-0.031080108 -0.28447044 0.06151066
-0.031273104 -0.28459713 0.061481193
-0.031461611 -0.28472024 0.061456345
-0.031652026 -0.28484347 0.061438419
-0.031838007 -0.28496313 0.061425131
-0.032027416 -0.28508517 0.061410658
-0.032216799 -0.28521031 0.061376594
-0.03240582 -0.28533208 0.06136214
-0.032600544 -0.28546572 0.061295725
-0.032782778 -0.28558359 0.061278991
-0.032948744 -0.28566754 0.06141115
-0.033149876 -0.28580853 0.061323948
-0.033339057 -0.28593445 0.061284114
-0.033514634 -0.28603637 0.061341234
-0.033706229 -0.28616637 0.061285235
-0.03388245 -0.28626946 0.061337747
-0.034072466 -0.28639737 0.061288666
-0.034272742 -0.28653854 0.061196856
-0.034453534 -0.28665236 0.061199736
-0.034652639 -0.28679225 0.061111391
-0.034839507 -0.28691617 0.061075017
-0.035020858 -0.28702816 0.06109174
-0.035202876 -0.2871446 0.061083075
-0.035385862 -0.28725946 0.061088249
-0.035576049 -0.28738949 0.061026476
-0.035757799 -0.28750265 0.061037436
-0.035937913 -0.28761661 0.061036848
-0.036128066 -0.28774387 0.060992386
-0.036304489 -0.28785199 0.061013736
-0.03649158 -0.2879746 0.060986601
-0.036677625 -0.28809905 0.060943302
-0.036855433 -0.28820643 0.06097503
-0.037037302 -0.28832424 0.060957134
-0.037219409 -0.2884391 0.060958847
-0.037405986 -0.2885617 0.060929403
-0.037597414 -0.28869289 0.06086532
-0.037772063 -0.28879899 0.060892448
-0.037965205 -0.28893363 0.06081336
-0.038132846 -0.28902781 0.060887821
-0.038320668 -0.28915361 0.060843363
-0.038507216 -0.28928116 0.06078276
-0.038687818 -0.28939468 0.060786791
-0.038869947 -0.28951484 0.060755044
-0.039052971 -0.28963304 0.06073945
-0.039237075 -0.28975719 0.060690388
-0.039413556 -0.28986391 0.06072098
-0.039591916 -0.28997803 0.060712326
-0.039781347 -0.29010868 0.060643628
-0.039956659 -0.29021761 0.060655758
-0.040139489 -0.29033658 0.06063439
-0.040319778 -0.29045501 0.060606122
-0.040498763 -0.29056716 0.06061247
-0.040678732 -0.29068542 0.060584188
-0.040867273 -0.29081607 0.060512036
-0.041033715 -0.29090893 0.060589969
-0.041212685 -0.29102162 0.060592841
-0.04140456 -0.29115948 0.060488373
-0.041580841 -0.29126734 0.060510885
-0.041767254 -0.29139957 0.060420278
-0.041939206 -0.2914992 0.060477413
-0.042117901 -0.29161665 0.060449138
-0.042298071 -0.29173285 0.06043471
-0.042474326 -0.29184583 0.060424913
-0.042656958 -0.29196742 0.06038624
-0.042834871 -0.29208419 0.060359128
-0.04301367 -0.29219842 0.060351625
-0.043188874 -0.29231 0.060346439
-0.043362193 -0.29241306 0.060387421
-0.043540936 -0.29253235 0.060347609
-0.043718748 -0.29264998 0.06031473
-0.043895546 -0.29276568 0.060289923
-0.044071227 -0.29287428 0.060305513
-0.044250842 -0.29299653 0.0602507
-0.044428647 -0.29311013 0.060243201
-0.044603936 -0.29322341 0.060227625
-0.044781968 -0.29333788 0.060215514
-0.044967845 -0.29347542 0.060089141
-0.045140803 -0.29357898 0.060125507
-0.045310326 -0.29368001 0.060164187
-0.045484088 -0.29379088 0.060157858
-0.045657538 -0.29390118 0.060153842
-0.045836106 -0.29401818 0.060127869
-0.046011008 -0.29413232 0.060105376
-0.046185762 -0.29424068 0.060118664
-0.046364002 -0.29436332 0.060055774
-0.046542481 -0.29448119 0.060024042
-0.046691678 -0.29455051 0.06018164
-0.046852358 -0.29467762 0.060020734
-0.047063585 -0.29481253 0.060011975
-0.047236443 -0.29491714 0.06004142
-0.047413923 -0.29503986 0.059975069
-0.047588475 -0.29515544 0.059942201
-0.047759756 -0.29526269 0.059948571
-0.047938745 -0.29538417 0.059896067
-0.048110798 -0.29549396 0.059889734
-0.048259646 -0.29558721 0.059895024
-0.048450973 -0.29572344 0.059798636
-0.048635364 -0.29583424 0.059834957
-0.048806995 -0.29594377 0.059828639
-0.048981369 -0.29605427 0.059826918
-0.049160354 -0.29618543 0.059713256
-0.049313318 -0.29629925 0.059605449
-0.04945194 -0.29635656 0.059796549
-0.049664389 -0.29646975 0.059929714
-0.049837805 -0.29660857 0.059745684
-0.049983431 -0.29669374 0.059789062
-0.050192006 -0.29683396 0.059736453
-0.05036407 -0.29694703 0.059709363
-0.050538525 -0.29706821 0.059640717
-0.050709412 -0.29716989 0.059680555
-0.050881159 -0.29728296 0.059652302
-0.051056858 -0.29740107 0.05960789
-0.051224798 -0.29750183 0.059641957
-0.051402144 -0.2976265 0.059562922
-0.051573794 -0.29774079 0.0595266
-0.051744692 -0.2978434 0.059560657
-0.051906642 -0.29795137 0.05952552
-0.052080527 -0.29806539 0.059499573
-0.052246526 -0.2981697 0.05950366
-0.052431725 -0.2982876 0.059498433
-0.052601933 -0.29839858 0.059477113
-0.052771658 -0.29850799 0.059463881
-0.052933618 -0.29860753 0.059481815
-0.053113036 -0.29872471 0.059458151
-0.053268448 -0.2988309 0.059408031
-0.05340891 -0.29890713 0.059487194
-0.053624693 -0.29905611 0.059408039
-0.053797681 -0.29917032 0.059377473
-0.053966306 -0.29927719 0.059375778
-0.054138072 -0.29938641 0.059371758
-0.054286886 -0.29947653 0.059396666
-0.05447948 -0.29960901 0.059329111
-0.054649942 -0.29972711 0.059263945
-0.054818243 -0.29983431 0.059258785
-0.054984737 -0.29993159 0.059309017
-0.055158079 -0.30005243 0.059238072
-0.055326805 -0.30016339 0.05921099
-0.055498227 -0.30027443 0.059194278
-0.055665497 -0.30037713 0.059213348
-0.055836476 -0.30048603 0.059208177
-0.05600455 -0.30059475 0.059192639
-0.056163743 -0.30070132 0.0591552
-0.056344174 -0.30081898 0.059132691
-0.056514926 -0.30092847 0.059122913
-0.05668208 -0.30103239 0.059133902
-0.056849543 -0.30113927 0.059127592
-0.057017442 -0.30125079 0.059093583
-0.057187766 -0.30135873 0.059091888
-0.057355404 -0.30146974 0.059060186
-0.057525605 -0.30157781 0.059057333
-0.057693508 -0.30169445 0.058991015
-0.057863474 -0.3018018 0.058991618
-0.058030508 -0.30191004 0.058974922
-0.058200713 -0.30202305 0.058940902
-0.058367357 -0.30212739 0.058947295
-0.058537196 -0.30223668 0.058935199
-0.058703985 -0.30234659 0.058906976
-0.058867574 -0.30245411 0.058881059
-0.05903697 -0.30255616 0.058912814
-0.059206568 -0.30266657 0.058892649
-0.059363779 -0.30277136 0.058858685
-0.05953015 -0.30288541 0.058802761
-0.059708659 -0.30299851 0.058801025
-0.059877906 -0.30310452 0.058807403
-0.060043991 -0.30321196 0.058791868
-0.060210023 -0.30331865 0.058780946
-0.060372788 -0.30342767 0.058742344
-0.060538523 -0.30353838 0.058704879
-0.060682535 -0.30363756 0.058653638
-0.060861092 -0.30374029 0.058717679
-0.061042558 -0.30384961 0.058751702
-0.061207581 -0.3039661 0.058675013
-0.061376106 -0.30407584 0.058654856
-0.061539076 -0.30417362 0.058687791
-0.061709657 -0.30429527 0.058600694
-0.061878774 -0.30439624 0.05863823
-0.062038496 -0.30449381 0.058659635
-0.062203519 -0.30460262 0.058631413
-0.062360257 -0.30469739 0.058658596
-0.062546015 -0.30482408 0.058600303
-0.062710218 -0.30493674 0.058544382
-0.062853038 -0.30503461 0.058496609
-0.063037194 -0.30514655 0.058524862
-0.063198119 -0.30525625 0.058474727
-0.063363343 -0.30535984 0.058479957
-0.063524798 -0.30546531 0.058458667
-0.063677773 -0.30557892 0.058352016
-0.063854642 -0.30567473 0.058452986
-0.064023741 -0.30579233 0.058385514
-0.064204119 -0.30590498 0.058394164
-0.064364038 -0.30598474 0.058528654
-0.064497694 -0.30607298 0.05850514
-0.064646959 -0.3061837 0.058401957
-0.064816065 -0.30632675 0.058174092
-0.064997241 -0.30642143 0.058299281
-0.065176442 -0.30653754 0.058281399
-0.065338396 -0.30663818 0.058292404
-0.065500408 -0.30675095 0.058227267
-0.065661781 -0.30685323 0.058225587
-0.065831356 -0.30696416 0.058201961
-0.066011056 -0.3070775 0.058203697
-0.066180199 -0.30718929 0.058173142
-0.066332608 -0.30728477 0.058178417
-0.066502735 -0.30739334 0.058172103
-0.06666778 -0.30749521 0.058187723
-0.066828959 -0.30760741 0.058122583
-0.067008577 -0.30772033 0.058126617
-0.067175969 -0.30781618 0.058189534
-0.067331851 -0.30791241 0.058204032
-0.067486122 -0.30802172 0.058129687
-0.067655914 -0.30812147 0.058177598
-0.067812815 -0.30823299 0.058099788
-0.067977801 -0.30834344 0.058061168
-0.068151474 -0.30846027 0.058016762
-0.068333596 -0.30857569 0.058015019
-0.068487391 -0.30866766 0.058047988
-0.068636559 -0.30875307 0.058104046
-0.068794243 -0.30888489 0.057901606
-0.068967 -0.30898684 0.0579472
-0.069134973 -0.30909038 0.057963967
-0.069275342 -0.3091847 0.057928894
-0.069428593 -0.30929977 0.057814158
-0.069617823 -0.30941638 0.057833169
-0.069805555 -0.30952856 0.057874102
-0.069956586 -0.30962542 0.057865538
-0.070113398 -0.30971968 0.057896178
-0.070268139 -0.30981061 0.057939529
-0.070422366 -0.30992907 0.057807487
-0.070607252 -0.31005245 0.057766505
-0.070761569 -0.31015044 0.057763699
-0.070938133 -0.31026033 0.057774659
-0.071105547 -0.3103646 0.057784498
-0.071262129 -0.31047171 0.057733227
-0.071415484 -0.31058908 0.057604652
-0.071591772 -0.31070501 0.057576384
-0.071753092 -0.31077576 0.057773173
-0.071926169 -0.31089607 0.057704542
-0.072099082 -0.31101626 0.0576359
-0.0722505 -0.31111187 0.057636559
-0.072428629 -0.31121981 0.057665985
-0.07260067 -0.31133509 0.057625044
-0.072767831 -0.31143954 0.057632588
-0.072922669 -0.3115527 0.057536311
-0.073084988 -0.31164661 0.057591178
-0.073248908 -0.31174943 0.057596408
-0.073394082 -0.31184658 0.057562482
-0.073569983 -0.31196225 0.057534218
-0.073722549 -0.3120566 0.057547573
-0.073878065 -0.31217292 0.057433989
-0.074045464 -0.31227699 0.057444979
-0.074216858 -0.31239185 0.057404041
-0.074389361 -0.31249586 0.057435796
-0.074535199 -0.31258228 0.057472251
-0.074696213 -0.31268305 0.057478651
-0.074884951 -0.31280062 0.057489574
-0.075051703 -0.31290558 0.057492495
-0.075204805 -0.31300429 0.057480462
-0.075359605 -0.31310147 0.057484575
-0.075506814 -0.31320065 0.057446022
-0.07566379 -0.31330493 0.057414357
-0.075817041 -0.31341213 0.057349246
-0.075974762 -0.31352857 0.057243735
-0.076125138 -0.31363761 0.057155553
-0.07629741 -0.31374222 0.057182688
-0.076480642 -0.31386384 0.057146322
-0.07663548 -0.3139649 0.057126213
-0.076800138 -0.31405464 0.057216827
-0.07697092 -0.31416067 0.057228975
-0.077156439 -0.31427255 0.057262991
-0.077299938 -0.31437358 0.05719791
-0.077469647 -0.31448445 0.057175435
-0.077655762 -0.31460786 0.057139058
-0.077830538 -0.31470361 0.057231963
-0.077986754 -0.31481546 0.057149533
-0.078138642 -0.31492215 0.057082117
-0.07830853 -0.31502891 0.057086177
-0.078459054 -0.31512874 0.057056844
-0.078631163 -0.31524163 0.057030901
-0.078793228 -0.31534564 0.057021152
-0.078945629 -0.31544426 0.05700681
-0.079094537 -0.31554121 0.056989022
-0.079256758 -0.31564513 0.056980416
-0.079420835 -0.31574088 0.057030655
-0.079594821 -0.31585628 0.056996629
-0.079750918 -0.31595999 0.056964967
-0.079915397 -0.31605929 0.056994434
-0.080071777 -0.31616977 0.056921236
-0.080242746 -0.31626934 0.056974925
-0.080394536 -0.31636828 0.056955963
-0.080566257 -0.31648463 0.056906942
-0.080755427 -0.31660268 0.056916717
-0.080912583 -0.31670904 0.05687236
-0.081068672 -0.31681257 0.056841861
-0.0812089 -0.31691006 0.056786019
-0.081402317 -0.31702951 0.05680386
-0.081558771 -0.31713602 0.056756034
-0.081704699 -0.3172245 0.056779794
-0.081867479 -0.31732509 0.056794271
-0.082025364 -0.31742463 0.05679607
-0.082214519 -0.31754923 0.056764305
-0.082369417 -0.31764999 0.056746494
-0.082522355 -0.3177484 0.056735612
-0.08268933 -0.31785989 0.056698147
-0.082852937 -0.31796652 0.056678001
-0.083020024 -0.31807792 0.056641698
-0.083178923 -0.31819218 0.056554638
-0.083325677 -0.31828374 0.056562234
-0.083487198 -0.31837916 0.056604411
-0.083667427 -0.31848899 0.056630369
-0.083819494 -0.3185907 0.056595251
-0.083977282 -0.31868759 0.056613211
-0.084156118 -0.31880385 0.05659302
-0.084319122 -0.31891358 0.056550946
-0.084486976 -0.31902745 0.05650194
-0.084655292 -0.31913266 0.056509476
-0.084821828 -0.31924406 0.056470852
-0.084976129 -0.319345 0.056449585
-0.085131407 -0.31944287 0.056451395
-0.085302323 -0.31955302 0.056438144
-0.08546254 -0.31965512 0.056433007
-0.085613877 -0.31975141 0.056429062
-0.085751511 -0.31984857 0.056365147
-0.085921027 -0.3199591 0.056343835
-0.086082369 -0.32005295 0.056395233
-0.086259633 -0.32016435 0.056399282
-0.086410433 -0.32027149 0.05632494
-0.086575843 -0.3203778 0.056314018
-0.086731613 -0.32048365 0.056267366
-0.086899534 -0.32058424 0.056302585
-0.087071344 -0.32069442 0.056292802
-0.087221004 -0.32081178 0.056149237
-0.087386638 -0.32091805 0.056139465
-0.087555833 -0.32102364 0.056148149
-0.087711692 -0.32111675 0.056182265
-0.087868877 -0.32121474 0.05619099
-0.08805152 -0.32131803 0.056267709
-0.088230431 -0.32144201 0.056199044
-0.088391639 -0.32154933 0.056165069
-0.088526189 -0.3216489 0.056073479
-0.088692121 -0.32174805 0.056109861
-0.088876233 -0.32185647 0.056160036
-0.08902812 -0.32196045 0.056109931
-0.089190923 -0.3220627 0.056114018
-0.08935076 -0.32217261 0.056058113
-0.089495927 -0.32228222 0.055945721
-0.089647956 -0.32237658 0.055956759
-0.089826331 -0.3224768 0.056035802
-0.089991413 -0.32258362 0.056020271
-0.090193167 -0.32268584 0.056180008
-0.09034808 -0.32280105 0.056071043
-0.090479575 -0.32290968 0.055910222
-0.090625852 -0.32301414 0.055834748
-0.090785325 -0.32311705 0.055821545
-0.090977699 -0.323221 0.05593285
-0.09110833 -0.32332927 0.055770874
-0.091285527 -0.32343498 0.055810694
-0.091478333 -0.32353261 0.055963539
-0.091672711 -0.3236393 0.056065608
-0.091804385 -0.3237583 0.055840172
-0.091962449 -0.3238638 0.055805042
-0.092112258 -0.32397214 0.055719167
-0.092280641 -0.32407245 0.05575785
-0.09246999 -0.32418218 0.055820711
-0.092630409 -0.3243005 0.05571403
-0.092772 -0.32439852 0.055660494
-0.092936821 -0.32449931 0.055681884
-0.093123913 -0.32460102 0.055786286
-0.093308076 -0.32471371 0.055809915
-0.093455836 -0.32482201 0.055715971
-0.093612745 -0.32492769 0.055675078
-0.093776405 -0.32503307 0.055663012
-0.093932226 -0.32513881 0.055617511
-0.094096497 -0.32524419 0.055607744
-0.094285496 -0.32535699 0.055649824
-0.094441667 -0.32546276 0.055605471
-0.094590023 -0.32556671 0.055541527
-0.09476956 -0.3256759 0.055568647
-0.094941989 -0.32578737 0.055553086
-0.095098175 -0.32588708 0.055546809
-0.095242828 -0.32598904 0.055480566
-0.095417373 -0.32609856 0.055485774
-0.095586151 -0.32620224 0.05550484
-0.09575896 -0.32630992 0.055514675
-0.095926419 -0.32641771 0.055502586
-0.096079066 -0.32652161 0.055455945
-0.0962523 -0.32662553 0.055491146
-0.096423231 -0.32673734 0.055467516
-0.096558757 -0.32683921 0.055365536
-0.096751735 -0.32694736 0.055452611
-0.09691748 -0.32705921 0.055408228
-0.097075216 -0.32717091 0.055332713
-0.097245805 -0.32727516 0.055355243
-0.097406052 -0.32737929 0.05533741
-0.09756323 -0.32748148 0.055319592
-0.09772373 -0.32758945 0.055278689
-0.097892821 -0.32769954 0.055258527
-0.09806525 -0.3278079 0.055262592
-0.098227277 -0.32791224 0.055250518
-0.098381117 -0.32802001 0.055184256
-0.098564602 -0.32812896 0.055228665
-0.098720931 -0.328235 0.055183154
-0.098913133 -0.32834452 0.055258691
-0.099049836 -0.32845151 0.055129007
-0.099217832 -0.32855818 0.055126157
-0.0994123 -0.32867536 0.05516246
-0.099562623 -0.32877395 0.055140048
-0.099743672 -0.32888153 0.05518331
-0.099894114 -0.32898915 0.05510436
-0.10005059 -0.32909712 0.055047311
-0.10021539 -0.3292003 0.055053696
-0.10037501 -0.32930493 0.055030104
-0.10055157 -0.3294161 0.055032998
-0.10070327 -0.3295185 0.054992121
-0.10089033 -0.32962877 0.055042285
-0.10105157 -0.32973722 0.055001378
-0.10122988 -0.32984525 0.055030804
-0.10140362 -0.32996342 0.054978319
-0.10156225 -0.33007514 0.05490626
-0.10172877 -0.33017719 0.054926492
-0.10188197 -0.33027816 0.054900609
-0.10206322 -0.33039191 0.054905798
-0.10223997 -0.33050704 0.054884449
-0.10238695 -0.33060917 0.054826278
-0.10255539 -0.33071172 0.054851126
-0.10274224 -0.33082628 0.054873593
-0.10288738 -0.33093163 0.05478774
-0.10307163 -0.33104438 0.054811377
-0.10324605 -0.33115947 0.054780807
-0.103404 -0.33126456 0.054747991
-0.10356972 -0.33137214 0.054730147
-0.10376507 -0.33149463 0.054736439
-0.10391866 -0.33159271 0.054730173
-0.1040801 -0.33169341 0.054738883
-0.10425463 -0.33180711 0.054717544
-0.10441467 -0.33191589 0.054669719
-0.10459128 -0.33202505 0.054685302
-0.10475141 -0.33213386 0.054637477
-0.1049182 -0.33224031 0.054631162
-0.10509949 -0.3323583 0.054609809
-0.10526803 -0.33246347 0.054618496
-0.10542683 -0.33256742 0.054596055
-0.10557987 -0.33267543 0.054525178
-0.10574526 -0.33277714 0.0545431
-0.10594428 -0.33290726 0.054515913
-0.10609651 -0.33300412 0.054511964
-0.10625045 -0.33310756 0.054473389
-0.10640833 -0.33320999 0.054456722
-0.10659525 -0.3333292 0.054450352
-0.10676479 -0.3334381 0.054439418
-0.10693859 -0.33355081 0.054421548
-0.10710782 -0.33365512 0.054438304
-0.10727279 -0.33376041 0.054432005
-0.10744989 -0.33387685 0.054403733
-0.10760678 -0.33398253 0.054362841
-0.10777447 -0.33408991 0.054354221
-0.10791794 -0.33418891 0.054301828
-0.10810989 -0.33431092 0.054297753
-0.10829611 -0.33442599 0.054314457
-0.10845545 -0.33452919 0.054298941
-0.10861633 -0.33463719 0.054259188
-0.1087952 -0.33475274 0.054243609
-0.10896897 -0.33486599 0.054222275
-0.10913058 -0.33496821 0.054221753
-0.10932819 -0.33509013 0.054240726
-0.10946923 -0.33518595 0.054198734
-0.10962482 -0.33528879 0.054170534
-0.10982122 -0.33540773 0.054203361
-0.10997102 -0.33551553 0.054120954
-0.11015595 -0.33562079 0.054194205
-0.1103103 -0.33572504 0.054152168
-0.11047973 -0.3358379 0.054115847
-0.11067903 -0.33596072 0.054135974
-0.11083761 -0.33607021 0.054077767
-0.11099177 -0.33617452 0.054034572
-0.11116135 -0.33627886 0.054052487
-0.11133493 -0.33639273 0.05402654
-0.11151937 -0.33651015 0.054021325
-0.11168802 -0.33661741 0.054017324
-0.11184759 -0.33672294 0.05398795
-0.11201086 -0.33682495 0.053995505
-0.11219144 -0.3369447 0.053960308
-0.11234333 -0.3370474 0.053918269
-0.11252654 -0.33716348 0.053916529
-0.11271299 -0.33727887 0.053932078
-0.11290365 -0.33739382 0.053967234
-0.11307295 -0.33750588 0.053935532
-0.11324323 -0.337614 0.053932674
-0.1133927 -0.33772337 0.053838715
-0.11357918 -0.33783495 0.053878509
-0.11374494 -0.33794641 0.053836424
-0.11388442 -0.33804402 0.053777128
-0.11406033 -0.33815768 0.05376156
-0.11426827 -0.33828521 0.053786274
-0.11438875 -0.33837461 0.053702798
-0.11459769 -0.33849016 0.053807132
-0.11477371 -0.33861506 0.053721171
-0.11493035 -0.33871931 0.053688355
-0.02354762 -0.27960029 0.062193409
-0.023740042 -0.2797226 0.0621893
-0.023918487 -0.2798267 0.062244084
-0.024140794 -0.27998602 0.062125657
-0.024349984 -0.28013083 0.062046498
-0.024522852 -0.28022796 0.062123224
-0.024730161 -0.28037065 0.062049851
-0.02491419 -0.28048268 0.062076915
-0.025107548 -0.28060722 0.062062427
-0.025316972 -0.2807509 0.061991349
-0.025503095 -0.28086609 0.06200688
-0.025686 -0.28097707 0.062036261
-0.025894411 -0.28112248 0.061950184
-0.026089393 -0.28124747 0.06193915
-0.026285484 -0.28137666 0.061906196
-0.026472751 -0.28149405 0.061912484
-0.026668131 -0.28162262 0.061880678
-0.026861537 -0.28174609 0.061873108
-0.027052242 -0.28186858 0.061860934
-0.02724522 -0.28199434 0.061837215
-0.027432587 -0.28211251 0.061838895
-0.027609486 -0.28222936 0.061807156
-0.027788211 -0.28233057 0.06188155
-0.027983032 -0.28244889 0.061912041
-0.028202098 -0.28261185 0.06175787
-0.028395932 -0.28273979 0.061723758
-0.028585266 -0.28286159 0.061710428
-0.028774343 -0.28298047 0.061714411
-0.028959822 -0.28309709 0.061718404
-0.029159755 -0.28323442 0.061649665
-0.029340234 -0.28334421 0.061676756
-0.029539872 -0.28347874 0.061624169
-0.029721662 -0.28359064 0.061643176
-0.02992348 -0.28373152 0.061559431
-0.03009842 -0.2838338 0.061611913
-0.030290756 -0.28396133 0.061574351
-0.030487068 -0.28409487 0.061514854
-0.030682094 -0.28422394 0.061478436
-0.030861836 -0.28433365 0.061503217
-0.031055797 -0.2844615 0.061470259
-0.031234641 -0.28457007 0.0614985
-0.031430826 -0.28470445 0.061433233
-0.031615805 -0.2848224 0.061426856
-0.031799573 -0.28493574 0.0614447
-0.031995643 -0.2850706 0.061375968
-0.032184124 -0.2851913 0.061366111
-0.032367989 -0.28530818 0.061362028
-0.032558318 -0.28543502 0.061321013
-0.032739993 -0.28554887 0.061327323
-0.032924313 -0.28566384 0.061337091
-0.033113427 -0.28578937 0.061299536
-0.033303078 -0.28591281 0.061276987
-0.033491753 -0.28603807 0.061239436
-0.033671875 -0.28614709 0.061269984
-0.033860169 -0.28627208 0.061232433
-0.034033198 -0.28637332 0.061283775
-0.034233946 -0.28651828 0.061170034
-0.03442128 -0.28663915 0.061154418
-0.034599345 -0.28674871 0.061173432
-0.034794014 -0.28688487 0.061090861
-0.034965381 -0.28698397 0.061149128
-0.035159171 -0.28711593 0.061089635
-0.035338014 -0.28722724 0.061100572
-0.03551881 -0.28733853 0.061119579
-0.035713181 -0.28747541 0.061031252
-0.035897776 -0.28759661 0.06100294
-0.03607947 -0.2877132 0.060991943
-0.036262918 -0.28782946 0.060990185
-0.036444843 -0.28794676 0.06097573
-0.036629792 -0.28806928 0.060940497
-0.036808759 -0.28818196 0.060943365
-0.036990583 -0.28829607 0.060948521
-0.037184436 -0.2884343 0.060849801
-0.037361473 -0.28854063 0.060884971
-0.03753956 -0.28865239 0.060890149
-0.037725583 -0.28877795 0.060839914
-0.037908871 -0.28889903 0.060806997
-0.038089655 -0.28901234 0.060813315
-0.038264405 -0.28911886 0.060838111
-0.038452409 -0.28924879 0.06076825
-0.038625974 -0.28935349 0.060799982
-0.038813148 -0.28947869 0.060756665
-0.038991753 -0.28959262 0.060750298
-0.039169282 -0.28970474 0.060750857
-0.039353237 -0.28982866 0.060702942
-0.03953423 -0.28994352 0.060700029
-0.039709691 -0.29005235 0.060713284
-0.03989232 -0.29017448 0.06067114
-0.040075496 -0.29029787 0.060623221
-0.040254291 -0.29040936 0.060633007
-0.040435314 -0.29052919 0.060598947
-0.04061557 -0.29064783 0.060569499
-0.040790439 -0.29075646 0.060581606
-0.040972073 -0.29087394 0.060564846
-0.041153409 -0.29099527 0.060522705
-0.041328512 -0.29110476 0.060530189
-0.041504487 -0.29121611 0.060529605
-0.041690223 -0.29134241 0.060473599
-0.041864287 -0.29145035 0.060486861
-0.042037867 -0.29155743 0.060503587
-0.04222624 -0.29169416 0.060392201
-0.042402983 -0.29180801 0.060378913
-0.04257907 -0.29192072 0.060370248
-0.04271353 -0.29199424 0.060442489
-0.042880133 -0.29210606 0.060401544
-0.043114424 -0.29226986 0.060302697
-0.043296017 -0.29239482 0.06023863
-0.043465167 -0.29248923 0.060317673
-0.043641638 -0.29260379 0.060298625
-0.043815646 -0.29271334 0.060301505
-0.044001229 -0.29284796 0.060192425
-0.044176124 -0.2929599 0.060183764
-0.044345722 -0.29306045 0.060225885
-0.044525169 -0.29317763 0.060202211
-0.044693887 -0.29327634 0.060252413
-0.044866048 -0.2933827 0.060267989
-0.045047574 -0.29351038 0.060186621
-0.045225494 -0.29363024 0.060139872
-0.045388982 -0.29373333 0.060141634
-0.045574628 -0.29385006 0.060145628
-0.045750353 -0.29396564 0.060117342
-0.045923177 -0.29407459 0.060119078
-0.046103943 -0.29420272 0.060031943
-0.046277836 -0.29431474 0.060018662
-0.046444084 -0.29440841 0.060090795
-0.04663267 -0.29455096 0.059943635
-0.046767771 -0.29463241 0.05996858
-0.046977662 -0.29476979 0.059939027
-0.047147561 -0.29487288 0.059966147
-0.047301173 -0.29498345 0.059881404
-0.047478303 -0.29508692 0.059935044
-0.047666699 -0.29520079 0.059967868
-0.04784289 -0.2953209 0.059913054
-0.048015729 -0.29543245 0.05989863
-0.048189078 -0.29554558 0.059876133
-0.048365373 -0.29566044 0.059854776
-0.048539482 -0.29577628 0.059818417
-0.048709802 -0.29588184 0.059831701
-0.0488819 -0.29599255 0.059819587
-0.049056567 -0.29610381 0.059814386
-0.04922951 -0.29621741 0.059787273
-0.049399778 -0.29632351 0.059797086
-0.049574666 -0.29644349 0.059737664
-0.04974696 -0.29655617 0.059714012
-0.049916424 -0.29666045 0.059731893
-0.050092787 -0.29677844 0.05969093
-0.050265167 -0.29689229 0.059660356
-0.050434835 -0.29699779 0.05967132
-0.050605714 -0.29710737 0.059661523
-0.050781302 -0.29722431 0.059624016
-0.050954387 -0.29734188 0.059572674
-0.051102806 -0.29745448 0.059454493
-0.05124943 -0.29754394 0.059474766
-0.051471502 -0.2976903 0.059437107
-0.051636539 -0.29778117 0.059521928
-0.051807277 -0.29788297 0.059560582
-0.051976856 -0.29799008 0.059561174
-0.052148446 -0.29810506 0.059520215
-0.052319266 -0.29821754 0.059491958
-0.0524869 -0.29831794 0.059527155
-0.052659314 -0.29843745 0.059460811
-0.052832112 -0.29854843 0.059449859
-0.053002454 -0.29866061 0.059421591
-0.053170867 -0.29876494 0.05943488
-0.053341009 -0.298877 0.059406616
-0.05351169 -0.29899195 0.059362207
-0.053672999 -0.29908925 0.059391666
-0.053843085 -0.29920235 0.059356481
-0.05402296 -0.29932404 0.059306264
-0.054187253 -0.29942322 0.059335716
-0.054347247 -0.2995283 0.05931095
-0.054525845 -0.29963085 0.059376113
-0.054689873 -0.29974341 0.059320189
-0.05486748 -0.29985562 0.059320748
-0.055037625 -0.29997295 0.059259035
-0.055208009 -0.30009285 0.059182309
-0.055360533 -0.30018991 0.059178337
-0.055499461 -0.30028969 0.059102885
-0.055668332 -0.30040294 0.059061941
-0.05586727 -0.30051088 0.059174336
-0.05605121 -0.30063164 0.059146024
-0.056222536 -0.30074391 0.059121229
-0.056390412 -0.3008523 0.059106819
-0.056555711 -0.30096367 0.059063576
-0.056726627 -0.3010751 0.059042238
-0.056896668 -0.30117938 0.059062444
-0.057064597 -0.30129132 0.059026111
-0.057232857 -0.30140784 0.058962092
-0.057399549 -0.30150929 0.058986917
-0.057566281 -0.30161092 0.059010588
-0.057736408 -0.30171838 0.059011169
-0.057907037 -0.30183348 0.058965605
-0.058073729 -0.30193582 0.05898466
-0.058228515 -0.30203816 0.058956448
-0.058380201 -0.30214 0.058919024
-0.058577597 -0.30226085 0.058943748
-0.058744594 -0.30237401 0.058895882
-0.058914378 -0.30248436 0.058876857
-0.059080992 -0.3025929 0.058856681
-0.059241258 -0.30269229 0.058868837
-0.059383042 -0.30278182 0.058869518
-0.059571058 -0.30291066 0.058806587
-0.059709646 -0.30298406 0.058896117
-0.059912968 -0.30311272 0.058895431
-0.060085058 -0.30324429 0.058751795
-0.060254186 -0.30335313 0.058739692
-0.060420182 -0.30346015 0.058726449
-0.06058988 -0.30355126 0.058828555
-0.060748965 -0.30367056 0.058710344
-0.060914986 -0.3037734 0.058723636
-0.061077915 -0.30387467 0.058734633
-0.061240081 -0.30398679 0.05867409
-0.061411463 -0.30410236 0.058628522
-0.061592828 -0.30421272 0.058655597
-0.061737236 -0.30430171 0.058670118
-0.061926007 -0.30443615 0.058574878
-0.062088989 -0.30453396 0.058607794
-0.062259961 -0.30464837 0.058567997
-0.062424991 -0.30475625 0.058545515
-0.062588036 -0.30485356 0.058581896
-0.062737413 -0.30495355 0.058546782
-0.062906094 -0.30505809 0.058560066
-0.063066721 -0.30517107 0.058487989
-0.063260034 -0.30528954 0.05851157
-0.063424274 -0.30539948 0.058472954
-0.063569881 -0.30549875 0.058427464
-0.063756764 -0.30561444 0.058442995
-0.063902982 -0.30570969 0.058425203
-0.064083792 -0.30582115 0.058443055
-0.064247362 -0.30593199 0.058396354
-0.064415038 -0.30603951 0.058386568
-0.064557217 -0.30613589 0.058345709
-0.064708404 -0.30622387 0.058393661
-0.064895399 -0.30635244 0.058328424
-0.065052114 -0.30644664 0.058359049
-0.06520918 -0.30655277 0.058315836
-0.065373331 -0.30665883 0.058301449
-0.065546446 -0.3067711 0.05828356
-0.065708056 -0.30688506 0.058209173
-0.065873817 -0.3069852 0.058238618
-0.066056557 -0.30710101 0.058236852
-0.066214405 -0.30720288 0.058223635
-0.0663715 -0.30729607 0.058262333
-0.066566497 -0.30742967 0.058197074
-0.066722944 -0.30753487 0.058157317
-0.066888407 -0.3076359 0.058179848
-0.067056365 -0.30775005 0.058129668
-0.067219712 -0.30784681 0.058170661
-0.06738364 -0.30796096 0.058104344
-0.067533746 -0.30805266 0.058124609
-0.067722335 -0.30818075 0.058068596
-0.067877829 -0.30829525 0.057966553
-0.068021379 -0.30837527 0.058034144
-0.068185993 -0.30848637 0.057989746
-0.068358868 -0.30858824 0.058036469
-0.068531699 -0.30869851 0.058030125
-0.068691887 -0.30880994 0.057966132
-0.068849742 -0.30890211 0.058014058
-0.06900572 -0.30900574 0.057982389
-0.069178052 -0.30913162 0.05787567
-0.069345213 -0.30922934 0.057925869
-0.069511726 -0.30934292 0.057873394
-0.069684498 -0.30944547 0.057915509
-0.069857106 -0.30956951 0.057821475
-0.070002638 -0.30966854 0.057777151
-0.070165835 -0.30977288 0.057769675
-0.070324086 -0.30987832 0.057735689
-0.070517197 -0.30999574 0.057765037
-0.070670769 -0.31008211 0.057832599
-0.070831493 -0.31017101 0.057912827
-0.070982151 -0.31028736 0.057779636
-0.07116124 -0.31040636 0.057743274
-0.071341582 -0.31051734 0.05776228
-0.071494043 -0.31060594 0.057811379
-0.071649626 -0.31072029 0.05771048
-0.07182496 -0.31083196 0.057705287
-0.07197471 -0.31093001 0.057684015
-0.072144225 -0.31103176 0.057718057
-0.0723015 -0.31114867 0.057607926
-0.072471976 -0.31126037 0.057583131
-0.072655022 -0.31137362 0.057598673
-0.072823383 -0.31147686 0.057618868
-0.072992653 -0.31158981 0.057581387
-0.073135905 -0.31167349 0.05762475
-0.073289551 -0.31177729 0.057582699
-0.073434606 -0.3118901 0.057449535
-0.07359831 -0.31200832 0.057356685
-0.073784798 -0.31210783 0.05747259
-0.073945239 -0.31219926 0.057535511
-0.074120194 -0.31232077 0.05746685
-0.074283704 -0.31242403 0.057467464
-0.074460395 -0.31253877 0.057448406
-0.074628815 -0.31263745 0.057497453
-0.074786887 -0.31274113 0.057473853
-0.074947774 -0.31285611 0.057390239
-0.075127959 -0.31297669 0.057348102
-0.075270221 -0.3130711 0.057319935
-0.075422853 -0.31317005 0.057304434
-0.075597622 -0.31328154 0.057298072
-0.075744934 -0.3133848 0.057234131
-0.075936072 -0.31350043 0.057266943
-0.076100141 -0.31360313 0.057273317
-0.076255903 -0.3137081 0.057232417
-0.076416694 -0.3138091 0.0572365
-0.076583959 -0.31391364 0.05724401
-0.076753169 -0.3140251 0.057215758
-0.076905012 -0.31411624 0.057246394
-0.077071473 -0.31422961 0.057195071
-0.077226572 -0.31432664 0.057201482
-0.077386901 -0.31444803 0.05707518
-0.077561244 -0.31455174 0.05711614
-0.077734277 -0.31465647 0.057145551
-0.077913105 -0.31477693 0.05709881
-0.078059733 -0.31487173 0.057085626
-0.078225404 -0.31497362 0.057103533
-0.078374192 -0.31507087 0.057083413
-0.07853809 -0.31517768 0.057063259
-0.078713499 -0.31528133 0.057108819
-0.078854196 -0.31539068 0.056980282
-0.079014972 -0.31549186 0.056983203
-0.079188555 -0.31559306 0.057036854
-0.079357751 -0.3157005 0.057033978
-0.07951533 -0.31580001 0.057034601
-0.079680026 -0.31590989 0.056998283
-0.079840653 -0.31601134 0.056998894
-0.080007836 -0.31611291 0.057024874
-0.080192462 -0.31622988 0.057023104
-0.080349579 -0.31633663 0.05697643
-0.080528557 -0.31646651 0.05687084
-0.080694705 -0.3165687 0.056888744
-0.080848411 -0.31667346 0.05684093
-0.081015795 -0.31677517 0.056866899
-0.081160851 -0.31687391 0.056822576
-0.08131142 -0.31697339 0.05679553
-0.081484482 -0.31707922 0.056818031
-0.081648901 -0.31718561 0.056802485
-0.081791729 -0.31728515 0.056744315
-0.081943981 -0.31738386 0.056728806
-0.082112856 -0.31749782 0.056683246
-0.082284331 -0.31761384 0.056635365
-0.082451329 -0.31771913 0.056637116
-0.082611799 -0.31781772 0.056655042
-0.082776956 -0.31792992 0.056606032
-0.082940355 -0.31803054 0.056622796
-0.083102271 -0.31812879 0.056648783
-0.083269365 -0.31823725 0.056630913
-0.083439864 -0.31834751 0.056615345
-0.083598964 -0.31844687 0.056622893
-0.083782591 -0.31856161 0.056631502
-0.083944641 -0.31866595 0.056619432
-0.084092565 -0.31876907 0.056558937
-0.084245473 -0.31886765 0.056546886
-0.084419899 -0.31897107 0.056590144
-0.084581025 -0.31908709 0.05650077
-0.084734485 -0.31918272 0.056509484
-0.084916085 -0.31929269 0.056540027
-0.085080788 -0.31940749 0.056472562
-0.085242324 -0.31951484 0.056439713
-0.085406266 -0.31961873 0.056438014
-0.085566387 -0.31972098 0.056431711
-0.085725114 -0.31982359 0.056417327
-0.085888401 -0.31992507 0.056428321
-0.086060233 -0.32004055 0.056385063
-0.086224467 -0.32014722 0.056367204
-0.086381353 -0.32025033 0.056342449
-0.086531505 -0.32034972 0.05631426
-0.086685918 -0.32044816 0.05630913
-0.086857639 -0.32055059 0.056347772
-0.08702568 -0.3206591 0.056333374
-0.087186798 -0.3207691 0.05628207
-0.087320842 -0.3208667 0.056200862
-0.087514855 -0.32098013 0.056259044
-0.087683573 -0.32109109 0.056231942
-0.087843642 -0.32119364 0.056223337
-0.087995112 -0.32129535 0.056185909
-0.088167317 -0.32140815 0.056161106
-0.088351995 -0.32151875 0.056199711
-0.088489756 -0.32161546 0.056139261
-0.088636085 -0.32171553 0.056091461
-0.088818103 -0.32183161 0.056085087
-0.088991448 -0.32193947 0.05609604
-0.089150816 -0.32204229 0.056082815
-0.089306511 -0.32215288 0.056006148
-0.089455284 -0.3222549 0.05595604
-0.08960925 -0.3223514 0.055961292
-0.089788094 -0.3224563 0.056012616
-0.089912765 -0.32255918 0.05586106
-0.090092465 -0.32266408 0.055915829
-0.090279937 -0.32276586 0.056021351
-0.09043213 -0.32287899 0.055914696
-0.090586588 -0.32298258 0.055877261
-0.090755902 -0.32308218 0.055923995
-0.09093444 -0.32319003 0.055955708
-0.091088019 -0.32330057 0.055870965
-0.091270775 -0.32341033 0.055907279
-0.091438264 -0.32352838 0.055830564
-0.091566101 -0.32362556 0.055727456
-0.091747224 -0.32373118 0.05578338
-0.091911413 -0.32382956 0.055817448
-0.092092887 -0.32394421 0.055817995
-0.092262655 -0.32405108 0.05582089
-0.09241236 -0.32415512 0.055761538
-0.092581898 -0.32426423 0.055749435
-0.092746198 -0.32436725 0.055754654
-0.092907801 -0.32447481 0.055720657
-0.093074717 -0.32456926 0.055790477
-0.093224809 -0.32468602 0.055652678
-0.093399748 -0.32479286 0.055676326
-0.09354464 -0.32489496 0.055610072
-0.093716659 -0.32499996 0.055633727
-0.093891628 -0.32510698 0.055656213
-0.094060272 -0.32521644 0.055638351
-0.094234645 -0.32532364 0.055657379
-0.094414003 -0.32543695 0.055657931
-0.094558075 -0.32554111 0.055575531
-0.094719872 -0.32564676 0.055554222
-0.094885901 -0.32575437 0.055537518
-0.095051415 -0.32586202 0.055518497
-0.095220946 -0.32596561 0.055541009
-0.095395029 -0.32607925 0.055518501
-0.0955621 -0.32618898 0.055492565
-0.095715955 -0.32629091 0.055463202
-0.095895506 -0.32639864 0.055499524
-0.096062444 -0.32650849 0.055472426
-0.09621904 -0.32661048 0.055453442
-0.096390121 -0.32672039 0.05544249
-0.096557409 -0.32682639 0.055440772
-0.096708432 -0.32693037 0.055387199
-0.096875533 -0.32703647 0.05538433
-0.097053841 -0.32714471 0.055412576
-0.097216748 -0.32725656 0.055356655
-0.097380117 -0.32736653 0.055314571
-0.097530425 -0.32746857 0.055270229
-0.097700648 -0.32757682 0.055266194
-0.097879671 -0.32768351 0.055307135
-0.098041952 -0.32779351 0.055260435
-0.098210543 -0.32789999 0.055261031
-0.098372191 -0.32800812 0.055223562
-0.09855248 -0.32812256 0.055220652
-0.098705761 -0.32822484 0.055186681
-0.098882765 -0.32833189 0.05521724
-0.099031441 -0.32843584 0.055154443
-0.099220544 -0.3285509 0.055182654
-0.099391535 -0.32866332 0.055155545
-0.099540889 -0.32876551 0.055106588
-0.099692792 -0.32886782 0.05506685
-0.099844679 -0.32897016 0.055027112
-0.10005674 -0.32908162 0.055169474
-0.10020272 -0.32919616 0.055029381
-0.10036856 -0.32930124 0.055027667
-0.1005578 -0.32941514 0.055063955
-0.10072304 -0.32952738 0.055014949
-0.10088389 -0.32962877 0.055016719
-0.10106002 -0.32973838 0.055027664
-0.10122456 -0.32985237 0.054964807
-0.10137682 -0.32995492 0.054925077
-0.10155934 -0.33007041 0.054924462
-0.10172468 -0.33017758 0.054907762
-0.10187434 -0.33027482 0.054891109
-0.10205367 -0.33038849 0.054889351
-0.1022156 -0.33049715 0.05484958
-0.10237464 -0.33060217 0.054821361
-0.10255191 -0.33071744 0.054801151
-0.10274598 -0.33083108 0.054858185
-0.10289912 -0.3309373 0.054798834
-0.103064 -0.33104473 0.054778665
