# .PCD v0.7 - Point Cloud Data file format
VERSION 0.7
FIELDS x y z
SIZE 4 4 4
TYPE F F F
COUNT 1 1 1
WIDTH 1282
HEIGHT 1
VIEWPOINT 0 0 0 1 0 0 0
POINTS 1282
DATA ascii
-0.29362136 -0.13810167 0.055605866
-0.29380867 -0.13803847 0.055607677
-0.29398471 -0.13798706 0.055553023
-0.29416889 -0.13792361 0.055564065
-0.29437181 -0.13786171 0.055519722
-0.29455283 -0.1377985 0.055536535
-0.2947363 -0.13773954 0.055517595
-0.29489633 -0.13768844 0.05549873
-0.29507416 -0.137642 0.055404879
-0.29523012 -0.13759504 0.055366423
-0.29541144 -0.13753076 0.055390149
-0.29561654 -0.13745718 0.055423036
-0.29578182 -0.13740988 0.055364955
-0.29597658 -0.13734156 0.055385187
-0.29617053 -0.13728954 0.05529245
-0.29635644 -0.13721995 0.055342682
-0.29654792 -0.13715307 0.055360615
-0.29670978 -0.13709466 0.055389006
-0.29688966 -0.1370485 0.055288229
-0.29707241 -0.13699158 0.055256628
-0.29727247 -0.13692671 0.055239949
-0.29744133 -0.13687576 0.055199161
-0.29761043 -0.13682374 0.055165276
-0.29778862 -0.13676165 0.055180937
-0.29798487 -0.13668989 0.055221915
-0.29815334 -0.13663056 0.055241071
-0.29833257 -0.136566 0.055271722
-0.29852083 -0.13651916 0.05515594
-0.29868618 -0.13646922 0.055116307
-0.29888514 -0.13639916 0.055138826
-0.29907858 -0.13631184 0.055296253
-0.29924142 -0.13625294 0.055325791
-0.2994149 -0.13619733 0.055306889
-0.29960868 -0.13616563 0.055071205
-0.29980597 -0.13610072 0.055061452
-0.29997686 -0.1360437 0.055058699
-0.30016437 -0.13598157 0.055052433
-0.3003628 -0.135914 0.055058822
-0.30053702 -0.1358632 0.055004179
-0.30069041 -0.1358207 0.054940365
-0.30086991 -0.13575032 0.055011366
-0.30106372 -0.13568054 0.055044275
-0.30124432 -0.13562809 0.05498616
-0.30140448 -0.13559574 0.054834723
-0.30161259 -0.13551331 0.054922927
-0.30178553 -0.13545853 0.054899417
-0.30196983 -0.13539766 0.054892011
-0.30213898 -0.13534497 0.054862734
-0.30229655 -0.13528685 0.054899212
-0.30249739 -0.13522696 0.05484565
-0.30269912 -0.13517086 0.054763265
-0.30287674 -0.13511223 0.054755878
-0.30305824 -0.1350459 0.054793429
-0.30324563 -0.13497925 0.05481945
-0.30343917 -0.13491707 0.054799341
-0.3036297 -0.13485542 0.054782692
-0.30379495 -0.13480484 0.054747667
-0.30398801 -0.13474365 0.054721795
-0.30416438 -0.13468266 0.05473401
-0.3043417 -0.13463016 0.054683961
-0.30451313 -0.13457835 0.054643165
-0.30469793 -0.13451223 0.054671489
-0.30488789 -0.13445175 0.054647934
-0.30507386 -0.13438867 0.05465205
-0.30523375 -0.13433795 0.054630876
-0.3054136 -0.13430439 0.05444134
-0.30562824 -0.13420619 0.054625213
-0.30580869 -0.13414824 0.054606292
-0.30597177 -0.13409677 0.054582801
-0.30615062 -0.13403708 0.054580018
-0.30632976 -0.13398136 0.054548413
-0.30651531 -0.13391957 0.054544464
-0.30669403 -0.13386023 0.054539379
-0.30686009 -0.13380843 0.054511271
-0.30705816 -0.13374816 0.05446694
-0.30725461 -0.13368614 0.054438751
-0.30741802 -0.13363016 0.054446384
-0.30761728 -0.13356802 0.054412425
-0.30780789 -0.1335029 0.054419987
-0.30798075 -0.13344879 0.054391861
-0.30814022 -0.13339904 0.05436492
-0.30833301 -0.13333482 0.054360956
-0.30851132 -0.1332766 0.054348949
-0.30870441 -0.13320051 0.054427981
-0.30887929 -0.13314754 0.054387175
-0.30906403 -0.13309158 0.054344021
-0.30924901 -0.13303521 0.054303184
-0.30942726 -0.13297735 0.054288879
-0.30960771 -0.13292004 0.054265339
-0.30981371 -0.13285238 0.054254424
-0.30998433 -0.13279086 0.054283939
-0.31015202 -0.13272642 0.05434113
-0.31033635 -0.13268529 0.054194242
-0.31050944 -0.13262768 0.054190323
-0.31072217 -0.13255467 0.054201279
-0.31090355 -0.13249983 0.054158144
-0.31107631 -0.13244624 0.054126561
-0.31126428 -0.13238268 0.054129519
-0.31143558 -0.13233106 0.054087564
-0.31161433 -0.13227303 0.054073252
-0.31180173 -0.13220376 0.054117717
-0.31199995 -0.13214032 0.054095287
-0.31217685 -0.13208488 0.05406715
-0.31234375 -0.13202935 0.054063249
-0.31252724 -0.13196874 0.054055844
-0.31272489 -0.13191253 0.053983845
-0.31291509 -0.13184363 0.054019075
-0.31310186 -0.13177915 0.05403126
-0.3132624 -0.13173179 0.053984728
-0.31344175 -0.13167045 0.053992316
-0.3136372 -0.1316078 0.053971045
-0.31379887 -0.1315591 0.053931423
-0.31398806 -0.13148905 0.053977031
-0.31418177 -0.13142568 0.053964991
-0.31435728 -0.13137527 0.053904578
-0.31455296 -0.13131547 0.053862557
-0.31472257 -0.13126034 0.053849421
-0.31489897 -0.13120015 0.05385587
-0.31507528 -0.13114588 0.053820819
-0.31527251 -0.13107298 0.05386756
-0.31547913 -0.13100919 0.053827815
-0.31564999 -0.13096133 0.053760502
-0.31582156 -0.13090701 0.053736985
-0.31600228 -0.13084781 0.053726129
-0.31618962 -0.13078117 0.05375215
-0.31636864 -0.13072681 0.053711332
-0.31655946 -0.13067274 0.053640507
-0.31672883 -0.13061294 0.053660799
-0.31690615 -0.13055244 0.053667244
-0.31710231 -0.13048187 0.053700157
-0.31728974 -0.13042371 0.05366623
-0.31747019 -0.13036264 0.053669211
-0.31764084 -0.13030978 0.053637631
-0.31786275 -0.1302402 0.05360245
-0.31802931 -0.1301892 0.053567424
-0.31820026 -0.1301284 0.053591184
-0.31838 -0.13007101 0.053569954
-0.31856549 -0.13001513 0.053524498
-0.31873503 -0.12996607 0.053468712
-0.31894162 -0.12987792 0.053600736
-0.31914386 -0.12982197 0.053516053
-0.3193388 -0.12976129 0.053482097
-0.31949407 -0.12971735 0.053424053
-0.31968999 -0.12965322 0.053411994
-0.31975451 -0.12969318 0.052977223
-0.32001027 -0.12955292 0.053360429
-0.32023153 -0.12947261 0.053402487
-0.32042423 -0.12940727 0.053406592
-0.32059824 -0.12935622 0.053354252
-0.32080552 -0.12928338 0.05337676
-0.32101882 -0.12921163 0.053377338
-0.32118583 -0.12915607 0.053373437
-0.32138112 -0.12908855 0.053386752
-0.32153669 -0.12904909 0.053296417
-0.32173193 -0.12898177 0.053308584
-0.32189691 -0.1289375 0.05322976
-0.3220779 -0.12888427 0.05317625
-0.3222768 -0.1288113 0.05321952
-0.322456 -0.1287487 0.053236339
-0.32265556 -0.12868205 0.053233508
-0.3228403 -0.12862757 0.053179987
-0.32301804 -0.128571 0.053157605
-0.32321763 -0.12850451 0.053153627
-0.32339835 -0.12844303 0.053158902
-0.32359749 -0.1283793 0.053136468
-0.32377905 -0.12831935 0.05312907
-0.32396102 -0.12826332 0.053092852
-0.32414606 -0.12820449 0.053069308
-0.32432979 -0.12814267 0.053069972
-0.32451934 -0.12808183 0.053049862
-0.32472464 -0.12800638 0.053095438
-0.32490626 -0.12794885 0.053070746
-0.32508445 -0.12789869 0.053002261
-0.32526347 -0.12782912 0.053068645
-0.32545567 -0.12777442 0.052998964
-0.3256529 -0.127711 0.052978847
-0.32581103 -0.12766692 0.052915014
-0.32602739 -0.12758826 0.052957099
-0.32620716 -0.12753069 0.05293702
-0.3264071 -0.12746505 0.052926108
-0.32658359 -0.12741055 0.052892216
-0.32676631 -0.12735249 0.052868672
-0.32694203 -0.12729874 0.052831318
-0.32713231 -0.12723602 0.052822746
-0.32731912 -0.12717055 0.052841842
-0.32752514 -0.12709993 0.052851677
-0.3277269 -0.12703122 0.052858055
-0.32791376 -0.1269757 0.052806828
-0.3280859 -0.12691955 0.052794848
-0.32827437 -0.12686267 0.052749384
-0.32847339 -0.12679474 0.052756928
-0.32866013 -0.12673941 0.052704554
-0.32882938 -0.12668407 0.052693732
-0.32903892 -0.12660541 0.052751966
-0.32923171 -0.12654692 0.05270765
-0.32941222 -0.12649335 0.052657604
-0.32959616 -0.12643129 0.052659415
-0.32978016 -0.12637296 0.052634712
-0.3299568 -0.12631907 0.0525962
-0.33016643 -0.12624283 0.052637152
-0.33035585 -0.12618741 0.052579004
-0.33054817 -0.12611683 0.052621152
-0.33073866 -0.12605697 0.052591816
-0.33093646 -0.12599288 0.052575156
-0.33111957 -0.12593207 0.052570064
-0.33132321 -0.12586503 0.052560292
-0.33150756 -0.12580691 0.052533295
-0.33166388 -0.1257631 0.052471779
-0.33187696 -0.12568668 0.052505791
-0.33207646 -0.12562332 0.0524799
-0.33223504 -0.12558301 0.052388411
-0.33243191 -0.12551659 0.052390195
-0.33265838 -0.12543486 0.052429941
-0.33285144 -0.1253735 0.052405216
-0.33301744 -0.12532546 0.052350603
-0.33322048 -0.12525094 0.05239502
-0.33339027 -0.1252085 0.052291963
-0.33361632 -0.12512249 0.052362837
-0.3338058 -0.12506428 0.052324288
-0.33398327 -0.12500554 0.052318059
-0.33419147 -0.12493926 0.052292146
-0.24149711 -0.15813461 0.037843775
-0.24171071 -0.1580755 0.037754461
-0.24192962 -0.15801673 0.037650153
-0.24213314 -0.15795757 0.037585076
-0.24233125 -0.15789957 0.037524622
-0.24252841 -0.15784042 0.03747455
-0.24273093 -0.1577816 0.037409477
-0.24291968 -0.15772232 0.037380174
-0.24310543 -0.15766178 0.037367027
-0.2432877 -0.1576024 0.037353877
-0.24347347 -0.15754201 0.037339579
-0.24365374 -0.15748394 0.037321828
-0.24383232 -0.15742335 0.037325989
-0.24400747 -0.15736391 0.037330162
-0.2441773 -0.15730298 0.037357401
-0.24434388 -0.15724444 0.03737542
-0.24451435 -0.15718363 0.037400357
-0.24467732 -0.1571237 0.037436839
-0.24483976 -0.15706247 0.0374837
-0.24499477 -0.15700211 0.037542105
-0.24514976 -0.15694043 0.037609737
-0.24530396 -0.15687871 0.03767968
-0.24545737 -0.15681691 0.037751924
-0.24560308 -0.15675591 0.037836872
-0.24574973 -0.15669361 0.037928738
-0.24589723 -0.15663266 0.038009062
-0.24604729 -0.15657052 0.038091701
-0.24619219 -0.15650798 0.038189329
-0.24633035 -0.15644625 0.038297359
-0.24647392 -0.15638351 0.038399607
-0.24661563 -0.15632057 0.038507618
-0.24674991 -0.15625834 0.038628332
-0.2468833 -0.15619461 0.038761735
-0.2470074 -0.15613137 0.038913604
-0.24713671 -0.15606573 0.039070077
-0.24726927 -0.15600163 0.039208092
-0.24739163 -0.15593652 0.039377261
-0.24750584 -0.15587057 0.039571818
-0.2476216 -0.15580457 0.039762907
-0.24278685 -0.15455931 0.060004145
-0.24301223 -0.15449233 0.059942465
-0.24322607 -0.15442923 0.059880819
-0.24345535 -0.15435961 0.059828363
-0.24365836 -0.15429048 0.059834771
-0.24387063 -0.1542225 0.059811175
-0.24406207 -0.15415384 0.059841819
-0.24426582 -0.15408839 0.059820555
-0.24447614 -0.15402384 0.059777372
-0.24465814 -0.15395245 0.059849545
-0.24489672 -0.1538848 0.059761312
-0.24511307 -0.15381789 0.059720419
-0.24530268 -0.15374935 0.059754528
-0.24550092 -0.15369065 0.059698686
-0.24568409 -0.15362133 0.059753567
-0.24592781 -0.15356731 0.059556954
-0.24612582 -0.15348794 0.059647538
-0.24635077 -0.15341586 0.05962275
-0.24655376 -0.15335311 0.0595842
-0.24674389 -0.15328504 0.05961369
-0.24695118 -0.15321955 0.059584346
-0.24715558 -0.15315552 0.059551544
-0.24738447 -0.15308277 0.059522152
-0.24757476 -0.15301858 0.059523974
-0.24776921 -0.15295871 0.059485443
-0.24796015 -0.15289657 0.059471119
-0.24813823 -0.1528288 0.059527162
-0.24835423 -0.15276904 0.059436694
-0.24854857 -0.15269302 0.059512291
-0.24879515 -0.15261842 0.059454024
-0.24897739 -0.15255889 0.059442036
-0.24917874 -0.15248787 0.059465736
-0.24939594 -0.15242903 0.059366036
-0.24959639 -0.15236551 0.059339009
-0.24982813 -0.15229082 0.059316531
-0.2500141 -0.15223053 0.059301071
-0.25020647 -0.1521658 0.059301738
-0.25043938 -0.15208974 0.059286162
-0.25063795 -0.15202636 0.0592626
-0.25081748 -0.15196511 0.059269071
-0.25099811 -0.15190415 0.059270918
-0.25120482 -0.15184262 0.059215061
-0.25143743 -0.15176895 0.059183337
-0.25163507 -0.15169999 0.059201285
-0.25183415 -0.15163726 0.059171967
-0.25200781 -0.15157913 0.059170373
-0.25219378 -0.1515118 0.059204496
-0.25245932 -0.15143183 0.059139259
-0.25264105 -0.15136969 0.05914687
-0.25282502 -0.15130809 0.059145249
-0.25302947 -0.15125516 0.05903405
-0.25323954 -0.15117338 0.059113078
-0.25341088 -0.15111113 0.059146076
-0.25362736 -0.15104304 0.059113253
-0.25384596 -0.15098175 0.059027381
-0.25402164 -0.15091658 0.059070751
-0.25425184 -0.1508501 0.058994073
-0.25446463 -0.15078162 0.058972783
-0.25464511 -0.15071777 0.058995392
-0.25481576 -0.15066196 0.058984574
-0.25504711 -0.15059215 0.058928661
-0.25522679 -0.15052824 0.058953568
-0.25542971 -0.1504683 0.058895413
-0.25564149 -0.15040016 0.058874127
-0.25582469 -0.15033737 0.058882885
-0.2560322 -0.15026607 0.058893897
-0.25621191 -0.15021327 0.058840401
-0.25639781 -0.15014924 0.058851458
-0.25661096 -0.15008193 0.058820948
-0.2568368 -0.15001839 0.058733914
-0.25702658 -0.14994684 0.058788776
-0.25718775 -0.14988475 0.058844853
-0.25740656 -0.14982176 0.058770519
-0.25760472 -0.14977077 0.058660485
-0.25780389 -0.14969543 0.05871994
-0.25803787 -0.14963077 0.058621354
-0.25821063 -0.14957246 0.058623224
-0.25843295 -0.14950682 0.058559246
-0.25859177 -0.14944191 0.058640704
-0.25875911 -0.14938198 0.058666795
-0.25893894 -0.14931214 0.058733217
-0.25917998 -0.14925542 0.058561973
-0.25933695 -0.14919457 0.058619227
-0.25956172 -0.14912811 0.058555253
-0.25975922 -0.14906444 0.058536302
-0.2599327 -0.14899492 0.058615416
-0.26017162 -0.14892176 0.058565237
-0.26037326 -0.14886224 0.058507085
-0.26056671 -0.14879748 0.058505438
-0.2607736 -0.14873278 0.05847149
-0.2609579 -0.14867222 0.058461793
-0.26116204 -0.14861171 0.058404792
-0.26133317 -0.14854887 0.058442399
-0.26154044 -0.14849482 0.058332354
-0.26172951 -0.14842385 0.05838491
-0.26191673 -0.14836231 0.058375213
-0.26210371 -0.1483033 0.058348227
-0.2623249 -0.14823756 0.058287721
-0.26251298 -0.14817148 0.05830799
-0.2626799 -0.14810975 0.058347922
-0.26287058 -0.14804476 0.058354363
-0.26308289 -0.1479784 0.058319241
-0.26327688 -0.14792031 0.058269173
-0.2634486 -0.14786611 0.058244526
-0.26364127 -0.14779964 0.058256727
-0.26385051 -0.14773513 0.058215845
-0.26403871 -0.14766951 0.058232665
-0.26422551 -0.14760876 0.058218356
-0.26444942 -0.14754309 0.058150925
-0.26463103 -0.14748016 0.058164291
-0.26483342 -0.14741305 0.058158025
-0.26502508 -0.14734937 0.058152929
-0.26522005 -0.14728735 0.05812823
-0.26539192 -0.14723131 0.058116257
-0.2655704 -0.14717287 0.058105439
-0.26577595 -0.14710484 0.058098003
-0.26596609 -0.14705248 0.058016811
-0.26616669 -0.14699692 0.057933301
-0.26637068 -0.14692256 0.057974286
-0.26654932 -0.14686766 0.057938099
-0.26674739 -0.14679921 0.057951432
-0.26691729 -0.14675494 0.057861071
-0.26709324 -0.14667757 0.057989758
-0.26729786 -0.14661592 0.057939664
-0.26750389 -0.14654905 0.057923011
-0.26770112 -0.1464835 0.057917893
-0.26789653 -0.1464233 0.057879359
-0.26806769 -0.14636487 0.057885844
-0.26827294 -0.14629795 0.057871491
-0.26843217 -0.14624858 0.057842262
-0.26862034 -0.14618444 0.057848707
-0.2688452 -0.14611681 0.057792798
-0.26900464 -0.14606459 0.057783172
-0.26920548 -0.14599538 0.05779535
-0.26938576 -0.1459365 0.057783365
-0.26957443 -0.14587301 0.057784043
-0.2697691 -0.14581698 0.057717834
-0.26994926 -0.14575832 0.057704698
-0.27010286 -0.14569564 0.05778271
-0.27031428 -0.145634 0.057716463
-0.27050984 -0.14557211 0.057689451
-0.27072814 -0.14550506 0.057645086
-0.27091143 -0.14544189 0.057656154
-0.27107978 -0.14538245 0.057676479
-0.2712962 -0.14531438 0.057643652
-0.27147746 -0.14525352 0.05764319
-0.27167642 -0.14519493 0.057585046
-0.27185857 -0.14513117 0.057603031
-0.2720457 -0.1450713 0.057581812
-0.27222487 -0.14501296 0.057568673
-0.27242219 -0.1449459 0.057573944
-0.27258387 -0.14490095 0.057507813
-0.27278847 -0.14484012 0.05745196
-0.27294269 -0.14477332 0.057557639
-0.27311665 -0.14471494 0.057557207
-0.27335802 -0.14464945 0.057447065
-0.27351639 -0.14459416 0.057461649
-0.27371079 -0.14452924 0.057458863
-0.27391773 -0.14446305 0.057435278
-0.2741116 -0.14440206 0.057405964
-0.27428421 -0.14434297 0.057413604
-0.27447289 -0.14428602 0.057368159
-0.27467448 -0.14421965 0.057358425
-0.27486065 -0.1441606 0.057333741
-0.27503905 -0.14410301 0.057317153
-0.27522165 -0.14404972 0.0572602
-0.27539852 -0.14399542 0.05722402
-0.27558541 -0.1439237 0.057286952
-0.2757633 -0.14386594 0.057272665
-0.27597347 -0.14380947 0.057172988
-0.27616259 -0.1437401 0.057214014
-0.2763423 -0.14367488 0.057248153
-0.27652955 -0.14361316 0.057239607
-0.27670664 -0.14355995 0.057195347
-0.27687845 -0.14350587 0.057169549
-0.27707973 -0.14344566 0.057117164
-0.27726582 -0.14338303 0.057117842
-0.27743846 -0.14332509 0.05711741
-0.27762121 -0.14325835 0.057154998
-0.27781007 -0.14320476 0.057085346
-0.27800339 -0.14314069 0.057079092
-0.27818668 -0.14308031 0.057070561
-0.27837393 -0.14301959 0.057055097
-0.27855065 -0.1429619 0.057043124
-0.27873084 -0.14290322 0.057029989
-0.27889588 -0.14283507 0.057119492
-0.27907717 -0.14277193 0.057135183
-0.27925834 -0.14272697 0.057022892
-0.27946034 -0.14267667 0.056899015
-0.2796534 -0.14260058 0.056978084
-0.27988496 -0.14254607 0.056813784
-0.28005692 -0.14248182 0.056859471
-0.28024408 -0.14241572 0.05688205
-0.28042018 -0.1423445 0.056966927
-0.28059816 -0.14229687 0.05688116
-0.28079507 -0.14223355 0.056861062
-0.28098443 -0.14217129 0.056851361
-0.28116313 -0.14211148 0.056849759
-0.28135434 -0.14204533 0.056863114
-0.28153971 -0.1419908 0.056808453
-0.28172716 -0.14193295 0.05677224
-0.28190824 -0.14187038 0.056784462
-0.28208351 -0.14182003 0.056724072
-0.28227758 -0.14175211 0.056743186
-0.28246185 -0.14168814 0.0567577
-0.28264689 -0.14163437 0.056698442
-0.28283429 -0.14157768 0.056654152
-0.28300154 -0.1415101 0.056734435
-0.28319514 -0.14145002 0.056699362
-0.28338346 -0.14139612 0.056633171
-0.28356782 -0.14133261 0.056644235
-0.28374937 -0.1412617 0.056714103
-0.28389001 -0.14120239 0.056799065
-0.28410995 -0.14115325 0.05662442
-0.28430715 -0.14109425 0.056573197
-0.28446704 -0.14104712 0.056526672
-0.28466308 -0.14097397 0.056578059
-0.28485811 -0.14092092 0.056489944
-0.28504208 -0.14085655 0.05650793
-0.285225 -0.14080104 0.056465961
-0.28540862 -0.14073533 0.056494318
-0.28559127 -0.1406794 0.05645581
-0.2857714 -0.1406142 0.056488797
-0.28595909 -0.14054973 0.056498691
-0.28612143 -0.14050031 0.056462549
-0.28632054 -0.14043838 0.056427449
-0.28650507 -0.14037612 0.056429297
-0.2866925 -0.14031042 0.056448422
-0.2868793 -0.14025933 0.05636609
-0.28702292 -0.14020768 0.056389943
-0.28722131 -0.14014338 0.056373298
-0.28741363 -0.14008537 0.056326695
-0.28761187 -0.14002112 0.056310054
-0.28780025 -0.13996181 0.056281913
-0.28797776 -0.13990043 0.056294147
-0.28814232 -0.139847 0.056281045
-0.28835067 -0.13978066 0.056255162
-0.28853521 -0.13971969 0.056247771
-0.28869951 -0.13966438 0.056248516
-0.28885067 -0.13961641 0.056228537
-0.28907204 -0.13954277 0.056223366
-0.28927004 -0.13947876 0.056205563
-0.28945506 -0.13942614 0.056138232
-0.28963652 -0.13937438 0.056073207
-0.28982058 -0.13930753 0.05610849
-0.29000151 -0.13924533 0.056118406
-0.29018602 -0.13918911 0.056077592
-0.29037035 -0.13912676 0.05608058
-0.2905547 -0.13906717 0.056063976
-0.29071558 -0.13902378 0.055988632
-0.29092002 -0.13894486 0.056060746
-0.29110432 -0.13888775 0.05602685
-0.2912817 -0.13883704 0.055964146
-0.29145584 -0.13878104 0.05594641
-0.29165354 -0.13871434 0.05594822
-0.29183462 -0.13865079 0.055967361
-0.29200876 -0.13859496 0.055948477
-0.29219633 -0.13853329 0.05593878
-0.29238048 -0.13847394 0.055921018
-0.29255113 -0.1384201 0.055896379
-0.29274899 -0.13835222 0.055906255
-0.29293254 -0.13829845 0.05585045
-0.29311678 -0.13823725 0.055845372
-0.29330227 -0.13816568 0.055910621
-0.29348516 -0.13811606 0.055827148
-0.29366553 -0.13806009 0.055794414
-0.29384956 -0.13800028 0.055780109
-0.29403108 -0.13793609 0.055802718
-0.29417124 -0.13789313 0.055773541
-0.29435545 -0.13781331 0.055899896
-0.2945697 -0.13776232 0.055751778
-0.29474914 -0.1377106 0.055691376
-0.29491675 -0.13765433 0.055690952
-0.29511264 -0.13758187 0.05573773
-0.29531583 -0.13752021 0.055691097
-0.29548803 -0.13747206 0.055622637
-0.29567078 -0.13740368 0.055671751
-0.29585403 -0.13734724 0.055635549
-0.29604578 -0.13728093 0.055648901
-0.29621944 -0.13722573 0.05562656
-0.29638663 -0.13717175 0.055611156
-0.29656154 -0.1371235 0.055536922
-0.29676837 -0.13704672 0.055588275
-0.29692331 -0.13699292 0.055600572
-0.29711321 -0.13694486 0.055489413
-0.2972956 -0.13687988 0.055515468
-0.29747772 -0.13682643 0.055460826
-0.29765376 -0.13676293 0.055491503
-0.29783511 -0.13670206 0.055491053
-0.29805642 -0.13662875 0.055483572
-0.29821646 -0.13658762 0.055394396
-0.29840696 -0.13652614 0.055376619
-0.29857999 -0.13645464 0.055470727
-0.29875159 -0.13640521 0.055412646
-0.29893371 -0.13635096 0.055363763
-0.2991434 -0.13628547 0.055328649
-0.2993198 -0.13622235 0.055355869
-0.2995109 -0.13614365 0.055457994
-0.29967582 -0.1360883 0.055457577
-0.29983366 -0.13605133 0.055344198
-0.30004638 -0.135993 0.055251427
-0.30023268 -0.13592033 0.055322442
-0.30042428 -0.13586372 0.055267766
-0.30058163 -0.13581252 0.055255845
-0.300767 -0.13574982 0.055258829
-0.30096719 -0.13567951 0.055280235
-0.30115893 -0.13561565 0.055276286
-0.30133167 -0.13556895 0.0551963
-0.30150673 -0.13551034 0.055194706
-0.30170143 -0.13545269 0.055140033
-0.30189902 -0.13538848 0.055124544
-0.30205601 -0.1353505 0.055020381
-0.30224299 -0.13528463 0.055041812
-0.30243373 -0.13521113 0.055108204
-0.30261502 -0.13514586 0.055138879
-0.30276874 -0.13508527 0.055201899
-0.30295372 -0.13504705 0.05503311
-0.30314916 -0.13497621 0.05506951
-0.30336678 -0.13489516 0.055125453
-0.30355215 -0.13484438 0.055044275
-0.30372488 -0.13479099 0.055011559
-0.30388924 -0.13474284 0.05496157
-0.30410194 -0.13466637 0.054996774
-0.30428457 -0.13460997 0.054961722
-0.30444005 -0.13456286 0.054925598
-0.30461621 -0.13449818 0.054964352
-0.30482271 -0.13442363 0.055000722
-0.30500576 -0.13434714 0.055106319
-0.30518305 -0.1343053 0.054981366
-0.30533928 -0.1342759 0.05481841
-0.30550686 -0.13423125 0.054736134
-0.30572337 -0.13414469 0.05483358
-0.30590588 -0.13408393 0.054829657
-0.30609179 -0.13402659 0.054793447
-0.30626279 -0.13396707 0.054808006
-0.30645522 -0.13390785 0.054769471
-0.30666456 -0.13383433 0.054792002
-0.30683267 -0.13378412 0.054747775
-0.30704218 -0.13371052 0.054770306
-0.30720365 -0.13366237 0.054727234
-0.30738819 -0.13360304 0.054708324
-0.30756268 -0.13355526 0.054631792
-0.30776718 -0.13348563 0.054638192
-0.30795467 -0.13342188 0.054643482
-0.30811861 -0.13336588 0.054649983
-0.30831438 -0.13330571 0.05461029
-0.30849826 -0.13325152 0.054556794
-0.30869111 -0.133184 0.054575909
-0.30885479 -0.1331325 0.054551288
-0.30904856 -0.13306387 0.054576159
-0.30922785 -0.13301627 0.05448693
-0.30940655 -0.13295074 0.054525681
-0.30958599 -0.13287693 0.054620922
-0.30977213 -0.13283063 0.054506317
-0.30995592 -0.13277286 0.054478176
-0.31014085 -0.13270637 0.054508843
-0.31033286 -0.13264455 0.054489907
-0.31052902 -0.1325841 0.054451361
-0.31069931 -0.13253087 0.054423261
-0.31088358 -0.13246918 0.054421652
-0.31107637 -0.13240986 0.054383114
-0.31126338 -0.13234463 0.054399937
-0.31142688 -0.13229711 0.054347638
-0.31162232 -0.13223103 0.054350607
-0.31183448 -0.13214983 0.054420397
-0.31198663 -0.1321138 0.05431395
-0.31218129 -0.13204895 0.054309994
-0.31238532 -0.13197868 0.054322165
-0.31255618 -0.13192181 0.054318272
-0.31274053 -0.13186385 0.054290142
-0.31293344 -0.13180466 0.054250456
-0.31310627 -0.13174552 0.054258086
-0.31330031 -0.13168496 0.054225322
-0.31349078 -0.13162266 0.054213308
-0.31368366 -0.13156052 0.054194372
-0.31384474 -0.13150989 0.054169755
-0.31403363 -0.13144664 0.054168124
-0.31422758 -0.13138041 0.054175705
-0.31439513 -0.13132809 0.054147609
-0.31457776 -0.13126662 0.054148305
-0.31475115 -0.13120744 0.054154791
-0.31494218 -0.13114791 0.054122027
-0.31512922 -0.13109592 0.054045461
-0.3153072 -0.13103436 0.054057691
-0.31550604 -0.13096581 0.054069877
-0.31567228 -0.13091803 0.054012962
-0.31587234 -0.13085105 0.054011296
-0.31605485 -0.13078751 0.054026984
-0.31624615 -0.13072786 0.05399422
-0.31643268 -0.13066542 0.053992592
-0.31662166 -0.13060574 0.053965598
-0.31681752 -0.13054115 0.05395703
-0.31699529 -0.13048327 0.053943902
-0.31716424 -0.13043784 0.053863931
-0.31735766 -0.13036017 0.053953364
-0.31754071 -0.13030462 0.053911395
-0.31770205 -0.13026746 0.053791091
-0.31790525 -0.13019516 0.053819396
-0.31807667 -0.13013926 0.053807437
-0.31826714 -0.1300732 0.053821944
-0.31847417 -0.13000485 0.053813353
-0.31867623 -0.12994438 0.053760957
-0.31885019 -0.129886 0.053760525
-0.31904152 -0.1298244 0.053741593
-0.31923264 -0.12976056 0.053738803
-0.31940556 -0.12970841 0.053696863
-0.31959173 -0.12964003 0.053737901
-0.31977361 -0.12958355 0.05370516
-0.31994829 -0.12953213 0.053653989
-0.32012624 -0.12946765 0.053686969
-0.32035422 -0.12938818 0.053707149
-0.32052544 -0.12934035 0.053638697
-0.32071024 -0.1292811 0.053618632
-0.32091391 -0.12920997 0.053637721
-0.32109889 -0.12915066 0.053617645
-0.32130384 -0.12907842 0.053641338
-0.32146612 -0.12903263 0.053579826
-0.32166615 -0.12897234 0.053530902
-0.32182235 -0.12892334 0.0535063
-0.32201922 -0.12885711 0.053506956
-0.32223961 -0.12878378 0.053501785
-0.32241228 -0.12873007 0.053471372
-0.3225967 -0.12866949 0.053461686
-0.32278308 -0.12860478 0.0534762
-0.32296723 -0.12854902 0.053433079
-0.32313624 -0.12849459 0.053416509
-0.32332972 -0.12842555 0.053444851
-0.32352972 -0.12836349 0.0534086
-0.32369438 -0.12831771 0.053341314
-0.32389578 -0.12824357 0.053386927
-0.32409093 -0.12818624 0.053328782
-0.32428569 -0.12811857 0.053344436
-0.32448962 -0.12805094 0.053338151
-0.3246727 -0.12799226 0.053318094
-0.32485673 -0.12793066 0.053316474
-0.3250314 -0.12787987 0.053260695
-0.32521555 -0.12782036 0.053244092
-0.32543236 -0.12772878 0.053376134
-0.32559434 -0.12770008 0.053194713
-0.32578242 -0.12763302 0.053221911
-0.32598135 -0.12756641 0.05322025
-0.3261534 -0.12751815 0.053152952
-0.32635027 -0.12744339 0.053213559
-0.32655337 -0.1273793 0.053184219
-0.32675058 -0.12732455 0.053103019
-0.32691643 -0.12726595 0.053123351
-0.32710814 -0.12720421 0.053104419
-0.32730734 -0.12713587 0.053114291
-0.32749307 -0.12707958 0.053071167
-0.32769376 -0.12701009 0.053085655
-0.32790181 -0.1269401 0.053086277
-0.32807815 -0.12689023 0.053020116
-0.32825202 -0.12683284 0.053012758
-0.32845625 -0.12675677 0.053065278
-0.32863635 -0.12671135 0.052958757
-0.32884341 -0.12663874 0.052980144
-0.32902399 -0.12658533 0.052928954
-0.32923388 -0.12651047 0.05295955
-0.32940581 -0.12646076 0.052902631
-0.32959238 -0.12640043 0.05288602
-0.32977614 -0.12633695 0.052898236
-0.32998618 -0.12626237 0.052926529
-0.33017665 -0.12620448 0.052883394
-0.33037016 -0.1261459 0.052837938
-0.33054519 -0.12609009 0.052816741
-0.33073348 -0.12603049 0.05279091
-0.33094341 -0.12595463 0.05282842
-0.33112088 -0.12590781 0.052738048
-0.33131537 -0.12583959 0.05275831
-0.33151865 -0.12576956 0.052770473
-0.33172601 -0.12570338 0.052745737
-0.33189809 -0.12565216 0.052699193
-0.33207816 -0.12559794 0.052654922
-0.33227921 -0.12553355 0.052632514
-0.33248669 -0.12546048 0.0526562
-0.33265251 -0.12540923 0.052624654
-0.33286974 -0.12533191 0.052655227
-0.33306637 -0.12526965 0.052628215
-0.33325377 -0.12521151 0.052594312
-0.33345324 -0.1251488 0.052563831
-0.33367324 -0.12506792 0.052612849
-0.33383772 -0.12502317 0.052538648
-0.33399621 -0.12498322 0.052444868
-0.33421806 -0.12489943 0.052510016
-0.33441246 -0.12484105 0.05246111
-0.24202049 -0.15793326 0.038023498
-0.24223474 -0.15787557 0.037922639
-0.24243896 -0.15781765 0.037847176
-0.24264354 -0.15775862 0.037778627
-0.24284992 -0.15769982 0.037704308
-0.24303953 -0.15764041 0.037673857
-0.24322733 -0.15758228 0.037638791
-0.24340919 -0.15752271 0.037627961
-0.24359712 -0.15746224 0.037609041
-0.2437821 -0.15740424 0.037579749
-0.24396411 -0.15734364 0.037575826
-0.24413431 -0.15728503 0.03758578
-0.24431229 -0.15722562 0.037583031
-0.24448264 -0.15716714 0.037591822
-0.24465698 -0.15710764 0.037598308
-0.2448175 -0.15704739 0.037642874
-0.24497755 -0.15698712 0.037688591
-0.24513717 -0.15692684 0.037735466
-0.24529962 -0.15686545 0.037783496
-0.24545307 -0.15680479 0.037847683
-0.24560615 -0.15674278 0.037922248
-0.24575479 -0.15668176 0.038000282
-0.24589624 -0.15662022 0.038099095
-0.24604663 -0.15655927 0.038172517
-0.24619271 -0.15649799 0.038258623
-0.24633925 -0.1564367 0.038343593
-0.24648556 -0.15637402 0.038438924
-0.24662864 -0.15631373 0.038525052
-0.24677557 -0.15625101 0.038619235
-0.24691239 -0.15618743 0.038743421
-0.24704692 -0.15612493 0.038865313
-0.24717985 -0.15606087 0.039002195
-0.24731284 -0.15599808 0.039129853
-0.2474412 -0.15593342 0.039281741
-0.24756502 -0.15586962 0.039438251
-0.24768835 -0.15580566 0.039597068
-0.24780631 -0.15573828 0.039792798
-0.24792382 -0.15567349 0.039971225
-0.24803473 -0.15560651 0.040180806
-0.24317439 -0.15441389 0.060111426
-0.24337745 -0.15434605 0.060108602
-0.24358433 -0.15427874 0.060093097
-0.24379392 -0.15421182 0.060068354
-0.24400342 -0.1541433 0.06005514
-0.24420291 -0.15407535 0.060061567
-0.24441849 -0.15400773 0.060027584
-0.24461785 -0.15394507 0.059997104
-0.24482122 -0.15388303 0.059952769
-0.24503176 -0.15380991 0.059969537
-0.24522994 -0.15374909 0.059928685
-0.24544573 -0.15367159 0.059963897
-0.24565172 -0.15361553 0.059871122
-0.24584806 -0.15354604 0.059896
-0.2460115 -0.1534843 0.059944026
-0.24625707 -0.15342182 0.059802726
-0.24648535 -0.15334471 0.059805609
-0.24668349 -0.15327395 0.059835099
-0.24689811 -0.15320566 0.059808038
-0.24709606 -0.15313858 0.059812147
-0.24731328 -0.15307269 0.059762027
-0.2475045 -0.15301195 0.059737328
-0.24772426 -0.15294307 0.059702184
-0.24788524 -0.15288316 0.059743293
-0.24811503 -0.1528106 0.059710428
-0.24829705 -0.15274869 0.05971574
-0.2484666 -0.15268475 0.059764892
-0.24869388 -0.15263054 0.059608657
-0.24891078 -0.15255626 0.059618492
-0.24909019 -0.15249604 0.059618037
-0.24930544 -0.15242346 0.059619807
-0.24951179 -0.15235502 0.059613518
-0.2497045 -0.15228984 0.059616495
-0.24993668 -0.15221681 0.059581324
-0.25012484 -0.15215854 0.059546262
-0.25031939 -0.15209587 0.059527319
-0.25054181 -0.15202709 0.059485249
-0.25073609 -0.15195876 0.059506673
-0.25094128 -0.15188876 0.059514232
-0.2511149 -0.15183391 0.059489571
-0.25130859 -0.15176563 0.059512153
-0.25154248 -0.15169971 0.059422776
-0.25173134 -0.15164237 0.059379645
-0.25192896 -0.15156329 0.059469085
-0.25210816 -0.15151 0.059420198
-0.25231332 -0.1514385 0.059438139
-0.25253275 -0.15138219 0.059315361
-0.25277558 -0.15130313 0.05929745
-0.25295055 -0.15123525 0.059361592
-0.25315005 -0.15116681 0.059371464
-0.25332251 -0.15111873 0.059301846
-0.25354898 -0.1510424 0.059303589
-0.25373864 -0.15098216 0.05927889
-0.25392511 -0.15091711 0.059295718
-0.25416002 -0.15084513 0.0592467
-0.25434127 -0.15078102 0.059269305
-0.25456065 -0.15071802 0.059193812
-0.25472736 -0.15066303 0.059186473
-0.25493872 -0.15059617 0.059157111
-0.25510883 -0.15053794 0.059164755
-0.25533804 -0.15046312 0.059149198
-0.25552309 -0.15040036 0.059153344
-0.25572324 -0.15034167 0.059092872
-0.25591248 -0.15028453 0.059047431
-0.2561174 -0.15022311 0.058995023
-0.256309 -0.15014718 0.059076421
-0.25646847 -0.15008418 0.059142899
-0.25669822 -0.15001899 0.059058148
-0.25686997 -0.14995953 0.059070393
-0.25703943 -0.14989498 0.059124164
-0.25726339 -0.14983076 0.059046347
-0.25746667 -0.14977184 0.058980111
-0.25770488 -0.14969417 0.05896337
-0.2579132 -0.14963029 0.058920182
-0.25809729 -0.14956589 0.058938175
-0.25827187 -0.14951237 0.058901984
-0.2584804 -0.1494512 0.058839194
-0.25867236 -0.14938022 0.058884829
-0.25888932 -0.14931737 0.058813952
-0.25904968 -0.14926665 0.058791637
-0.25925481 -0.14920728 0.058724251
-0.2594229 -0.14913321 0.058848359
-0.25959879 -0.14907122 0.058868676
-0.25979108 -0.14901011 0.058843981
-0.26003486 -0.14895983 0.058620825
-0.26022518 -0.14887895 0.058740266
-0.26042354 -0.14881793 0.058700562
-0.26059964 -0.14875881 0.058700122
-0.26083493 -0.14868931 0.058632649
-0.26102152 -0.14861932 0.058684073
-0.26120004 -0.14856382 0.05865249
-0.26141173 -0.14849587 0.058630042
-0.26159632 -0.1484277 0.058673404
-0.26177579 -0.14837791 0.058599152
-0.26198322 -0.14830601 0.058614776
-0.26216117 -0.14824301 0.058637396
-0.26234767 -0.14818089 0.058633458
-0.26255953 -0.14812401 0.058532614
-0.26275361 -0.14806262 0.05850561
-0.2629436 -0.14800228 0.058480915
-0.26312572 -0.1479387 0.058497749
-0.26331154 -0.14787404 0.058513429
-0.26349244 -0.14781266 0.05851759
-0.26369691 -0.1477509 0.05846864
-0.26388597 -0.14769332 0.058426656
-0.26406908 -0.14763317 0.058416974
-0.26425964 -0.14756823 0.058423415
-0.26446307 -0.14749815 0.058435585
-0.2646541 -0.14743631 0.058418959
-0.26483682 -0.14737628 0.058409281
-0.26503399 -0.1473119 0.058396101
-0.26521564 -0.14725436 0.058371432
-0.26544034 -0.14718646 0.058317825
-0.26561618 -0.14712334 0.058346208
-0.2658112 -0.14706115 0.058322657
-0.2659995 -0.14700155 0.058296815
-0.26617557 -0.14694163 0.058302145
-0.26636338 -0.14688791 0.058235943
-0.26654676 -0.14681998 0.058280457
-0.26675645 -0.14675713 0.058226891
-0.26694277 -0.14669392 0.05823103
-0.26712728 -0.14663281 0.058224805
-0.26732647 -0.14657068 0.058190867
-0.26750803 -0.1465081 0.058201939
-0.26770055 -0.14645182 0.058142651
-0.26790673 -0.14638148 0.058150206
-0.26810235 -0.14632416 0.05809091
-0.26828688 -0.14626041 0.058103122
-0.2684747 -0.14619541 0.058116488
-0.26866937 -0.14613792 0.058060654
-0.26885679 -0.14607614 0.058052115
-0.26905096 -0.14601865 0.057997432
-0.26921165 -0.14596014 0.058029313
-0.26940766 -0.14590073 0.057983849
-0.26959488 -0.14583233 0.058022585
-0.26978278 -0.14577122 0.05800828
-0.26997301 -0.14571176 0.057976663
-0.27016297 -0.14565226 0.057946213
-0.27036351 -0.14558609 0.05793763
-0.27054149 -0.14552914 0.057917587
-0.27071673 -0.14547032 0.05791714
-0.27091092 -0.14541069 0.057877451
-0.27109936 -0.14535069 0.057853919
-0.27130535 -0.14527796 0.057878766
-0.27149203 -0.14522429 0.057814877
-0.27166587 -0.14516856 0.057795994
-0.27185756 -0.14510013 0.05782434
-0.27204642 -0.14504099 0.057793889
-0.2722373 -0.1449797 0.057773799
-0.27240592 -0.14491624 0.05782181
-0.27260104 -0.14486644 0.057710618
-0.27278829 -0.14481045 0.05766172
-0.27299371 -0.14472972 0.057744227
-0.27316841 -0.14467549 0.057712656
-0.27334934 -0.14461853 0.057685688
-0.27354565 -0.14455034 0.057701334
-0.27371225 -0.14450178 0.057649028
-0.27392504 -0.14442742 0.057669248
-0.27410248 -0.14436769 0.057669956
-0.27426276 -0.14432664 0.057579614
-0.27445501 -0.14425492 0.057629868
-0.27464604 -0.1441952 0.057598252
-0.27483034 -0.14413351 0.057596643
-0.275013 -0.14407481 0.057577733
-0.27521873 -0.14401197 0.057533391
-0.27539515 -0.14395177 0.057539869
-0.27558368 -0.14389013 0.057527862
-0.2757611 -0.14382632 0.0575574
-0.27594048 -0.14377412 0.057500448
-0.27612534 -0.14370391 0.057557639
-0.27628216 -0.14364177 0.057624128
-0.27651513 -0.14358565 0.057467878
-0.27671632 -0.14351894 0.057461604
-0.27688596 -0.14346656 0.057428889
-0.27706769 -0.1434028 0.057448037
-0.27723974 -0.14334831 0.057424538
-0.27742556 -0.14329493 0.057360664
-0.27762693 -0.14322898 0.05734862
-0.27783 -0.14315984 0.057355035
-0.27800381 -0.14309707 0.057385728
-0.27818736 -0.14304152 0.0573426
-0.27836749 -0.14298154 0.057338692
-0.27853826 -0.14292619 0.057324424
-0.27873546 -0.14286081 0.057318162
-0.27892706 -0.14280549 0.05725427
-0.27911898 -0.14273877 0.057269931
-0.27928272 -0.14267957 0.057299495
-0.27948144 -0.14262937 0.057182536
-0.27967396 -0.14256378 0.057188965
-0.27985132 -0.1425067 0.057171226
-0.28002226 -0.14245258 0.057147741
-0.28020543 -0.14239192 0.057141513
-0.28037947 -0.14233644 0.057120323
-0.28057832 -0.14226119 0.057179786
-0.28077269 -0.1422061 0.057107799
-0.28097022 -0.14215712 0.056985084
-0.28115979 -0.14208694 0.05703073
-0.28134003 -0.1420289 0.057012979
-0.28154513 -0.14195776 0.057028603
-0.28172818 -0.14189763 0.057018921
-0.2819185 -0.14183637 0.056999989
-0.28210136 -0.14177613 0.056991465
-0.28229019 -0.14172027 0.056937948
-0.28246981 -0.14165327 0.056984767
-0.28261876 -0.14159559 0.057038594
-0.28281686 -0.14153482 0.056997743
-0.28302103 -0.14147054 0.056967251
-0.28320807 -0.14141151 0.056940254
-0.28339207 -0.14135467 0.056905199
-0.28357589 -0.1412977 0.056871302
-0.28373691 -0.14124103 0.056889351
-0.28392315 -0.14118065 0.056873892
-0.2841014 -0.14111918 0.056884971
-0.28431261 -0.14105499 0.056837168
-0.28449556 -0.14099653 0.056815948
-0.28467765 -0.14093557 0.056814335
-0.284861 -0.1408786 0.05678159
-0.28503686 -0.14082186 0.056765012
-0.28520727 -0.14077185 0.056713842
-0.28539631 -0.14070988 0.056702994
-0.28557318 -0.14064395 0.056748673
-0.28577265 -0.14057979 0.056728568
-0.28594992 -0.14051473 0.05676733
-0.28612807 -0.14046817 0.056673478
-0.28629994 -0.14041097 0.056669593
-0.28649125 -0.14034365 0.056691024
-0.28668433 -0.14028455 0.056650177
-0.28683704 -0.14023952 0.056605972
-0.28704318 -0.1401749 0.056573175
-0.28723177 -0.14011225 0.056568086
-0.28741395 -0.14005388 0.056548029
-0.28757918 -0.1400007 0.05653147
-0.28778735 -0.13992773 0.056552853
-0.28797626 -0.13986759 0.056529321
-0.2881574 -0.13980222 0.056561153
-0.28831071 -0.13973783 0.05665186
-0.28852117 -0.13968256 0.056542944
-0.28868103 -0.13964589 0.056422621
-0.28884363 -0.13960391 0.056333423
-0.28907177 -0.13952211 0.056369752
-0.28925297 -0.13945621 0.056405038
-0.28939861 -0.13942334 0.05629167
-0.28962007 -0.13934231 0.0563384
-0.2897813 -0.13928476 0.056362201
-0.28995255 -0.13922042 0.056410205
-0.29016447 -0.13914928 0.056409668
-0.29033941 -0.13908957 0.05641615
-0.29053128 -0.13903269 0.056362621
-0.29071295 -0.13898103 0.056296449
-0.29089451 -0.13892564 0.056256782
-0.29107606 -0.13886487 0.05625518
-0.29122803 -0.13878641 0.056448512
-0.29143924 -0.13874182 0.056262329
-0.29162064 -0.13868649 0.056222674
-0.29180184 -0.1386327 0.056172635
-0.29198715 -0.13856412 0.056217141
-0.29216832 -0.13850969 0.056171719
-0.29232246 -0.13846481 0.056122903
-0.29250374 -0.1384069 0.056101691
-0.29269633 -0.13833213 0.056172695
-0.2928842 -0.13827381 0.056138791
-0.29307836 -0.13821681 0.056080647
-0.29325569 -0.13816449 0.056029469
-0.29343432 -0.13810092 0.056054384
-0.29361305 -0.13803734 0.056079306
-0.29380432 -0.13797641 0.056055758
-0.29398599 -0.13791527 0.056056455
-0.29416737 -0.13785601 0.056044474
-0.29434857 -0.13779797 0.05602441
-0.29452333 -0.13774046 0.056015901
-0.29467663 -0.13769668 0.055961318
-0.29487318 -0.13762368 0.056010414
-0.29507685 -0.13756317 0.055954553
-0.29524603 -0.13750213 0.055984113
-0.29542321 -0.13744804 0.055945609
-0.29562572 -0.13737778 0.055961251
-0.29580486 -0.13732861 0.055883538
-0.29598626 -0.13726902 0.05587386
-0.29616478 -0.13720877 0.055875726
-0.29634383 -0.13715881 0.05580378
-0.2965098 -0.13709934 0.055829875
-0.29671592 -0.13702771 0.055846661
-0.29688075 -0.13696176 0.055921201
-0.29704913 -0.13691667 0.05584006
-0.29724851 -0.13685858 0.055777296
-0.29741615 -0.13680476 0.055759579
-0.29758289 -0.13675386 0.05572341
-0.29777488 -0.13669939 0.055652589
-0.2979798 -0.13662243 0.055709727
-0.29816246 -0.13656865 0.055656232
-0.29833904 -0.1365056 0.055682305
-0.29851556 -0.13644309 0.055704925
-0.29870257 -0.13638505 0.055671021
-0.29885849 -0.13633926 0.0556245
-0.29903224 -0.13628487 0.055596389
-0.29923213 -0.13619915 0.05572734
-0.29943672 -0.13614959 0.055591922
-0.29959884 -0.13609467 0.05559497
-0.29976729 -0.1360388 0.055589937
-0.29995188 -0.13597912 0.055573333
-0.30014324 -0.13591717 0.055556707
-0.30033997 -0.13584918 0.055570047
-0.30051446 -0.13580009 0.055502735
-0.30070001 -0.13574517 0.055450372
-0.30087021 -0.13568527 0.05546955
-0.3010689 -0.13561971 0.055460986
-0.30123863 -0.13556781 0.055424809
-0.30142012 -0.13550869 0.055411674
-0.30159619 -0.13544893 0.055415843
-0.30177844 -0.13539463 0.055366948
-0.30196503 -0.13533691 0.05533189
-0.30214226 -0.1352748 0.055349901
-0.30232835 -0.13521217 0.055350583
-0.30249271 -0.13515945 0.055332877
-0.30268303 -0.13509411 0.055342775
-0.30286416 -0.13503036 0.055363074
-0.3030546 -0.13497068 0.05533262
-0.30324447 -0.13490108 0.055373654
-0.30342898 -0.13484764 0.05531323
-0.3036142 -0.13478726 0.055300083
-0.30379882 -0.13472807 0.055280011
-0.30398336 -0.13466907 0.055258796
-0.30418131 -0.13460067 0.055272132
-0.30436397 -0.13454524 0.055230167
-0.30452907 -0.13449146 0.055218212
-0.30468673 -0.1344562 0.055093288
-0.30485275 -0.13440064 0.055091724
-0.30505952 -0.13432175 0.055158079
-0.30525252 -0.13425288 0.055186421
-0.30543891 -0.13419098 0.055181339
-0.30561557 -0.13414572 0.055081733
-0.30579385 -0.13409291 0.055031702
-0.30598909 -0.13402526 0.055046201
-0.30615494 -0.13397498 0.055007741
-0.306319 -0.13392317 0.054984264
-0.30650774 -0.13385753 0.054999933
-0.3067199 -0.1337847 0.055010933
-0.30689076 -0.13373078 0.054986279
-0.30709419 -0.13365923 0.055008836
-0.30727598 -0.13360082 0.05498993
-0.30746815 -0.1335471 0.054913342
-0.30764365 -0.13349016 0.054899074
-0.30783117 -0.13342705 0.054899752
-0.30802095 -0.13336465 0.054890051
-0.30816785 -0.13333105 0.054778982
-0.30832037 -0.13329668 0.054659829
-0.30857098 -0.13319081 0.054812558
-0.30876136 -0.13312773 0.054806326
-0.30893031 -0.13307299 0.054792061
-0.30910957 -0.13300709 0.054831967
-0.3093192 -0.13293917 0.054814145
-0.30950001 -0.13288634 0.05475834
-0.30967504 -0.13283053 0.054737143
-0.30987257 -0.13276145 0.054756258
-0.31004879 -0.13270411 0.054743126
-0.31020355 -0.13266212 0.054672398
-0.31041342 -0.13259053 0.054679945
-0.31055585 -0.13255124 0.054619625
-0.31074986 -0.13247679 0.05468487
-0.31093445 -0.13241532 0.054680947
-0.31112808 -0.13235211 0.054667778
-0.31131485 -0.13230154 0.054581977
-0.31151792 -0.13222927 0.054610293
-0.31171557 -0.13216768 0.05457636
-0.31190142 -0.13210154 0.054602414
-0.31208286 -0.13204783 0.054551221
-0.3122701 -0.13198662 0.054539219
-0.31244695 -0.13192578 0.054549154
-0.31262037 -0.13187264 0.05451297
-0.31281018 -0.13180517 0.054539025
-0.31299213 -0.13174769 0.05451319
-0.31316724 -0.1316925 0.054487385
-0.31335413 -0.13163516 0.054448865
-0.31357342 -0.13155961 0.05446215
-0.31374979 -0.13149992 0.054465171
-0.3139227 -0.13143843 0.054488949
-0.31412345 -0.13137662 0.054449245
-0.31429797 -0.13132833 0.054376163
-0.31449902 -0.1312602 0.05438026
-0.31467733 -0.13120443 0.054350991
-0.31484833 -0.13115144 0.05431943
-0.3150211 -0.13109934 0.05427748
-0.31523126 -0.13102078 0.054333456
-0.31539699 -0.13096549 0.054330736
-0.31558582 -0.1308949 0.054381002
-0.31575954 -0.13085884 0.054223739
-0.31594291 -0.13079745 0.054222129
-0.31614804 -0.13071977 0.054283876
-0.31632197 -0.13067757 0.054169282
-0.31651935 -0.13060887 0.054186087
-0.31671739 -0.13054222 0.054186739
-0.3168678 -0.13049631 0.054154076
-0.31707826 -0.13042681 0.054145478
-0.31725803 -0.1303699 0.054120809
-0.31742761 -0.13031626 0.054097332
-0.31766415 -0.13023162 0.054133631
-0.31784523 -0.13017607 0.054096274
-0.31803504 -0.13011628 0.05406813
-0.31820002 -0.13006778 0.054019284
-0.31839004 -0.13000269 0.054028034
-0.31860143 -0.12992765 0.054056324
-0.31878296 -0.12987179 0.054020129
-0.31898293 -0.129804 0.054024234
-0.31916136 -0.12975147 0.053971902
-0.31931847 -0.12970135 0.053953052
-0.31951913 -0.12962811 0.05399406
-0.3197273 -0.12956199 0.053967025
-0.31990376 -0.12950915 0.053921606
-0.32007635 -0.12945056 0.053925786
-0.32027876 -0.12938082 0.05393796
-0.32046139 -0.12932654 0.053887926
-0.32063815 -0.12927587 0.053826362
-0.32082063 -0.12921461 0.053825907
-0.32101947 -0.12915115 0.053802345
-0.32118511 -0.12910226 0.053754646
-0.32139915 -0.12901668 0.053850971
-0.32160988 -0.12894857 0.053831995
-0.32181221 -0.12888883 0.053773832
-0.32198408 -0.12883849 0.053721517
-0.32214361 -0.12878886 0.05369344
-0.32236403 -0.12871145 0.053717095
-0.32255399 -0.12865029 0.053698167
-0.32273215 -0.12858053 0.053768065
-0.32291013 -0.12852667 0.053726111
-0.32313189 -0.12845731 0.0536898
-0.32332277 -0.12839551 0.053673178
-0.32349333 -0.12834007 0.053660072
-0.3236894 -0.12827785 0.053634211
-0.32386914 -0.1282203 0.053614151
-0.32406417 -0.12815484 0.05361367
-0.32424366 -0.12810408 0.053546332
-0.32444566 -0.12803218 0.053574659
-0.32462958 -0.12797518 0.053540759
-0.32481331 -0.12791416 0.053535677
-0.32502428 -0.12784269 0.053539764
-0.32520899 -0.12778512 0.053508166
-0.3254109 -0.12771799 0.053503048
-0.32560939 -0.12765825 0.05345412
-0.32577318 -0.12760751 0.053423729
-0.32596368 -0.12754275 0.053429019
-0.32614687 -0.12748878 0.053375512
-0.32633984 -0.12741584 0.053432684
-0.3265411 -0.1273558 0.053379141
-0.32674712 -0.12728746 0.053372853
-0.32693505 -0.12723142 0.053322803
-0.32712042 -0.12716968 0.05331888
-0.3272931 -0.12711336 0.053306919
-0.32750493 -0.1270362 0.05334904
-0.3276827 -0.12698536 0.053286329
-0.32786164 -0.1269315 0.053242061
-0.32809213 -0.1268422 0.053325664
-0.32826638 -0.12679647 0.053235281
-0.32846123 -0.12673467 0.053209424
-0.32867265 -0.12666042 0.053231958
-0.32885548 -0.1266015 0.0532142
-0.32905659 -0.12653449 0.053210232
-0.32923007 -0.12648755 0.053130239
-0.32942396 -0.1264174 0.053165495
-0.32964164 -0.1263458 0.053154577
-0.32982188 -0.12628938 0.053125292
-0.32999381 -0.12623821 0.053078745
-0.33019325 -0.12616932 0.053092077
-0.33039263 -0.12610239 0.053091571
-0.33058977 -0.12604111 0.053056493
-0.33077535 -0.12598047 0.053044494
-0.33098161 -0.12591712 0.053002462
-0.33118054 -0.12584724 0.053023867
-0.33137149 -0.12578951 0.052978419
-0.3315506 -0.12573087 0.052967601
-0.33175629 -0.12566461 0.052947477
-0.33195385 -0.12560156 0.052923918
-0.33214495 -0.12553857 0.052915365
-0.33235291 -0.12546532 0.052939057
-0.33254796 -0.12540983 0.052868228
-0.33274329 -0.1253418 0.052885041
-0.3329336 -0.12527972 0.052871875
-0.33313012 -0.12521443 0.052866776
-0.33334267 -0.1251362 0.052914664
-0.33352521 -0.12508409 0.052849635
-0.33370739 -0.12503225 0.052783452
-0.33391708 -0.12496007 0.052795604
-0.33412191 -0.12489361 0.052778956
-0.33432713 -0.12482179 0.052799188
-0.33450758 -0.12476809 0.052750308
-0.24207434 -0.15786655 0.038366426
-0.24229597 -0.1578103 0.038237825
-0.24250796 -0.15775011 0.038159993
-0.24271336 -0.15769228 0.038081028
-0.24292128 -0.15763345 0.038003206
-0.24311636 -0.15757419 0.037958868
-0.2433183 -0.1575141 0.037904132
-0.24351078 -0.1574562 0.037856337
-0.24369267 -0.15739661 0.037845489
-0.24387649 -0.1573372 0.037828855
-0.24405885 -0.15727781 0.03781569
-0.24423638 -0.1572182 0.037815228
-0.24441378 -0.15715867 0.037814755
-0.24458891 -0.15709907 0.037820067
