# .PCD v0.7 - Point Cloud Data file format
VERSION 0.7
FIELDS x y z
SIZE 4 4 4
TYPE F F F
COUNT 1 1 1
WIDTH 1312
HEIGHT 1
VIEWPOINT 0 0 0 1 0 0 0
POINTS 1312
DATA ascii
-0.34202898 -0.32359096 0.056876086
-0.34224904 -0.32361135 0.056764372
-0.34245664 -0.32361671 0.056761097
-0.34264755 -0.32361755 0.056787886
-0.34283754 -0.32362312 0.056780078
-0.3430298 -0.32361993 0.05683684
-0.34321395 -0.32363442 0.056762185
-0.34342965 -0.32364231 0.056741588
-0.34361133 -0.32363904 0.056797236
-0.34380084 -0.32365805 0.056690276
-0.34400088 -0.32365632 0.056737769
-0.34419137 -0.32367095 0.056663092
-0.3443968 -0.32368049 0.056628704
-0.34458554 -0.32369226 0.056574784
-0.34478027 -0.32369447 0.056592323
-0.344955 -0.32369918 0.056588057
-0.34514806 -0.32370558 0.056574479
-0.34535542 -0.32370448 0.056618478
-0.34557068 -0.32369667 0.056713179
-0.34576824 -0.32372281 0.05655545
-0.34596872 -0.3237308 0.056531459
-0.34615314 -0.32373402 0.056539819
-0.34633434 -0.3237381 0.056541279
-0.34654698 -0.32375091 0.056483798
-0.3467373 -0.3237513 0.05651404
-0.34693682 -0.32376775 0.056427795
-0.34713614 -0.32377398 0.056416482
-0.34733269 -0.32378265 0.056386746
-0.3475084 -0.32379258 0.056344427
-0.34768984 -0.32378754 0.05641276
-0.34790042 -0.32379672 0.056381803
-0.3480911 -0.32379854 0.05640167
-0.34827495 -0.32381332 0.056324717
-0.3484832 -0.32381523 0.056346804
-0.34867817 -0.32382011 0.05634474
-0.34885955 -0.32382703 0.056325451
-0.34902865 -0.32382721 0.056353487
-0.34923619 -0.32384086 0.056289114
-0.34943599 -0.32385212 0.056240909
-0.3496255 -0.3238655 0.056175463
-0.34982896 -0.32386225 0.056234464
-0.35002071 -0.32387021 0.056209356
-0.35020408 -0.32387167 0.056230418
-0.35039991 -0.32386371 0.056322891
-0.35057801 -0.32387462 0.056273643
-0.35075489 -0.32387874 0.056273974
-0.35094675 -0.32388887 0.056232728
-0.35114014 -0.3239105 0.056107301
-0.351336 -0.32392687 0.056021065
-0.35152996 -0.32392952 0.056035157
-0.35174605 -0.32394135 0.055985723
-0.35194355 -0.32394487 0.05599403
-0.3521587 -0.32394865 0.056003403
-0.35234168 -0.32394683 0.056048673
-0.35251057 -0.32394323 0.056104384
-0.35271931 -0.3239547 0.056056134
-0.35291368 -0.32396382 0.05602295
-0.35310411 -0.32396609 0.056039359
-0.35327691 -0.32396743 0.056059312
-0.35346082 -0.32398695 0.055947766
-0.35366878 -0.32398617 0.055989459
-0.35384157 -0.32398331 0.056040544
-0.35403556 -0.32400745 0.055896666
-0.35424688 -0.32402167 0.055828813
-0.35444096 -0.32401335 0.055923603
-0.35462424 -0.32401797 0.055921599
-0.35481054 -0.32403487 0.055829652
-0.35501873 -0.32403317 0.055878256
-0.35520947 -0.32403058 0.055930406
-0.35539937 -0.32404128 0.055884555
-0.35557583 -0.32404211 0.055909101
-0.35575524 -0.32405007 0.055881742
-0.35595208 -0.32405937 0.055847395
-0.35614491 -0.32407251 0.055784233
-0.35632384 -0.3240822 0.055744193
-0.35651761 -0.32408547 0.055753671
-0.35670567 -0.32410493 0.055643264
-0.35690078 -0.32412219 0.055550113
-0.35710049 -0.32413128 0.055518061
-0.35729045 -0.32413495 0.055524088
-0.35749513 -0.32413533 0.05555658
-0.35769832 -0.32414418 0.055526808
-0.35789326 -0.32414091 0.055584703
-0.35808364 -0.32414317 0.055601113
-0.35828561 -0.32414132 0.055649746
-0.35848081 -0.32415405 0.055590041
-0.35862446 -0.32418969 0.055353008
-0.35882613 -0.32418844 0.055397034
-0.35902727 -0.32417607 0.055522926
-0.35921279 -0.3241837 0.05549901
-0.35941106 -0.32420889 0.055348195
-0.35959768 -0.32419947 0.055449948
-0.35978866 -0.32420015 0.055477876
-0.36000198 -0.32420909 0.055449218
-0.36019707 -0.32420832 0.055488657
-0.36036319 -0.32420969 0.055507485
-0.36054724 -0.32422119 0.05545475
-0.360744 -0.32422644 0.05545038
-0.36094153 -0.32422951 0.055462133
-0.3611162 -0.32423702 0.05543711
-0.36130375 -0.32424784 0.055390112
-0.36149079 -0.32425976 0.055335056
-0.36169723 -0.32426709 0.055316802
-0.3618874 -0.32427955 0.05525827
-0.36209586 -0.32428178 0.055278048
-0.36227995 -0.32428309 0.055300254
-0.36249298 -0.32428339 0.055335
-0.36265978 -0.32429197 0.055300795
-0.36284295 -0.32430348 0.055248059
-0.36303851 -0.32431105 0.055226393
-0.3632091 -0.32431126 0.055254422
-0.3634021 -0.32432407 0.055193566
-0.36359337 -0.32433295 0.055161547
-0.36378622 -0.32433856 0.055153735
-0.36396676 -0.32434732 0.055120606
-0.3642 -0.32435063 0.055136815
-0.36439213 -0.32435763 0.055118632
-0.36458656 -0.32435387 0.055179987
-0.3647587 -0.32435209 0.055223003
-0.36492088 -0.32434282 0.055319101
-0.36510023 -0.32435393 0.055268683
-0.36529139 -0.32436293 0.055235505
-0.36548328 -0.3243646 0.055256523
-0.36567435 -0.32436782 0.055266012
-0.36588317 -0.32439452 0.055105928
-0.36606511 -0.32440647 0.055049736
-0.36625496 -0.32441702 0.055005036
-0.36644158 -0.32442689 0.054964975
-0.36664325 -0.32443005 0.054976709
-0.36681479 -0.32444096 0.054926336
-0.36700898 -0.32443938 0.05497155
-0.36724156 -0.32444468 0.054972779
-0.36740324 -0.32444909 0.054968569
-0.3675811 -0.32444069 0.055061128
-0.36777088 -0.32444605 0.055054482
-0.36797133 -0.32445657 0.05501204
-0.36815763 -0.32447159 0.054933928
-0.3683283 -0.32448325 0.054877788
-0.36851275 -0.32450026 0.054784693
-0.36872688 -0.3245064 0.054776777
-0.3689149 -0.32450923 0.054788578
-0.36911467 -0.32451549 0.054777276
-0.36929423 -0.32452452 0.054741852
-0.36948979 -0.32452708 0.054757088
-0.36968532 -0.32452977 0.054771163
-0.36987406 -0.32454076 0.054723009
-0.37006849 -0.32454485 0.054726716
-0.37025401 -0.32454684 0.054744296
-0.37042934 -0.32455659 0.054703128
-0.37061998 -0.32456934 0.054642286
-0.37081513 -0.32458508 0.054560669
-0.37101182 -0.32458669 0.054582816
-0.37119827 -0.32459185 0.054577332
-0.3713918 -0.32459715 0.054571826
-0.37156686 -0.32459903 0.054588303
-0.37174863 -0.32460549 0.054572467
-0.37194461 -0.32460836 0.05458539
-0.37212363 -0.32461771 0.05454766
-0.37231427 -0.32463002 0.054490276
-0.37250802 -0.32463157 0.054512434
-0.3726981 -0.32463697 0.054505788
-0.37289065 -0.32463989 0.054517578
-0.37308839 -0.32464859 0.054487832
-0.37327439 -0.32466173 0.054423556
-0.37345514 -0.32466924 0.054399651
-0.37365147 -0.32466868 0.054437935
-0.37384915 -0.32467049 0.054458931
-0.37403178 -0.32468668 0.054371595
-0.37421253 -0.32469764 0.054322336
-0.37440449 -0.32470152 0.054327205
-0.37460765 -0.32469842 0.054385066
-0.37479985 -0.3247056 0.054365724
-0.37498006 -0.32472032 0.054288782
-0.37516832 -0.32472768 0.054267161
-0.375357 -0.32473147 0.054272041
-0.37556881 -0.3247214 0.054382898
-0.37576389 -0.32473254 0.054334715
-0.37594339 -0.32475087 0.054231267
-0.3761341 -0.32475626 0.054224618
-0.37632567 -0.32476404 0.05420066
-0.37651089 -0.32477105 0.054181352
-0.37670875 -0.32477364 0.054196574
-0.37691915 -0.32477197 0.054245178
-0.37708521 -0.32479185 0.054127943
-0.37728417 -0.3247937 0.054148927
-0.37747246 -0.3248072 0.054082327
-0.37765095 -0.32481968 0.054021545
-0.37785059 -0.32481244 0.054109402
-0.37805548 -0.32480705 0.054184537
-0.37825447 -0.32482082 0.054117896
-0.37841168 -0.32484689 0.053953439
-0.37862107 -0.32484114 0.054032024
-0.37881017 -0.32485104 0.053991936
-0.37898466 -0.32486641 0.053909265
-0.37917769 -0.3248733 0.053892225
-0.37938082 -0.3248727 0.053931631
-0.37956977 -0.32487729 0.053930752
-0.37978131 -0.3248708 0.054015093
-0.37998646 -0.32487452 0.054023363
-0.38015148 -0.32490188 0.053850804
-0.38034427 -0.32490391 0.053869497
-0.3805553 -0.32490352 0.053908873
-0.38074517 -0.324913 0.05387225
-0.3809509 -0.32491654 0.053881668
-0.38113597 -0.32492936 0.053819694
-0.38131556 -0.32493824 0.053785421
-0.3815178 -0.32493421 0.053850204
-0.38170555 -0.32495272 0.053746715
-0.38188246 -0.32496092 0.053717066
-0.38209608 -0.32495952 0.053764492
-0.38227791 -0.32497191 0.053704854
-0.38248003 -0.32496849 0.053765021
-0.38269487 -0.3249715 0.053780161
-0.38286003 -0.32498994 0.053673316
-0.38308069 -0.32499167 0.053698808
-0.38327035 -0.32500145 0.053659879
-0.38344806 -0.3250117 0.053615231
-0.38363099 -0.32501629 0.053613227
-0.38383028 -0.32502237 0.053603083
-0.38402367 -0.32502753 0.053598721
-0.38423109 -0.32503098 0.053609286
-0.38442144 -0.32503358 0.053623386
-0.38461143 -0.32504553 0.053568315
-0.38480479 -0.32505322 0.053545509
-0.38499314 -0.32506388 0.053499669
-0.38519126 -0.32506648 0.053514887
-0.38537794 -0.32508042 0.05344484
-0.38554752 -0.3250933 0.05337948
-0.38573834 -0.32509369 0.053409718
-0.38598955 -0.32507217 0.053611476
-0.38617754 -0.32509634 0.053466477
-0.38637251 -0.32510984 0.053401005
-0.38656047 -0.32510576 0.053463541
-0.38675123 -0.32511526 0.053426914
-0.38695905 -0.32512578 0.053385597
-0.38715291 -0.32512718 0.053408906
-0.38734299 -0.32513711 0.053368825
-0.3875342 -0.32514223 0.053364471
-0.38772675 -0.32515708 0.053288635
-0.38789731 -0.32516733 0.05324287
-0.38811976 -0.32516173 0.053322539
-0.38833505 -0.32516226 0.053356126
-0.38850975 -0.32517651 0.053281531
-0.38871071 -0.3251828 0.053270221
-0.38891411 -0.32518381 0.053298101
-0.3890931 -0.32519379 0.053255752
-0.38931757 -0.32519388 0.053293914
-0.38953668 -0.32517505 0.053470448
-0.38966942 -0.32522109 0.053155068
-0.38986704 -0.32522148 0.053186432
-0.3900806 -0.32522556 0.053193502
-0.39029878 -0.32523319 0.053175192
-0.39049327 -0.3252393 0.053163916
-0.39067963 -0.32525152 0.05310655
-0.39088488 -0.32525617 0.053107902
-0.39108983 -0.32525721 0.053135775
-0.39125904 -0.32527795 0.053012766
-0.39145109 -0.32527789 0.053046469
-0.39165553 -0.32528126 0.053057041
-0.39185432 -0.32528749 0.053045742
-0.39204854 -0.32529595 0.053017166
-0.39223307 -0.32530358 0.052993253
-0.39241353 -0.325315 0.052940525
-0.39257914 -0.32533532 0.052819844
-0.39281622 -0.32531989 0.052974395
-0.39305499 -0.32531485 0.053052835
-0.3932229 -0.32533774 0.052913703
-0.39342913 -0.32534087 0.052926574
-0.39360064 -0.32535836 0.052827775
-0.39380902 -0.32536057 0.052847553
-0.3939878 -0.3253729 0.052787926
-0.39414012 -0.32539198 0.052674219
-0.39439842 -0.32537344 0.05285519
-0.39459646 -0.32538593 0.052797768
-0.39478916 -0.32539907 0.052734613
-0.39500344 -0.3254008 0.052758984
-0.39518809 -0.32540888 0.0527316
-0.39540073 -0.3254098 0.052761741
-0.39560378 -0.32541502 0.0527585
-0.39578459 -0.32542834 0.052691936
-0.39598194 -0.32543957 0.052643742
-0.39619914 -0.3254354 0.052711915
-0.3964051 -0.32543963 0.052716713
-0.39658886 -0.32545677 0.052622467
-0.3967838 -0.32546243 0.052614648
-0.396999 -0.32546121 0.05266092
-0.39721468 -0.32546988 0.052634545
-0.39740771 -0.32547489 0.052631341
-0.39762342 -0.32548529 0.052592292
-0.39781293 -0.32549348 0.052564889
-0.39800543 -0.32549721 0.052570909
-0.39823326 -0.32549787 0.052605599
-0.39840046 -0.32551697 0.052494124
-0.39861059 -0.32552174 0.052495454
-0.39879614 -0.32552531 0.052501511
-0.39901012 -0.32553348 0.052478604
-0.39919144 -0.32554522 0.052423574
-0.39941582 -0.32554454 0.052467503
-0.39959383 -0.32555452 0.052425161
-0.39980078 -0.32556251 0.052402288
-0.40001193 -0.32556418 0.052426677
-0.40021008 -0.32557571 0.052376173
-0.40039593 -0.32558429 0.052345328
-0.40062547 -0.32559454 0.05230967
-0.40080327 -0.32560012 0.052299622
-0.40102059 -0.32560131 0.052328583
-0.40122536 -0.32560894 0.05230803
-0.40140414 -0.32562345 0.052232262
-0.40161008 -0.32562765 0.052237064
-0.40181887 -0.32562628 0.052283365
-0.40203622 -0.32563093 0.052286968
-0.4022457 -0.32564008 0.052256014
-0.40241042 -0.32565692 0.052160706
-0.40261933 -0.32566184 0.052160881
-0.40284202 -0.32566771 0.052156381
-0.4029983 -0.32568169 0.052080713
-0.40325448 -0.32567096 0.052204046
-0.40344188 -0.32567957 0.052173194
-0.40364742 -0.32568753 0.052150339
-0.40384343 -0.32570043 0.052089468
-0.40403664 -0.32570997 0.052052829
-0.40422666 -0.32571632 0.052039254
-0.40445688 -0.32571998 0.052052021
-0.40466344 -0.32572782 0.05203031
-0.40487784 -0.32573727 0.051998172
-0.4050841 -0.32574239 0.051996063
-0.40527108 -0.32575008 0.05197214
-0.40549299 -0.3257556 0.051969953
-0.40566155 -0.32576689 0.051916122
-0.40586373 -0.32577369 0.051901348
-0.40610451 -0.32577717 0.051917523
-0.40628263 -0.32578948 0.051857896
-0.40649477 -0.32578883 0.051899567
-0.40672037 -0.3257935 0.05190428
-0.40692118 -0.32580245 0.051873371
-0.30007583 -0.32214814 0.060206629
-0.30027992 -0.32214603 0.060257539
-0.30049178 -0.3221471 0.060286518
-0.3007732 -0.32217494 0.060130648
-0.30099559 -0.32218048 0.060128443
-0.30119577 -0.32217702 0.060188606
-0.30145422 -0.32219756 0.060082436
-0.3016642 -0.32219827 0.060113721
-0.3018789 -0.32220095 0.060131151
-0.302113 -0.3222118 0.060091972
-0.30233127 -0.32221615 0.060097858
-0.30258039 -0.32223192 0.060025167
-0.3028053 -0.32223925 0.060010262
-0.30302876 -0.32224607 0.05999881
-0.30324122 -0.32225484 0.059971273
-0.30347767 -0.32227722 0.059847906
-0.30371115 -0.32228538 0.059828341
-0.30393392 -0.32227916 0.059912622
-0.30414391 -0.32228065 0.059938148
-0.30437541 -0.32228985 0.059910528
-0.30460182 -0.32229865 0.059885219
-0.30473733 -0.32226771 0.06013599
-0.3050456 -0.32231253 0.059860047
-0.30528027 -0.32232529 0.059807032
-0.30549031 -0.32232726 0.059829094
-0.30570656 -0.32233202 0.059831522
-0.30595452 -0.32235104 0.059734628
-0.30617207 -0.32235491 0.059743963
-0.3063803 -0.32235634 0.059769504
-0.30660671 -0.32236606 0.059737287
-0.3068274 -0.3223733 0.059722394
-0.30706817 -0.32238981 0.059642836
-0.3072558 -0.32238212 0.05973189
-0.30749276 -0.32239711 0.059662715
-0.30771002 -0.32240316 0.05965592
-0.30793783 -0.32241246 0.059627153
-0.30817205 -0.32242662 0.059563763
-0.30837697 -0.32242718 0.059595078
-0.30859303 -0.32243305 0.059589438
-0.30872533 -0.32241538 0.059742182
-0.30902171 -0.32244515 0.059574705
-0.30924395 -0.32245243 0.059559815
-0.30946374 -0.32246041 0.059539154
-0.30969685 -0.32247314 0.059486151
-0.30991274 -0.32247946 0.059477057
-0.31013077 -0.32248694 0.059459869
-0.31036112 -0.32250053 0.059399962
-0.31057867 -0.32250801 0.059382774
-0.31080672 -0.32252073 0.059328645
-0.31100479 -0.32251692 0.05939113
-0.31120887 -0.32251793 0.059418984
-0.31144449 -0.3225348 0.059335984
-0.31166136 -0.3225424 0.059317648
-0.31189203 -0.32255709 0.059249662
-0.31209379 -0.32255727 0.059283298
-0.31231266 -0.3225643 0.05926957
-0.31252581 -0.32257041 0.059261642
-0.31273654 -0.32257536 0.059261788
-0.31295729 -0.32258558 0.059224986
-0.31316131 -0.32258722 0.059248231
-0.31338984 -0.32260171 0.059181407
-0.31360903 -0.32260954 0.059161909
-0.31383693 -0.322624 0.059095092
-0.31403536 -0.32262301 0.059136815
-0.31424975 -0.32263055 0.059118494
-0.31448379 -0.32264674 0.059040118
-0.31468093 -0.32264525 0.05908531
-0.31489265 -0.32265162 0.059075076
-0.31510055 -0.32265604 0.059078693
-0.31532687 -0.32266858 0.059025723
-0.31553233 -0.32267186 0.059037432
-0.31575254 -0.3226833 0.058991402
-0.31596625 -0.32269132 0.058969628
-0.3161974 -0.32270712 0.058893561
-0.31638911 -0.32271129 0.058896113
-0.31658769 -0.32270277 0.058993191
-0.31678656 -0.32270271 0.059027985
-0.3170082 -0.32271358 0.058986574
-0.3172189 -0.32272041 0.058972888
-0.31744927 -0.32273871 0.058878377
-0.3176626 -0.32274732 0.058851983
-0.31787562 -0.32275376 0.058841746
-0.31808603 -0.32276088 0.058825754
-0.31829962 -0.32277 0.058795899
-0.31849754 -0.32276991 0.058830712
-0.3187165 -0.32278025 0.05879277
-0.31891996 -0.32278362 0.058803327
-0.31912982 -0.32279089 0.058786184
-0.31936619 -0.32281435 0.058654744
-0.31956327 -0.3228119 0.058706854
-0.31978345 -0.32282588 0.058642372
-0.31997928 -0.32282498 0.058682956
-0.32018688 -0.32283142 0.058671594
-0.32039109 -0.32283354 0.058691375
-0.32061067 -0.32284766 0.05862575
-0.32081804 -0.32285425 0.058613233
-0.32102245 -0.32285905 0.058613408
-0.32122314 -0.3228592 0.058647044
-0.32144707 -0.32287672 0.058557186
-0.32166815 -0.32289258 0.058478862
-0.32186639 -0.32289377 0.058504447
-0.32206282 -0.32289383 0.058538109
-0.32227135 -0.32290187 0.058515199
-0.32249156 -0.32291538 0.058454189
-0.3226831 -0.32291234 0.058509782
-0.32288772 -0.32291806 0.058503043
-0.32311028 -0.32293603 0.058409721
-0.32330707 -0.32293418 0.058457222
-0.32351932 -0.32294545 0.058411233
-0.32370895 -0.32294127 0.058474913
-0.3239305 -0.32295918 0.058381595
-0.32414961 -0.32297313 0.058317121
-0.32434434 -0.32297269 0.058354251
-0.32455698 -0.32298487 0.058301345
-0.32476366 -0.32299304 0.058277294
-0.32497185 -0.32299981 0.058263618
-0.32516587 -0.32299903 0.058303058
-0.32537055 -0.32300603 0.058287095
-0.32557911 -0.32301593 0.058250349
-0.32578829 -0.32302383 0.058228597
-0.32599294 -0.32303116 0.058210321
-0.32620287 -0.32304251 0.058163188
-0.32640523 -0.32304835 0.058155309
-0.32661539 -0.32306018 0.058104716
-0.32681587 -0.32306758 0.058085315
-0.32702187 -0.323071 0.058095858
-0.32722014 -0.32307407 0.0581076
-0.32742271 -0.32308054 0.058095105
-0.3276161 -0.32307991 0.058133397
-0.32784504 -0.32310459 0.057991609
-0.32803211 -0.32309908 0.058064524
-0.32822224 -0.32310465 0.058056697
-0.32844687 -0.32312074 0.057977203
-0.32864678 -0.32313454 0.057910517
-0.32885227 -0.32313246 0.057961434
-0.32904577 -0.32313228 0.057996269
-0.32925141 -0.32314229 0.057958383
-0.32946038 -0.32315221 0.057921633
-0.32965025 -0.32314914 0.057977248
-0.32985979 -0.32316285 0.057912812
-0.33006439 -0.32317251 0.057877246
-0.33026397 -0.32317483 0.057894744
-0.33047122 -0.32318708 0.057840712
-0.33066836 -0.3231906 0.05784899
-0.33086801 -0.32319638 0.05784113
-0.33108145 -0.32321143 0.057767458
-0.33127543 -0.32321239 0.057794206
-0.33147523 -0.32321864 0.057782881
-0.33167422 -0.32322425 0.057776161
-0.33186606 -0.32321995 0.057840988
-0.33208138 -0.32324103 0.057723481
-0.33227324 -0.32324016 0.057762928
-0.33247942 -0.32325301 0.057704292
-0.33268282 -0.32325998 0.057688329
-0.33289257 -0.32327667 0.057601988
-0.33307838 -0.3232702 0.057681825
-0.33328187 -0.32328108 0.057637043
-0.33347934 -0.32328257 0.057660311
-0.33367506 -0.32328591 0.057669759
-0.33388773 -0.32330659 0.057554573
-0.33408192 -0.32330865 0.057573263
-0.33428082 -0.3233119 0.057583842
-0.33448321 -0.32332259 0.057540212
-0.33467436 -0.32332158 0.057580814
-0.33487618 -0.32333198 0.057539485
-0.33507851 -0.32333922 0.057521224
-0.33527634 -0.3233456 0.057508752
-0.33545646 -0.32335609 0.057462923
-0.33564395 -0.32335514 0.057502393
-0.33587268 -0.32336462 0.057472467
-0.33607134 -0.32337239 0.057449616
-0.33623299 -0.32336628 0.057522647
-0.3364335 -0.32339701 0.057331413
-0.33666947 -0.32339913 0.057356812
-0.33686629 -0.32340533 0.057345491
-0.33706343 -0.32340774 0.057361856
-0.3372623 -0.32341665 0.057330918
-0.33745727 -0.32342088 0.057333454
-0.33765486 -0.32342851 0.057311755
-0.33784595 -0.32343251 0.057315454
-0.33803064 -0.32343745 0.057311114
-0.33822173 -0.32344162 0.057313666
-0.33844286 -0.32345733 0.0572365
-0.33864051 -0.32346103 0.05724363
-0.33884174 -0.32347438 0.057180393
-0.33900711 -0.32347775 0.057184219
-0.33923137 -0.3234843 0.057175077
-0.33941859 -0.32348868 0.057175338
-0.33960861 -0.32350206 0.057109863
-0.33982065 -0.32350171 0.057149213
-0.34001487 -0.32350627 0.05714944
-0.34021112 -0.32351384 0.05712774
-0.34038162 -0.32351485 0.057149991
-0.34059608 -0.32352883 0.057084396
-0.34077206 -0.32353294 0.057084713
-0.34099495 -0.32354414 0.057040982
-0.34118715 -0.32354614 0.057059672
-0.34137511 -0.32355273 0.057043776
-0.34157473 -0.32356116 0.057016306
-0.34177187 -0.32357159 0.056973848
-0.34196046 -0.32356787 0.057034075
-0.34213966 -0.32357204 0.057034373
-0.34233084 -0.32358482 0.056973487
-0.3425203 -0.32360119 0.056886096
-0.34273067 -0.32359844 0.056942753
-0.34289971 -0.32360396 0.056931574
-0.34312859 -0.32361579 0.056884356
-0.3433255 -0.32362089 0.056881111
-0.34351769 -0.32362381 0.056892883
-0.34371498 -0.32363674 0.056831967
-0.3439039 -0.32364038 0.056837991
-0.34409574 -0.32364285 0.05685322
-0.34429497 -0.3236607 0.056756556
-0.34448755 -0.32366505 0.056757949
-0.34466547 -0.32366824 0.056765173
-0.34484744 -0.32367265 0.056764301
-0.34503582 -0.32368368 0.056716122
-0.34522411 -0.32368666 0.056726754
-0.34543136 -0.32369277 0.056717694
-0.34561449 -0.32370052 0.056692608
-0.34583896 -0.32370597 0.056691539
-0.34602618 -0.32370657 0.056719478
-0.34619108 -0.32371324 0.05669909
-0.34641528 -0.32372761 0.056632284
-0.34660086 -0.32373354 0.056621023
-0.34677434 -0.32373539 0.056637492
-0.3469618 -0.32374683 0.05658586
-0.34716156 -0.32375354 0.056571066
-0.34734026 -0.32376069 0.056549463
-0.3475391 -0.32376489 0.056553125
-0.3477582 -0.32377774 0.056496724
-0.34794497 -0.32377741 0.056531589
-0.34813637 -0.32378063 0.056541055
-0.34833851 -0.32379699 0.05645591
-0.34852648 -0.32380107 0.056458466
-0.3487007 -0.32380655 0.056448419
-0.34888068 -0.32380715 0.05647523
-0.34906596 -0.32381478 0.056451287
-0.3492721 -0.32382149 0.056437623
-0.34947857 -0.32382995 0.056411266
-0.34964696 -0.32382572 0.056471586
-0.3498562 -0.32384789 0.056344889
-0.35004365 -0.32385087 0.056355521
-0.35024562 -0.32385591 0.056353413
-0.35041344 -0.32384759 0.056443714
-0.35061145 -0.3238706 0.056308992
-0.35078248 -0.32388148 0.056258589
-0.35097647 -0.32388163 0.056291115
-0.35115653 -0.32388285 0.056313321
-0.35136268 -0.32389429 0.056265056
-0.35156515 -0.32390562 0.056216806
-0.35174882 -0.32390803 0.056230929
-0.35194051 -0.32391945 0.056180425
-0.35213122 -0.32392186 0.056195661
-0.35231102 -0.3239201 0.05623978
-0.35250467 -0.32391334 0.056323048
-0.35267454 -0.32391793 0.056318775
-0.35285944 -0.32393935 0.056193344
-0.35305464 -0.32396135 0.056065552
-0.3532564 -0.32397911 0.055970035
-0.35345721 -0.3239719 0.056057874
-0.35366896 -0.32396996 0.056108758
-0.3538703 -0.32398 0.056069743
-0.35403979 -0.32398176 0.056086235
-0.35421982 -0.3239888 0.056065772
-0.35439989 -0.32399207 0.056072988
-0.35459396 -0.32400069 0.05604323
-0.35480192 -0.32401249 0.055992655
-0.35498145 -0.32402453 0.055935286
-0.3551968 -0.32402644 0.05595848
-0.35538942 -0.32400131 0.056176674
-0.35555828 -0.32401419 0.056111291
-0.35572344 -0.32402697 0.056045923
-0.35590675 -0.32403347 0.056030065
-0.35609666 -0.32404417 0.055984177
-0.356289 -0.32406327 0.055877168
-0.35647696 -0.32408667 0.055737887
-0.35666525 -0.32410502 0.055635504
-0.35688084 -0.32410413 0.055679448
-0.35706517 -0.32410043 0.055738546
-0.35725451 -0.32408902 0.055855267
-0.35743997 -0.32410121 0.055797875
-0.35763717 -0.32410663 0.055792324
-0.35784027 -0.32411799 0.055744074
-0.35802051 -0.32411936 0.05576513
-0.35821486 -0.32412142 0.055783805
-0.35840178 -0.32412514 0.055788677
-0.35858107 -0.32414645 0.055663284
-0.35878286 -0.32414678 0.055695757
-0.35896268 -0.32415035 0.055700675
-0.35914662 -0.32416517 0.05562368
-0.35933644 -0.32417089 0.055614706
-0.35951614 -0.32418716 0.055526201
-0.35972208 -0.3241978 0.055483703
-0.3599245 -0.32419643 0.055528864
-0.36010987 -0.32419324 0.055584498
-0.36030743 -0.32420775 0.055512059
-0.36047187 -0.32421455 0.055490512
-0.36067507 -0.32421181 0.055546049
-0.36088085 -0.32421222 0.055578515
-0.36105132 -0.32422218 0.055535033
-0.36122152 -0.32422301 0.055558443
-0.36141697 -0.32423243 0.055522915
-0.36160833 -0.32424304 0.055478178
-0.36180216 -0.32424712 0.055481866
-0.36198628 -0.3242577 0.055436019
-0.36217278 -0.32426238 0.055433977
-0.36236393 -0.3242645 0.05545152
-0.36256695 -0.32427225 0.055429786
-0.36275744 -0.32428393 0.055376988
-0.36293432 -0.324294 0.055333473
-0.36316353 -0.32429108 0.055394661
-0.36333224 -0.32429582 0.055389248
-0.36352199 -0.32430857 0.055328369
-0.36370018 -0.32432276 0.055254873
-0.36388889 -0.32431605 0.055337004
-0.36408392 -0.32432503 0.055304933
-0.36427245 -0.32432598 0.05533056
-0.36446267 -0.3243306 0.055329658
-0.36464676 -0.3243399 0.055293031
-0.36484069 -0.32434431 0.055294409
-0.36503676 -0.32435751 0.055231202
-0.36522081 -0.3243604 0.055241853
-0.36540529 -0.3243627 0.055257123
-0.36559755 -0.32437599 0.055192783
-0.36579096 -0.3243871 0.055144578
-0.36598223 -0.32439002 0.05515635
-0.36616054 -0.32439089 0.05518087
-0.36636162 -0.32440108 0.055140704
-0.36654517 -0.32441056 0.055102926
-0.36673114 -0.32441631 0.055092819
-0.36692458 -0.32442698 0.055048075
-0.3671205 -0.32442859 0.055070203
-0.367302 -0.32443565 0.055049732
-0.36749065 -0.32444274 0.055030391
-0.36768335 -0.32444912 0.055016782
-0.36788061 -0.32444921 0.055050436
-0.36809129 -0.3244606 0.055003308
-0.36826283 -0.32447132 0.054954052
-0.36844298 -0.32447052 0.054991253
-0.36864153 -0.32447407 0.054999534
-0.36882216 -0.32448694 0.05493639
-0.36900473 -0.32449716 0.05489286
-0.36919805 -0.32449824 0.054918457
-0.36939201 -0.32450765 0.054882936
-0.36957744 -0.3245098 0.054899357
-0.36977428 -0.32452005 0.054858055
-0.36997309 -0.32452786 0.054835193
-0.3701528 -0.32453269 0.054830883
-0.37034231 -0.32454291 0.054788455
-0.37053671 -0.32454747 0.054788683
-0.37072322 -0.32454869 0.054812018
-0.37090456 -0.32455999 0.054760415
-0.37109116 -0.32456532 0.054753754
-0.37127981 -0.3245804 0.054675587
-0.37146369 -0.32458469 0.054675866
-0.37165654 -0.32458717 0.054691095
-0.37184912 -0.32459387 0.054675188
-0.37203234 -0.32461056 0.054584358
-0.37221161 -0.32461601 0.054575432
-0.3724151 -0.32460761 0.054672487
-0.37262183 -0.32460368 0.05473724
-0.37281343 -0.32461897 0.054657899
-0.37301356 -0.32463655 0.054563537
-0.37320071 -0.32464156 0.054559194
-0.37337127 -0.32464504 0.054562986
-0.37358049 -0.32464635 0.054589666
-0.37376302 -0.32465249 0.054576118
-0.37394193 -0.32466909 0.054485306
-0.37411904 -0.32468027 0.054433726
-0.37431985 -0.32467604 0.054499656
-0.3745195 -0.32468325 0.054481409
-0.37469146 -0.32469916 0.054394089
-0.37489247 -0.3246918 0.05448309
-0.37507766 -0.32470554 0.054414168
-0.37527347 -0.32471296 0.054393627
-0.37545216 -0.32472262 0.054353565
-0.37565196 -0.32471696 0.054429885
-0.37585655 -0.32472003 0.054442745
-0.37605008 -0.32472959 0.054406077
-0.3762297 -0.32474163 0.054348715
-0.37641674 -0.32475355 0.054293618
-0.37660265 -0.3247571 0.054299653
-0.37681478 -0.32475111 0.054380521
-0.37699652 -0.32477042 0.054270096
-0.37717068 -0.32478374 0.054202378
-0.3773652 -0.3247894 0.05419454
-0.37755811 -0.32479346 0.054198232
-0.37776834 -0.3247838 0.054305635
-0.3779549 -0.32479599 0.054248229
-0.37814391 -0.32480624 0.054205816
-0.37832618 -0.32481599 0.054165743
-0.37852338 -0.324817 0.054192472
-0.37872195 -0.32481992 0.054205373
-0.3789036 -0.32483298 0.054141074
-0.37908807 -0.32484105 0.054113675
-0.37927517 -0.32484165 0.054141615
-0.37946656 -0.32485288 0.054092262
-0.37965843 -0.32486099 0.054065984
-0.37984553 -0.32487258 0.054013193
-0.38004535 -0.32486957 0.054069906
-0.38024476 -0.32487237 0.05408394
-0.38044423 -0.32487783 0.054078385
-0.38062564 -0.32489353 0.053994492
-0.38082936 -0.32489863 0.053992361
-0.38100746 -0.32490873 0.053948842
-0.38119927 -0.32491449 0.053939857
-0.38139105 -0.32491523 0.053967774
-0.38159245 -0.32492465 0.053933375
-0.38176742 -0.3249369 0.053873725
-0.38196373 -0.32493725 0.053905077
-0.38217032 -0.32493836 0.053932931
-0.38236272 -0.32494646 0.053906642
-0.38254431 -0.32496169 0.053826202
-0.38270807 -0.32497633 0.053746998
-0.38291886 -0.32496762 0.053847477
-0.38315091 -0.3249599 0.053944401
-0.38332236 -0.32498398 0.053797126
-0.3834987 -0.32499769 0.053727087
-0.38369173 -0.32500079 0.053737704
-0.38389018 -0.32500058 0.053773664
-0.38409859 -0.32500359 0.053787656
-0.3842946 -0.32500976 0.05377635
-0.38448811 -0.32501978 0.05373621
-0.38466051 -0.32503808 0.0536316
-0.38484752 -0.32503384 0.053695291
-0.38506219 -0.32503793 0.053702343
-0.38523972 -0.32505307 0.053621925
-0.38543424 -0.32506028 0.053602543
-0.38562408 -0.32506365 0.053610869
-0.38583395 -0.32506636 0.053627171
-0.38601783 -0.32507774 0.053575546
-0.38622069 -0.32508031 0.053591885
-0.38641167 -0.32508758 0.053571366
-0.38660878 -0.32509142 0.053577349
-0.38679999 -0.32509652 0.053572975
-0.38700485 -0.32510039 0.053580076
-0.38719872 -0.32511687 0.053492662
-0.38738987 -0.32512212 0.053487137
-0.38757393 -0.32512924 0.053466655
-0.38776934 -0.32513228 0.053478401
-0.38798049 -0.32514334 0.053433578
-0.38815278 -0.32515284 0.053393546
-0.38834316 -0.32515463 0.053413402
-0.38853338 -0.32516271 0.053387124
-0.38873884 -0.32516879 0.053378072
-0.38892269 -0.32518029 0.053325295
-0.38910106 -0.32518667 0.053309459
-0.38932747 -0.32517788 0.053413317
-0.38952225 -0.32518777 0.053374335
-0.38971439 -0.3251951 0.05335382
-0.38989595 -0.32520592 0.053305667
-0.39008713 -0.32521182 0.053295534
-0.39028302 -0.32522708 0.053217333
-0.39046681 -0.32523483 0.053192236
-0.39067474 -0.32523045 0.053260442
-0.39086938 -0.32523674 0.053247984
-0.39108282 -0.32523751 0.053279251
-0.39128304 -0.32525069 0.053217184
-0.39145726 -0.32526717 0.053126406
-0.39163321 -0.32527518 0.053097889
-0.39186311 -0.32527009 0.053175211
-0.39205238 -0.32528111 0.053127028
-0.39225501 -0.3252857 0.053128365
-0.39244723 -0.32529351 0.053104386
-0.3926377 -0.32530031 0.053087331
-0.39282638 -0.32530802 0.053063367
-0.39304689 -0.32531354 0.053061169
-0.39323324 -0.32532606 0.053001463
-0.39342543 -0.32533041 0.053002853
-0.39361164 -0.32534119 0.052955844
-0.39380398 -0.32534021 0.052996442
-0.39402297 -0.3253485 0.05297349
-0.3942222 -0.32534987 0.052997909
-0.39443266 -0.32535684 0.052983068
-0.39463115 -0.32536402 0.052964821
-0.39480266 -0.32537633 0.052904032
-0.39498913 -0.32538193 0.052895073
-0.39521942 -0.32538375 0.052921653
-0.39540279 -0.32539779 0.05285044
-0.39559668 -0.32539684 0.052891027
-0.39580011 -0.32540554 0.052862383
-0.39600301 -0.32541108 0.052856803
-0.39619169 -0.32542112 0.052815542
-0.39639741 -0.32542896 0.052793805
-0.39659873 -0.32543868 0.052757096
-0.39679438 -0.32544249 0.052763082
-0.39698538 -0.32545167 0.052728724
-0.3971557 -0.3254613 0.052687552
-0.39738265 -0.32545707 0.052757971
-0.39759168 -0.32546213 0.05275698
-0.39778912 -0.32547539 0.052693762
-0.39796448 -0.32548794 0.052631803
-0.39817664 -0.32548699 0.052675772
-0.39837319 -0.32549739 0.052633312
-0.39857391 -0.32550287 0.05262775
-0.39876255 -0.32551011 0.052607246
-0.39900178 -0.32550982 0.052651081
-0.39918995 -0.32552534 0.05256946
-0.39937699 -0.32553175 0.05255473
-0.39959258 -0.32553479 0.052569848
-0.3997941 -0.3255403 0.052564271
-0.39996433 -0.32555667 0.052473515
-0.400186 -0.32555279 0.052540496
-0.40039095 -0.32556182 0.052509535
-0.40057784 -0.32557327 0.052457906
-0.40079939 -0.3255744 0.052487984
-0.40097216 -0.32558361 0.052450255
-0.40114921 -0.32559121 0.052425191
-0.40138102 -0.32559478 0.05243909
-0.40158916 -0.32559982 0.052438088
-0.4017722 -0.32561287 0.052373793
-0.40197796 -0.3256174 0.052376274
-0.40218887 -0.32561702 0.052415632
-0.40238255 -0.32563221 0.052337442
-0.40256575 -0.32564232 0.052295055
-0.4027701 -0.32564759 0.052291773
-0.402973 -0.32565045 0.052305795
-0.4031831 -0.32565525 0.052307103
-0.40338475 -0.32566169 0.052294612
-0.40359849 -0.32567269 0.052250925
-0.40382567 -0.32567441 0.05227752
-0.40403512 -0.32567826 0.052285749
-0.40422496 -0.32569212 0.052216802
-0.40443349 -0.32569638 0.052221578
-0.40460551 -0.32570934 0.05215618
-0.40483654 -0.32570866 0.052201204
-0.40503791 -0.32571998 0.052152961
-0.40522933 -0.32572618 0.052140519
-0.40544188 -0.32573509 0.052111823
-0.40564588 -0.32573989 0.052112013
-0.40585947 -0.32574427 0.052116752
-0.40607461 -0.3257553 0.052073061
-0.40625948 -0.325764 0.052041043
-0.4064534 -0.3257753 0.051991686
-0.40665045 -0.32577991 0.051991899
-0.40687042 -0.32578525 0.051990852
-0.40707511 -0.32579163 0.051979497
-0.30001107 -0.32210857 0.060486421
-0.3002755 -0.3221291 0.060381308
-0.30049455 -0.322133 0.060390599
-0.30072778 -0.32214117 0.060370989
-0.30096072 -0.32215089 0.060339853
-0.30119339 -0.32215905 0.060320243
-0.30142653 -0.3221691 0.060286783
-0.30163848 -0.32216892 0.060324948
-0.30185351 -0.32217163 0.060342334
-0.30209601 -0.32218426 0.060291544
-0.30232811 -0.32219428 0.060258094
-0.30255646 -0.32220122 0.060246579
-0.30278164 -0.32220858 0.060231626
-0.30298519 -0.32220519 0.060291745
-0.30321592 -0.32221502 0.060259461
-0.30345351 -0.32222629 0.06021791
-0.30368108 -0.32223338 0.060205251
-0.30393079 -0.32225013 0.060125589
-0.30415606 -0.32225809 0.060106017
-0.30438128 -0.32226449 0.060097978
-0.3046034 -0.32227129 0.060086492
-0.30482894 -0.32227802 0.060076144
-0.30504796 -0.32228366 0.06007275
-0.30528921 -0.32229751 0.060012743
-0.30551824 -0.32230777 0.059976999
-0.30575395 -0.32231945 0.059932008
-0.30594712 -0.32231224 0.060018696
-0.30616692 -0.32231691 0.060022227
-0.30638692 -0.32232353 0.060011905
-0.30663663 -0.32234198 0.059919547
-0.3068361 -0.32233945 0.059972774
-0.30710682 -0.32236782 0.059811108
-0.30730015 -0.32236263 0.059882816
-0.30752546 -0.32237044 0.059864394
-0.30774093 -0.32237381 0.059877168
-0.30797219 -0.3223846 0.059837956
-0.30819249 -0.32239214 0.059820715
-0.30842179 -0.32240224 0.059786141
-0.30865422 -0.32241574 0.059727311
-0.30886832 -0.32241887 0.059741244
-0.30908191 -0.32242188 0.059756331
-0.30931818 -0.32243577 0.059695184
-0.30953911 -0.32244426 0.059671026
-0.3097426 -0.32244262 0.059718452
-0.30994922 -0.32244432 0.059741646
-0.31018203 -0.32245705 0.059688598
-0.31039906 -0.32246214 0.059688672
-0.31062293 -0.32247072 0.059664495
-0.31083494 -0.3224754 0.059666898
-0.31108427 -0.32249683 0.059552632
-0.31127664 -0.32249191 0.059622034
-0.3115111 -0.32250625 0.059557442
-0.31172955 -0.32251263 0.059548285
-0.31195751 -0.32252398 0.059504479
-0.31216675 -0.3225278 0.05951266
-0.31237715 -0.32253039 0.059530072
-0.31258804 -0.32253519 0.059531339
-0.31282786 -0.3225531 0.059441335
-0.3130365 -0.32255501 0.059463367
-0.31324351 -0.32255611 0.059491176
-0.31349039 -0.32258016 0.059357315
-0.31370634 -0.32258618 0.059350483
-0.31392896 -0.3225958 0.059318237
-0.31414264 -0.32260084 0.05931833
-0.3143321 -0.32260686 0.059307009
-0.31455627 -0.3226057 0.059354335
-0.31478363 -0.32262033 0.059286315
-0.31499606 -0.32262501 0.059288725
-0.31521168 -0.32263151 0.059278421
-0.31543043 -0.32263979 0.059255421
-0.31563762 -0.32264388 0.059261315
-0.31585005 -0.32264885 0.059261411
-0.31605965 -0.32265443 0.059256919
-0.31627148 -0.32265925 0.05925817
-0.31649423 -0.32267031 0.059215542
-0.31669793 -0.3226707 0.059247985
-0.31691122 -0.32267869 0.059226163
-0.31714815 -0.32269827 0.059123494
-0.31736875 -0.32270864 0.059085496
-0.31757638 -0.32271162 0.059099458
-0.31778178 -0.32271552 0.059106506
-0.31800792 -0.32272947 0.059043102
-0.31821242 -0.32273301 0.059052475
-0.31843361 -0.32274434 0.059007548
-0.31864548 -0.32275027 0.059000731
-0.31886265 -0.32275948 0.05897082
-0.31906793 -0.32276383 0.058974415
-0.31927988 -0.32277006 0.058965288
-0.3194806 -0.32277179 0.058987364
-0.31966618 -0.32276201 0.059091393
-0.31989786 -0.32278287 0.058978368
-0.32012552 -0.32279921 0.058897663
-0.32033935 -0.32280943 0.058859695
-0.32054067 -0.32280961 0.058893289
-0.32075459 -0.32281777 0.058870323
-0.32095858 -0.32281974 0.058891222
-0.32117882 -0.32283449 0.058820933
-0.32138738 -0.32283956 0.05881989
-0.32160205 -0.32285106 0.058772691
-0.32182077 -0.32286295 0.058723167
-0.32202104 -0.32286531 0.058740627
-0.32221907 -0.32286382 0.058785781
-0.32239863 -0.32286456 0.058811419
-0.32260036 -0.32288015 0.058731981
-0.32286951 -0.3228997 0.058634922
-0.32307643 -0.32290691 0.058617748
-0.32327908 -0.32291135 0.058620203
-0.32348043 -0.32291248 0.058646884
-0.32366922 -0.32290748 0.058716305
-0.32386458 -0.32292965 0.058587313
-0.32409805 -0.3229306 0.058620751
-0.32431659 -0.32294658 0.058541238
-0.32451299 -0.32294711 0.058571413
-0.32472634 -0.32295716 0.058534592
-0.32492733 -0.32296109 0.058540516
-0.32513356 -0.32296625 0.05853834
-0.32535937 -0.32298836 0.058414966
-0.32555991 -0.3229923 0.058420889
-0.3257516 -0.3229897 0.058472995
-0.32596296 -0.32299909 0.058440804
-0.32617062 -0.32300851 0.058407485
-0.32635731 -0.32299954 0.05850574
-0.32657331 -0.32301545 0.058426242
-0.32679152 -0.3230333 0.05833289
-0.32698983 -0.32303607 0.058346905
-0.3272087 -0.32305205 0.058267388
-0.32740903 -0.32305661 0.058268707
-0.32759529 -0.32305014 0.058348514
-0.3278079 -0.3230702 0.058237888
-0.32801494 -0.32307461 0.058241472
-0.32821304 -0.32307768 0.058253184
-0.32841778 -0.32308328 0.058247559
-0.32862404 -0.32309315 0.058210775
-0.32882482 -0.32309866 0.058205165
-0.32902256 -0.32310173 0.05821687
-0.32922584 -0.32310948 0.058195103
-0.32942092 -0.32311046 0.058221817
-0.32963052 -0.32312071 0.058182716
-0.32981184 -0.32312229 0.05820258
-0.33003259 -0.32313314 0.05816111
-0.33021158 -0.3231422 0.05812563
-0.33044189 -0.32314917 0.058114108
-0.33065385 -0.32316548 0.05803116
-0.3308233 -0.32316646 0.058053389
-0.33101097 -0.32316771 0.05807668
-0.3312031 -0.32316655 0.058118396
-0.33145869 -0.32319394 0.057961434
-0.33163577 -0.32318568 0.058052819
-0.33183694 -0.32319638 0.058009148
-0.33206049 -0.32321483 0.057912312
-0.33225176 -0.32321319 0.057957493
-0.33245218 -0.32322025 0.057940356
-0.33265513 -0.32322988 0.05790475
-0.33285561 -0.32323727 0.057885297
-0.33304662 -0.32323545 0.057931639
-0.33325869 -0.32325095 0.05785447
-0.3334282 -0.32326701 0.057765976
-0.33361977 -0.32325879 0.0578596
-0.33383954 -0.3232682 0.057828516
-0.33405173 -0.32327366 0.057825159
-0.33424133 -0.32327056 0.057880733
-0.33445194 -0.32328948 0.057778195
-0.33465087 -0.32329637 0.057762206
-0.33484295 -0.32329598 0.057798166
-0.33504528 -0.32330671 0.057754487
-0.33524728 -0.32331726 0.057711959
-0.33545274 -0.32333183 0.05764059
-0.335648 -0.32333529 0.057648849
-0.3358357 -0.32333028 0.057718273
-0.33603656 -0.32334018 0.057680368
-0.3362321 -0.32335639 0.057595205
-0.33642274 -0.32335064 0.057670381
-0.33663344 -0.32336423 0.057607051
-0.33682889 -0.32336834 0.057610691
-0.33702374 -0.32337183 0.057618953
-0.33722836 -0.3233873 0.05754067
-0.33742303 -0.32339078 0.057548933
-0.33761916 -0.32339615 0.057543345
-0.3378208 -0.32340857 0.057486985
-0.33798578 -0.32341525 0.057466559
-0.33819377 -0.3234134 0.057516273
-0.33840609 -0.3234264 0.057457551
-0.33857286 -0.32343107 0.057452109
-0.33877867 -0.32344061 0.057417639
-0.33898324 -0.32343897 0.057465073
-0.33917221 -0.32344514 0.057452593
-0.33936781 -0.32345569 0.057408947
-0.33958319 -0.32346436 0.057382505
-0.33978006 -0.32347214 0.057359621
-0.33997267 -0.32348418 0.057304457
-0.34015727 -0.32349509 0.057256255
-0.34036326 -0.32348534 0.057363644
-0.34056365 -0.32349899 0.057298064
-0.3407571 -0.32350227 0.057307482
-0.34095564 -0.32351351 0.057259213
-0.34114966 -0.32351792 0.057260551
-0.34132758 -0.3235136 0.057323109
-0.34149402 -0.32352501 0.057268068
-0.34168798 -0.32353538 0.057225592
-0.34193227 -0.32354727 0.05718055
-0.34211621 -0.32355314 0.057169262
-0.34231278 -0.32355648 0.057178665
-0.34250799 -0.32356375 0.057159249
-0.34267926 -0.32357261 0.057123788
-0.34290162 -0.32357815 0.057121538
-0.34307694 -0.32358178 0.057125278
-0.34326932 -0.32359099 0.057090871
-0.34347406 -0.32359707 0.057081785
-0.34368113 -0.32360083 0.057089984
-0.34387526 -0.32360712 0.05707749
-0.34406942 -0.32361355 0.057063848
-0.34426478 -0.3236227 0.057030577
-0.34445739 -0.32362628 0.0570377
-0.34464681 -0.32363823 0.056982547
-0.34484482 -0.32363835 0.057016172
-0.34504062 -0.32364938 0.056969069
-0.34522969 -0.32365331 0.056972738
-0.34542271 -0.32365832 0.056969475
-0.34560674 -0.32366735 0.056935109
-0.34579048 -0.32367587 0.056904215
-0.34596848 -0.32367927 0.05691025
-0.3461675 -0.32369116 0.056857362
-0.34636396 -0.32369685 0.056849465
-0.34653434 -0.32369894 0.056863621
-0.34676257 -0.32371452 0.056788672
-0.34695593 -0.32372203 0.056766957
-0.34714565 -0.32371911 0.056821369
-0.34736428 -0.3237285 0.056790292
-0.34753728 -0.32373914 0.05674215
-0.34773767 -0.32373616 0.056798831
-0.34793043 -0.32374254 0.056785181
-0.34812474 -0.32375449 0.056731168
-0.34831005 -0.32376024 0.056721017
-0.34849882 -0.32376575 0.056713164
-0.34869856 -0.32377297 0.056694876
-0.34888685 -0.32377705 0.056697402
-0.3490943 -0.32378742 0.056657158
-0.34928176 -0.32378837 0.056682754
-0.3494381 -0.32379216 0.056681979
-0.34965724 -0.32380861 0.056598999
-0.34985647 -0.32381535 0.056584168
-0.35004607 -0.32382748 0.056527868
-0.35021996 -0.32383201 0.056524698
-0.35041463 -0.32383421 0.056542184
-0.35061696 -0.3238399 0.056535415
-0.35083112 -0.32385358 0.056472082
-0.35101455 -0.32385191 0.056516148
-0.35119286 -0.32386345 0.056462206
-0.35139376 -0.32385969 0.056524649
-0.35156026 -0.32386264 0.056531888
-0.3517428 -0.32388246 0.056417964
-0.35194534 -0.32389364 0.056370825
-0.35217878 -0.32389632 0.056391578
-0.35235235 -0.32390147 0.056383792
-0.35254085 -0.32391766 0.056297511
-0.35274178 -0.32391044 0.056385323
-0.35291541 -0.32391718 0.056366004
-0.35309625 -0.32392877 0.056312054
-0.3532981 -0.3239398 0.056266069
-0.35348555 -0.32394403 0.056267448
-0.35368702 -0.32393983 0.056333348
-0.35388517 -0.32394949 0.056296606
-0.35406202 -0.32395223 0.056307264
-0.35425651 -0.32396087 0.056277469
-0.35446861 -0.3239693 0.056252193
-0.35464552 -0.32396999 0.056277841
-0.3548362 -0.32398057 0.056233071
-0.35502321 -0.32399172 0.0561837
-0.35521027 -0.32399938 0.056159705
-0.35539412 -0.32400227 0.056170329
-0.35558772 -0.32401592 0.056103624
-0.35577169 -0.32401663 0.056130387
-0.35596019 -0.32400849 0.056222878
-0.35615614 -0.32403097 0.056091577
-0.35634276 -0.32404006 0.056057207
-0.35654852 -0.32403734 0.056112703
-0.356729 -0.32403907 0.056131408
-0.35692197 -0.32405254 0.056065865
-0.35710835 -0.32406175 0.05603034
-0.35729864 -0.32406828 0.056015559
-0.35748506 -0.32407656 0.055986948
-0.3576749 -0.32408509 0.055957172
-0.35786527 -0.32409048 0.055950463
-0.35806093 -0.32408753 0.056006007
-0.35825339 -0.3240999 0.055948544
-0.35843652 -0.32410592 0.055936102
-0.35862878 -0.32411811 0.055879779
-0.35882926 -0.32412532 0.055861488
-0.35903251 -0.32413527 0.055823572
-0.3592459 -0.32413372 0.055872113
-0.35943678 -0.32414964 0.055788118
-0.35961854 -0.32414716 0.055837959
-0.35979068 -0.32415369 0.055819809
-0.35998714 -0.32416192 0.055793457
-0.36015537 -0.32416928 0.055768408
-0.36033687 -0.3241685 0.055805568
-0.36053976 -0.32417846 0.055767655
-0.36074468 -0.32418233 0.055774715
-0.36093426 -0.32418942 0.055755317
-0.36111969 -0.32419801 0.055724412
-0.36130196 -0.32420543 0.055701591
-0.36149761 -0.32421488 0.055666022
-0.36169451 -0.32423002 0.055588927
-0.36188439 -0.32422692 0.055644497
-0.36207575 -0.32422921 0.055660844
-0.36225891 -0.32423413 0.055656478
-0.36244774 -0.32424247 0.05562786
-0.3626442 -0.3242496 0.055609584
-0.36282778 -0.32425359 0.055612132
-0.3630214 -0.32425907 0.055605408
-0.36322004 -0.32426155 0.055621728
-0.36341828 -0.32426494 0.05563112
-0.36360857 -0.32424837 0.055785879
-0.3637836 -0.32426298 0.055708893
-0.36395866 -0.32427019 0.055686105
-0.36414209 -0.32428187 0.055632144
-0.36431974 -0.32430422 0.055498622
-0.36450267 -0.32432279 0.055393919
-0.36469087 -0.32434431 0.055268422
-0.36488494 -0.32435483 0.055224784
-0.36508924 -0.32434738 0.055314884
-0.36528248 -0.32434705 0.055350833
-0.36547408 -0.32435578 0.055319898
-0.3656702 -0.32435691 0.055345453
-0.36586908 -0.32435954 0.055360612
-0.36605495 -0.32436594 0.055345848
-0.3662419 -0.32437062 0.055343762
-0.36643595 -0.32437551 0.055341654
-0.36663404 -0.32438517 0.055304911
-0.36681148 -0.32438806 0.055314418
-0.36699373 -0.32440519 0.055220094
-0.36717841 -0.32440796 0.055231862
-0.36738744 -0.32440674 0.055276953
-0.36757618 -0.32441932 0.055217199
-0.36775783 -0.3244316 0.05515863
-0.36794469 -0.32444146 0.055118486
-0.36815056 -0.32444003 0.055164754
-0.36833912 -0.32444757 0.055141911
-0.36852062 -0.32445496 0.055119094
-0.36872116 -0.32445151 0.055179231
-0.36891752 -0.32446301 0.055128653
-0.36909536 -0.32447049 0.055104706
-0.36927903 -0.3244842 0.055035751
-0.36947894 -0.32448199 0.055086654
-0.36966839 -0.32448846 0.055071875
-0.36985466 -0.32449877 0.055028286
-0.37004676 -0.32450202 0.055037707
-0.37023592 -0.32450458 0.055051766
-0.37043026 -0.32451385 0.055017348
-0.37061772 -0.32452688 0.054954141
-0.37080348 -0.32453343 0.054938219
-0.37098148 -0.32454056 0.054916579
-0.37117743 -0.32454783 0.054897159
-0.37136239 -0.32455531 0.054874327
-0.37156323 -0.32454935 0.054952912
-0.37175351 -0.32456291 0.054886222
-0.37194103 -0.32457155 0.054855309
-0.37214196 -0.32458127 0.054818556
-0.37232941 -0.32458615 0.054815318
-0.37251216 -0.32459214 0.05480288
-0.37271893 -0.3245959 0.054811083
-0.37290728 -0.32460001 0.054813609
-0.37308446 -0.32460806 0.054785043
-0.37328354 -0.32461244 0.054787517
-0.37348405 -0.32461902 0.054773841
-0.37367085 -0.32462481 0.054763682
-0.3738544 -0.32463726 0.054703955
-0.37403139 -0.32464895 0.054648865
-0.37423015 -0.32464686 0.054698624
-0.37442318 -0.32465374 0.054681528
-0.3746196 -0.32466087 0.054663245
-0.37479064 -0.32467788 0.054567825
-0.37498409 -0.32467771 0.054602619
-0.37517932 -0.3246859 0.054576278
-0.37535098 -0.32469884 0.054510839
-0.37555757 -0.32469052 0.05460785
-0.37576994 -0.32468703 0.054670226
-0.37594846 -0.32470676 0.054556318
-0.37613547 -0.32471585 0.054521941
-0.37632942 -0.32472211 0.054509446
-0.37650606 -0.32473063 0.054477427
-0.37670553 -0.32473233 0.054499507
-0.37689328 -0.32474083 0.054469742
-0.37709016 -0.32474482 0.054474525
-0.37727273 -0.32475755 0.054412492
-0.37746727 -0.3247546 0.054468043
-0.37766087 -0.32476729 0.054408263
-0.37785098 -0.32477394 0.05439233
-0.37802961 -0.32478675 0.054329157
-0.37824258 -0.32477844 0.054427296
-0.37844178 -0.32478389 0.054421693
-0.37862203 -0.32479832 0.054346986
-0.37879899 -0.32480949 0.054295357
-0.37900108 -0.32481 0.05432665
-0.37919828 -0.32481432 0.054329135
-0.37938127 -0.3248238 0.054291315
-0.37956953 -0.32483479 0.054243099
-0.37975314 -0.32484648 0.054189127
-0.37995571 -0.32484433 0.054240026
-0.38016859 -0.32483757 0.05432662
-0.38035461 -0.32485557 0.05422651
-0.38053674 -0.32486829 0.054164477
-0.38071111 -0.32488382 0.054080576
-0.38092515 -0.32487413 0.054189082
-0.38112193 -0.3248792 0.0541858
-0.3813124 -0.32488617 0.054167558
-0.38149887 -0.32489589 0.054128565
-0.38169476 -0.32490426 0.054101065
-0.38187879 -0.32491562 0.054049414
-0.38207924 -0.32491595 0.054081865
-0.3822794 -0.32491907 0.054093558
-0.38245443 -0.32493883 0.05397851
-0.38264388 -0.32494172 0.053990252
-0.38285214 -0.3249397 0.054041117
-0.38305479 -0.3249487 0.05401013
-0.38323617 -0.3249594 0.053963095
-0.38342446 -0.32496804 0.053932168
-0.38360241 -0.32497612 0.053903613
-0.38381836 -0.32497445 0.053953279
-0.3840104 -0.32498083 0.053939644
-0.38419768 -0.32498789 0.053920258
-0.38438329 -0.32499599 0.053892814
-0.38457724 -0.32500133 0.053887233
-0.38478729 -0.32499921 0.053939249
-0.38496423 -0.32501498 0.053854175
-0.38512811 -0.3250362 0.053726498
-0.38536546 -0.32501575 0.053917926
-0.38556308 -0.32502368 0.053893883
-0.3857435 -0.32503954 0.05380879
-0.38592795 -0.32505074 0.053758282
-0.38613749 -0.32505175 0.053787231
-0.38634798 -0.3250545 0.053803481
-0.38653684 -0.32506976 0.053724125
-0.38671908 -0.32507795 0.053695537
-0.38691425 -0.32508096 0.053707257
-0.38711447 -0.32508549 0.053708564
-0.38735017 -0.32508934 0.053721242
-0.38750336 -0.32510749 0.053614367
-0.38767415 -0.32511792 0.053567395
