# .PCD v0.7 - Point Cloud Data file format
VERSION 0.7
FIELDS x y z
SIZE 4 4 4
TYPE F F F
COUNT 1 1 1
WIDTH 1076
HEIGHT 1
VIEWPOINT 0 0 0 1 0 0 0
POINTS 1076
DATA ascii
-0.064055629 -0.3226915 0.054827821
-0.064230673 -0.32278568 0.054936517
-0.064370006 -0.32287478 0.054924078
-0.064563639 -0.32302669 0.054710172
-0.064708397 -0.32311109 0.054754332
-0.064865634 -0.32320499 0.054786853
-0.065035604 -0.32331532 0.054760352
-0.065199211 -0.32341883 0.054753534
-0.065372162 -0.32353413 0.054705046
-0.06553559 -0.32363588 0.054709796
-0.065702088 -0.32374287 0.0546914
-0.065871611 -0.32385388 0.054657958
-0.066037968 -0.32395878 0.05465344
-0.066207349 -0.32406542 0.054650053
-0.066379778 -0.32417348 0.054650113
-0.066549093 -0.3242799 0.054647893
-0.066721387 -0.32438937 0.054637544
-0.066893175 -0.32450825 0.054559015
-0.067061536 -0.32462728 0.054464318
-0.067246199 -0.32473773 0.054501295
-0.067409247 -0.32483691 0.054522231
-0.067568928 -0.32493782 0.054516591
-0.067766413 -0.32505134 0.054588154
-0.067940414 -0.32517195 0.0545073
-0.068105578 -0.32528138 0.054465793
-0.06826894 -0.32537732 0.054511003
-0.068414524 -0.3254832 0.054408364
-0.068591341 -0.325578 0.05452051
-0.068753347 -0.32568416 0.054488279
-0.068905301 -0.32578924 0.054419123
-0.069086626 -0.32589975 0.054441087
-0.069232754 -0.32599774 0.054396242
-0.069424376 -0.32612628 0.054337233
-0.069613211 -0.3262504 0.054296739
-0.06976188 -0.32635081 0.054246087
-0.069921002 -0.32645035 0.054247394
-0.070092633 -0.32655624 0.054259017
-0.070265807 -0.32665569 0.054322653
-0.070443965 -0.3267926 0.054145832
-0.070609048 -0.32689571 0.054148253
-0.070759684 -0.32698613 0.054176196
-0.0709351 -0.32709077 0.054213226
-0.071108207 -0.32720372 0.054182079
-0.071269877 -0.327306 0.054175273
-0.071434952 -0.32740894 0.054178845
-0.071597978 -0.32751819 0.054129269
-0.07176663 -0.32762125 0.054147854
-0.071941689 -0.32772732 0.054173328
-0.072110251 -0.32784119 0.054115616
-0.072270513 -0.32794657 0.054081082
-0.072410248 -0.32804599 0.053998135
-0.072567776 -0.32813826 0.054043368
-0.072748072 -0.32825011 0.054051477
-0.072939254 -0.32837275 0.054031767
-0.073082842 -0.32846186 0.054037791
-0.073258638 -0.32858375 0.053955775
-0.073402494 -0.32868063 0.053908627
-0.073571026 -0.32878345 0.05392836
-0.073737502 -0.32889882 0.053851016
-0.07392212 -0.32901734 0.05383135
-0.074096315 -0.32912469 0.053844124
-0.07425835 -0.32922441 0.053856961
-0.074408986 -0.32933775 0.053724241
-0.074569225 -0.32942563 0.053812224
-0.074744105 -0.32954627 0.053734832
-0.074900173 -0.32963464 0.053800885
-0.075078391 -0.32975623 0.053731553
-0.075237341 -0.3298471 0.053792968
-0.075391814 -0.32994536 0.053782739
-0.075577281 -0.33006838 0.053735331
-0.075748742 -0.33017978 0.053707659
-0.07588812 -0.33027452 0.053655922
-0.076053806 -0.33037505 0.053679146
-0.076218858 -0.33048275 0.053649198
-0.076389767 -0.33059448 0.053616911
-0.076572284 -0.33070838 0.053620376
-0.076738626 -0.33080816 0.053651683
-0.076881923 -0.33090287 0.053617261
-0.077049166 -0.33101311 0.053579208
-0.077238858 -0.33112377 0.053636953
-0.077395007 -0.33121946 0.053652141
-0.077554934 -0.3313162 0.053676561
-0.077730529 -0.33144373 0.053554088
-0.077871814 -0.33154017 0.053498864
-0.078045994 -0.33164734 0.053512789
-0.07820721 -0.33174786 0.053516384
-0.078388803 -0.33186778 0.053473625
-0.078550957 -0.33197236 0.053452954
-0.078711636 -0.33207336 0.053450771
-0.078867063 -0.33216977 0.053457879
-0.079019628 -0.33226898 0.05343264
-0.079198003 -0.3323867 0.053391051
-0.079370007 -0.33250079 0.053347196
-0.079514839 -0.33259746 0.053305823
-0.079689257 -0.33270907 0.053289697
-0.07985758 -0.33281687 0.053273603
-0.080004491 -0.33291599 0.053224124
-0.080187857 -0.33301985 0.053301554
-0.080370769 -0.33311996 0.053403273
-0.080503985 -0.33319962 0.053430174
-0.080655113 -0.33330405 0.053362176
-0.080809124 -0.33341455 0.053264104
-0.080982745 -0.33352667 0.053241037
-0.081148587 -0.33363619 0.053201851
-0.081303924 -0.33373684 0.053178895
-0.08146143 -0.33383584 0.053176746
-0.081621297 -0.33394131 0.053139899
-0.081784144 -0.33404863 0.053103033
-0.081953473 -0.33415541 0.053098496
-0.082124971 -0.33426073 0.053113587
-0.0822917 -0.33436537 0.053112533
-0.082467414 -0.33447582 0.053110261
-0.082640775 -0.33458775 0.053087205
-0.082777187 -0.33467719 0.05305976
-0.08294376 -0.33478567 0.053030957
-0.083122402 -0.33490175 0.053002089
-0.083267391 -0.33499706 0.052971113
-0.083441809 -0.33510455 0.052983876
-0.083605081 -0.33521113 0.052953951
-0.08376541 -0.33531573 0.052925196
-0.083927214 -0.33541596 0.052933417
-0.084084049 -0.33551884 0.052901216
-0.084251508 -0.33561966 0.052930199
-0.084425367 -0.33573109 0.052912921
-0.084578291 -0.33582905 0.052898075
-0.084740594 -0.33593258 0.052885488
-0.084910415 -0.33603585 0.052907534
-0.085067168 -0.3361387 0.052875333
-0.085223109 -0.33624515 0.052814238
-0.085397631 -0.33635947 0.052779615
-0.085564457 -0.33646417 0.052778549
-0.08572159 -0.33656344 0.052772935
-0.085871771 -0.3366625 0.052738462
-0.08603324 -0.3367663 0.0527201
-0.086203948 -0.33686635 0.052768726
-0.086363532 -0.33697098 0.052736498
-0.086525723 -0.33707145 0.052744716
-0.086695626 -0.33718434 0.052699726
-0.086862728 -0.33728001 0.052763395
-0.087023467 -0.33738416 0.052739255
-0.087187767 -0.33749604 0.052676953
-0.087348253 -0.33760914 0.052589245
-0.087500386 -0.33770728 0.052569784
-0.087678112 -0.33781436 0.052599866
-0.087841853 -0.33792323 0.052556064
-0.087996602 -0.33802053 0.052553929
-0.088146597 -0.33812505 0.052480157
-0.088329352 -0.33823645 0.052502114
-0.088480614 -0.33833766 0.052457236
-0.088640414 -0.3384335 0.052487429
-0.08879669 -0.33853325 0.052474886
-0.088986985 -0.33864278 0.052543029
-0.089158297 -0.33874947 0.052547727
-0.089303643 -0.33885226 0.05246589
-0.089478232 -0.33895537 0.052509867
-0.089636929 -0.33906537 0.052436039
-0.089814618 -0.33917856 0.052423358
-0.089971215 -0.33928096 0.052393463
-0.090127073 -0.33937564 0.052414432
-0.090292014 -0.3394866 0.052361377
-0.090447329 -0.33958408 0.052360393
-0.090605147 -0.33968362 0.052355923
-0.090742514 -0.33979014 0.052212887
-0.090903945 -0.33989906 0.052158691
-0.091085702 -0.34000883 0.052187596
-0.091264054 -0.34011185 0.05224888
-0.091425814 -0.34021321 0.052249007
-0.091605313 -0.34032375 0.052262899
-0.091777965 -0.34043309 0.052254863
-0.091938391 -0.34053972 0.052212246
-0.09208864 -0.34063831 0.052181236
-0.092256062 -0.34073645 0.052228723
-0.091216244 -0.34142831 0.042819731
-0.092174113 -0.34268507 0.038222611
-0.092321731 -0.34277937 0.038210124
-0.092482589 -0.34287453 0.038249556
-0.092638485 -0.34296826 0.038277466
-0.092795223 -0.34306201 0.038308829
-0.10111545 -0.34643647 0.051194713
-0.1012547 -0.34652039 0.051218107
-0.10142283 -0.34662378 0.05123207
-0.10159817 -0.34672755 0.051274881
-0.10176252 -0.34683451 0.05124725
-0.10190015 -0.34693295 0.051161997
-0.10208731 -0.34703752 0.051250976
-0.10229108 -0.34715569 0.051317871
-0.1024498 -0.34727129 0.051204748
-0.10260513 -0.34737605 0.051152911
-0.10274545 -0.34747106 0.051103473
-0.10292117 -0.3475754 0.051143974
-0.10308835 -0.34768099 0.051138289
-0.10325918 -0.34779036 0.051122181
-0.10342486 -0.34789765 0.051098011
-0.10358524 -0.34800109 0.051077351
-0.10375184 -0.34811193 0.051032368
-0.10391401 -0.34821388 0.051030178
-0.10409202 -0.3483223 0.051052175
-0.10426071 -0.34843001 0.051038384
-0.1044412 -0.34854048 0.051056892
-0.10458153 -0.34863895 0.050983187
-0.1047709 -0.34875202 0.051022444
-0.10490631 -0.34885335 0.05090715
-0.1050946 -0.34896311 0.050964907
-0.10526781 -0.34907645 0.050931443
-0.10542377 -0.34917814 0.050903875
-0.10559428 -0.34928465 0.050906263
-0.10576359 -0.34939271 0.050892472
-0.10592596 -0.34950009 0.050853305
-0.10607571 -0.34960115 0.050802644
-0.10626802 -0.34971195 0.050870784
-0.10643078 -0.34982103 0.050821207
-0.10660207 -0.34992954 0.050813183
-0.1067488 -0.35003352 0.050729033
-0.10692023 -0.35013729 0.050754536
-0.10708201 -0.35024315 0.050723456
-0.10723742 -0.35034975 0.050658897
-0.10738465 -0.35045058 0.050599016
-0.10759587 -0.35056764 0.05070632
-0.10778242 -0.35068157 0.050727103
-0.10794988 -0.35079145 0.050692521
-0.10810396 -0.35089642 0.050633755
-0.10825495 -0.35099632 0.05059696
-0.10844082 -0.35110885 0.05062468
-0.10861302 -0.35121644 0.050627057
-0.10876293 -0.35132387 0.05053249
-0.1089334 -0.35142821 0.050549895
-0.10911838 -0.35153937 0.050583407
-0.10928132 -0.35164577 0.050553475
-0.10944092 -0.3517547 0.050491203
-0.10960287 -0.35186094 0.050457809
-0.10978911 -0.35197404 0.050483212
-0.10995442 -0.35208389 0.050439399
-0.11013139 -0.35219118 0.050464869
-0.1103011 -0.35229737 0.050466098
-0.11047548 -0.35241175 0.050430313
-0.11062889 -0.35251826 0.050357684
-0.11076984 -0.35261679 0.050286282
-0.11097555 -0.35272777 0.050412122
-0.11114371 -0.35284123 0.05035558
-0.1113168 -0.35295117 0.050345227
-0.11147213 -0.35305807 0.050278366
-0.11165461 -0.35316831 0.050307255
-0.11184445 -0.35328284 0.050338417
-0.11200482 -0.35338926 0.050296947
-0.11217536 -0.35350043 0.050266966
-0.11234711 -0.35360757 0.050270509
-0.11252686 -0.35372335 0.050248556
-0.11268423 -0.35382789 0.050207108
-0.11284563 -0.35393465 0.050167948
-0.11301893 -0.35404226 0.050174937
-0.11317079 -0.35414863 0.050096534
-0.11336233 -0.35426405 0.050128836
-0.11353067 -0.35437086 0.050119676
-0.11370136 -0.35448098 0.05009779
-0.11386929 -0.35458916 0.050077073
-0.11405252 -0.35470185 0.050092094
-0.1142004 -0.35480475 0.05002065
-0.11437985 -0.35491538 0.050033391
-0.11458533 -0.35503691 0.050084099
-0.11474851 -0.35514164 0.050066877
-0.1149287 -0.3552554 0.050061122
-0.11510773 -0.35537305 0.050022993
-0.115266 -0.35548228 0.049952637
-0.11542942 -0.35558584 0.049944669
-0.11559457 -0.35568982 0.049941309
-0.11577526 -0.35580257 0.049944788
-0.11593197 -0.35590887 0.049888313
-0.11612743 -0.35602492 0.049933303
-0.11628547 -0.35613021 0.049889535
-0.11647724 -0.35624298 0.049941491
-0.11665053 -0.35635176 0.049940396
-0.11676677 -0.35645047 0.04975934
-0.116959 -0.35656482 0.049802046
-0.11710704 -0.35666931 0.049720202
-0.11732645 -0.35679132 0.049828619
-0.11745967 -0.35689375 0.049696006
-0.11762396 -0.35700199 0.049659133
-0.1178171 -0.35711694 0.049701832
-0.11799704 -0.35723019 0.049698379
-0.11821237 -0.35735312 0.049782548
-0.11833984 -0.35745031 0.049661532
-0.11852825 -0.35756573 0.049679987
-0.11868946 -0.35767221 0.049641978
-0.11888246 -0.35778889 0.049671955
-0.11906899 -0.35790282 0.049692739
-0.11921829 -0.35800907 0.049603947
-0.11939608 -0.35812098 0.049600508
-0.11956783 -0.35823274 0.049571682
-0.11973809 -0.35834289 0.049547482
-0.11992089 -0.35845748 0.049547482
-0.12009735 -0.35857052 0.049530178
-0.12025947 -0.35868004 0.049474824
-0.1204488 -0.35879391 0.049508303
-0.028946176 -0.30020338 0.058219157
-0.029127549 -0.30030897 0.058275778
-0.029339083 -0.30045363 0.058191236
-0.029543079 -0.30058926 0.05813678
-0.029731419 -0.30070579 0.05814714
-0.029929679 -0.30083254 0.058129705
-0.030110095 -0.3009395 0.058172461
-0.030327655 -0.30109042 0.058070544
-0.030516602 -0.30120817 0.058075123
-0.030703846 -0.30132174 0.058101662
-0.030912109 -0.30146384 0.058020607
-0.031091791 -0.30157033 0.058063373
-0.031281631 -0.30168965 0.058061011
-0.031468809 -0.3018035 0.058085233
-0.031677522 -0.30194688 0.057997249
-0.031864334 -0.30206048 0.058021486
-0.032073442 -0.30220476 0.057928868
-0.032268036 -0.30232856 0.057916068
-0.032452617 -0.30244192 0.057932228
-0.032656729 -0.30258042 0.057858132
-0.032848474 -0.30270326 0.05783958
-0.033041228 -0.30282521 0.057831421
-0.033229835 -0.30294424 0.057825595
-0.033426911 -0.30307207 0.05779545
-0.033619538 -0.30319661 0.057768811
-0.033802748 -0.30330664 0.057802305
-0.033989679 -0.30342394 0.057801116
-0.03419169 -0.30355883 0.057743214
-0.034391865 -0.30369386 0.057676073
-0.034570318 -0.30380043 0.057713065
-0.034757681 -0.30391884 0.057706092
-0.034955841 -0.30404931 0.057662077
-0.035160806 -0.3041915 0.057566028
-0.035339095 -0.30429581 0.057618044
-0.035527319 -0.30441591 0.057602987
-0.035729326 -0.30455229 0.057534672
-0.035908896 -0.30466104 0.057561267
-0.036087252 -0.30476817 0.057593644
-0.036280394 -0.30489549 0.057549655
-0.036472224 -0.30501869 0.057528794
-0.036661319 -0.30514085 0.057503328
-0.036850315 -0.30526048 0.057495181
-0.037037481 -0.30538025 0.057477821
-0.037222419 -0.30549449 0.057489343
-0.037420947 -0.30563033 0.057409517
-0.037616126 -0.30576172 0.057345875
-0.037795398 -0.30587113 0.05736668
-0.037979245 -0.30598435 0.057380538
-0.03817774 -0.30612099 0.057294916
-0.038362507 -0.30623579 0.057301834
-0.038534395 -0.30633509 0.057360828
-0.038720354 -0.30645445 0.057341158
-0.038910221 -0.30657956 0.057298347
-0.039095692 -0.30669579 0.057298325
-0.039289795 -0.30682737 0.057228915
-0.039477918 -0.30694774 0.057211537
-0.039661698 -0.30706474 0.057198815
-0.039844707 -0.30718076 0.057189558
-0.040024593 -0.30730075 0.057138726
-0.040218532 -0.3074218 0.057142116
-0.040398128 -0.3075332 0.057150219
-0.040584445 -0.30765182 0.057137474
-0.040774517 -0.30777901 0.057080798
-0.040959969 -0.30789953 0.057050735
-0.041137278 -0.30800802 0.057069246
-0.041327596 -0.30813324 0.057027597
-0.041504297 -0.30824101 0.057048425
-0.041702535 -0.30837864 0.056954727
-0.041876569 -0.30848259 0.05699059
-0.042062748 -0.30860519 0.05694896
-0.042239677 -0.30871376 0.056965165
-0.042424504 -0.3088316 0.056951277
-0.042606208 -0.30894777 0.056935102
-0.042800408 -0.30908057 0.056857601
-0.042976998 -0.30918908 0.056872655
-0.043157503 -0.30930072 0.056883059
-0.043336492 -0.30941322 0.056880761
-0.043520488 -0.30953383 0.056843776
-0.043698177 -0.30964452 0.056848422
-0.043883435 -0.30976427 0.056822971
-0.044067211 -0.30988505 0.056783676
-0.044247456 -0.30999702 0.05679062
-0.044381488 -0.31007338 0.056844071
-0.044614606 -0.31023553 0.056731664
-0.044790208 -0.31034362 0.056745566
-0.044973016 -0.31046033 0.056730531
-0.045153178 -0.3105762 0.056709744
-0.045338683 -0.31070122 0.056648478
-0.045518629 -0.31081712 0.056626521
-0.04569225 -0.31092244 0.056650855
-0.045869388 -0.31103033 0.056672823
-0.04606149 -0.31116393 0.05658032
-0.046240516 -0.31127894 0.056560695
-0.046423107 -0.31139669 0.056537576
-0.046603456 -0.31151432 0.056505229
-0.046767421 -0.31159973 0.05662667
-0.046956137 -0.31173238 0.056526095
-0.047135416 -0.31184492 0.056524951
-0.04731204 -0.31195658 0.056518055
-0.047495864 -0.31208137 0.056451015
-0.04767707 -0.31220168 0.056403637
-0.047861584 -0.31232443 0.056353942
-0.048033055 -0.31242743 0.0563852
-0.048215736 -0.31254721 0.056348212
-0.04839123 -0.31265783 0.056343637
-0.048572507 -0.3127754 0.056315906
-0.048747357 -0.31288517 0.056314789
-0.048923522 -0.31299341 0.056329846
-0.049102701 -0.31311163 0.056288261
-0.049274854 -0.31321242 0.056338012
-0.049460422 -0.31334341 0.056235142
-0.049640164 -0.31345919 0.0562132
-0.049813084 -0.31356609 0.056223657
-0.049993783 -0.31368411 0.056190148
-0.050166868 -0.31379157 0.056197137
-0.050346676 -0.31390825 0.056169413
-0.050521925 -0.31402037 0.056153283
-0.050695878 -0.31413004 0.056148704
-0.050876081 -0.3142527 0.056080535
-0.051050462 -0.31435904 0.056101382
-0.05122228 -0.31446472 0.056115311
-0.051402133 -0.31458271 0.056078345
-0.05158399 -0.31471005 0.05598475
-0.051760718 -0.31482196 0.055976689
-0.057128519 -0.31825101 0.055521913
-0.057301059 -0.31835815 0.055528902
-0.057471562 -0.31846699 0.05551511
-0.057641722 -0.31857494 0.055505943
-0.05777853 -0.31864876 0.055589419
-0.05798699 -0.31879956 0.055448279
-0.058156483 -0.3189061 0.055446047
-0.058317371 -0.31900081 0.055488925
-0.058487471 -0.31910971 0.055472821
-0.058666922 -0.31923389 0.055390794
-0.058839142 -0.3193514 0.055323839
-0.058970042 -0.3194319 0.055334553
-0.05913936 -0.31952941 0.055394724
-0.0593509 -0.31967869 0.055277824
-0.05951808 -0.31977832 0.055313744
-0.059688292 -0.31989029 0.055276833
-0.059857383 -0.31999806 0.055264201
-0.060027488 -0.32009906 0.055303559
-0.060198888 -0.32021734 0.055227362
-0.060366303 -0.32034272 0.055084169
-0.060539141 -0.32044494 0.055126972
-0.060707442 -0.32055104 0.055122443
-0.060873773 -0.32064787 0.055174533
-0.061045907 -0.32075986 0.055145707
-0.06121441 -0.32086775 0.055129614
-0.061369758 -0.32099381 0.05492872
-0.061553128 -0.32109436 0.055029236
-0.061719902 -0.32119408 0.055062838
-0.061887044 -0.32129586 0.055083729
-0.062059954 -0.32141611 0.055000592
-0.062988579 -0.32473215 0.035853438
-0.06312491 -0.32482564 0.035797108
-0.063278988 -0.32492316 0.03579035
-0.063430063 -0.32501701 0.035796326
-0.063575491 -0.32510546 0.035815034
-0.063715458 -0.32519001 0.035837255
-0.063866206 -0.32528099 0.035861723
-0.064003035 -0.32535896 0.035916321
-0.064126581 -0.32543007 0.035960589
-0.06427563 -0.32553038 0.035912268
-0.064418897 -0.32562393 0.035885934
-0.064561985 -0.3257162 0.035867691
-0.064704828 -0.32580569 0.035867937
-0.064864025 -0.32590941 0.035840351
-0.066225581 -0.32403535 0.054940574
-0.066412941 -0.32417837 0.054761425
-0.066578731 -0.3242943 0.054677173
-0.066747613 -0.32440639 0.054633342
-0.066913217 -0.32451776 0.054580294
-0.067076281 -0.32461548 0.054611608
-0.067241639 -0.32472736 0.054553941
-0.067386068 -0.32481602 0.054566883
-0.067541666 -0.32492605 0.054479223
-0.067743763 -0.32505685 0.054450214
-0.067910366 -0.32515052 0.054525413
-0.068048969 -0.32526195 0.054353517
-0.068239786 -0.32537347 0.054410078
-0.068383314 -0.32549357 0.054198861
-0.068568178 -0.32562312 0.054102927
-0.068738043 -0.32569376 0.054353748
-0.068902574 -0.32580233 0.054315731
-0.069067053 -0.32591048 0.054280017
-0.069232851 -0.32601044 0.054307848
-0.069402017 -0.32611084 0.05434721
-0.069565162 -0.32622492 0.054264128
-0.06972675 -0.32632867 0.054246929
-0.069856666 -0.32641813 0.054190628
-0.07002379 -0.3265118 0.054268144
-0.070214964 -0.32663822 0.054221869
-0.070382901 -0.32674378 0.054219641
-0.070523977 -0.32682952 0.054238386
-0.070708171 -0.32694083 0.054267257
-0.070881374 -0.32705319 0.054240741
-0.071045019 -0.32714829 0.054292846
-0.071218684 -0.32727098 0.054195836
-0.071383975 -0.32738447 0.054126613
-0.071525209 -0.32746947 0.054151129
-0.071715616 -0.32759523 0.054106008
-0.071880221 -0.32769856 0.054104954
-0.072041713 -0.3278001 0.054102782
-0.072207123 -0.3279011 0.054121368
-0.072360367 -0.32799447 0.054140039
-0.072523914 -0.32810041 0.054115884
-0.072704032 -0.32822189 0.05405581
-0.072865494 -0.3283323 0.053991225
-0.07301183 -0.32842347 0.053994913
-0.073152073 -0.32851085 0.053998649
-0.073316492 -0.32861388 0.053998761
-0.073480718 -0.32871726 0.053995397
-0.07366164 -0.32881877 0.054078601
-0.073801965 -0.32893869 0.053854696
-0.073968068 -0.32903785 0.053889457
-0.074131675 -0.329142 0.053878013
-0.074304283 -0.32924441 0.053918514
-0.074480928 -0.32936203 0.053870015
-0.074646674 -0.32946953 0.05384469
-0.074821271 -0.32957581 0.053866699
-0.074962765 -0.32967484 0.053794149
-0.075139359 -0.32977083 0.053897016
-0.075319529 -0.32988885 0.053861208
-0.075466454 -0.329972 0.05392383
-0.07561671 -0.33007669 0.053850077
-0.075778447 -0.3301962 0.053723097
-0.075936116 -0.33030191 0.053674713
-0.076105006 -0.3304038 0.053702526
-0.076268658 -0.33050701 0.053698022
-0.07644552 -0.33061635 0.053708445
-0.076629147 -0.33073458 0.053686481
-0.076783493 -0.33083227 0.05367972
-0.076954298 -0.33094358 0.05364975
-0.077109151 -0.33103484 0.053690359
-0.077295616 -0.33116063 0.053627934
-0.077462956 -0.33127028 0.053594507
-0.077614799 -0.33137068 0.05355772
-0.077775218 -0.33147186 0.053553239
-0.077960007 -0.33159345 0.053512771
-0.078128517 -0.33170137 0.053496677
-0.078291513 -0.33180481 0.05348755
-0.078434251 -0.33189902 0.053454287
-0.078593269 -0.33200148 0.053434785
-0.078760631 -0.33210537 0.053441811
-0.078913145 -0.33220437 0.053417731
-0.079072841 -0.33231089 0.0533728
-0.079240911 -0.33240926 0.053421427
-0.079404503 -0.33251673 0.053386871
-0.079564512 -0.33261335 0.053412434
-0.079720467 -0.3327322 0.053264685
-0.079888955 -0.33285776 0.053124953
-0.080057189 -0.33295608 0.053174727
-0.080214441 -0.33304158 0.053266164
-0.080373406 -0.33313474 0.05331137
-0.080542758 -0.33324581 0.053276788
-0.080721706 -0.33336639 0.053217873
-0.080891155 -0.33347291 0.053215638
-0.081044167 -0.33357093 0.053200796
-0.081216134 -0.33367553 0.053222816
-0.081367686 -0.33378288 0.053136341
-0.0815292 -0.33388689 0.053116828
-0.08169581 -0.33399129 0.053116914
-0.081861071 -0.33409667 0.053104308
-0.082030989 -0.33420283 0.053106699
-0.082186706 -0.33431062 0.053035218
-0.08233913 -0.33440876 0.053016916
-0.082520291 -0.33451536 0.053065453
-0.08268775 -0.33462688 0.053019322
-0.082864545 -0.33473638 0.053028591
-0.083016612 -0.334831 0.053033397
-0.083196566 -0.33494607 0.053017236
-0.083354488 -0.33505195 0.05296886
-0.083512917 -0.33515024 0.052975938
-0.083656996 -0.33524579 0.052939199
-0.083822906 -0.33534712 0.052957784
-0.083997644 -0.33546141 0.05292432
-0.084175482 -0.335574 0.052916255
-0.08433529 -0.33567861 0.05288519
-0.084489331 -0.33577576 0.052880745
-0.084654823 -0.33587751 0.052894715
-0.084816426 -0.33598453 0.0528544
-0.0849782 -0.33608475 0.052862614
-0.085141085 -0.33618781 0.052855801
-0.085305147 -0.33630019 0.052788883
-0.085459061 -0.33639744 0.052783292
-0.085620441 -0.3364979 0.052788038
-0.08578752 -0.33660558 0.052767336
-0.085967466 -0.33671737 0.052774273
-0.086130701 -0.3368203 0.052769773
-0.086292043 -0.33692405 0.052751407
-0.086448446 -0.33702353 0.05274117
-0.08662305 -0.33713442 0.05273081
-0.086782187 -0.33722985 0.052760996
-0.086938001 -0.33733869 0.052682593
-0.087113276 -0.33744937 0.052676857
-0.087285712 -0.33755511 0.052693088
-0.087454341 -0.3376593 0.052703571
-0.087617524 -0.33776832 0.052656315
-0.087778293 -0.33787516 0.05261369
-0.087939352 -0.33797032 0.052654266
-0.088094682 -0.33807886 0.052575853
-0.088252082 -0.33818096 0.052551743
-0.088409588 -0.33827734 0.052568074
-0.088587724 -0.33839011 0.052560005
-0.088742629 -0.33849296 0.052519735
-0.088910386 -0.3386004 0.052503645
-0.089078419 -0.33869678 0.052566126
-0.089236528 -0.33880147 0.052526984
-0.08940129 -0.33891791 0.052434649
-0.08956033 -0.33901146 0.05247755
-0.089716695 -0.33911917 0.052409537
-0.089873672 -0.3392213 0.052383117
-0.090038806 -0.33932412 0.052387841
-0.090205304 -0.33943194 0.052363668
-0.090364121 -0.33953887 0.052311823
-0.090539686 -0.33964461 0.052341897
-0.09069179 -0.33974782 0.052286625
-0.090852931 -0.33985671 0.052231289
-0.090999976 -0.33995578 0.052182969
-0.091200829 -0.34007424 0.052234847
-0.09136156 -0.34017316 0.052247696
-0.091515072 -0.34027097 0.052236311
-0.091688111 -0.3403776 0.052249081
-0.090749979 -0.34120664 0.042325638
-0.092094481 -0.34243378 0.039632801
-0.092531823 -0.3429406 0.038003046
-0.092701592 -0.34303495 0.038087472
-0.092844814 -0.34312946 0.038054205
-0.09300074 -0.343225 0.038069393
-0.093153432 -0.34332085 0.038068417
-0.093309067 -0.34341654 0.038081292
-0.093464173 -0.34351042 0.038104571
-0.093624838 -0.343606 0.038140532
-0.10041469 -0.34599128 0.051236775
-0.10054655 -0.3460747 0.051231313
-0.10072257 -0.3461743 0.051306456
-0.1009053 -0.34627792 0.051382709
-0.1010761 -0.34638676 0.051370069
-0.10125088 -0.34649581 0.051373582
-0.10140235 -0.34660029 0.051306754
-0.10156821 -0.34670538 0.05129876
-0.10175794 -0.34681883 0.051336844
-0.10189796 -0.34692273 0.051223863
-0.10204453 -0.34702331 0.051162846
-0.10220873 -0.34712306 0.051184908
-0.10239402 -0.34723473 0.051216085
-0.10256142 -0.34734014 0.051212713
-0.10274486 -0.34745362 0.051223092
-0.10289351 -0.3475596 0.051133171
-0.10306656 -0.34766725 0.051139008
-0.10321153 -0.34776598 0.051083773
-0.10337356 -0.34787112 0.051058482
-0.10355988 -0.34797817 0.051126618
-0.10373357 -0.34808949 0.051109344
-0.10390025 -0.34819856 0.051077083
-0.10405234 -0.34829962 0.051036827
-0.10422754 -0.34840778 0.05104842
-0.10438044 -0.34851232 0.050987363
-0.10454036 -0.34861749 0.050952829
-0.10472865 -0.34872195 0.051047545
-0.10490997 -0.34883428 0.051056787
-0.10505957 -0.34894022 0.050971486
-0.10523914 -0.34904912 0.050996918
-0.10539464 -0.34915727 0.050921973
-0.10555868 -0.3492614 0.050912838
-0.10574081 -0.34937075 0.050946351
-0.10587883 -0.34947535 0.050819516
-0.10604627 -0.34957832 0.050833475
-0.10622643 -0.34968925 0.050847352
-0.10639599 -0.34979418 0.050856669
-0.10655753 -0.34990463 0.050792091
-0.106711 -0.35000771 0.050743736
-0.10688362 -0.35011473 0.05075188
-0.10706485 -0.35022765 0.050756507
-0.10722421 -0.35033312 0.050717358
-0.10739386 -0.35043994 0.050713971
-0.1075651 -0.35054544 0.050726742
-0.10772777 -0.35065296 0.050687574
-0.1078697 -0.35075772 0.050576895
-0.1080458 -0.35085934 0.050638173
-0.10823991 -0.35097441 0.050684314
-0.10840157 -0.35108346 0.050630134
-0.10857149 -0.35119522 0.050593235
-0.10873793 -0.35129887 0.050597951
-0.10889313 -0.35140699 0.050521854
-0.10907674 -0.35151631 0.050562277
-0.10923387 -0.3516202 0.050524309
-0.10941091 -0.35173017 0.050531276
-0.10957372 -0.35183498 0.050511748
-0.10974646 -0.35194439 0.050503716
-0.1099091 -0.35205224 0.050462231
-0.11008696 -0.35216403 0.050459947
-0.11025149 -0.35227075 0.05043463
-0.11042388 -0.35238028 0.050424296
-0.11060391 -0.35248965 0.050448574
-0.11076012 -0.35259363 0.050405979
-0.11093539 -0.35270232 0.050414108
-0.11110346 -0.35281274 0.050378371
-0.11128899 -0.35292622 0.050397985
-0.11145177 -0.35303581 0.050344951
-0.11159898 -0.35313398 0.050303578
-0.1117879 -0.35325256 0.050302375
-0.11194915 -0.35335904 0.050264366
-0.11210869 -0.3534638 0.050230999
-0.11229762 -0.35357395 0.050288729
-0.11245754 -0.35368454 0.050216071
-0.11263414 -0.35379258 0.05023459
-0.11279051 -0.35390112 0.050160799
-0.11299394 -0.35401577 0.050250791
-0.11313188 -0.35412082 0.050120492
-0.1133388 -0.35423633 0.050219707
-0.1134904 -0.35434401 0.050130919
-0.11366723 -0.35445386 0.050137885
-0.11383139 -0.35455984 0.05011604
-0.11401857 -0.35467601 0.050124094
-0.11418229 -0.35478339 0.050090689
-0.11435527 -0.3548913 0.050094213
-0.11451498 -0.3549993 0.050038885
-0.11470415 -0.35511473 0.050060794
-0.11486957 -0.35521987 0.050050497
-0.11503261 -0.35532862 0.050004397
-0.11521477 -0.35544279 0.050004389
-0.11536231 -0.35554561 0.049931813
-0.115513 -0.35564911 0.049868457
-0.11571621 -0.35576791 0.049928404
-0.11588552 -0.3558768 0.049908832
-0.11606834 -0.3559927 0.049899582
-0.1162274 -0.3561008 0.049840793
-0.11637954 -0.35620469 0.04978089
-0.11658581 -0.35632327 0.049855847
-0.11676628 -0.35643357 0.049875494
-0.1169154 -0.3565369 0.049806379
-0.11706694 -0.35664338 0.049725674
-0.1172531 -0.35675642 0.049751066
-0.11745939 -0.35687286 0.049841039
-0.11761233 -0.35698107 0.049754556
-0.11775158 -0.35708347 0.049648523
-0.11791337 -0.3571898 0.049613979
-0.11809856 -0.35730422 0.049625512
-0.11829576 -0.35742155 0.049669329
-0.11845696 -0.35752916 0.049623236
-0.11865299 -0.35764509 0.049671672
-0.11880579 -0.35775205 0.049593285
-0.11898513 -0.35786414 0.049595609
-0.11917695 -0.35798055 0.049622115
-0.11933462 -0.35808876 0.049556401
-0.11950307 -0.3581996 0.049519509
-0.11972195 -0.35832164 0.049625587
-0.11986554 -0.35842642 0.04952183
-0.12002385 -0.35853487 0.049457263
-0.1202042 -0.35864758 0.049459584
-0.1204021 -0.35876602 0.049498767
-0.029033359 -0.30026948 0.058139
-0.029220056 -0.30038169 0.058172513
-0.029412504 -0.30050313 0.058166713
-0.029594291 -0.30060947 0.058219887
-0.029791068 -0.30073643 0.058194418
-0.029973749 -0.30084398 0.058242969
-0.030187991 -0.30099067 0.058156163
-0.03038463 -0.30111572 0.058143392
-0.030561674 -0.30122304 0.058168881
-0.030771572 -0.30136269 0.05811213
-0.030971877 -0.30149055 0.058095872
-0.031167671 -0.30161509 0.058083106
-0.031353205 -0.30172905 0.058099292
-0.031555381 -0.30186188 0.058056459
-0.031755581 -0.30199462 0.058005549
-0.031958468 -0.3021287 0.057956927
-0.032156467 -0.30225676 0.057929128
-0.03235675 -0.30238789 0.057889771
-0.032544442 -0.30250537 0.057890918
-0.03273546 -0.30262491 0.057892058
-0.032931805 -0.30275145 0.057867739
-0.033128165 -0.30287814 0.05784227
-0.033307977 -0.30298588 0.057876974
-0.033510838 -0.3031213 0.057819106
-0.033716321 -0.30326033 0.057747371
-0.033912476 -0.30338737 0.057718433
-0.034098662 -0.3035039 0.057719592
-0.03424003 -0.30358058 0.057803072
-0.034473907 -0.30373627 0.057739235
-0.034671634 -0.30386597 0.057698734
-0.03486377 -0.30399084 0.057667512
-0.035063569 -0.30412367 0.057614289
-0.035234965 -0.30422118 0.05768371
-0.035440579 -0.30436209 0.057599258
-0.035632726 -0.30448517 0.057580743
-0.03582079 -0.30460286 0.057581894
-0.036000963 -0.30471247 0.057605047
-0.036190335 -0.30483216 0.057598099
-0.036390692 -0.30496943 0.057515994
-0.036577173 -0.30508548 0.057521783
-0.03677097 -0.3052142 0.057470895
-0.036964599 -0.30534035 0.05743736
-0.037147276 -0.30545154 0.057460502
-0.037330814 -0.30556655 0.057460524
-0.037522137 -0.30568993 0.057436235
-0.037718426 -0.30582303 0.057365708
-0.037900336 -0.30593356 0.057390001
-0.038094856 -0.30606189 0.057344899
-0.038277972 -0.30617437 0.0573611
-0.038464293 -0.30629408 0.057340309
-0.038628422 -0.30640122 0.057310417
-0.038842209 -0.30653888 0.057284832
-0.039038882 -0.3066712 0.057221234
-0.039220519 -0.30678487 0.057222426
-0.03940317 -0.30689737 0.057236321
-0.039593529 -0.30702111 0.057205107
-0.039781682 -0.30714184 0.057185464
-0.039967477 -0.30726206 0.057158899
-0.040150352 -0.30737537 0.057168171
-0.040335018 -0.30749422 0.057146236
-0.040523626 -0.30761623 0.057119653
-0.040711462 -0.30773726 0.057096548
-0.040893957 -0.30785048 0.057104662
-0.041073941 -0.30796292 0.05710702
-0.041260153 -0.30808195 0.057090856
-0.041444719 -0.30820158 0.057063147
-0.041632984 -0.30832401 0.057031944
-0.041816805 -0.30844283 0.057006553
-0.041997742 -0.30855441 0.057019301
-0.042188887 -0.30868182 0.056966133
-0.04237261 -0.30879793 0.056959223
-0.042550009 -0.30890745 0.056970842
-0.042733636 -0.30902371 0.056962773
-0.042926613 -0.30915785 0.056870311
-0.043109335 -0.309273 0.056865722
-0.043284301 -0.30937919 0.056890063
-0.043474156 -0.30950594 0.056835741
-0.043661885 -0.30962953 0.056794152
-0.043844178 -0.3097446 0.0567884
-0.044019356 -0.30985156 0.056808122
-0.044206373 -0.30997455 0.056767683
-0.044388909 -0.31009373 0.056734212
-0.044573233 -0.3102127 0.056709968
-0.044744082 -0.31031302 0.056757443
-0.044933587 -0.31044084 0.056693882
-0.045113511 -0.31055641 0.056674287
-0.045296244 -0.31067342 0.056656983
-0.045466643 -0.31077325 0.056705624
-0.045597769 -0.31080309 0.05707223
-0.045823306 -0.31099644 0.056708045
-0.046016335 -0.3111316 0.056608647
-0.046195164 -0.31124267 0.056615628
-0.046374492 -0.31135473 0.05661799
-0.046562281 -0.31148529 0.056527879
-0.046740703 -0.31159613 0.056534864
-0.046920426 -0.31171304 0.056504868
-0.047101498 -0.31182882 0.056488737
-0.047278039 -0.31194043 0.056481872
-0.047463909 -0.31206518 0.056424107
-0.047636237 -0.31216952 0.056449626
-0.047771882 -0.31225368 0.056455724
-0.047994018 -0.31239852 0.056416228
-0.048176147 -0.31251729 0.056383915
-0.048359148 -0.31264186 0.056314617
-0.048534367 -0.31274822 0.056338951
-0.048712872 -0.31286487 0.056305498
-0.0488934 -0.31298146 0.056281287
-0.04906901 -0.31308886 0.056299843
-0.049244173 -0.3131955 0.056321874
-0.049426779 -0.31332085 0.056245647
-0.049603116 -0.31343001 0.056254961
-0.049774788 -0.31353447 0.056277007
-0.049956482 -0.31365442 0.056234293
-0.050134763 -0.31377226 0.056191605
-0.050316773 -0.31389341 0.056141958
-0.050484147 -0.31398973 0.056202158
-0.050661318 -0.3141014 0.056197599
-0.050842803 -0.31422669 0.056116764
-0.051021285 -0.31434152 0.056096021
-0.051193252 -0.31444761 0.056107678
-0.051371153 -0.31456158 0.0560904
-0.051544186 -0.31467018 0.056089338
-0.051724888 -0.31479052 0.056039698
-0.051899187 -0.31490222 0.05602245
-0.052078463 -0.31501999 0.05598437
-0.052251227 -0.31512877 0.055980995
-0.05242626 -0.31523761 0.055986848
-0.05260212 -0.3153536 0.055946477
-0.052777261 -0.31546304 0.055948868
-0.052952517 -0.31557813 0.055911973
-0.053127643 -0.31568787 0.055912048
-0.053299125 -0.31579468 0.055916775
-0.053467318 -0.31590486 0.055883385
-0.053646866 -0.31602001 0.055864945
-0.053819139 -0.31611791 0.055935524
-0.054002866 -0.31625497 0.055781875
-0.054173581 -0.31635502 0.055830508
-0.054295577 -0.31641063 0.055976495
-0.054475978 -0.31656444 0.055691157
-0.054700248 -0.31671 0.055656269
-0.054874651 -0.31681383 0.055694476
-0.055045657 -0.31692132 0.05569227
-0.055215642 -0.31701991 0.055747837
-0.055391081 -0.31713942 0.055680901
-0.055565551 -0.31725025 0.055670582
-0.055737861 -0.31736201 0.055644095
-0.05590982 -0.31746632 0.055668466
-0.056080185 -0.31757307 0.055668563
-0.056237586 -0.31768507 0.055575162
-0.056410663 -0.31778592 0.055628397
-0.056599542 -0.31791124 0.055579867
-0.056777611 -0.3180418 0.055447049
-0.056943297 -0.31812829 0.055568509
-0.057117596 -0.31824839 0.055492334
-0.057286229 -0.31835142 0.055510931
-0.057456654 -0.3184602 0.055497177
-0.057615772 -0.31855726 0.055515833
-0.057754397 -0.31864542 0.0555069
-0.057938367 -0.3187744 0.055411018
-0.058133688 -0.31889945 0.055392485
-0.058308382 -0.31902444 0.055283964
-0.058484711 -0.31911993 0.055389173
-0.058659412 -0.31923684 0.055337258
-0.058828626 -0.31934369 0.055331588
-0.058999304 -0.31945625 0.055292413
-0.059159063 -0.31955752 0.055284496
-0.059336625 -0.31965691 0.055367745
-0.059505947 -0.31976497 0.055353992
-0.059675947 -0.31987613 0.055321746
-0.059845738 -0.31998682 0.055291824
-0.060017243 -0.32009396 0.055294238
-0.060186233 -0.32020199 0.055279329
-0.060354624 -0.32030767 0.055278286
-0.060526609 -0.32043013 0.055175558
-0.060694046 -0.32053226 0.055195324
-0.060853854 -0.32063684 0.055164296
-0.061034419 -0.32075047 0.055160873
-0.061203338 -0.3208608 0.055129789
-0.061372526 -0.32097307 0.055086002
-0.061541595 -0.32108545 0.055041056
-0.061713651 -0.32119986 0.054994937
-0.061881788 -0.32130837 0.054973103
-0.068399943 -0.32545263 0.054558601
-0.068565167 -0.32555845 0.054542571
-0.0687299 -0.32566729 0.054503426
-0.068893112 -0.32578507 0.054394975
-0.069062538 -0.32588381 0.054447077
-0.06922666 -0.32599407 0.054395229
-0.069392256 -0.32609552 0.054411538
-0.069558367 -0.32619435 0.054448646
-0.069719806 -0.32631645 0.05430207
-0.069883108 -0.326428 0.054237515
-0.070051484 -0.32653153 0.054251496
-0.070216194 -0.3266359 0.05424355
-0.070382074 -0.3267352 0.054276042
-0.070544638 -0.32684779 0.054201089
-0.070711084 -0.32695836 0.054157317
-0.07087788 -0.32705414 0.054218683
-0.071016103 -0.32713708 0.054244399
-0.071160659 -0.32722318 0.054275867
-0.071372181 -0.32736403 0.054217942
-0.071530409 -0.3274762 0.054126851
-0.071701027 -0.32758346 0.054124638
-0.071858287 -0.32768643 0.054093637
-0.07202851 -0.32779458 0.054083347
-0.072192885 -0.32789809 0.054080021
-0.072357424 -0.32801107 0.054010838
-0.072522931 -0.32811132 0.054035235
-0.072685719 -0.32821843 0.053999573
-0.072846621 -0.32832056 0.053990498
-0.072997205 -0.32841063 0.054020766
-0.073180787 -0.32853177 0.053978033
-0.073344655 -0.32864437 0.053908862
-0.073490709 -0.32873568 0.05391027
-0.073651895 -0.32883668 0.053910431
-0.073840663 -0.32893816 0.05402828
-0.073969655 -0.3290239 0.053993978
-0.074114278 -0.32913381 0.053859062
-0.07428135 -0.3292464 0.053803727
-0.074482001 -0.32937929 0.053753965
-0.074629158 -0.32948285 0.053674489
-0.074048869 -0.33162177 0.036148388
-0.074196011 -0.33171394 0.036148645
-0.074341238 -0.33180326 0.036160454
-0.074489079 -0.3318944 0.036171094
-0.074633799 -0.33198458 0.03617483
-0.074780412 -0.33207759 0.036166988
-0.074924968 -0.33216798 0.036168411
-0.075073346 -0.33225846 0.036185984
-0.075218916 -0.33234751 0.036201265
-0.075367451 -0.33243793 0.036219988
-0.075513601 -0.33252636 0.036242198
-0.075660489 -0.33261904 0.036237828
-0.075808026 -0.33270586 0.036277361
-0.075958781 -0.33279386 0.036322646
-0.07610289 -0.33288515 0.036315981
-0.076240748 -0.3329789 0.036264293
-0.082654878 -0.3320294 0.071065769
-0.082813263 -0.33216345 0.070822164
-0.083922617 -0.33312151 0.068981707
-0.084073037 -0.33325088 0.068735838
-0.084253699 -0.33336872 0.068703532
-0.084410004 -0.33349338 0.068516552
-0.084579617 -0.33361351 0.068419605
-0.084731221 -0.33374432 0.068169117
-0.08487761 -0.33387348 0.067907095
-0.085066281 -0.33398545 0.067950994
-0.085242242 -0.33410084 0.067915246
-0.085417725 -0.33422035 0.06784831
-0.085574403 -0.33435005 0.067627817
-0.085770644 -0.33445406 0.067760639
-0.085928604 -0.3345786 0.067581728
-0.086116508 -0.33469108 0.067618698
-0.086270325 -0.33481717 0.067410938
-0.086449802 -0.33493376 0.067382105
-0.08661887 -0.33505538 0.067272455
-0.086795494 -0.33517316 0.067222841
-0.086972192 -0.33529082 0.067174375
-0.087138161 -0.33541328 0.067045107
-0.087332822 -0.33552623 0.067108609
-0.087518923 -0.33563957 0.067131735
-0.087706365 -0.3357524 0.067164078
-0.087891862 -0.33586618 0.067181423
-0.08807791 -0.33598328 0.067177966
-0.088247888 -0.33610001 0.067106441
-0.088424645 -0.33622414 0.067012921
-0.088638335 -0.33634061 0.067135237
-0.088836171 -0.33645669 0.067190632
-0.089038461 -0.33656797 0.06729915
-0.089232028 -0.33667278 0.067414649
-0.089412831 -0.33677587 0.067486323
-0.089580745 -0.33688685 0.067446008
-0.089757025 -0.33699173 0.067485362
-0.089951627 -0.33709702 0.067602009
-0.09014041 -0.33721089 0.067633204
-0.090312734 -0.3373301 0.067554727
-0.090488099 -0.33744511 0.067518987
-0.090674721 -0.33755976 0.067535177
-0.090855367 -0.33767626 0.067512102
-0.091038704 -0.33779198 0.067506358
-0.091241062 -0.33790231 0.067621797
-0.091435656 -0.33801207 0.067707255
-0.091629609 -0.33812523 0.067766145
-0.091820769 -0.33823627 0.067827351
-0.092007093 -0.33835173 0.067836612
-0.092203237 -0.33846477 0.067905881
-0.092402801 -0.33857715 0.067994773
-0.09258917 -0.33868998 0.068022504
-0.092776388 -0.33881146 0.067993626
-0.092975833 -0.33892721 0.06805826
-0.093158409 -0.33904693 0.068021312
-0.093452469 -0.33917949 0.068383448
-0.093669683 -0.33928663 0.068586625
-0.093848541 -0.33940482 0.068543918
-0.094012097 -0.33950084 0.068589136
-0.094194092 -0.33960733 0.068642311
-0.094378233 -0.33971629 0.068687394
-0.094564639 -0.33983049 0.068705887
-0.094785362 -0.33994955 0.068840861
-0.089696839 -0.34124002 0.037469689
-0.089859411 -0.34133708 0.037503347
-0.090011962 -0.34143153 0.037511647
-0.090152919 -0.34152558 0.037471499
-0.090306841 -0.34161988 0.037486721
-0.090455741 -0.34171283 0.037489273
-0.09060549 -0.34180781 0.03748142
-0.090762481 -0.34190187 0.037511647
-0.090922654 -0.34199566 0.037558038
-0.091071643 -0.34208882 0.037559424
-0.091223642 -0.34218371 0.037561953
-0.091371849 -0.34227705 0.037558731
-0.091521725 -0.34237227 0.037549723
-0.091676563 -0.34246501 0.037579965
-0.091838159 -0.34255916 0.037629813
-0.10136361 -0.34660441 0.051107764
-0.10155155 -0.34671032 0.051190957
-0.10172869 -0.34681407 0.051241849
-0.10188246 -0.34690958 0.051247835
-0.10204811 -0.3470147 0.051238731
-0.10219413 -0.34711343 0.051188145
-0.1023524 -0.3472164 0.051161759
-0.10250111 -0.3473188 0.051097289
-0.10268341 -0.34741804 0.051202469
-0.10286108 -0.34752938 0.051202524
-0.10302024 -0.34763604 0.051154181
-0.10317284 -0.3477422 0.051080443
-0.10335292 -0.34785208 0.051101293
-0.10350332 -0.3479529 0.051055301
-0.10369521 -0.34806213 0.05113269
-0.10384734 -0.34816486 0.051080912
