# .PCD v0.7 - Point Cloud Data file format
VERSION 0.7
FIELDS x y z
SIZE 4 4 4
TYPE F F F
COUNT 1 1 1
WIDTH 1311
HEIGHT 1
VIEWPOINT 0 0 0 1 0 0 0
POINTS 1311
DATA ascii
-0.094515152 -0.32535711 0.055606879
-0.094696455 -0.32546404 0.055655919
-0.094844863 -0.32556975 0.055581614
-0.095011219 -0.3256751 0.055581082
-0.095181055 -0.32578045 0.0555944
-0.095332757 -0.32588807 0.055521224
-0.095489345 -0.32599163 0.055493042
-0.095669135 -0.32609707 0.055545546
-0.095840886 -0.32620656 0.055540387
-0.095995434 -0.32631415 0.055478752
-0.096167028 -0.32641786 0.055509362
-0.096319348 -0.32652348 0.055451196
-0.096492492 -0.32662928 0.05547487
-0.096659429 -0.32673317 0.055485886
-0.096810609 -0.32683879 0.055423103
-0.096963331 -0.32694632 0.055354554
-0.097126059 -0.32705212 0.055336736
-0.097295441 -0.32715809 0.055344272
-0.097461089 -0.32726595 0.055325292
-0.097621873 -0.32737178 0.055299401
-0.097774103 -0.32747552 0.055252772
-0.097956769 -0.32758772 0.055274107
-0.098120145 -0.32769373 0.055257447
-0.098281391 -0.32779786 0.055244237
-0.098442085 -0.32790384 0.055217206
-0.098628327 -0.32801649 0.055250071
-0.098791957 -0.32812449 0.055221856
-0.098948486 -0.32822675 0.055201754
-0.099119723 -0.32833701 0.055189677
-0.09929426 -0.3284457 0.055200659
-0.09945403 -0.32855183 0.055169009
-0.099617034 -0.32865816 0.055148877
-0.099787131 -0.32876498 0.0551541
-0.099964015 -0.32887405 0.055172004
-0.10011365 -0.32897964 0.05510347
-0.10027222 -0.32908756 0.055055663
-0.10043561 -0.32919231 0.055047069
-0.10060468 -0.32930103 0.05503615
-0.10074914 -0.32940093 0.054982625
-0.10092807 -0.32950875 0.055016663
-0.10112572 -0.32962164 0.055093341
-0.1012556 -0.32972735 0.054945257
-0.1013971 -0.32982701 0.054881353
-0.10158186 -0.32993561 0.054933842
-0.10175481 -0.33005008 0.05490214
-0.10192979 -0.33015797 0.054920051
-0.10209388 -0.3302615 0.054921836
-0.10227279 -0.33037499 0.054920115
-0.10242312 -0.33047897 0.054864265
-0.10259795 -0.33058879 0.054869484
-0.1027787 -0.33069593 0.054915056
-0.10293993 -0.3308028 0.054884549
-0.10310784 -0.33091205 0.054865561
-0.1032716 -0.33101594 0.054863889
-0.10342845 -0.33112735 0.054787248
-0.10357575 -0.33123603 0.054689869
-0.10374641 -0.33133587 0.054741248
-0.10392554 -0.33145151 0.054726839
-0.10409744 -0.33155981 0.054729752
-0.10424234 -0.33166328 0.054655455
-0.10441153 -0.33177134 0.054649156
-0.10461159 -0.33189622 0.05466006
-0.10476917 -0.33200133 0.054626107
-0.10493226 -0.33210075 0.054649811
-0.10510142 -0.33221063 0.054631971
-0.10524639 -0.33231416 0.054557677
-0.105435 -0.33242828 0.054590538
-0.10559864 -0.33253595 0.054564644
-0.1057651 -0.33264247 0.054557189
-0.10595331 -0.33275834 0.054577358
-0.10611599 -0.33287072 0.054518014
-0.10626946 -0.33297706 0.05445984
-0.10643645 -0.33307916 0.054482386
-0.10663687 -0.33320022 0.054518666
-0.10680057 -0.33330661 0.054500844
-0.10692925 -0.33340624 0.054386221
-0.1071039 -0.33351281 0.054411054
-0.10729829 -0.33362713 0.054465812
-0.10747952 -0.33374411 0.054451395
-0.10764599 -0.33385116 0.054440483
-0.10780007 -0.33395478 0.054401927
-0.1079883 -0.33407453 0.05439787
-0.10815544 -0.33418185 0.054388113
-0.10830537 -0.33429089 0.054298796
-0.10846497 -0.33439252 0.054294836
-0.10862873 -0.33449787 0.054283932
-0.10884263 -0.33462673 0.054324791
-0.10900515 -0.33473352 0.054300051
-0.10915647 -0.33483392 0.054270726
-0.10931598 -0.33494172 0.054227538
-0.10949641 -0.33505616 0.054225814
-0.10968021 -0.33517125 0.054233305
-0.10985288 -0.33528885 0.054180846
-0.11003938 -0.33540311 0.054204483
-0.11020175 -0.33550867 0.054186665
-0.11036902 -0.33561957 0.054154977
-0.11051558 -0.33572227 0.054092221
-0.11073148 -0.33584085 0.054205749
-0.11088736 -0.3359555 0.054104887
-0.11106226 -0.33606225 0.054129716
-0.11122587 -0.33618122 0.054032288
-0.1114041 -0.33628586 0.054083645
-0.11156341 -0.33639261 0.054046214
-0.11172322 -0.33649948 0.054009944
-0.11192918 -0.33662406 0.05404621
-0.11208928 -0.33673534 0.053983409
-0.11225968 -0.33684728 0.053957485
-0.11243968 -0.33696401 0.053939611
-0.11260688 -0.33707538 0.05390447
-0.11277173 -0.3371807 0.053898182
-0.11295285 -0.33729506 0.053899914
-0.11315137 -0.33741307 0.053947743
-0.11331537 -0.33753231 0.053850312
-0.11346519 -0.33762774 0.053846382
-0.11361893 -0.33773094 0.053808976
-0.11381696 -0.33785471 0.053818729
-0.11399917 -0.33796829 0.053829696
-0.11415497 -0.3380748 0.053779587
-0.11435399 -0.33819902 0.053790495
-0.11452858 -0.33830702 0.053806096
-0.023467749 -0.27934042 0.062281135
-0.023672383 -0.27947697 0.06223667
-0.023863487 -0.27959836 0.062233761
-0.02404232 -0.27970374 0.062282801
-0.024205476 -0.27980778 0.062277675
-0.024460755 -0.27999985 0.06208542
-0.024640545 -0.28010198 0.062158667
-0.024824612 -0.2802147 0.062182322
-0.025021601 -0.28034475 0.062148251
-0.025224969 -0.28048104 0.062100329
-0.025421951 -0.28061146 0.062063955
-0.025612254 -0.28073308 0.062056437
-0.025780909 -0.28082561 0.062145874
-0.02597858 -0.28095737 0.062103737
-0.026185818 -0.28110236 0.062016584
-0.026375815 -0.28122157 0.06202291
-0.026568163 -0.28134668 0.062001549
-0.026753597 -0.28146246 0.06201135
-0.026951231 -0.28159511 0.061963435
-0.027150296 -0.28172997 0.061907455
-0.027334921 -0.28184506 0.061918408
-0.027530558 -0.28197554 0.061876278
-0.027728103 -0.28210887 0.061823756
-0.027907375 -0.28221691 0.06185779
-0.028071593 -0.28231981 0.061864205
-0.02829602 -0.28247547 0.06177815
-0.028499991 -0.28261602 0.061705999
-0.028669059 -0.28271008 0.061787363
-0.028855838 -0.28282928 0.061781012
-0.0290635 -0.28297836 0.061669637
-0.029249351 -0.28309661 0.061665595
-0.029426821 -0.28320295 0.061703097
-0.029620353 -0.28333247 0.061658666
-0.029800303 -0.28344259 0.061682321
-0.029983748 -0.28355783 0.061687514
-0.030185111 -0.28369927 0.061599232
-0.030361392 -0.28380156 0.061657503
-0.030554488 -0.28393134 0.061609603
-0.030751482 -0.28406709 0.061539784
-0.030931652 -0.28417826 0.061557677
-0.031110197 -0.28428712 0.061583646
-0.031309471 -0.28442687 0.06149767
-0.031491127 -0.28454062 0.06150518
-0.031675838 -0.28465906 0.061495371
-0.031860169 -0.28477705 0.061486725
-0.032052275 -0.28490695 0.061434217
-0.032241054 -0.28502905 0.061417475
-0.032429773 -0.28515425 0.061381139
-0.032608021 -0.28526366 0.061402488
-0.032788627 -0.28537676 0.061410002
-0.032976791 -0.2855016 0.061373655
-0.033160519 -0.28561977 0.061361551
-0.033345275 -0.28573969 0.061342515
-0.033521537 -0.28584656 0.061371952
-0.033717189 -0.2859807 0.061306752
-0.033902962 -0.28610274 0.061278492
-0.034083296 -0.28621641 0.061281387
-0.034256585 -0.28631899 0.061325829
-0.034442257 -0.28644133 0.061295249
-0.034634735 -0.28657478 0.061221994
-0.034822952 -0.28670165 0.061172955
-0.034999713 -0.28682989 0.061069749
-0.035184573 -0.28693873 0.061121076
-0.035366073 -0.2870487 0.061151646
-0.035551481 -0.2871685 0.061136074
-0.035743557 -0.28730276 0.061055891
-0.035915341 -0.28740388 0.061103798
-0.036100686 -0.28752747 0.061063997
-0.036277652 -0.28763735 0.061077282
-0.036465429 -0.28776541 0.061019033
-0.036640033 -0.2878716 0.061046161
-0.036804114 -0.28797403 0.061054874
-0.037011907 -0.28812265 0.060946964
-0.037187185 -0.28823036 0.06096717
-0.037369397 -0.28834647 0.060961992
-0.037546337 -0.28845724 0.060969517
-0.037732147 -0.28858352 0.060914718
-0.0379126 -0.28870073 0.060895704
-0.038089294 -0.28881153 0.060902067
-0.038271558 -0.28893226 0.060868047
-0.038453855 -0.28904954 0.060855947
-0.038634166 -0.2891672 0.060833465
-0.038808282 -0.28927398 0.060854837
-0.038990654 -0.28939569 0.060815051
-0.03917516 -0.28951767 0.060782183
-0.039345257 -0.28961751 0.060831245
-0.039535359 -0.289754 0.060729146
-0.039708622 -0.28985989 0.060752831
-0.039900832 -0.28999698 0.060655337
-0.040054861 -0.29009143 0.060674474
-0.040196449 -0.29016259 0.060790516
-0.04042099 -0.29031649 0.060715999
-0.040606685 -0.29044655 0.060636982
-0.040784363 -0.29056162 0.060620289
-0.040965702 -0.29067975 0.060598955
-0.04113787 -0.2907846 0.06062495
-0.041320577 -0.29091001 0.060563244
-0.041503176 -0.2910355 0.060500383
-0.041676603 -0.29113895 0.060540214
-0.04185598 -0.29125857 0.060501598
-0.042031974 -0.29136726 0.060518343
-0.042208508 -0.29148164 0.060501643
-0.04238411 -0.2915943 0.060491871
-0.042564139 -0.29171619 0.06044171
-0.042746272 -0.29183811 0.060399614
-0.04291226 -0.29194543 0.060385261
-0.043053083 -0.29201448 0.060511686
-0.043272585 -0.29217288 0.06038874
-0.043451086 -0.29229289 0.060344353
-0.043615021 -0.29238203 0.060436111
-0.043786012 -0.292496 0.060399815
-0.043977529 -0.29263011 0.060318485
-0.044153713 -0.29274607 0.060290255
-0.044327281 -0.29285654 0.06028625
-0.044513986 -0.29299125 0.06018186
-0.044681206 -0.29308799 0.060239002
-0.044856165 -0.29319695 0.060249992
-0.04502875 -0.29330587 0.060251761
-0.045203984 -0.29342106 0.060224682
-0.045374088 -0.29352456 0.060250677
-0.045555372 -0.2936489 0.060190134
-0.045734305 -0.29377356 0.060118064
-0.04590416 -0.29387143 0.060178656
-0.046082631 -0.29399562 0.060107753
-0.046255883 -0.29410186 0.060129117
-0.046428733 -0.29421297 0.060118198
-0.046569668 -0.29429215 0.060181197
-0.046776056 -0.29443988 0.060073286
-0.046952691 -0.29455522 0.060050815
-0.047126774 -0.2946704 0.060019132
-0.047278121 -0.29477045 0.059992127
-0.047471169 -0.29488558 0.06003651
-0.047648609 -0.29501039 0.059957519
-0.04780829 -0.29510766 0.059981242
-0.047971383 -0.29520765 0.060001493
-0.048163697 -0.29533437 0.059969753
-0.048341487 -0.29545501 0.059918448
-0.048510812 -0.29556608 0.059893694
-0.048686471 -0.29567459 0.059910443
-0.048861515 -0.2957955 0.059846457
-0.04903594 -0.29590797 0.059833232
-0.049206793 -0.29601747 0.059824616
-0.049376689 -0.29612431 0.059828699
-0.049548507 -0.29623717 0.059802786
-0.049721383 -0.29634589 0.059806861
-0.049890973 -0.29645237 0.059812099
-0.050032489 -0.29653394 0.059862405
-0.050233401 -0.29666814 0.05981794
-0.050410993 -0.29679286 0.059740108
-0.050580993 -0.29690161 0.059732668
-0.050752588 -0.29701596 0.059696369
-0.050923444 -0.2971282 0.059670456
-0.051095422 -0.29723582 0.059677996
-0.051263198 -0.29733786 0.059703998
-0.051438637 -0.29745811 0.059645779
-0.051607095 -0.29756296 0.059656791
-0.051766597 -0.2976636 0.059658594
-0.051932089 -0.29777721 0.059602708
-0.052120224 -0.29789817 0.059590593
-0.05228968 -0.29800785 0.05957507
-0.052452624 -0.29811287 0.059563018
-0.052628346 -0.29822728 0.059542868
-0.052801132 -0.29834092 0.059515797
-0.052970733 -0.29845271 0.059487589
-0.053143322 -0.2985664 0.059459366
-0.053312719 -0.29867825 0.059429996
-0.053481515 -0.29878789 0.059412166
-0.053648774 -0.29889068 0.059431251
-0.053819686 -0.29899821 0.059435334
-0.053989708 -0.29911482 0.059378285
-0.054159377 -0.29921678 0.05941236
-0.054328363 -0.29932931 0.059377231
-0.05449748 -0.29944316 0.059334017
-0.054665126 -0.2995497 0.059331186
-0.054835569 -0.29965672 0.05933642
-0.055002965 -0.29976237 0.059338205
-0.055171553 -0.29987553 0.059297308
-0.055340119 -0.29998943 0.0592518
-0.055503204 -0.30008665 0.059289351
-0.055678133 -0.30020696 0.05922883
-0.055847682 -0.30031031 0.059253674
-0.056017615 -0.30043751 0.05912973
-0.056183364 -0.30053461 0.059178807
-0.056347311 -0.30063969 0.059170216
-0.056510344 -0.30073765 0.059203155
-0.056687288 -0.30085719 0.059155311
-0.056853991 -0.30096295 0.059153639
-0.057021067 -0.30107296 0.059126586
-0.057191089 -0.30118465 0.059100684
-0.057357676 -0.30129144 0.05909209
-0.057527296 -0.30140033 0.059082329
-0.057693936 -0.30150953 0.059058733
-0.057833023 -0.30160493 0.059012167
-0.058014385 -0.3017163 0.059033517
-0.05817825 -0.30183381 0.058946498
-0.058340829 -0.30192924 0.058993272
-0.0585251 -0.30204082 0.059024993
-0.058691666 -0.30216187 0.058926437
-0.058854472 -0.30226532 0.058923624
-0.059026271 -0.30236626 0.058972683
-0.059170768 -0.30246836 0.058905333
-0.05934573 -0.30258301 0.05888056
-0.059489898 -0.30267376 0.058883566
-0.059661567 -0.3027975 0.058788456
-0.059830192 -0.30289751 0.0588306
-0.060007844 -0.30301422 0.058803514
-0.060170569 -0.30310389 0.058887206
-0.06031689 -0.30321872 0.058747187
-0.060485311 -0.30332354 0.058758192
-0.060672145 -0.30343857 0.058778375
-0.060861599 -0.30356294 0.058750097
-0.061026808 -0.30366683 0.058754198
-0.061189305 -0.30376369 0.058791742
-0.061331734 -0.30387092 0.05868404
-0.061505836 -0.30398172 0.058680035
-0.061664175 -0.30408749 0.058644935
-0.061834116 -0.30420572 0.058577508
-0.062021777 -0.30431008 0.058668036
-0.062180411 -0.30441147 0.058661774
-0.062335435 -0.30451477 0.058628999
-0.062517539 -0.30463743 0.058582291
-0.062679797 -0.30473521 0.05861292
-0.062849775 -0.30484837 0.058577787
-0.063014142 -0.3049539 0.058568053
-0.063181393 -0.30506203 0.058553688
-0.063334569 -0.30515373 0.05858665
-0.063486561 -0.30523387 0.058687676
-0.063626647 -0.3053233 0.058682621
-0.063820586 -0.30548549 0.058434039
-0.063976765 -0.30557889 0.058468148
-0.064143248 -0.30570412 0.05834306
-0.064304613 -0.30580482 0.058351785
-0.064472601 -0.30590719 0.058376633
-0.064661615 -0.30602413 0.058393344
-0.064820133 -0.30612233 0.058406688
-0.064950712 -0.30619219 0.05848702
-0.065120392 -0.30630204 0.058471501
-0.065309986 -0.30644205 0.058345184
-0.065483816 -0.30656111 0.058288123
-0.06564793 -0.30666411 0.058293376
-0.065812036 -0.30676714 0.058298629
-0.065961741 -0.30686927 0.058252018
-0.066123359 -0.30696848 0.058271118
-0.066277251 -0.30706871 0.058253344
-0.06646309 -0.3071937 0.058206625
-0.066614255 -0.30729073 0.058198079
-0.066792578 -0.3073954 0.058249429
-0.066944316 -0.30749094 0.058252409
-0.067107931 -0.30759475 0.058250748
-0.067280635 -0.30771345 0.058191374
-0.067431547 -0.30781066 0.05818053
-0.067597821 -0.30792567 0.05811888
-0.067755364 -0.30801645 0.058174901
-0.067917451 -0.30812314 0.058149021
-0.068082891 -0.30823085 0.058130044
-0.068248421 -0.30833822 0.058113385
-0.068398952 -0.30844364 0.058049474
-0.068587556 -0.30856031 0.058066182
-0.068733916 -0.30865777 0.058035739
-0.068886988 -0.30875763 0.058016799
-0.069056757 -0.30886403 0.058023199
-0.069244303 -0.30898261 0.058023762
-0.069413461 -0.30909011 0.058020927
-0.069573738 -0.30919856 0.057976596
-0.069738053 -0.30930701 0.057948403
-0.06988091 -0.30940244 0.057916813
-0.070048101 -0.3095127 0.057888608
-0.070213549 -0.30961895 0.057878859
-0.070347391 -0.30971467 0.057809237
-0.070521407 -0.30981427 0.057875589
-0.070700407 -0.3099322 0.0578462
-0.070855014 -0.31003505 0.057814576
-0.0710143 -0.31013116 0.057844058
-0.071170785 -0.31024948 0.057722464
-0.071354859 -0.31033602 0.057911046
-0.071499392 -0.31043434 0.057867922
-0.071652859 -0.31055 0.057750944
-0.071830578 -0.3106631 0.057746928
-0.07198143 -0.31076431 0.057710703
-0.07215707 -0.31087425 0.057718225
-0.0723259 -0.31098685 0.057681944
-0.072462685 -0.31108245 0.057624996
-0.072655655 -0.31119385 0.057692446
-0.072818108 -0.31129745 0.057687327
-0.072978139 -0.31140375 0.057655673
-0.073122889 -0.31149539 0.057655226
-0.073305979 -0.31161794 0.057613134
-0.073465221 -0.31171972 0.057606865
-0.073611632 -0.31181461 0.057592563
-0.073779337 -0.31192267 0.057580508
-0.073922962 -0.31202513 0.057507396
-0.074112423 -0.31214091 0.057533331
-0.074272029 -0.31223741 0.057561669
-0.074444875 -0.31235474 0.057511531
-0.074589252 -0.3124513 0.057478786
-0.074757136 -0.31255433 0.057499014
-0.074928336 -0.31266823 0.057463881
-0.075089604 -0.31277254 0.057449535
-0.075247288 -0.31287095 0.057458267
-0.075402923 -0.31297556 0.057419717
-0.075565644 -0.31307858 0.057419218
-0.075714409 -0.31317556 0.057401448
-0.075879581 -0.31328526 0.057368629
-0.076061338 -0.31340751 0.057323083
-0.076205924 -0.31349486 0.057349157
-0.076375328 -0.31360123 0.057354394
-0.076529853 -0.31370622 0.057308927
-0.076702721 -0.31381828 0.057292245
-0.076874465 -0.31392702 0.057291709
-0.077030338 -0.31402683 0.057284296
-0.077168822 -0.31411472 0.057282709
-0.077334516 -0.31422368 0.057256818
-0.077500835 -0.31432828 0.057260904
-0.077675804 -0.31443888 0.057261515
-0.077821359 -0.3145338 0.057243757
-0.077969044 -0.31463119 0.057219073
-0.078152001 -0.31475198 0.057187364
-0.078309983 -0.31485423 0.057173025
-0.078466475 -0.31495735 0.057147164
-0.078634985 -0.3150681 0.057121255
-0.078819342 -0.31517333 0.057193346
-0.078973174 -0.31528521 0.057101745
-0.079132862 -0.31538284 0.057123162
-0.079288661 -0.31548628 0.057092693
-0.079444051 -0.31558633 0.057081822
-0.079589307 -0.31568122 0.057062913
-0.07978344 -0.3158029 0.057070378
-0.079930604 -0.31589681 0.057065301
-0.080095619 -0.31599894 0.057079785
-0.080264859 -0.31610924 0.057059642
-0.080427237 -0.31621608 0.057033762
-0.080570534 -0.31631526 0.056980252
-0.080723748 -0.31641302 0.056975171
-0.080894753 -0.3165257 0.056946944
-0.081067652 -0.31663099 0.056972928
-0.081221007 -0.31673524 0.056927472
-0.081375405 -0.31683576 0.056909695
-0.081527889 -0.31693709 0.056879226
-0.081693977 -0.31704539 0.056859095
-0.081872784 -0.31715477 0.056882761
-0.082029499 -0.31725749 0.05686035
-0.082189947 -0.31735563 0.056881763
-0.082342617 -0.31745377 0.056872062
-0.082502268 -0.31756458 0.056810431
-0.082655527 -0.31767464 0.056728065
-0.082800776 -0.31776935 0.056710307
-0.082959771 -0.31787115 0.05670289
-0.083132215 -0.3179712 0.056760021
-0.08331015 -0.31807837 0.056794062
-0.083467081 -0.31818691 0.056735899
-0.083616748 -0.31829196 0.056670845
-0.083777346 -0.31839621 0.0566542
-0.083934247 -0.31850454 0.056597188
-0.08409141 -0.318607 0.056578245
-0.08425276 -0.31871101 0.056566209
-0.084412552 -0.3188155 0.056544945
-0.084577352 -0.31892133 0.056535199
-0.084739581 -0.3190279 0.056510467
-0.084913068 -0.31913686 0.056515694
-0.085054547 -0.31923541 0.056458741
-0.085227892 -0.31934172 0.056480102
-0.085381836 -0.31944507 0.056442723
-0.085555613 -0.31955677 0.056431796
-0.085708566 -0.31965765 0.056405935
-0.085875846 -0.31975499 0.056459628
-0.086029589 -0.3198584 0.056421086
-0.086208634 -0.31997159 0.056421675
-0.086357974 -0.32007074 0.056392372
-0.086510859 -0.3201769 0.056333072
-0.086685345 -0.32028079 0.056374043
-0.086863309 -0.32040212 0.056319281
-0.08699505 -0.32049724 0.056245059
-0.087145403 -0.32059357 0.056237664
-0.087320872 -0.32069498 0.056298248
-0.087499127 -0.32079852 0.056356505
-0.087659061 -0.32090825 0.056302957
-0.087785743 -0.32100916 0.056172222
-0.087955788 -0.32110694 0.056233972
-0.088149242 -0.32121059 0.056352168
-0.08833012 -0.32132405 0.056358524
-0.08846841 -0.3214325 0.056226604
-0.088604935 -0.32153377 0.056132749
-0.088781685 -0.3216382 0.05617949
-0.088937692 -0.32174835 0.056107491
-0.089106463 -0.3218565 0.056098882
-0.089258187 -0.32195297 0.056096103
-0.089427605 -0.32205403 0.05613479
-0.089598373 -0.32216674 0.056105424
-0.089766636 -0.32227513 0.056093358
-0.089915857 -0.3223744 0.056062907
-0.090060085 -0.32248348 0.055950578
-0.090191692 -0.32258019 0.055865966
-0.090378463 -0.32267722 0.055999175
-0.090582214 -0.32278174 0.056153096
-0.09072493 -0.32289317 0.056020003
-0.09088669 -0.32300019 0.055990666
-0.091062799 -0.32311025 0.055999346
-0.091214366 -0.32322049 0.055908903
-0.091370694 -0.32331914 0.055910718
-0.091528133 -0.32342213 0.055889465
-0.091696806 -0.32353079 0.055877402
-0.09185867 -0.32363129 0.055889584
-0.092015103 -0.32374096 0.055822194
-0.0921866 -0.32384297 0.055863187
-0.092337713 -0.32394654 0.055813111
-0.092509881 -0.32405081 0.055842571
-0.092664063 -0.32415631 0.055792484
-0.092809655 -0.32426444 0.055691682
-0.092968173 -0.32436538 0.055687733
-0.093157157 -0.32446474 0.055815164
-0.093346968 -0.32457688 0.055865318
-0.093475029 -0.32468161 0.055716127
-0.093657508 -0.32479003 0.055760544
-0.093806475 -0.32489368 0.055701256
-0.093988113 -0.32500231 0.055741057
-0.094136856 -0.32510805 0.055667922
-0.094296753 -0.32520929 0.05566743
-0.094467379 -0.32532045 0.055647284
-0.094624914 -0.32542592 0.05561104
-0.094799533 -0.32552898 0.055657778
-0.094964176 -0.32563835 0.055624973
-0.095117591 -0.32574195 0.055584121
-0.095289059 -0.32585126 0.055578973
-0.095460817 -0.3259626 0.055562284
-0.095621519 -0.32606417 0.055562939
-0.095779255 -0.32616973 0.055526685
-0.095913261 -0.32626945 0.055432845
-0.096098721 -0.326377 0.055494539
-0.096264966 -0.32648262 0.055491716
-0.096416906 -0.32658434 0.055456642
-0.096568704 -0.32668799 0.055408873
-0.096717194 -0.3267954 0.055324212
-0.096901543 -0.32690334 0.055379003
-0.097055241 -0.3270089 0.055326618
-0.097212926 -0.32711077 0.055313434
-0.097400203 -0.32722098 0.055365905
-0.097571157 -0.32733271 0.055343457
-0.097743794 -0.32743892 0.055362526
-0.097890861 -0.32754248 0.055296324
-0.098049536 -0.32764643 0.055273905
-0.098219067 -0.32775453 0.055268764
-0.09838061 -0.32785866 0.055256724
-0.098560564 -0.3279728 0.055255011
-0.098713532 -0.32807481 0.055222232
-0.098879069 -0.3281756 0.055247091
-0.099066362 -0.32828304 0.055316869
-0.099209465 -0.3283973 0.055167627
-0.099382751 -0.32850412 0.055185542
-0.099541456 -0.32861194 0.055138905
-0.099709116 -0.3287203 0.055124551
-0.099885613 -0.3288275 0.055152822
-0.10004647 -0.32893375 0.055124637
-0.10022171 -0.32904455 0.055125248
-0.10036359 -0.32914776 0.055040605
-0.10053349 -0.32925296 0.055055071
-0.10070764 -0.32936034 0.055072971
-0.10087153 -0.3294687 0.05504363
-0.10102291 -0.3295761 0.054970495
-0.10117199 -0.32967636 0.054933116
-0.10136057 -0.32978168 0.055021342
-0.10151253 -0.32988745 0.054960884
-0.10170503 -0.33000019 0.055017952
-0.10185567 -0.33011097 0.054920603
-0.10202084 -0.33021796 0.054905083
-0.10219105 -0.33032209 0.054927617
-0.10235751 -0.33043098 0.054905184
-0.10250498 -0.33053297 0.054850511
-0.10270568 -0.33064705 0.054931782
-0.10285792 -0.33075628 0.054850567
-0.10302708 -0.33086562 0.054836195
-0.10319704 -0.33097836 0.054803364
-0.10336109 -0.33108225 0.054802857
-0.10351293 -0.3311848 0.054762013
-0.10370036 -0.33129638 0.054806404
-0.10383528 -0.33140031 0.054689493
-0.10403198 -0.33150822 0.054793831
-0.10419302 -0.33162338 0.054710288
-0.10435426 -0.33172074 0.05473977
-0.10452868 -0.33183593 0.054709233
-0.10468829 -0.33194289 0.054671824
-0.10484838 -0.3320483 0.054645952
-0.10502461 -0.33216062 0.054640789
-0.10518778 -0.33226651 0.054624125
-0.10535554 -0.33237624 0.054601692
-0.10551177 -0.33247811 0.054582752
-0.10571049 -0.33259845 0.054616727
-0.10585862 -0.33270085 0.054562055
-0.10603362 -0.33281332 0.054551125
-0.10620686 -0.33292562 0.054534443
-0.10635881 -0.33302861 0.054491285
-0.10654181 -0.33313462 0.054552998
-0.10671557 -0.33324867 0.054527074
-0.10688087 -0.33335996 0.054485038
-0.10702112 -0.33345973 0.054415397
-0.10720503 -0.33357236 0.054439038
-0.10736965 -0.33366984 0.054481201
-0.10752574 -0.33378133 0.054401133
-0.1077119 -0.33389756 0.054410931
-0.1078621 -0.33399597 0.054389697
-0.1080361 -0.33411038 0.054362621
-0.10823261 -0.33423153 0.054382764
-0.10839423 -0.33434248 0.054328062
-0.10853562 -0.33443806 0.054289557
-0.10870028 -0.33454657 0.054262511
-0.10887051 -0.33465454 0.054260828
-0.10905889 -0.33477017 0.054283306
-0.10922267 -0.33487865 0.054252803
-0.10939448 -0.33498707 0.054254573
-0.10957369 -0.33509839 0.05426785
-0.10973094 -0.33521023 0.054190081
-0.10987483 -0.33530796 0.054148108
-0.1100803 -0.33543 0.054198213
-0.11025719 -0.33554405 0.054184977
-0.11043419 -0.33565959 0.054162502
-0.11059543 -0.33576649 0.054132007
-0.11075304 -0.33587271 0.054091156
-0.11092664 -0.33598629 0.054067541
-0.11109577 -0.33609909 0.054031253
-0.11126181 -0.33619982 0.054058418
-0.11141829 -0.33630165 0.054040626
-0.11157072 -0.33640844 0.05397556
-0.11175007 -0.33651343 0.054029204
-0.11194704 -0.33664328 0.053996302
-0.11212317 -0.33676195 0.053950761
-0.11227667 -0.33685917 0.05395028
-0.11247904 -0.33698183 0.053984255
-0.1126495 -0.33709529 0.053949121
-0.1127988 -0.33719879 0.053892132
-0.1129842 -0.33730981 0.053931922
-0.11312992 -0.33741122 0.053873792
-0.11332949 -0.33753926 0.053862792
-0.11349892 -0.33764437 0.053876098
-0.11364345 -0.33774287 0.053831823
-0.11381806 -0.3378602 0.053788599
-0.11401774 -0.33798298 0.053811044
-0.11420599 -0.33810475 0.053794306
-0.11433391 -0.33819017 0.053766221
-0.11457178 -0.33832157 0.053886585
-0.02361238 -0.27944109 0.062223539
-0.023807287 -0.27956504 0.062219523
-0.02400545 -0.27969584 0.062185504
-0.02420336 -0.27982646 0.062151484
-0.024411369 -0.27997065 0.06207246
-0.024589397 -0.28007531 0.062122688
-0.02478525 -0.28020373 0.062094439
-0.024969991 -0.28031504 0.062129654
-0.025168817 -0.28044772 0.062086407
-0.025350034 -0.28055698 0.062120479
-0.025551993 -0.28069422 0.062061079
-0.025723625 -0.28078824 0.062152836
-0.025926419 -0.28092691 0.062087677
-0.026140753 -0.2810815 0.061968267
-0.026330993 -0.28120363 0.061957337
-0.02652552 -0.28132918 0.061941784
-0.026723813 -0.28146261 0.061891627
-0.026913419 -0.28158432 0.061880693
-0.027098894 -0.28170049 0.061888225
-0.027286913 -0.2818203 0.061883077
-0.027479135 -0.28194603 0.061857145
-0.027673859 -0.28207284 0.061834667
-0.027864669 -0.28219694 0.061813351
-0.028050251 -0.28231391 0.061816279
-0.028240908 -0.28243813 0.061793812
-0.028443746 -0.28257701 0.061727494
-0.028617267 -0.28267735 0.061786957
-0.028819911 -0.28281906 0.061702184
-0.029012691 -0.28294697 0.061664727
-0.029168215 -0.28305188 0.061623909
-0.029380348 -0.28317505 0.061693642
-0.029535387 -0.28326297 0.061757769
-0.029748172 -0.2834065 0.061701797
-0.029934153 -0.28352261 0.061711635
-0.030131768 -0.28365856 0.061643019
-0.030327525 -0.28379205 0.061582491
-0.030513499 -0.28391144 0.061571572
-0.030697886 -0.28402585 0.061586022
-0.030864395 -0.2841168 0.061676651
-0.031060807 -0.28425199 0.061608046
-0.031264644 -0.28439847 0.061497897
-0.031451385 -0.2845169 0.061496198
-0.031635664 -0.28463468 0.06148874
-0.031820633 -0.2847507 0.061495133
-0.03201212 -0.28487965 0.061446138
-0.03219961 -0.28500277 0.061417922
-0.032403339 -0.28515375 0.061278943
-0.032577138 -0.28525046 0.061362624
-0.032765016 -0.28537473 0.061328635
-0.032954626 -0.28549883 0.061302714
-0.033135451 -0.28561258 0.061306804
-0.033315942 -0.28572598 0.06131205
-0.033501852 -0.2858479 0.061284978
-0.033709209 -0.28600046 0.06115061
-0.033875261 -0.28609169 0.061237775
-0.034055393 -0.28620189 0.061261468
-0.034244034 -0.28632885 0.061213639
-0.034428123 -0.28644562 0.061211951
-0.034611396 -0.28656444 0.061194114
-0.034796 -0.28668553 0.061167061
-0.034978721 -0.28680381 0.061150387
-0.035166092 -0.28692648 0.061124474
-0.035356745 -0.28705803 0.061055884
-0.035529379 -0.28716037 0.061099205
-0.035704892 -0.28726748 0.061124064
-0.035895001 -0.28739539 0.061076231
-0.036078334 -0.28751567 0.061049178
-0.036262829 -0.2876347 0.061034799
-0.03643664 -0.28773946 0.061067734
-0.036623858 -0.2878668 0.061011843
-0.036805958 -0.28798577 0.060988247
-0.036993939 -0.28811139 0.060946196
-0.037178222 -0.2882345 0.060905293
-0.037359834 -0.28834969 0.060903613
-0.037537348 -0.28846154 0.060906563
-0.037711587 -0.28856787 0.060931426
-0.037900627 -0.28870001 0.060852461
-0.038079217 -0.28881055 0.060868084
-0.038253471 -0.28891721 0.060890637
-0.038449608 -0.28905898 0.06077937
-0.038623247 -0.28916493 0.060804233
-0.038806494 -0.2892881 0.060758732
-0.038989671 -0.28941143 0.060712069
-0.039161898 -0.28951132 0.06076923
-0.039339043 -0.28962407 0.060765252
-0.039492778 -0.28971756 0.060789026
-0.039699927 -0.2898621 0.060704246
-0.039877061 -0.28997135 0.06072218
-0.040054128 -0.29008457 0.060714744
-0.040235061 -0.29020116 0.060701534
-0.040416524 -0.29033932 0.060554557
-0.040594481 -0.29043844 0.060639374
-0.04077284 -0.29055488 0.06061694
-0.040946484 -0.29065824 0.060657956
-0.041132055 -0.29078892 0.06057439
-0.041305631 -0.29089665 0.060587727
-0.041484367 -0.29101458 0.060557224
-0.041660607 -0.29112783 0.060546331
-0.041819997 -0.29123408 0.060512431
-0.042004079 -0.29134572 0.060543031
-0.042190053 -0.29146567 0.060528651
-0.042372227 -0.29159164 0.060461234
-0.042554781 -0.29171419 0.060416885
-0.042722832 -0.29181182 0.060471751
-0.042903561 -0.29193103 0.060441248
-0.043085665 -0.29205805 0.060366914
-0.043244131 -0.29214522 0.060449477
-0.043429978 -0.29227117 0.060397051
-0.043616414 -0.29240349 0.06030656
-0.04378799 -0.2925092 0.060324512
-0.043960348 -0.2926167 0.060334388
-0.044135105 -0.29272956 0.06032005
-0.044317368 -0.29285413 0.06026186
-0.044488136 -0.29295862 0.060284421
-0.04466787 -0.29307809 0.060248151
-0.044835959 -0.29318199 0.060263813
-0.045012731 -0.2932952 0.060255229
-0.045193888 -0.29342401 0.060165904
-0.045365565 -0.29352593 0.060208075
-0.04553812 -0.2936354 0.060206421
-0.045686979 -0.29372764 0.060218669
-0.045894518 -0.29387611 0.06011083
-0.046062667 -0.29397562 0.060154159
-0.04623919 -0.29409546 0.06010291
-0.046412453 -0.29420188 0.06012316
-0.046588346 -0.29432076 0.060075372
-0.046764091 -0.29443371 0.06006448
-0.046937898 -0.29454798 0.060037456
-0.047109172 -0.29465607 0.060039259
-0.047284223 -0.29477406 0.059993785
-0.047461428 -0.29489174 0.05995867
-0.047630273 -0.29499409 0.059987005
-0.047807582 -0.29511261 0.05994729
-0.047974922 -0.29521766 0.059952565
-0.048142161 -0.29533583 0.059874825
-0.048272602 -0.29539335 0.060032427
-0.04846555 -0.29555634 0.059774704
-0.048671935 -0.29567587 0.059844457
-0.048841473 -0.29578122 0.059856649
-0.049009822 -0.29588324 0.059884988
-0.0491753 -0.29599863 0.059817623
-0.049355581 -0.29610693 0.059854005
-0.049530327 -0.29622859 0.059784301
-0.049704161 -0.29634801 0.059724987
-0.049874917 -0.29645064 0.059759088
-0.050046548 -0.29656389 0.059729762
-0.050216168 -0.29667112 0.059730418
-0.050386921 -0.2967822 0.059711475
-0.050559115 -0.29688993 0.059719041
-0.050725374 -0.29699504 0.059719719
-0.050899304 -0.29710904 0.059694991
-0.051069774 -0.29722026 0.059673741
-0.051244538 -0.29733789 0.059629414
-0.051414553 -0.29744831 0.059611619
-0.051583923 -0.29755664 0.059604209
-0.051754396 -0.29766935 0.059573736
-0.051921815 -0.29777098 0.059600927
-0.052090883 -0.29787895 0.059594668
-0.052265517 -0.2979987 0.059536502
-0.052435134 -0.29810959 0.059514098
-0.052602291 -0.29821086 0.05954244
-0.052772928 -0.29832658 0.059493519
-0.052940357 -0.29842931 0.059513789
-0.053112052 -0.29855067 0.059433717
-0.053278953 -0.29865161 0.059463222
-0.053447261 -0.29875892 0.059458122
-0.053618915 -0.29886964 0.059444934
-0.053787556 -0.29897916 0.059427142
-0.053955749 -0.29908696 0.059418589
-0.054123864 -0.29919469 0.059410028
-0.054293234 -0.29930925 0.059363406
-0.054460142 -0.29941148 0.05938483
-0.054629631 -0.29952794 0.059326682
-0.054785118 -0.29962844 0.059313543
-0.054963011 -0.29973102 0.059376463
-0.055132441 -0.29984909 0.059307922
-0.055299677 -0.29995462 0.059309747
-0.055469766 -0.30006087 0.059318483
-0.055599224 -0.30013919 0.05934117
-0.055786259 -0.30028546 0.059165344
-0.055973493 -0.30039504 0.059221305
-0.056140579 -0.30050194 0.059213899
-0.056307949 -0.30061162 0.059190355
-0.056474797 -0.30071762 0.059187558
-0.056626234 -0.30081463 0.0591802
-0.056812406 -0.30094093 0.059126608
-0.056978941 -0.30104601 0.059128433
-0.057145894 -0.30115595 0.059101425
-0.057312444 -0.3012625 0.05909403
-0.057478596 -0.30136499 0.059110846
-0.057645701 -0.30148014 0.059051543
-0.057797201 -0.30158487 0.05899575
-0.057981443 -0.30169585 0.059030972
-0.058147725 -0.30180371 0.059014335
-0.058314048 -0.30191398 0.058982719
-0.058471046 -0.30201834 0.058951132
-0.058627639 -0.30211475 0.05896797
-0.058799855 -0.30222985 0.058929421
-0.058978148 -0.30235171 0.058872394
-0.0591406 -0.30244324 0.058943421
-0.059303351 -0.30255544 0.058885291
-0.059465915 -0.30265528 0.058904417
-0.05962231 -0.30275944 0.058871679
-0.059803113 -0.30287868 0.058841169
-0.059968621 -0.3029815 0.05885338
-0.060140077 -0.30309391 0.058828659
-0.060305234 -0.30320507 0.058786668
-0.060470872 -0.30330119 0.058841541
-0.060635831 -0.30341315 0.058793783
-0.060801115 -0.30351672 0.05880022
-0.060959466 -0.30362868 0.058725946
-0.061097268 -0.30371249 0.058747463
-0.061286516 -0.30383599 0.058723852
-0.061453946 -0.30394968 0.058674939
-0.061624985 -0.30405781 0.058675587
-0.061773852 -0.30415997 0.058625571
-0.061951067 -0.30427015 0.058637746
-0.062118836 -0.30437696 0.058633797
-0.062272083 -0.30446795 0.058671411
-0.06243898 -0.30458096 0.058624789
-0.062606096 -0.30469137 0.058595479
-0.062758267 -0.30478954 0.058583505
-0.062913954 -0.30488631 0.058594584
-0.063081115 -0.30499509 0.058575653
-0.063223056 -0.30509284 0.058525652
-0.063394658 -0.30519491 0.058566671
-0.063549809 -0.30529407 0.058560453
-0.06370753 -0.30541447 0.058430836
-0.063875005 -0.3055194 0.058437265
-0.064053446 -0.30562177 0.058503643
-0.064214393 -0.30575556 0.058302522
-0.064402677 -0.30586031 0.058393076
-0.0645824 -0.30597213 0.058405239
-0.06473837 -0.30608004 0.058347121
-0.064909711 -0.30618304 0.058381222
-0.065081261 -0.30628544 0.058419935
-0.065246686 -0.30639699 0.058376789
-0.065391608 -0.30649203 0.058355603
-0.065573089 -0.30660954 0.058338936
-0.065730318 -0.30671129 0.058324642
-0.065883659 -0.30680236 0.058362253
-0.066027805 -0.30688813 0.058396429
-0.06619139 -0.30701423 0.058254112
-0.066363446 -0.30713621 0.058171734
-0.066540979 -0.30724257 0.058209278
-0.066705666 -0.30734339 0.058230706
-0.066876568 -0.30745745 0.058193311
-0.067033634 -0.30754885 0.058243591
-0.067173712 -0.30765405 0.058139406
-0.067355558 -0.30776864 0.058142334
-0.067501128 -0.30786011 0.058146525
-0.067670718 -0.30796731 0.058147185
-0.067824893 -0.30807409 0.058089077
-0.068018712 -0.30820468 0.058038928
-0.068184666 -0.30830264 0.058083422
-0.068350501 -0.30840912 0.058073718
-0.0685158 -0.30850866 0.058105528
-0.068669848 -0.30862233 0.058003597
-0.06884066 -0.30872664 0.05802732
-0.069001257 -0.30883494 0.057985336
-0.069159374 -0.30892536 0.058045994
-0.069322258 -0.3090294 0.058039762
-0.069473952 -0.30913132 0.058002416
-0.069644816 -0.30924979 0.057937343
-0.069798224 -0.30934837 0.057927668
-0.069980435 -0.30946156 0.057940986
-0.070144989 -0.30956924 0.05791859
-0.070305631 -0.30967629 0.057884686
-0.070467226 -0.30978173 0.05786461
-0.070627391 -0.30988279 0.057866454
-0.070763446 -0.30997479 0.057829157
-0.070940465 -0.31008285 0.057854019
-0.071119934 -0.3101998 0.057832737
-0.071279146 -0.31030813 0.057784997
-0.071443126 -0.3104158 0.057760302
-0.071605541 -0.31051958 0.057754062
-0.071768336 -0.31062284 0.057752438
-0.071926363 -0.3107264 0.057730071
-0.072071105 -0.31082371 0.057693899
-0.072231144 -0.31093019 0.057661146
-0.072412439 -0.31103876 0.057699826
-0.072580688 -0.31114641 0.057692427
-0.072736666 -0.31124663 0.057682745
-0.072899781 -0.3113547 0.057652283
-0.073037773 -0.31144848 0.057611529
-0.073203959 -0.31154785 0.057647943
-0.073350303 -0.31163266 0.057697106
-0.07352934 -0.31175429 0.057644699
-0.073687524 -0.31186706 0.057564668
-0.073875926 -0.31198382 0.057580262
-0.074035279 -0.31209022 0.057545204
-0.07419154 -0.31219465 0.057510152
-0.074325383 -0.31229642 0.057402525
-0.074512526 -0.3124001 0.057495385
-0.074687988 -0.31251013 0.057501793
-0.07485 -0.3126184 0.057465576
-0.07500159 -0.3127175 0.057445537
-0.075139046 -0.31281972 0.057349417
-0.075322039 -0.31291878 0.057454977
-0.075507358 -0.31303832 0.057440609
-0.075666681 -0.31313977 0.057436686
-0.075824596 -0.31324232 0.057420079
-0.075963177 -0.31333867 0.057365485
-0.07612747 -0.31345314 0.057299271
-0.076306731 -0.31356025 0.057339117
-0.076477826 -0.3136653 0.057359375
-0.076637588 -0.3137705 0.057333544
-0.076785535 -0.31386784 0.057310048
-0.076934375 -0.31395641 0.057345368
-0.077085845 -0.31406331 0.057275731
-0.077283211 -0.31418628 0.057287842
-0.077430926 -0.31428367 0.057263199
-0.077602193 -0.31440055 0.057209656
-0.077776194 -0.31450394 0.057251826
-0.077916943 -0.31460187 0.057196051
-0.078073293 -0.31470507 0.05716908
-0.078244001 -0.31481445 0.057160515
-0.078426868 -0.3149277 0.057176132
-0.078578062 -0.31503022 0.057133015
-0.07872618 -0.3151271 0.057112992
-0.07888402 -0.3152366 0.057052568
-0.079046652 -0.31534323 0.057029024
-0.079213746 -0.31543311 0.057128876
-0.079367951 -0.31553736 0.057086911
-0.079534292 -0.31564909 0.05704606
-0.079694696 -0.31575343 0.057028305
-0.079865098 -0.31586298 0.057017431
-0.080018774 -0.31596723 0.056973159
-0.080163345 -0.31606573 0.056928925
-0.080354251 -0.31617877 0.056977954
-0.080525711 -0.31629118 0.056953236
-0.080679685 -0.31638849 0.056953941
-0.080830678 -0.31648722 0.056933902
-0.080996379 -0.31659892 0.056890756
-0.08115413 -0.31669462 0.056916818
-0.081302367 -0.31679451 0.056878332
-0.081471846 -0.3169077 0.056840941
-0.081648 -0.31701484 0.056868106
-0.081799515 -0.31711647 0.056831919
-0.081962526 -0.3172228 0.056811839
-0.082143813 -0.31734055 0.056792859
-0.082292214 -0.31744018 0.056756683
-0.082442164 -0.31753001 0.056788538
-0.082606696 -0.31763273 0.056797288
-0.082787953 -0.3177596 0.056720648
-0.082944304 -0.3178533 0.056753643
-0.083094232 -0.3179583 0.056689784
-0.083245836 -0.31805375 0.056692794
-0.083416753 -0.31816328 0.056684226
-0.083576739 -0.31826475 0.056682613
-0.083737694 -0.31836888 0.056668308
-0.083902396 -0.31847757 0.056640148
-0.084063023 -0.31858751 0.056587797
-0.084231243 -0.31869221 0.056598838
-0.084378064 -0.31878647 0.056590334
-0.084554575 -0.31890008 0.05657829
-0.084720433 -0.31900841 0.056557052
-0.084884234 -0.31911176 0.056558885
-0.08504568 -0.31921583 0.056546886
-0.085202493 -0.31931841 0.056525674
-0.085342824 -0.31942266 0.056428395
-0.085493252 -0.31952414 0.056388751
-0.08566618 -0.31962523 0.056441296
-0.085829526 -0.31972885 0.056439672
-0.085978091 -0.31983611 0.056356207
-0.086141497 -0.31992915 0.05642147
-0.086328559 -0.3200326 0.056515489
-0.086505592 -0.32014376 0.056520741
-0.086655647 -0.32025582 0.056413054
-0.086810656 -0.32036403 0.056349181
-0.086959295 -0.32046843 0.056284174
-0.08711873 -0.32057047 0.056276791
-0.087287828 -0.32067317 0.056303978
-0.087469071 -0.32078865 0.056298841
-0.087598853 -0.32089153 0.056168146
-0.087725408 -0.3209973 0.056006335
-0.087891281 -0.32109812 0.056032382
-0.088058084 -0.32119149 0.05610916
-0.088243604 -0.32129157 0.056218173
-0.088420138 -0.32140318 0.056218818
-0.088590659 -0.32151097 0.056219473
-0.088747494 -0.32161376 0.056197107
-0.08891809 -0.32171923 0.056212753
-0.089083865 -0.32182074 0.056234188
-0.089251369 -0.3219268 0.056233704
-0.089423612 -0.32203698 0.056226283
-0.089569628 -0.32214609 0.056120917
-0.089731351 -0.32224831 0.056121599
-0.08989343 -0.32234821 0.056138426
-0.0900575 -0.32246181 0.056076832
-0.090227529 -0.32257003 0.05607288
-0.090385787 -0.32267281 0.056056283
-0.090554804 -0.3227835 0.056032721
-0.090708986 -0.32288224 0.056025356
-0.090869531 -0.32299158 0.05597645
-0.091032296 -0.32309172 0.05599444
-0.091187932 -0.32319486 0.055965152
-0.091337122 -0.32330525 0.055864397
-0.091501027 -0.32340539 0.055886976
-0.091683641 -0.32350838 0.05596602
-0.0918639 -0.32362053 0.055978186
-0.092001721 -0.32372299 0.055882074
-0.092162542 -0.32383013 0.055848159
-0.092327833 -0.32393479 0.055847678
-0.092494756 -0.3240394 0.055854112
-0.092670336 -0.32414564 0.055884741
-0.092838451 -0.3242631 0.055815067
-0.092977144 -0.32436097 0.055751231
-0.093136027 -0.32446197 0.05574847
-0.093308747 -0.32456437 0.055791784
-0.093467861 -0.32467172 0.055749804
-0.093636438 -0.32477865 0.055748165
-0.093803063 -0.32488984 0.055711936
-0.093933992 -0.32498795 0.055615846
-0.094109826 -0.32508647 0.055696059
-0.094302833 -0.32520303 0.055731241
-0.094439901 -0.32531106 0.055597074
-0.094599836 -0.32541433 0.055583924
-0.094769597 -0.32551947 0.05559843
-0.094941437 -0.32562661 0.055608306
-0.0951114 -0.3257339 0.05561012
-0.095264837 -0.32583544 0.055582002
-0.095435172 -0.32594478 0.055572275
-0.095597632 -0.32605222 0.055542976
-0.095757961 -0.32615575 0.055529833
-0.095907547 -0.32625544 0.05549825
-0.096096836 -0.32637274 0.055513848
-0.096239902 -0.32647046 0.055468455
-0.096421733 -0.32658395 0.055478316
-0.096574843 -0.32668951 0.05542367
-0.096735045 -0.3267875 0.055445112
-0.096909508 -0.32689723 0.055449225
-0.097074203 -0.32700685 0.055415299
-0.097216345 -0.32710838 0.055342242
-0.097386666 -0.32721624 0.055341747
-0.097552091 -0.32732025 0.055345878
-0.097732753 -0.32743227 0.055360347
-0.097888984 -0.32753798 0.055317216
-0.098041683 -0.32763615 0.055307556
-0.09820807 -0.3277404 0.055313993
-0.098364092 -0.32784981 0.055246655
-0.098533407 -0.32795244 0.055274993
-0.098699085 -0.32806233 0.055243373
-0.098857015 -0.32816818 0.055206016
-0.099037565 -0.32827702 0.055240087
-0.099216357 -0.32838768 0.055255715
-0.09937752 -0.32849741 0.055206813
-0.099550352 -0.32860246 0.055233985
-0.099721819 -0.32870573 0.055266924
-0.099855378 -0.32881027 0.055140842
-0.10004283 -0.32892531 0.055163361
-0.10018527 -0.32902503 0.055102985
-0.10035037 -0.32913157 0.055089824
-0.10052937 -0.32924622 0.055081226
-0.1006818 -0.32934842 0.055045038
-0.10085468 -0.3294557 0.055058371
-0.10100888 -0.32955462 0.055049855
-0.10118181 -0.32966375 0.055051662
-0.10132498 -0.32977217 0.054939386
-0.10146794 -0.32987022 0.054891687
-0.10166197 -0.329983 0.054954559
-0.10182736 -0.33008993 0.054940239
-0.10199672 -0.33019388 0.054960504
-0.10219044 -0.33030868 0.055009522
-0.10233617 -0.33041725 0.054906469
-0.10251339 -0.33053058 0.054899033
-0.10264968 -0.3306264 0.054838676
-0.10281475 -0.3307302 0.054842807
-0.10299978 -0.33084115 0.054881483
-0.10314666 -0.33094478 0.054814175
-0.10332395 -0.33105668 0.054815955
-0.10349923 -0.33117664 0.05475894
-0.10368063 -0.33128583 0.05479417
-0.10383007 -0.33138651 0.05475568
-0.10398737 -0.33148813 0.054742534
-0.10414326 -0.33159125 0.054714404
-0.10431854 -0.33170643 0.054687377
-0.10449257 -0.33181024 0.054727234
-0.10467543 -0.33192328 0.054744005
-0.10483012 -0.33203441 0.054660521
-0.10501311 -0.33214921 0.054666907
-0.10517702 -0.33225995 0.054622613
-0.10533066 -0.33235979 0.05460602
-0.10550028 -0.33246976 0.054589387
-0.10566597 -0.33257452 0.054590054
-0.10584526 -0.3326875 0.054592993
-0.10596691 -0.33278301 0.054476172
-0.10617959 -0.33290708 0.054542445
-0.10633861 -0.33301106 0.054521225
-0.10650221 -0.33311576 0.054513831
-0.10668588 -0.33322659 0.054547891
-0.10685186 -0.33334103 0.054488596
-0.10701448 -0.33344418 0.054486971
-0.10719898 -0.33356303 0.054473754
-0.10735608 -0.33366543 0.054454841
-0.10753478 -0.33377585 0.054471619
-0.10769243 -0.33388302 0.054425035
-0.10785039 -0.3339887 0.054388829
-0.10802005 -0.33410236 0.054349128
-0.10815997 -0.33420214 0.054278381
-0.10834432 -0.33431375 0.054310128
-0.10852534 -0.33442488 0.054331522
-0.10871173 -0.33453852 0.054358654
-0.10887149 -0.33464921 0.054298226
-0.10902913 -0.33475509 0.05425971
-0.10921835 -0.33486941 0.054293759
-0.10937622 -0.33497834 0.054236792
-0.1095417 -0.33508718 0.054210942
-0.10971691 -0.33519629 0.054221973
-0.10989472 -0.33531475 0.054184549
-0.1100374 -0.33541223 0.05413916
-0.11022718 -0.33552709 0.054172054
-0.11039113 -0.33563438 0.054149669
-0.11058252 -0.33574975 0.054186016
-0.11072674 -0.33584765 0.054144084
-0.11088979 -0.33595347 0.054127462
-0.11105998 -0.33607075 0.054067001
-0.11124007 -0.33618277 0.054079164
-0.11142537 -0.33630306 0.054060176
-0.11159377 -0.33641151 0.054048158
-0.11175178 -0.33651799 0.05400734
-0.11192332 -0.33662716 0.05400338
-0.11212411 -0.33674788 0.054043163
-0.11227177 -0.33684817 0.054000068
-0.11245266 -0.33695942 0.054020301
-0.11253776 -0.33704698 0.053807866
-0.11276769 -0.33716697 0.053968638
-0.11293823 -0.33728465 0.053907026
-0.11309463 -0.33739522 0.053833917
-0.11330619 -0.33751878 0.053899042
-0.11347261 -0.33762598 0.053887021
-0.11361544 -0.3377296 0.053803585
-0.1138217 -0.33784264 0.053913694
-0.11406241 -0.33797565 0.054035228
-0.11418316 -0.33808836 0.053806547
-0.11435674 -0.33820286 0.053777214
-0.11451441 -0.33830437 0.053766377
-0.023495309 -0.27936566 0.062232025
-0.023685936 -0.2794838 0.062247641
-0.023887478 -0.27961636 0.062215954
-0.024094377 -0.27975616 0.062160023
-0.024277441 -0.27986714 0.062190659
-0.024480358 -0.28000203 0.062149737
-0.024669182 -0.28012085 0.062153835
-0.02487972 -0.28026628 0.062077135
-0.025060818 -0.28037509 0.062113538
-0.025256224 -0.28050065 0.062101468
-0.025453493 -0.28062886 0.062080167
-0.025648989 -0.28075483 0.062065795
-0.025832873 -0.28086782 0.062087197
-0.026042949 -0.28101382 0.062004738
-0.02622113 -0.28111675 0.062066525
-0.026443921 -0.28128055 0.061922908
-0.026611838 -0.28137222 0.062014699
-0.026813786 -0.28150797 0.061964557
-0.027018607 -0.28165048 0.06188326
-0.0272214 -0.28178787 0.061826192
-0.027416572 -0.28191492 0.061803743
-0.027596023 -0.28202033 0.061855145
-0.027787615 -0.28214529 0.061831556
-0.027982686 -0.28227267 0.061806798
-0.028172769 -0.28239322 0.061805122
-0.028366469 -0.28251898 0.06178499
-0.028541468 -0.28262118 0.061838705
-0.028749779 -0.28276792 0.06174472
-0.028941959 -0.28289473 0.0617119
-0.029125564 -0.28300679 0.061737914
-0.02932078 -0.28313828 0.061687782
-0.029505242 -0.28325179 0.061708033
-0.029703181 -0.2833848 0.06165906
-0.029889144 -0.28350073 0.061670072
-0.030082736 -0.28363064 0.061623413
-0.030269697 -0.2837483 0.061627515
-0.03047077 -0.28388953 0.061539304
-0.030649874 -0.28399599 0.06158264
-0.03083612 -0.28411299 0.061587892
-0.031037606 -0.28425267 0.061511219
-0.031221151 -0.2843689 0.061510716
-0.031409226 -0.2844891 0.061503276
-0.031591833 -0.28460416 0.061506242
-0.031795189 -0.28474757 0.061413415
-0.031967383 -0.28484434 0.061490215
-0.032157302 -0.2849679 0.061468933
-0.032354381 -0.28510553 0.061387651
-0.032538079 -0.28522 0.061398685
-0.03273011 -0.28535038 0.061342798
-0.032914706 -0.28546655 0.0613469
-0.033080522 -0.28555688 0.061438709
-0.033274356 -0.28568751 0.061388589
-0.033475038 -0.28582904 0.061296925
-0.033661991 -0.28594944 0.061283723
-0.033840716 -0.28606021 0.061298229
-0.034021337 -0.28617093 0.061320789
-0.03421779 -0.28630999 0.061227992
-0.034401346 -0.28642568 0.061230946
-0.034586571 -0.28654733 0.061202757
-0.034766827 -0.28665802 0.06122417
-0.034949612 -0.28677285 0.061229438
-0.035134874 -0.28689179 0.061218545
-0.035320338 -0.28701454 0.061184589
-0.035514589 -0.28714854 0.061114855
-0.035693042 -0.28726023 0.061122444
-0.035878856 -0.28738084 0.061103471
-0.036064934 -0.28750545 0.061060295
-0.036247175 -0.28762046 0.061062098
-0.036426678 -0.28773451 0.061059296
-0.036613729 -0.28785789 0.061027646
-0.036794338 -0.2879706 0.061037526
-0.036986023 -0.28810224 0.060972407
-0.037169002 -0.28822285 0.060941927
-0.037345614 -0.28832918 0.060976043
-0.03753113 -0.28845453 0.060925934
-0.037712879 -0.28856999 0.060923133
-0.037889224 -0.28867617 0.060957246
-0.038080569 -0.28880867 0.060885213
-0.03826315 -0.28892979 0.060850114
-0.038444787 -0.28904572 0.060843844
-0.038619503 -0.28915322 0.060862973
-0.038810395 -0.28928602 0.060787477
-0.038985323 -0.2893942 0.060803149
-0.03917744 -0.28952977 0.060714968
-0.03934966 -0.28962949 0.060773306
-0.039527558 -0.28973958 0.060788967
-0.039708909 -0.2898601 0.060752712
-0.039884336 -0.28996587 0.060785681
-0.040069237 -0.29008934 0.060744803
-0.040251568 -0.29020828 0.060722392
-0.040427849 -0.2903201 0.060720749
-0.0406106 -0.2904402 0.060692567
-0.040790156 -0.29055446 0.060688615
-0.040973149 -0.29067546 0.060655825
-0.041158605 -0.2908057 0.060574576
-0.041335598 -0.29091558 0.060587928
-0.041513257 -0.29103118 0.060567833
-0.041693196 -0.29114714 0.060554661
-0.041870974 -0.29125899 0.060558781
-0.042053323 -0.29138011 0.060522519
-0.042227618 -0.29148975 0.060526662
-0.042413969 -0.29161948 0.060452335
-0.042587601 -0.29172814 0.060459927
-0.04277207 -0.29185465 0.060398296
-0.042945512 -0.2919586 0.060434729
-0.043108121 -0.29206818 0.060392756
-0.043269187 -0.29217473 0.060363483
-0.043441541 -0.29228151 0.060378
-0.043643888 -0.29240888 0.060382053
-0.043832198 -0.29253069 0.060365397
-0.044010714 -0.29264629 0.060348757
-0.044190627 -0.29276517 0.060317125
-0.044364594 -0.29287624 0.060310878
-0.044543155 -0.29299259 0.060289629
-0.044720069 -0.29311067 0.060251087
-0.044895399 -0.29322022 0.060259826
