# .PCD v0.7 - Point Cloud Data file format
VERSION 0.7
FIELDS x y z
SIZE 4 4 4
TYPE F F F
COUNT 1 1 1
WIDTH 1312
HEIGHT 1
VIEWPOINT 0 0 0 1 0 0 0
POINTS 1312
DATA ascii
-0.08257477 -0.32094163 0.055520225
-0.082726412 -0.32103401 0.055541456
-0.08289364 -0.32113269 0.055585712
-0.083049372 -0.32123616 0.055551521
-0.083206534 -0.32134217 0.055506922
-0.083367206 -0.32144365 0.055506185
-0.083520204 -0.32154807 0.055454694
-0.08368893 -0.32165569 0.055446982
-0.083862819 -0.32176143 0.055472739
-0.084034115 -0.32187119 0.055461559
-0.084183782 -0.32197371 0.055408921
-0.084350027 -0.32208225 0.055385068
-0.084512353 -0.32218033 0.055413187
-0.084659785 -0.32228053 0.05536633
-0.084827922 -0.32238263 0.055392101
-0.084985763 -0.32249102 0.055334814
-0.085142672 -0.32259101 0.055328321
-0.085303575 -0.32268691 0.055364519
-0.085468128 -0.32280737 0.055256408
-0.085608572 -0.32291225 0.055150703
-0.085757807 -0.32300878 0.055135004
-0.085919142 -0.32310748 0.055155046
-0.086095236 -0.32320765 0.055225816
-0.086268388 -0.32330883 0.055278122
-0.086440325 -0.32341865 0.055269249
-0.08660157 -0.32352313 0.055251189
-0.086769685 -0.3236286 0.055255041
-0.08694762 -0.32374504 0.055227671
-0.087103851 -0.32384014 0.055250034
-0.087272018 -0.32395631 0.055184614
-0.087428629 -0.32405931 0.055157341
-0.0875718 -0.32416269 0.055072416
-0.087743714 -0.32427001 0.055079702
-0.087896906 -0.32436854 0.05506745
-0.088052429 -0.32446656 0.055067893
-0.088226713 -0.32457608 0.055070557
-0.088377379 -0.3246828 0.054994822
-0.088542596 -0.32478908 0.054981366
-0.088710852 -0.32489482 0.054984055
-0.088878967 -0.32500309 0.054969426
-0.089041218 -0.32510751 0.054955982
-0.089196041 -0.32521081 0.054919481
-0.089366585 -0.32531139 0.054964874
-0.089499429 -0.32540861 0.05487768
-0.089677759 -0.32552016 0.054883789
-0.089833468 -0.3256233 0.054851905
-0.089994721 -0.32572317 0.054863859
-0.090161286 -0.32583421 0.054824997
-0.090329833 -0.32594261 0.054811522
-0.09047281 -0.32603577 0.054792393
-0.090642437 -0.32613701 0.054829706
-0.090822622 -0.32624865 0.05484274
-0.090972327 -0.3263503 0.054795865
-0.091129512 -0.32646024 0.054725885
-0.091323078 -0.32657272 0.054788481
-0.091460466 -0.32666889 0.054726664
-0.091632828 -0.32677934 0.054715477
-0.091801047 -0.32688573 0.054713555
-0.091959223 -0.32699096 0.054678198
-0.092106447 -0.32708606 0.054663662
-0.09227246 -0.32719055 0.054665212
-0.092431888 -0.32729569 0.054635614
-0.092595816 -0.327407 0.054584071
-0.092758231 -0.32750532 0.054611031
-0.092908941 -0.32761115 0.05454107
-0.093106993 -0.32771775 0.05466022
-0.093288071 -0.3278344 0.054644372
-0.093356967 -0.32792857 0.054315053
-0.093523912 -0.32802457 0.05437547
-0.093736477 -0.32812861 0.054570735
-0.093917429 -0.32824534 0.054553747
-0.094071835 -0.32835513 0.054473385
-0.094243303 -0.32846609 0.05445528
-0.094394758 -0.32856545 0.054430339
-0.094549492 -0.32866263 0.054433085
-0.094726011 -0.32877553 0.054423045
-0.094877079 -0.32887912 0.054369241
-0.095047891 -0.328982 0.054400783
-0.095222712 -0.32909507 0.054382663
-0.095338508 -0.32919753 0.054191649
-0.095506273 -0.32929051 0.054275144
-0.095733635 -0.32939249 0.054544237
-0.095894039 -0.32952008 0.054372646
-0.096002966 -0.32961428 0.054207057
-0.096176296 -0.32971558 0.054259375
-0.09636908 -0.32982078 0.05436584
-0.096547939 -0.32992628 0.054413505
-0.096717194 -0.33004951 0.054306522
-0.096852526 -0.33015311 0.054188143
-0.097023711 -0.33025482 0.05422892
-0.097184137 -0.33036235 0.054187782
-0.097362436 -0.33047584 0.054181181
-0.097534679 -0.33058354 0.054187313
-0.097679093 -0.33068132 0.054143935
-0.097851299 -0.3307929 0.054124676
-0.098012865 -0.3309024 0.054075446
-0.098130621 -0.33100325 0.053902894
-0.098277904 -0.33109537 0.05390799
-0.098499924 -0.33120286 0.054119382
-0.098688222 -0.33131146 0.054185476
-0.098850854 -0.33142856 0.054091219
-0.099003188 -0.33153597 0.05401779
-0.099197432 -0.3316524 0.054057304
-0.099351302 -0.33175439 0.054025427
-0.099495962 -0.3318468 0.054017827
-0.099666201 -0.33195323 0.054023981
-0.099828944 -0.33207202 0.053919327
-0.099953063 -0.33216161 0.053846031
-0.10013638 -0.33226883 0.053900599
-0.10030779 -0.33237371 0.053921744
-0.10046753 -0.33248508 0.053852893
-0.10062723 -0.3325893 0.053830229
-0.10080896 -0.33269855 0.053865176
-0.10098886 -0.33281481 0.053847034
-0.10116294 -0.33292547 0.053841613
-0.10131384 -0.33302397 0.053820148
-0.10147923 -0.33313924 0.053748969
-0.10164923 -0.33324447 0.053762037
-0.10182517 -0.33335024 0.053795859
-0.1019934 -0.3334572 0.053790465
-0.10216236 -0.33356941 0.053753898
-0.10231334 -0.33367151 0.053709339
-0.10246779 -0.33377561 0.053665917
-0.10263252 -0.33388746 0.053614363
-0.1028017 -0.33399129 0.053633206
-0.10298955 -0.33411044 0.053628884
-0.10315631 -0.33421752 0.053616572
-0.10333025 -0.33433041 0.053596146
-0.10348478 -0.33443296 0.053563107
-0.10363901 -0.33453053 0.053561248
-0.10382231 -0.3346445 0.053571954
-0.10400157 -0.33475646 0.053579208
-0.10416371 -0.33486331 0.053549595
-0.10429888 -0.33496219 0.053461242
-0.10447483 -0.33507061 0.053477746
-0.10466488 -0.33518407 0.053519592
-0.10480851 -0.3352904 0.05341734
-0.10500509 -0.33540317 0.053490315
-0.10516371 -0.33550656 0.053468805
-0.10533615 -0.3356213 0.053429924
-0.10549699 -0.33572662 0.053404938
-0.10567169 -0.33583695 0.05340413
-0.10582875 -0.3359434 0.053356081
-0.10599548 -0.33604959 0.053349543
-0.10617375 -0.33615896 0.053369496
-0.10634014 -0.33627152 0.053320248
-0.10650043 -0.33637381 0.053312585
-0.10665277 -0.33647656 0.05326917
-0.10682925 -0.33658749 0.053271826
-0.10701042 -0.33670226 0.053268675
-0.10717593 -0.33681479 0.053215966
-0.10736001 -0.33692855 0.053231284
-0.10753983 -0.33704174 0.053232759
-0.1076878 -0.33714247 0.053184755
-0.10784064 -0.33724397 0.05315173
-0.10800855 -0.33735391 0.053125557
-0.10820067 -0.33747685 0.053114284
-0.10838932 -0.33759171 0.053141125
-0.1085377 -0.3376911 0.053103503
-0.10873935 -0.33781275 0.053139515
-0.1088843 -0.33791018 0.053100754
-0.10906926 -0.3380307 0.053075656
-0.10921814 -0.33812881 0.053048424
-0.10939279 -0.33823875 0.053049922
-0.10957262 -0.33835852 0.05300869
-0.10974793 -0.33846426 0.053040214
-0.10990091 -0.33857206 0.052966781
-0.11007152 -0.33867857 0.052974071
-0.11026551 -0.33879662 0.053002041
-0.11044285 -0.33890593 0.053018548
-0.11058375 -0.33901164 0.052909378
-0.11074132 -0.33911452 0.052886721
-0.11095408 -0.33924213 0.052929606
-0.11111689 -0.33935186 0.052883845
-0.11125769 -0.33944309 0.052868184
-0.11139722 -0.33954704 0.052764796
-0.1115802 -0.33965635 0.052804358
-0.11174361 -0.33976915 0.052741274
-0.111918 -0.33987698 0.052755475
-0.11209539 -0.33999112 0.052740805
-0.11229534 -0.34011546 0.052752588
-0.11248012 -0.34022555 0.052794445
-0.11265467 -0.34033933 0.052770562
-0.11282994 -0.34046033 0.052702792
-0.11299423 -0.34056231 0.052713588
-0.11315009 -0.3406682 0.052664384
-0.11332612 -0.34077686 0.052679732
-0.11348539 -0.34088492 0.052630514
-0.11367214 -0.34099734 0.052665442
-0.11385325 -0.34111419 0.052648451
-0.11399687 -0.34121627 0.052573912
-0.11418282 -0.34133425 0.052569591
-0.11434901 -0.34144667 0.052520338
-0.11456116 -0.34156355 0.052630182
-0.11471903 -0.34167019 0.05258444
-0.11486888 -0.3417778 0.052499473
-0.11505853 -0.3418901 0.052547086
-0.1152356 -0.34200513 0.052525494
-0.11540271 -0.34211528 0.052494708
-0.11557765 -0.34223127 0.052458119
-0.11575958 -0.34234348 0.052474596
-0.1159383 -0.34246311 0.052429903
-0.11609256 -0.34257048 0.052364551
-0.11627406 -0.34268278 0.052378725
-0.024912413 -0.28371894 0.061036363
-0.025108051 -0.28384286 0.061033148
-0.025307577 -0.2839742 0.060997598
-0.025501154 -0.28409573 0.061001319
-0.025697254 -0.28422064 0.060993493
-0.025903072 -0.28435826 0.060942918
-0.026098981 -0.28448322 0.060933925
-0.02628329 -0.28459319 0.060974628
-0.026479021 -0.28472054 0.060949482
-0.026679076 -0.28485134 0.060919702
-0.026882004 -0.28498605 0.060876064
-0.027087241 -0.285124 0.06082087
-0.027273864 -0.28523761 0.060847715
-0.027474731 -0.28537014 0.060809843
-0.027667232 -0.28549421 0.060792796
-0.027862769 -0.28561997 0.060776897
-0.02806716 -0.28575778 0.060719393
-0.028255701 -0.28587452 0.060733527
-0.028444115 -0.28599119 0.060747661
-0.028637327 -0.28611696 0.060722534
-0.028838221 -0.28625074 0.060676593
-0.029030502 -0.28637305 0.060669929
-0.029217497 -0.28648829 0.060687535
-0.029420082 -0.28662497 0.060630046
-0.029625971 -0.28676635 0.060555235
-0.029811077 -0.28688198 0.06056245
-0.030002818 -0.28700432 0.06055348
-0.030189659 -0.28712001 0.060567625
-0.03038669 -0.28724995 0.060530938
-0.030579284 -0.28737387 0.060515039
-0.03077329 -0.28749996 0.060491063
-0.030964091 -0.28762436 0.060464785
-0.031164072 -0.28775918 0.060408473
-0.031358514 -0.28788641 0.060378723
-0.031553637 -0.28801477 0.060344353
-0.031736385 -0.28812575 0.060372353
-0.031916134 -0.28823251 0.060415383
-0.032111373 -0.28836149 0.060377542
-0.03230989 -0.28849539 0.060321227
-0.032490809 -0.28860414 0.060356166
-0.032685373 -0.28873268 0.060318336
-0.032861583 -0.28883755 0.060359076
-0.033058323 -0.28896964 0.06030738
-0.03325437 -0.28910089 0.060258001
-0.033452041 -0.28923479 0.060198225
-0.033627748 -0.2893365 0.060257431
-0.033819765 -0.28946239 0.060226537
-0.034011275 -0.28959063 0.060178325
-0.034204885 -0.28971928 0.060135894
-0.03438678 -0.2898306 0.06015813
-0.034579966 -0.28995898 0.060115688
-0.034773309 -0.29008785 0.060070939
-0.034956574 -0.29020163 0.060082778
-0.03513059 -0.29030439 0.060128145
-0.035330482 -0.29044378 0.060041819
-0.035521381 -0.29056969 0.060006306
-0.035707578 -0.29068851 0.059997372
-0.035891801 -0.29080752 0.059979208
-0.036071513 -0.29091656 0.060007233
-0.036249503 -0.29103234 0.059984475
-0.036415312 -0.29113546 0.059994102
-0.036557086 -0.29121342 0.060068458
-0.036801957 -0.29139721 0.059878055
-0.036936518 -0.29146069 0.060017072
-0.037173163 -0.29166114 0.059684753
-0.037372071 -0.29175335 0.059900802
-0.037560597 -0.29188073 0.05984569
-0.037744001 -0.2920067 0.059779055
-0.037919395 -0.29211658 0.059784018
-0.03807313 -0.29219446 0.059907943
-0.038273271 -0.29235178 0.059706215
-0.038418237 -0.292422 0.059844032
-0.038628783 -0.29258713 0.059634171
-0.038804814 -0.29268852 0.059696827
-0.03899429 -0.29280549 0.059713267
-0.039146129 -0.29287314 0.059896059
-0.039411101 -0.29307583 0.059665166
-0.039592918 -0.29319084 0.059663173
-0.039770797 -0.29330993 0.059618495
-0.039956301 -0.2934244 0.059634954
-0.040141214 -0.29354882 0.059584476
-0.040327493 -0.29366857 0.059569765
-0.040498786 -0.29376966 0.059615131
-0.040663969 -0.29389334 0.059488565
-0.040840842 -0.29398584 0.059612393
-0.040992193 -0.29408923 0.05956091
-0.04118339 -0.29421479 0.059528869
-0.041398741 -0.29436871 0.059411317
-0.04159531 -0.29447758 0.05950965
-0.041783702 -0.29460651 0.059444156
-0.041963547 -0.29472008 0.059443325
-0.042144593 -0.29483601 0.059432101
-0.042309251 -0.29492968 0.059498265
-0.042470355 -0.29502875 0.059514835
-0.042673059 -0.29518163 0.059352323
-0.0428739 -0.29531115 0.059334092
-0.043055601 -0.29542926 0.059311319
-0.043231666 -0.29554099 0.059307039
-0.043406975 -0.29565561 0.059280843
-0.043586735 -0.29577482 0.059243079
-0.043777928 -0.29589945 0.059216805
-0.043940838 -0.295986 0.059322231
-0.044123124 -0.29610199 0.059315614
-0.0443196 -0.29625094 0.059153132
-0.044466019 -0.29634005 0.059174389
-0.044671461 -0.29647207 0.05915843
-0.044851802 -0.29659414 0.05910451
-0.045030408 -0.29670373 0.059124451
-0.045206457 -0.29681277 0.059137493
-0.045391835 -0.2969414 0.059061617
-0.045578375 -0.29707289 0.058971882
-0.04575102 -0.29717535 0.059013799
-0.045933452 -0.29729873 0.058959864
-0.04611088 -0.29741165 0.058953267
-0.046253677 -0.29750896 0.058906443
-0.046409782 -0.2976006 0.058950737
-0.046591826 -0.29771912 0.05892681
-0.046759628 -0.29782152 0.058949113
-0.046928842 -0.29792199 0.058989882
-0.047112077 -0.29804376 0.058949791
-0.047300506 -0.29817766 0.05885198
-0.04748521 -0.29830354 0.058791108
-0.047672447 -0.29843032 0.058734842
-0.047827072 -0.29851925 0.058790684
-0.048026334 -0.29865843 0.058703206
-0.048228301 -0.29878774 0.058690727
-0.048379354 -0.29886821 0.058786973
-0.048581585 -0.29899842 0.058769885
-0.048733372 -0.29908627 0.058821112
-0.048928276 -0.29921043 0.058813289
-0.049106386 -0.2993286 0.058775533
-0.049290508 -0.29946247 0.058660418
-0.049459912 -0.29955894 0.05872773
-0.049635623 -0.29967809 0.058673836
-0.049808212 -0.29978299 0.058699578
-0.049985994 -0.29990184 0.058656052
-0.050158199 -0.30000597 0.058685265
-0.050329413 -0.3001141 0.058684476
-0.050506786 -0.30023268 0.058640949
-0.050683588 -0.30035695 0.058558196
-0.050857984 -0.30046797 0.05855161
-0.051026445 -0.30058342 0.058491975
-0.05120565 -0.30068734 0.058551155
-0.051378917 -0.30080298 0.058509961
-0.051553149 -0.30091444 0.058499929
-0.051722355 -0.30101845 0.058517613
-0.051895771 -0.30112779 0.058517955
-0.052069589 -0.30124643 0.05845945
-0.052243065 -0.30135652 0.058455184
-0.052419752 -0.30147716 0.058395512
-0.052575205 -0.3015787 0.058372863
-0.052747376 -0.3016853 0.058385912
-0.052935801 -0.30180377 0.058388513
-0.053093985 -0.30189779 0.058425866
-0.053222999 -0.30196184 0.058538366
-0.053395212 -0.30211452 0.058252506
-0.053592324 -0.30224699 0.058199666
-0.053798456 -0.30236542 0.05827488
-0.053971149 -0.30247554 0.058267154
-0.054117993 -0.30256703 0.05827456
-0.054290168 -0.30268589 0.058207974
-0.054481369 -0.30279723 0.058268256
-0.054652479 -0.30290189 0.05828939
-0.054821789 -0.30301026 0.05827938
-0.054993592 -0.30312958 0.058208182
-0.055165131 -0.30324858 0.05813814
-0.055328082 -0.30334187 0.058199711
-0.055507444 -0.30346084 0.058161952
-0.055680156 -0.30357453 0.058131143
-0.055852011 -0.30369779 0.058034565
-0.056021422 -0.30379644 0.058088019
-0.05619029 -0.30390611 0.05806762
-0.056361564 -0.30401444 0.058065675
-0.056527257 -0.30412263 0.058041826
-0.056701239 -0.30423144 0.05804795
-0.056868427 -0.30433309 0.058072563
-0.057029244 -0.30444676 0.057993345
-0.057209525 -0.30456114 0.057989046
-0.057380363 -0.3046692 0.057987101
-0.057550814 -0.30479407 0.057874359
-0.057721023 -0.30489925 0.057888575
-0.057882193 -0.30500066 0.05789014
-0.058058895 -0.30511245 0.057888165
-0.058227435 -0.30522794 0.057828531
-0.058394309 -0.30533066 0.057845078
-0.058566019 -0.30545118 0.057765797
-0.058735497 -0.30555233 0.057803102
-0.058877621 -0.30564049 0.057812829
-0.059053708 -0.30574974 0.057824709
-0.059239555 -0.30587083 0.057799615
-0.059408303 -0.30596247 0.057895772
-0.059539717 -0.30606589 0.057762451
-0.059726022 -0.30619848 0.057664648
-0.059915379 -0.30633745 0.057537973
-0.060083896 -0.30642536 0.057657216
-0.060228605 -0.30651215 0.057686552
-0.060373805 -0.30661094 0.057639718
-0.060567942 -0.30673373 0.057637669
-0.060755767 -0.30684859 0.057661034
-0.060922258 -0.30696315 0.057599097
-0.061091583 -0.30707294 0.057579853
-0.061257739 -0.30717483 0.057598695
-0.061426952 -0.30728242 0.057593301
-0.061592989 -0.30739188 0.05756253
-0.061755911 -0.30749583 0.057554848
-0.06191276 -0.30759168 0.057574898
-0.062078487 -0.30770329 0.057529122
-0.062253699 -0.3078109 0.057547934
-0.062425017 -0.30793294 0.057457116
-0.062591121 -0.30803108 0.057500206
-0.062756456 -0.30814174 0.057459045
-0.062915146 -0.30825368 0.057382144
-0.063081712 -0.30834571 0.057466775
-0.063252129 -0.30846861 0.057366729
-0.06343279 -0.30858377 0.057358969
-0.06359826 -0.30868772 0.057361674
-0.063766502 -0.30879575 0.057349354
-0.063931346 -0.30890411 0.057320893
-0.064075902 -0.30898955 0.057358306
-0.064252399 -0.309109 0.05730556
-0.064422883 -0.3092227 0.057265528
-0.064596899 -0.30933455 0.057252031
-0.064759962 -0.3094306 0.057296284
-0.064912722 -0.30952778 0.057290956
-0.065063983 -0.3096329 0.057227939
-0.065254539 -0.30976427 0.057155509
-0.065411493 -0.30985644 0.057199791
-0.065587051 -0.30997548 0.057145886
-0.065757856 -0.31008387 0.057141632
-0.065901905 -0.31017166 0.057161748
-0.06607765 -0.31028849 0.057122841
-0.066253901 -0.31040281 0.057102416
-0.066428818 -0.31050831 0.05713392
-0.066576764 -0.31060815 0.057091687
-0.066730738 -0.31071159 0.057050586
-0.066895798 -0.3108137 0.057063665
-0.067057684 -0.31091434 0.057073306
-0.067222476 -0.31101733 0.057079464
-0.067380689 -0.31114089 0.056925245
-0.067564875 -0.31125134 0.056962471
-0.067734495 -0.31136128 0.056943223
-0.067899309 -0.31146359 0.056954
-0.06807445 -0.31157863 0.056924343
-0.068243138 -0.31168056 0.056953564
-0.06839484 -0.31176782 0.057008255
-0.068561785 -0.31188408 0.056937091
-0.068744145 -0.31200886 0.056873925
-0.068889447 -0.31210238 0.056861706
-0.069040492 -0.31223616 0.056611728
-0.069224037 -0.31233022 0.056752834
-0.069406204 -0.31243673 0.056807388
-0.069569103 -0.31254262 0.056787014
-0.069736958 -0.3126463 0.056801237
-0.069881216 -0.31273332 0.056827113
-0.070037976 -0.31283534 0.056806773
-0.070199981 -0.31294262 0.056773711
-0.070398904 -0.31307179 0.056749701
-0.070539936 -0.31315729 0.056772131
-0.070698515 -0.31326297 0.056735624
-0.07086724 -0.31337234 0.056716379
-0.071026333 -0.31349805 0.056551762
-0.071203314 -0.31360698 0.056569409
-0.071350604 -0.31368896 0.056640275
-0.071530595 -0.31380016 0.056655612
-0.07171727 -0.31392089 0.056636278
-0.07187143 -0.3140257 0.056587093
-0.072049461 -0.31413332 0.056617431
-0.072203442 -0.31423181 0.05660864
-0.072357498 -0.31433639 0.056560606
-0.072500005 -0.31443846 0.056481473
-0.072661467 -0.31454453 0.056454178
-0.072819524 -0.31464309 0.056461524
-0.072973713 -0.31476444 0.056305014
-0.073167011 -0.31485221 0.056526858
-0.073318295 -0.31498241 0.056301109
-0.073473796 -0.31507263 0.056352321
-0.073661812 -0.31520167 0.056284517
-0.073837407 -0.31531221 0.056286015
-0.07402537 -0.31541383 0.056395933
-0.074189104 -0.31551671 0.056398641
-0.074337676 -0.31561533 0.05636679
-0.074495785 -0.31571907 0.056340668
-0.074649356 -0.31582245 0.05629842
-0.074816801 -0.31593657 0.056243405
-0.074984647 -0.31605002 0.056194145
-0.075147368 -0.31614372 0.05625226
-0.075294062 -0.31623387 0.056267731
-0.075461067 -0.31635284 0.056179248
-0.075617909 -0.31646681 0.056081586
-0.075765863 -0.31656983 0.056018576
-0.075931698 -0.3166703 0.05604551
-0.076105624 -0.31678671 0.056001998
-0.07626766 -0.31689063 0.05599086
-0.076465897 -0.31699485 0.056126129
-0.076639451 -0.31711155 0.056079168
-0.076800399 -0.31719881 0.056171898
-0.076959871 -0.31730947 0.05610653
-0.077119075 -0.31740716 0.05612427
-0.077288829 -0.31752238 0.056071542
-0.077449679 -0.31762731 0.05604887
-0.077609293 -0.31773737 0.055988126
-0.077759676 -0.31783748 0.05595395
-0.077891096 -0.3179267 0.05591296
-0.078084975 -0.31804433 0.055943221
-0.078282684 -0.3181594 0.056005783
-0.07842239 -0.31825882 0.055932429
-0.078576535 -0.31835619 0.05593171
-0.078753486 -0.31846189 0.055970129
-0.078909077 -0.31856227 0.055955566
-0.079079032 -0.31867653 0.055909771
-0.079234079 -0.31877339 0.055915982
-0.079394393 -0.31887835 0.055891
-0.079559162 -0.31899181 0.055829071
-0.079731017 -0.31910461 0.055800579
-0.079904348 -0.31921282 0.055807859
-0.080058478 -0.31931388 0.055782907
-0.080234021 -0.3194173 0.055830568
-0.080396175 -0.3195211 0.055820584
-0.080543503 -0.31962588 0.055743728
-0.080702707 -0.31972766 0.055734918
-0.080878064 -0.31984195 0.055711024
-0.081034943 -0.31994495 0.055684909
-0.081216246 -0.3200596 0.055682916
-0.081371643 -0.32015988 0.055668347
-0.081527039 -0.3202669 0.055609927
-0.081682861 -0.32036689 0.055598814
-0.08184769 -0.32046601 0.055630364
-0.081996568 -0.32056928 0.055569667
-0.082176365 -0.32068139 0.055578068
-0.082343169 -0.32078958 0.05555883
-0.082498021 -0.32089004 0.0555408
-0.082657754 -0.32099161 0.055535443
-0.082842112 -0.3210988 0.055594612
-0.083010085 -0.32121289 0.055541895
-0.083169386 -0.32131472 0.055533085
-0.083331972 -0.32142147 0.055505782
-0.083485574 -0.32151937 0.055499304
-0.083643042 -0.32162806 0.055438567
-0.083805308 -0.32172573 0.055468969
-0.083960727 -0.32183507 0.055395544
-0.084135182 -0.32194346 0.05540628
-0.084302567 -0.32204846 0.055410124
-0.084456824 -0.32215211 0.055369012
-0.084628016 -0.32225293 0.055415541
-0.084794879 -0.32236114 0.055396307
-0.084955618 -0.32246265 0.055395558
-0.085109271 -0.32256642 0.055350997
-0.085281432 -0.32267871 0.055327114
-0.085454509 -0.32279637 0.055272073
-0.085594207 -0.32288724 0.055254117
-0.085756831 -0.32298267 0.055300683
-0.085920423 -0.32308349 0.055316079
-0.086079836 -0.32319659 0.055234555
-0.086258411 -0.32329887 0.055301823
-0.08641541 -0.32340708 0.05524224
-0.086581729 -0.3235155 0.055219542
-0.086734556 -0.32362196 0.055154204
-0.086893111 -0.32372156 0.055156939
-0.087060645 -0.32382435 0.055175778
-0.087240107 -0.32394549 0.055124171
-0.087385617 -0.32404822 0.0550531
-0.087552831 -0.32414332 0.055120409
-0.087730482 -0.32425445 0.055126518
-0.087875262 -0.32436755 0.054985046
-0.088034756 -0.32446456 0.055008546
-0.088207729 -0.32456651 0.055055067
-0.088377118 -0.32467437 0.055048503
-0.088532716 -0.3247799 0.055000477
-0.088690788 -0.32487494 0.055030905
-0.088845275 -0.3249757 0.05500941
-0.088995993 -0.32508704 0.05490369
-0.089175165 -0.32519078 0.054964032
-0.089353159 -0.32529733 0.055001296
-0.089524172 -0.32540512 0.055001654
-0.089684173 -0.32551718 0.054929361
-0.089830026 -0.32561216 0.054910228
-0.089999035 -0.32572991 0.054837883
-0.090143219 -0.32582983 0.054779515
-0.090320408 -0.32593444 0.054826006
-0.090491243 -0.3260377 0.054855231
-0.090659231 -0.3261438 0.054854453
-0.090793639 -0.32624963 0.054717645
-0.090943761 -0.32636026 0.054614238
-0.091114283 -0.32646137 0.054656148
-0.091262251 -0.32656068 0.054617386
-0.091426983 -0.32666489 0.054615468
-0.091613598 -0.32676673 0.054718468
-0.091803581 -0.32687071 0.054821458
-0.091989323 -0.32697985 0.054873686
-0.092158332 -0.32709298 0.05483136
-0.092339702 -0.32719827 0.054890539
-0.092451133 -0.32730773 0.054636121
-0.092600793 -0.32740918 0.054590419
-0.092763282 -0.32751393 0.054575816
-0.092957348 -0.32763365 0.054593388
-0.093108438 -0.32774362 0.05449805
-0.093243897 -0.32783094 0.054485887
-0.093438499 -0.32792932 0.054644242
-0.093617171 -0.32804179 0.054645725
-0.09376511 -0.32815191 0.054536559
-0.093941532 -0.32826245 0.054541513
-0.094101153 -0.32837391 0.05447153
-0.094243549 -0.3284736 0.054407399
-0.09439604 -0.3285749 0.054374378
-0.094563559 -0.32867551 0.054407068
-0.094747826 -0.32878798 0.054431606
-0.09492898 -0.32891092 0.054375369
-0.095084928 -0.32901418 0.054343492
-0.095235705 -0.32910746 0.054355487
-0.095430061 -0.32921383 0.054460764
-0.095584512 -0.32932737 0.054356188
-0.095743209 -0.32943469 0.054309282
-0.095913567 -0.32953784 0.054337345
-0.096059851 -0.32963341 0.054315902
-0.096229866 -0.32975057 0.054251637
-0.096411362 -0.3298538 0.054324664
-0.09656398 -0.32995534 0.054290485
-0.09671884 -0.33005685 0.054265536
-0.096886337 -0.33017206 0.054203596
-0.097046636 -0.33027169 0.054213233
-0.097232848 -0.33039087 0.054201987
-0.097384796 -0.33048862 0.054189753
-0.097535931 -0.33058637 0.054174047
-0.097691029 -0.33069372 0.054112159
-0.097842291 -0.33079529 0.054072224
-0.098003283 -0.33089519 0.054083019
-0.09819866 -0.33100542 0.05416752
-0.09838333 -0.33112115 0.05417243
-0.098504044 -0.33122563 0.053988367
-0.098679617 -0.33132622 0.054054499
-0.098855197 -0.3314417 0.054023679
-0.099038243 -0.33156121 0.053997438
-0.099169716 -0.33166024 0.053892963
-0.099313051 -0.33175057 0.053893462
-0.099504054 -0.33186319 0.053944506
-0.099640757 -0.33195877 0.053883862
-0.099825263 -0.33206943 0.053921096
-0.10000731 -0.33217105 0.054006811
-0.10018656 -0.3322942 0.053941354
-0.10031685 -0.33239478 0.053821877
-0.10049687 -0.33249658 0.053898364
-0.10070061 -0.33261067 0.053992067
-0.10081634 -0.33271024 0.053819563
-0.10100713 -0.3328236 0.053864848
-0.10117507 -0.33293197 0.053849068
-0.10137206 -0.33305299 0.053870082
-0.10150391 -0.33314478 0.05381408
-0.10164937 -0.33324802 0.053739537
-0.10181852 -0.33334967 0.05377223
-0.10198483 -0.33346325 0.053716067
-0.10217109 -0.33357677 0.053741749
-0.10232275 -0.33368054 0.053689111
-0.10247035 -0.33377713 0.053666499
-0.10264544 -0.33388984 0.053651839
-0.10279927 -0.33398876 0.053639583
-0.10296147 -0.33408853 0.053656146
-0.10312839 -0.33419552 0.053644985
-0.10331172 -0.33430758 0.05366838
-0.10346383 -0.33441484 0.053594969
-0.10364403 -0.33452171 0.05363914
-0.10377446 -0.33462664 0.053491965
-0.10394652 -0.33473602 0.053486556
-0.10412228 -0.33484256 0.053514592
-0.10429905 -0.33495259 0.05352417
-0.10446644 -0.33506489 0.053480688
-0.10462227 -0.33517092 0.053430345
-0.10479849 -0.33527458 0.053479154
-0.10495824 -0.33537954 0.053451877
-0.10512224 -0.33548507 0.053438418
-0.10528389 -0.33559674 0.053375348
-0.10544483 -0.33570033 0.053361911
-0.10563447 -0.33581567 0.053389892
-0.1058257 -0.33593285 0.05341208
-0.10599749 -0.33604756 0.053370889
-0.10614517 -0.33615112 0.053303272
-0.10629813 -0.33624756 0.053303719
-0.1064575 -0.33634964 0.05329375
-0.10663041 -0.33645988 0.053286023
-0.10681372 -0.33657634 0.053280562
-0.10696742 -0.33667928 0.053241767
-0.10712571 -0.336786 0.053197183
-0.10731664 -0.3368991 0.053244766
-0.10747027 -0.3370052 0.053185198
-0.10763084 -0.33710927 0.053167142
-0.1078034 -0.33721521 0.05318597
-0.10797398 -0.337327 0.053158633
-0.10814341 -0.33742958 0.0531867
-0.10834111 -0.33755034 0.053212333
-0.10851353 -0.33766562 0.053169988
-0.10864502 -0.33775771 0.053110518
-0.10882391 -0.33787709 0.053068146
-0.10902371 -0.33799845 0.053098381
-0.10917491 -0.33810285 0.053039975
-0.10933959 -0.33820951 0.0530219
-0.10947654 -0.33830255 0.052978572
-0.10966532 -0.3384223 0.052974239
-0.10983329 -0.33852375 0.05300346
-0.10999924 -0.33863229 0.052978456
-0.1101861 -0.33874604 0.053005286
-0.11034746 -0.33885238 0.052975688
-0.11051084 -0.3389664 0.052904543
-0.11071347 -0.33908901 0.052938227
-0.11087671 -0.33919728 0.052903999
-0.11100857 -0.33928961 0.052844536
-0.11120894 -0.33941346 0.052860919
-0.11138722 -0.3395232 0.052878551
-0.11154433 -0.33962899 0.052835129
-0.11171721 -0.3397364 0.052845873
-0.1118647 -0.33983895 0.052784018
-0.11205208 -0.33994931 0.052835088
-0.11222327 -0.34006789 0.052766208
-0.11239062 -0.3401702 0.05278736
-0.11255988 -0.34028703 0.052721947
-0.11274409 -0.34040409 0.052716475
-0.1128953 -0.34050331 0.052691545
-0.11307711 -0.34061438 0.052714936
-0.11324145 -0.34072474 0.052671477
-0.11342027 -0.34084228 0.052640643
-0.11355722 -0.34093037 0.052629624
-0.11376174 -0.34105614 0.052650601
-0.11394651 -0.34117371 0.052643973
-0.11409488 -0.34127399 0.052600585
-0.11426537 -0.3413845 0.052581336
-0.11442067 -0.3414863 0.052556388
-0.11460321 -0.34160087 0.052560154
-0.11476703 -0.34170327 0.052566327
-0.11491799 -0.34181103 0.052484836
-0.11510605 -0.34193105 0.052475892
-0.11526918 -0.34204152 0.052426666
-0.11549008 -0.34217304 0.05247758
-0.11566496 -0.34228221 0.052484844
-0.11584047 -0.34239429 0.052475955
-0.11597359 -0.34248742 0.052416474
-0.11617094 -0.34260994 0.052429412
-0.11632471 -0.34271449 0.052380227
-0.024909411 -0.28371936 0.061021447
-0.025052428 -0.28378516 0.061180063
-0.025310922 -0.28397131 0.06103006
-0.025501173 -0.28409323 0.061017685
-0.02569069 -0.28421432 0.061007615
-0.025896583 -0.28434506 0.061002083
-0.026108935 -0.28449371 0.060906529
-0.026280414 -0.28458709 0.06100269
-0.026482951 -0.28472331 0.060947567
-0.026691571 -0.28486538 0.060879711
-0.026889816 -0.28499642 0.060840756
-0.027078085 -0.28511211 0.060860697
-0.027263757 -0.28522685 0.060876034
-0.027455598 -0.28534749 0.060878642
-0.027664617 -0.28549102 0.060802706
-0.027858056 -0.28561407 0.060796093
-0.028059166 -0.28574994 0.060737506
-0.028238136 -0.28585389 0.060795564
-0.028428301 -0.2859754 0.060785491
-0.028632641 -0.28611368 0.060724579
-0.028827798 -0.28623974 0.060705252
-0.029035468 -0.28638297 0.060625866
-0.029205479 -0.28647771 0.060707051
-0.029406574 -0.28661236 0.060656536
-0.029602949 -0.28674328 0.060610667
-0.029798683 -0.28687099 0.060583256
-0.029991582 -0.2869949 0.060568556
-0.030181672 -0.28711513 0.060566559
-0.030375194 -0.28724286 0.060529936
-0.030566547 -0.28736511 0.060519859
-0.030761924 -0.28749576 0.060471676
-0.030953772 -0.28761905 0.060456984
-0.03112758 -0.28771973 0.060515068
-0.031322088 -0.28784701 0.060485356
-0.031513441 -0.28796998 0.060470663
-0.03170931 -0.28809953 0.060431719
-0.031900842 -0.2882258 0.060396258
-0.032097548 -0.28835696 0.060350385
-0.032282855 -0.28847468 0.060344942
-0.032472067 -0.28859541 0.060336031
-0.032666765 -0.28872421 0.060297094
-0.032850411 -0.28883716 0.060315892
-0.03303827 -0.28895918 0.060293145
-0.033240221 -0.28909913 0.060211468
-0.033417866 -0.2892065 0.060241841
-0.03360156 -0.28932002 0.060257182
-0.033798501 -0.28945613 0.06018015
-0.03399143 -0.28958365 0.060142379
-0.034176074 -0.28969899 0.06014964
-0.034357924 -0.28981027 0.06017191
-0.034549732 -0.28993958 0.060117982
-0.03473334 -0.29005373 0.060128711
-0.034922685 -0.2901797 0.060086332
-0.035106987 -0.29029518 0.060091279
-0.035292149 -0.29041213 0.06009046
-0.035475802 -0.29052684 0.060097732
-0.035676844 -0.29067159 0.059981447
-0.035827994 -0.29074249 0.060140029
-0.036022067 -0.29086754 0.060123011
-0.036220707 -0.29100612 0.060036741
-0.036408633 -0.29113138 0.059993215
-0.036596846 -0.29125413 0.059966993
-0.036778327 -0.29136643 0.05998119
-0.036974348 -0.29150194 0.059904166
-0.037151448 -0.29161075 0.059923004
-0.03734275 -0.2917392 0.05987253
-0.037546311 -0.29188764 0.059742391
-0.037719566 -0.29198745 0.059803933
-0.037909325 -0.29211742 0.059737321
-0.038090978 -0.29223105 0.059743442
-0.038262155 -0.29233098 0.059795767
-0.038444847 -0.29244652 0.059793808
-0.038631219 -0.2925683 0.059766442
-0.038816188 -0.29268795 0.059747167
-0.038999375 -0.29280823 0.059716351
-0.039187539 -0.29293364 0.059672818
-0.039369784 -0.29304925 0.059668556
-0.039553884 -0.29316816 0.059650429
-0.03973221 -0.29328096 0.059648484
-0.039919768 -0.29340616 0.05960381
-0.040099479 -0.29351804 0.059613403
-0.040287755 -0.29364493 0.059560634
-0.040469952 -0.29376513 0.059526373
-0.040644832 -0.29386899 0.059568293
-0.040824071 -0.29398429 0.059553653
-0.04100582 -0.29410049 0.059543617
-0.041188203 -0.29421797 0.059527807
-0.041369982 -0.29433453 0.059515469
-0.041554667 -0.29446042 0.059454642
-0.041734748 -0.29457429 0.059452698
-0.041910995 -0.29468524 0.059454218
-0.04206787 -0.2947804 0.059478916
-0.042204488 -0.29485404 0.059560239
-0.042423528 -0.29502881 0.059322719
-0.042636715 -0.29515702 0.059363306
-0.042775936 -0.29524386 0.059369616
-0.042985845 -0.29537839 0.059356004
-0.043168779 -0.29549071 0.059375968
-0.043289028 -0.29554975 0.059485056
-0.043536324 -0.29574856 0.059207015
-0.043711271 -0.2958459 0.059291631
-0.043867968 -0.29594183 0.059310563
-0.044060364 -0.29608658 0.059158541
-0.044203278 -0.29616866 0.059210986
-0.044391155 -0.29628748 0.059209008
-0.044582717 -0.2964184 0.059143536
-0.044758111 -0.2965304 0.059134677
-0.044934683 -0.29663125 0.05920314
-0.045110669 -0.29674929 0.059157357
-0.04531572 -0.29688609 0.059109136
-0.045496825 -0.29700133 0.059102565
-0.045672327 -0.29710966 0.05911795
-0.045832463 -0.29721913 0.059063002
-0.046030872 -0.29735261 0.059009049
-0.046194505 -0.29744563 0.059075251
-0.046337865 -0.29753917 0.059055001
-0.046531372 -0.29767773 0.05894798
-0.04668089 -0.29775488 0.059059259
-0.046872854 -0.29789069 0.058963783
-0.047072858 -0.29803476 0.058847494
-0.047270902 -0.29814863 0.058919318
-0.047448281 -0.29826829 0.058868922
-0.047623724 -0.29837835 0.058872759
-0.047794104 -0.2984767 0.05893201
-0.047976602 -0.29860368 0.058855042
-0.048150692 -0.29871663 0.058834657
-0.048327047 -0.29882959 0.058823489
-0.048502952 -0.29894742 0.05877886
-0.048676256 -0.29906502 0.058725014
-0.048848104 -0.29916164 0.058801569
-0.048993398 -0.29925126 0.058814779
-0.04916364 -0.2993618 0.058794409
-0.049346022 -0.29949757 0.05865974
-0.04953875 -0.29961732 0.058671586
-0.049687266 -0.29971609 0.058638614
-0.04984951 -0.29981303 0.058673676
-0.05002588 -0.29991534 0.05873175
-0.050251398 -0.30007178 0.058639586
-0.050429799 -0.30019334 0.058581095
-0.050598972 -0.30029643 0.058604583
-0.05076658 -0.30040902 0.058559991
-0.050942648 -0.30051097 0.058619216
-0.05111916 -0.30063558 0.05853305
-0.051278155 -0.30074576 0.058468871
-0.051462315 -0.3008647 0.058450751
-0.051600114 -0.30094942 0.058465142
-0.051770002 -0.30105582 0.058470167
-0.051949505 -0.3011688 0.058471672
-0.05211293 -0.30127895 0.058425948
-0.052275617 -0.30137101 0.058494467
-0.052459896 -0.30149999 0.058411721
-0.052631415 -0.30160439 0.058436349
-0.052816469 -0.30171999 0.058443606
-0.05300355 -0.30185148 0.058356233
-0.053153578 -0.30194426 0.058368266
-0.053328685 -0.30205289 0.058380183
-0.053486936 -0.30213824 0.058474116
-0.053658038 -0.30227008 0.058318727
-0.053840376 -0.3023966 0.058244064
-0.054051623 -0.30252469 0.058277749
-0.054224901 -0.30263767 0.058253903
-0.054393332 -0.30274224 0.058264703
-0.054565638 -0.30285192 0.058258168
-0.054734528 -0.30295876 0.058256265
-0.054907147 -0.30308163 0.058165498
-0.055075377 -0.30318645 0.058173988
-0.055246785 -0.30329362 0.058180153
-0.055415288 -0.30340001 0.058179401
-0.05558905 -0.30351862 0.058120944
-0.055758949 -0.3036325 0.058077492
-0.055927664 -0.30374116 0.0580629
-0.056095317 -0.3038449 0.058076005
-0.056257114 -0.3039467 0.058077596
-0.056434825 -0.30406052 0.058066424
-0.056606337 -0.30417097 0.058051817
-0.056774128 -0.30427641 0.05805454
-0.056943111 -0.30438915 0.058014564
-0.057112858 -0.30450734 0.057942268
-0.057282239 -0.30460668 0.057991136
-0.057450004 -0.30471349 0.057984624
-0.057618547 -0.30482614 0.057943486
-0.057786401 -0.30493483 0.057925437
-0.05795652 -0.30503976 0.057940844
-0.058105569 -0.305136 0.057926342
-0.058296781 -0.30527398 0.057813555
-0.058464669 -0.30538639 0.057771273
-0.05863471 -0.30549324 0.057773985
-0.058801044 -0.3055926 0.057810169
-0.058958575 -0.30569065 0.057818711
-0.059113454 -0.30579183 0.057796095
-0.059305459 -0.30591825 0.057761781
-0.059472702 -0.30603006 0.057720661
-0.059641842 -0.30612835 0.057775304
-0.059808984 -0.30624118 0.057727247
-0.059978984 -0.3063544 0.057688423
-0.060145311 -0.30645603 0.057709605
-0.060315069 -0.30656803 0.057677701
-0.060481619 -0.30667785 0.05764696
-0.060648032 -0.30678612 0.057625454
-0.060814328 -0.3068938 0.057607412
-0.06098365 -0.30700445 0.057582423
-0.061149728 -0.30710238 0.057626694
-0.061315835 -0.30722648 0.057501331
-0.061484929 -0.30732384 0.057561748
-0.061653972 -0.30743131 0.057556376
-0.061819758 -0.30754238 0.057514105
-0.061966818 -0.30764753 0.057433836
-0.062154505 -0.30775306 0.057517242
-0.062319979 -0.30786449 0.057471506
-0.062486045 -0.30796206 0.057518091
-0.062649511 -0.30805126 0.057608526
-0.062781706 -0.30813169 0.057627566
-0.062939815 -0.30825269 0.057489544
-0.063103259 -0.30838293 0.05731342
-0.063282683 -0.30851042 0.057220306
-0.063482106 -0.3086305 0.057257496
-0.06363032 -0.30871078 0.057343401
-0.06380827 -0.30881923 0.057367995
-0.063967243 -0.30892122 0.057356909
-0.064140394 -0.3090407 0.05729036
-0.064310886 -0.30915403 0.05725269
-0.064481929 -0.30926293 0.05724616
-0.064647734 -0.30936229 0.057280049
-0.06481532 -0.30947134 0.057258535
-0.06497924 -0.30958143 0.057215109
-0.065144822 -0.30968189 0.057240926
-0.065275766 -0.30976671 0.057226501
-0.065453731 -0.30989102 0.05714839
-0.065641925 -0.30999881 0.05721911
-0.065780088 -0.31009746 0.057144642
-0.065953791 -0.31020784 0.057139263
-0.066120788 -0.31030229 0.057210073
-0.066286787 -0.31042913 0.057066243
-0.06644211 -0.31052759 0.057063248
-0.066626251 -0.31065115 0.057015121
-0.066789649 -0.31074598 0.057068639
-0.066965297 -0.31086099 0.057041317
-0.067129582 -0.31096527 0.05703713
-0.067291655 -0.31107649 0.056978714
-0.067447223 -0.31117329 0.056987256
-0.067619331 -0.31128678 0.056955338
-0.06779062 -0.31139156 0.056976512
-0.0679501 -0.31148782 0.057004653
-0.068108395 -0.31158745 0.057006255
-0.068285517 -0.31171688 0.056891233
-0.068448007 -0.31182465 0.056857049
-0.068583459 -0.31192368 0.056768753
-0.068760999 -0.31203136 0.056796815
-0.068949327 -0.31213197 0.056914836
-0.069103613 -0.31224024 0.056843769
-0.069274239 -0.3123464 0.056853399
-0.069430642 -0.3124409 0.056880407
-0.069602974 -0.3125602 0.056811564
-0.069754094 -0.31265742 0.056799345
-0.069910035 -0.31276086 0.056766354
-0.070082232 -0.31287155 0.056752894
-0.070250593 -0.31298178 0.056726769
-0.070412055 -0.31308195 0.056737591
-0.070587665 -0.31320101 0.056683727
-0.070749328 -0.31330809 0.056650706
-0.070903607 -0.31340623 0.056645405
-0.071059801 -0.31352228 0.056531623
-0.071194701 -0.3136245 0.056420248
-0.071391687 -0.31372777 0.056556702
-0.071573205 -0.31382942 0.056640137
-0.071735457 -0.31393489 0.056619801
-0.071898036 -0.31404626 0.056562543
-0.072069816 -0.3141565 0.056550238
-0.072235852 -0.31426242 0.056542583
-0.072376177 -0.31436133 0.056475036
-0.07254646 -0.31446728 0.056484669
-0.072705805 -0.31456399 0.056509353
-0.072867557 -0.31466952 0.056486707
-0.073036313 -0.31477162 0.056514818
-0.073220104 -0.31489515 0.056465529
-0.073382482 -0.31499964 0.056452125
-0.073533975 -0.31509495 0.056453757
-0.073690534 -0.31521195 0.056335367
-0.073859684 -0.31531361 0.056368086
-0.074030153 -0.31541929 0.056380022
-0.074203067 -0.31552759 0.056385033
-0.074360117 -0.31563246 0.056347407
-0.074519239 -0.31572974 0.056367479
-0.074687585 -0.31583783 0.05635519
-0.074850321 -0.31593651 0.056381013
-0.075008117 -0.3160454 0.056320306
-0.07517042 -0.31615445 0.056276895
-0.07532908 -0.3162621 0.056227729
-0.075480811 -0.31636664 0.056170512
-0.07564386 -0.31646976 0.056168638
-0.075822294 -0.31657746 0.056200162
-0.075992733 -0.31668794 0.056180947
-0.076154888 -0.31678733 0.056199841
-0.076332144 -0.31690547 0.056158669
-0.07646855 -0.31699553 0.056132682
-0.076635107 -0.31710017 0.056135409
-0.07680653 -0.31720522 0.056155425
-0.076979652 -0.31731772 0.056133881
-0.077146351 -0.317431 0.056081217
-0.077306762 -0.31753194 0.056082819
-0.077473715 -0.31764057 0.056061313
-0.077628419 -0.31774163 0.056038696
-0.077776231 -0.31783533 0.056035735
-0.077933028 -0.31794307 0.055978503
-0.078105882 -0.31805539 0.055956967
-0.078264527 -0.31815755 0.055943571
-0.078436002 -0.31826279 0.055962432
-0.078595199 -0.31836456 0.055953648
-0.078758128 -0.31847563 0.055899851
-0.078914367 -0.31858319 0.055841461
-0.079080351 -0.31868818 0.055839568
-0.079251274 -0.31879008 0.055878051
-0.079438455 -0.31890473 0.055900298
-0.079604007 -0.31901762 0.055845328
-0.079750188 -0.31911597 0.055805452
-0.079911023 -0.31922036 0.055786274
-0.080077566 -0.31930688 0.055906706
-0.080235302 -0.31942764 0.055768684
-0.080433927 -0.31956479 0.055691645
-0.080596618 -0.31966805 0.055687468
-0.080733925 -0.31975672 0.055674165
-0.080895469 -0.31985712 0.055683836
-0.081057511 -0.31996426 0.055651966
-0.081240952 -0.32007086 0.055711158
-0.081398442 -0.32015982 0.055778548
-0.081558645 -0.32025442 0.055820536
-0.081737384 -0.32037383 0.055777054
-0.08190079 -0.32048041 0.055754401
-0.082036301 -0.32059973 0.055534557
-0.082211189 -0.32070413 0.055573016
-0.082366146 -0.32080448 0.055556171
-0.082532153 -0.32090646 0.055573899
-0.082702607 -0.32100984 0.055600844
-0.082873009 -0.32111016 0.055647403
-0.083022393 -0.32122865 0.055489801
-0.083196759 -0.32133681 0.055501729
-0.083370179 -0.32143921 0.055547118
-0.083548628 -0.32154906 0.055564791
-0.083709814 -0.32165939 0.055508688
-0.083850481 -0.32177112 0.055359207
-0.084024809 -0.3218734 0.055409208
-0.084186718 -0.32197723 0.055398107
-0.084354393 -0.32208204 0.055404291
-0.084503345 -0.32218447 0.055349395
-0.084673524 -0.32229725 0.055314023
-0.084825411 -0.32239565 0.055297196
-0.084994383 -0.32249436 0.055348378
-0.085174479 -0.32259831 0.055411048
-0.085332625 -0.3227149 0.055301882
-0.08547581 -0.32281882 0.055213541
-0.085639752 -0.32291648 0.055250898
-0.085807331 -0.32302994 0.055200543
-0.085972749 -0.32313564 0.055191729
-0.086158849 -0.32324392 0.05525092
-0.086285852 -0.32334918 0.055087641
-0.086448893 -0.32344732 0.05511808
-0.086627305 -0.32354701 0.055201538
-0.086808272 -0.32365969 0.055211112
-0.086951867 -0.32376832 0.055093937
-0.087114006 -0.32386965 0.055100136
-0.087297171 -0.32397661 0.055155877
-0.087467775 -0.32408398 0.055157427
-0.087640561 -0.32420394 0.055086277
-0.087804496 -0.32430762 0.055084392
-0.087956108 -0.32440373 0.055081412
-0.088116467 -0.32450569 0.055076092
-0.08827576 -0.32461554 0.055015378
-0.088445649 -0.32472068 0.055028476
-0.088606849 -0.32483509 0.054945838
-0.088746831 -0.32493344 0.054880597
-0.088911131 -0.3250322 0.05491218
-0.08908996 -0.32513589 0.054971389
-0.089253299 -0.3252424 0.054948747
-0.089400783 -0.32534674 0.0548754
-0.08958634 -0.325452 0.054951891
-0.089762665 -0.3255541 0.055011116
-0.089920074 -0.32566649 0.054926187
-0.090073854 -0.32577693 0.054838952
-0.090237707 -0.32588342 0.054818608
-0.090407386 -0.32599145 0.054812096
-0.090535752 -0.32609579 0.054660358
-0.09069778 -0.32619312 0.054691948
-0.090878218 -0.32629517 0.054768465
-0.091052294 -0.32640046 0.054797702
-0.091243029 -0.32650849 0.054877635
-0.091395751 -0.32661879 0.05478695
-0.091540113 -0.3267231 0.054700918
-0.091721661 -0.32683009 0.054749735
-0.091872603 -0.32693589 0.054680992
-0.09202987 -0.32703876 0.054657217
-0.092197806 -0.32714731 0.054640315
-0.092359267 -0.32725424 0.054607287
-0.092519298 -0.32735687 0.054596193
-0.092668757 -0.32746264 0.054521687
-0.092851415 -0.32756785 0.054586656
-0.093041584 -0.32767266 0.054685049
-0.093211159 -0.32778347 0.054660067
-0.093318224 -0.32789001 0.054406881
-0.093507968 -0.32799295 0.05451566
-0.093707263 -0.32809764 0.054652102
-0.09385021 -0.32820585 0.05453492
-0.094034448 -0.32831171 0.054602195
-0.094192125 -0.32842746 0.054496482
-0.094350174 -0.32853472 0.054447319
-0.094527155 -0.32864738 0.054440767
-0.094687432 -0.32874626 0.054455064
-0.094839402 -0.32885787 0.054352842
-0.095004462 -0.3289628 0.0543475
-0.095177092 -0.32906756 0.054374434
-0.095344536 -0.32917863 0.054339066
-0.095504455 -0.32928583 0.054297969
-0.095649689 -0.32938129 0.054273091
-0.095823847 -0.32948822 0.054291945
-0.095996201 -0.3295953 0.054302722
-0.096171238 -0.32970637 0.054298487
-0.096331529 -0.32981166 0.054271236
-0.09648291 -0.32991704 0.054207105
-0.096663699 -0.33002621 0.05423861
-0.096830003 -0.33013159 0.054235566
-0.096991859 -0.330237 0.054214083
-0.097170703 -0.33034834 0.054223679
-0.097300962 -0.33045158 0.054086931
-0.097474962 -0.33055523 0.054126553
-0.097633302 -0.33066446 0.054065842
-0.097802319 -0.33076248 0.054121647
-0.098011963 -0.3308785 0.054226879
-0.09819784 -0.33099607 0.054224908
-0.098325476 -0.33110458 0.054043166
-0.098478377 -0.33120432 0.054021724
-0.098645866 -0.33130085 0.054080985
-0.098837882 -0.33140948 0.05416207
-0.098988503 -0.33152592 0.054022931
-0.099121146 -0.33163047 0.053887326
-0.099284977 -0.33172894 0.05391892
-0.099466175 -0.33184105 0.053933118
-0.099624202 -0.33193943 0.053941656
-0.099822454 -0.33205077 0.054030791
-0.099955171 -0.33215874 0.05387326
-0.10014057 -0.3322767 0.053866666
-0.1003248 -0.3323893 0.053890087
-0.10048111 -0.33248961 0.053879015
-0.10063936 -0.33258829 0.053886387
-0.10078982 -0.33269006 0.05384187
-0.1009685 -0.33280432 0.053831846
-0.1011526 -0.33292076 0.053829886
-0.10131831 -0.33302718 0.053817615
-0.10147093 -0.33312568 0.053803086
-0.10162891 -0.33322811 0.053785078
-0.10179045 -0.33333775 0.05373475
-0.10195445 -0.3334493 0.053682096
-0.10214561 -0.33355635 0.053770103
-0.10229649 -0.33366513 0.053681739
-0.10246972 -0.33377415 0.053683277
-0.1026307 -0.33388045 0.053652558
-0.10279736 -0.3339839 0.053663369
-0.10299132 -0.33409679 0.053724825
-0.10314947 -0.33420962 0.053639885
-0.10330246 -0.33430853 0.053624213
-0.10349531 -0.33443159 0.053615276
-0.10363449 -0.33452746 0.053562734
-0.10379012 -0.3346284 0.053544737
-0.10396191 -0.33473936 0.053527821
-0.10413688 -0.33484417 0.053563979
-0.10429798 -0.3349475 0.053552873
-0.10447019 -0.33506194 0.053515192
-0.10466541 -0.33518398 0.053522404
-0.10481074 -0.33528391 0.053468674
-0.10496266 -0.33538306 0.053447232
-0.10512346 -0.33549133 0.05340267
-0.10530044 -0.33560327 0.05340074
-0.10546416 -0.3357088 0.05338617
-0.10562479 -0.33581075 0.053381998
-0.10580139 -0.33592281 0.053377755
-0.10594756 -0.33602452 0.053315949
-0.10613072 -0.33613914 0.053322066
-0.10627973 -0.33624282 0.053259082
-0.10647139 -0.33635089 0.053342484
-0.10665395 -0.33647186 0.053304747
-0.10681026 -0.33657196 0.053294823
-0.10697711 -0.33668143 0.053267542
-0.10713559 -0.33678967 0.053213764
-0.10732427 -0.33690703 0.053224467
-0.10748512 -0.33700648 0.053237606
-0.10765923 -0.33711413 0.053251833
-0.10781401 -0.3372204 0.053195763
-0.10800516 -0.33734146 0.053192608
-0.10816114 -0.33745098 0.053120371
-0.10831539 -0.33754963 0.053111617
-0.10849403 -0.33766279 0.053108517
-0.10867371 -0.33778068 0.053078867
-0.10885221 -0.33789393 0.053074617
-0.10902274 -0.33800146 0.053075027
-0.10917863 -0.33810061 0.053069718
-0.10937551 -0.33822012 0.053100005
-0.10953125 -0.33832824 0.05303584
-0.10968265 -0.33842972 0.052997094
-0.10985591 -0.33854091 0.052984793
-0.11002488 -0.33864993 0.052969038
-0.11019895 -0.33875841 0.052977506
-0.11035745 -0.33886418 0.052939877
-0.11053246 -0.3389788 0.052912559
-0.11070739 -0.33908907 0.052912951
-0.11089514 -0.33921191 0.052884415
-0.11106469 -0.33931985 0.052877903
-0.11125569 -0.3394362 0.052904747
-0.11144046 -0.33955005 0.052922398
-0.1115907 -0.33965594 0.052850187
-0.11175952 -0.33976254 0.052849442
-0.11190816 -0.33986244 0.052809548
-0.11208123 -0.33997706 0.052774165
-0.11225037 -0.34008387 0.052773416
-0.11243112 -0.34019303 0.052804928
-0.1125946 -0.3403073 0.052732658
-0.11276494 -0.34041449 0.052734219
-0.11294043 -0.3405326 0.052686129
-0.11310768 -0.34063929 0.052678466
-0.11329691 -0.34075612 0.052694939
-0.11348458 -0.34087408 0.052697573
-0.11362118 -0.34096763 0.052649654
-0.11377926 -0.34107813 0.052579723
-0.11398156 -0.3411952 0.052648067
-0.11413709 -0.34129697 0.052624296
-0.11433825 -0.34142774 0.052599177
-0.11451121 -0.34153196 0.052630719
-0.11469395 -0.34164524 0.052643761
-0.11482719 -0.34175318 0.052488539
-0.11503071 -0.34187245 0.052547645
-0.11519542 -0.34198731 0.052476518
-0.11537036 -0.34209636 0.052484982
-0.11555389 -0.3422128 0.052480709
-0.11571357 -0.34231451 0.052474234
-0.11589283 -0.34243411 0.0524319
-0.11605913 -0.34254146 0.052416157
-0.11623328 -0.34265462 0.052394617
-0.025119174 -0.28384134 0.061088651
-0.025338501 -0.28399831 0.060967647
-0.025531642 -0.28412187 0.0609564
-0.02571084 -0.28422758 0.061004072
-0.025901727 -0.28435078 0.060985923
-0.02609352 -0.28447297 0.060978144
-0.026286706 -0.2845971 0.060963433
-0.026461504 -0.28469732 0.061028443
-0.026679423 -0.28485647 0.060887821
-0.026883148 -0.28499487 0.060823437
-0.027061377 -0.28509995 0.060871124
-0.027255803 -0.28522646 0.060846023
-0.027436242 -0.28533703 0.060867153
-0.027631287 -0.28546464 0.060837425
-0.027806815 -0.28556642 0.06089551
-0.028019138 -0.2857174 0.060784929
-0.028215755 -0.28585008 0.060728647
-0.028401595 -0.28596601 0.060737051
-0.028594226 -0.28609121 0.06071312
-0.028786883 -0.28621662 0.060688026
-0.028988846 -0.28635728 0.060601719
-0.029166352 -0.28646246 0.060645942
-0.029381368 -0.28661886 0.060511101
-0.029553749 -0.28671721 0.060578436
-0.029749826 -0.28684813 0.0605314
-0.029929459 -0.28695661 0.060562912
-0.030116811 -0.28707579 0.060556311
-0.030313626 -0.28720826 0.060502343
-0.030507822 -0.2873373 0.060459934
-0.030716874 -0.28748724 0.060342442
-0.03087927 -0.28757221 0.060455978
-0.031065907 -0.28769112 0.060448229
-0.031245973 -0.28780359 0.060455497
-0.031429116 -0.28791782 0.060463913
-0.031624522 -0.28804958 0.060408812
-0.03181605 -0.28817603 0.060372181
-0.032001112 -0.28829342 0.06036789
-0.032187123 -0.2884123 0.060357831
-0.032374941 -0.28853393 0.060337376
