# .PCD v0.7 - Point Cloud Data file format
VERSION 0.7
FIELDS x y z
SIZE 4 4 4
TYPE F F F
COUNT 1 1 1
WIDTH 1264
HEIGHT 1
VIEWPOINT 0 0 0 1 0 0 0
POINTS 1264
DATA ascii
-0.070182733 -0.30820155 0.058079343
-0.070344314 -0.30830103 0.058089301
-0.070507929 -0.30840433 0.058083095
-0.070679143 -0.30850855 0.058101103
-0.070822887 -0.30860344 0.058069572
-0.070988253 -0.30871806 0.057998788
-0.071148604 -0.3088195 0.057991449
-0.071327008 -0.30892548 0.058026724
-0.071509078 -0.30904636 0.057982419
-0.071646854 -0.30912289 0.058043182
-0.071797289 -0.30921319 0.058066998
-0.071987875 -0.30935365 0.057932716
-0.072150476 -0.30946434 0.057875775
-0.072316311 -0.30956358 0.057904169
-0.072475709 -0.30965966 0.057926811
-0.072643183 -0.30976921 0.057896383
-0.072810724 -0.30987242 0.057906322
-0.072975352 -0.30997965 0.057879355
-0.073141627 -0.31007856 0.057911206
-0.073285207 -0.31018394 0.057812806
-0.073466122 -0.3102988 0.057801947
-0.073625714 -0.31038335 0.057898395
-0.073769644 -0.31049332 0.057772305
-0.073941745 -0.31060758 0.057730336
-0.074114554 -0.31072083 0.057697587
-0.074292295 -0.31082824 0.057721332
-0.074442655 -0.31092414 0.057709403
-0.074615665 -0.3110317 0.057713561
-0.07477773 -0.31113037 0.057730436
-0.074947834 -0.31123078 0.057768047
-0.075096257 -0.31133902 0.057670772
-0.075234242 -0.31143761 0.057593133
-0.075433925 -0.31155762 0.057623748
-0.075592786 -0.31165466 0.057638325
-0.075776868 -0.31177077 0.057632066
-0.075930111 -0.31186849 0.05762013
-0.076080084 -0.31196928 0.057575904
-0.076233089 -0.31207654 0.057502843
-0.076411627 -0.31219283 0.057473548
-0.076595165 -0.31230459 0.057492658
-0.076754183 -0.31240153 0.057508394
-0.076915622 -0.31249198 0.057574853
-0.077069812 -0.31260216 0.057487942
-0.077245675 -0.31270728 0.057518616
-0.077398501 -0.31281388 0.057449017
-0.077553593 -0.31290984 0.057455532
-0.077709973 -0.31301335 0.05741936
-0.077867463 -0.31311592 0.057393573
-0.078023195 -0.31321979 0.0573528
-0.078182392 -0.31332928 0.057290103
-0.078366183 -0.31344518 0.057283845
-0.07854709 -0.31355914 0.05727876
-0.078696534 -0.31365904 0.057237994
-0.078847989 -0.31375748 0.057214536
-0.079009779 -0.31385672 0.057226792
-0.079179563 -0.31396243 0.057229806
-0.079338171 -0.31406385 0.057215542
-0.079476513 -0.31416303 0.057135597
-0.079651609 -0.31426531 0.057181273
-0.079815105 -0.31436744 0.057181984
-0.080003045 -0.31448084 0.057208013
-0.080152459 -0.31456923 0.057239912
-0.080309696 -0.31466416 0.057261411
-0.080478996 -0.31477413 0.057235591
-0.080660015 -0.31489909 0.057161298
-0.080812618 -0.3150039 0.057102077
-0.080990322 -0.31510544 0.057162732
-0.081133202 -0.31520835 0.057077013
-0.081291944 -0.31529912 0.057130795
-0.081482276 -0.31542224 0.057104923
-0.081621245 -0.3155165 0.05705842
-0.081779443 -0.31562153 0.057019942
-0.081952192 -0.31572947 0.057020634
-0.082126535 -0.31584001 0.05701096
-0.08228188 -0.31593961 0.056995556
-0.082454175 -0.31604451 0.057013553
-0.082623348 -0.31614763 0.057030395
-0.082785487 -0.31625402 0.056998834
-0.082936309 -0.31635243 0.056973055
-0.083099298 -0.31645516 0.056968022
-0.083256252 -0.31656048 0.056922626
-0.083425894 -0.31666994 0.056901414
-0.083578825 -0.31677368 0.056850273
-0.083755866 -0.31688318 0.056857873
-0.083903 -0.31698602 0.056789443
-0.084062234 -0.31708404 0.056799393
-0.084225699 -0.31719273 0.056758601
-0.08438354 -0.31729132 0.056759339
-0.084561341 -0.31739163 0.056828063
-0.084733322 -0.31751221 0.05674573
-0.084896967 -0.31761479 0.056744143
-0.085051574 -0.31771466 0.056724124
-0.085209966 -0.31781617 0.056708712
-0.085386768 -0.31792608 0.056712855
-0.085541204 -0.31802601 0.056691695
-0.085710473 -0.31813267 0.056686632
-0.085858971 -0.31823161 0.05664818
-0.086019382 -0.31833822 0.056608547
-0.086178273 -0.31844237 0.056578137
-0.08635053 -0.31853977 0.056643415
-0.086521335 -0.3186461 0.056646429
-0.086678505 -0.31875086 0.056605652
-0.086855695 -0.31886923 0.056557897
-0.087010756 -0.31896627 0.056557484
-0.087175183 -0.31906897 0.056558207
-0.087333329 -0.31917068 0.056540485
-0.087497152 -0.3192763 0.056520447
-0.087668821 -0.31938264 0.056526907
-0.087828055 -0.31947881 0.056548402
-0.088002473 -0.31956878 0.056669042
-0.088161863 -0.31966779 0.056673225
-0.08830256 -0.3197816 0.056510247
-0.088471383 -0.31988102 0.056549013
-0.088619664 -0.31999281 0.056428671
-0.088748589 -0.3201009 0.056255337
-0.088921979 -0.32020447 0.056286018
-0.08911787 -0.3203086 0.056401987
-0.08927279 -0.32041615 0.056334682
-0.089431472 -0.32052037 0.056303129
-0.089595258 -0.32063109 0.056250796
-0.089767978 -0.32073516 0.05627571
-0.089946777 -0.32085052 0.056253329
-0.090104826 -0.32094997 0.056249447
-0.090240985 -0.32104835 0.056166049
-0.090407684 -0.3211512 0.056174841
-0.090587027 -0.32125446 0.056230873
-0.090748101 -0.32135838 0.056210842
-0.090909444 -0.32146701 0.056161977
-0.091084659 -0.32157356 0.056181122
-0.091244623 -0.3216753 0.056170315
-0.091403693 -0.32177722 0.056154903
-0.091587916 -0.3218874 0.056186713
-0.091742747 -0.32198995 0.056150544
-0.091894008 -0.32209063 0.056112085
-0.092067629 -0.3222 0.056107018
-0.092220604 -0.32230505 0.056047797
-0.09239015 -0.32240584 0.056080788
-0.092576601 -0.3225207 0.056091834
-0.092723742 -0.32262412 0.056019939
-0.092869669 -0.32272309 0.05597112
-0.093054302 -0.32282934 0.056029443
-0.093227111 -0.32294568 0.055977084
-0.093372241 -0.32304472 0.055924803
-0.093525007 -0.32314089 0.05592094
-0.093701407 -0.32324815 0.055940084
-0.093858868 -0.32335052 0.055915445
-0.09402591 -0.32345432 0.055919617
-0.094192326 -0.3235561 0.055934168
-0.094366685 -0.32366595 0.055929102
-0.094518244 -0.32376882 0.055877954
-0.094683707 -0.32387292 0.05587405
-0.094854608 -0.32398096 0.055866681
-0.095000252 -0.32408416 0.055790182
-0.095164075 -0.3241905 0.055765528
-0.095330402 -0.32429257 0.055777781
-0.095498756 -0.32440087 0.055758879
-0.095646143 -0.32450387 0.055690445
-0.095809981 -0.32460821 0.055678479
-0.095980324 -0.32471645 0.055667654
-0.096151903 -0.32481453 0.055726007
-0.096322432 -0.32492289 0.055715177
-0.096486598 -0.32503146 0.055677842
-0.096643455 -0.32513618 0.055635907
-0.09678901 -0.32523915 0.055560559
-0.096970484 -0.3253434 0.055618893
-0.097149283 -0.32544979 0.055653021
-0.097312674 -0.32556045 0.055599537
-0.097489759 -0.32566506 0.055638287
-0.097651258 -0.32577381 0.055589419
-0.097795472 -0.32587281 0.055533681
-0.097965285 -0.32597762 0.055542454
-0.098133452 -0.3260825 0.055544317
-0.098298766 -0.3261874 0.055534653
-0.098471396 -0.32629433 0.05554112
-0.098622136 -0.32640108 0.055462293
-0.098797865 -0.32650813 0.055480279
-0.098969303 -0.3266114 0.055505197
-0.099129647 -0.3267183 0.055463262
-0.099296123 -0.32682723 0.055432841
-0.099469699 -0.32693824 0.055417385
-0.099632084 -0.32704151 0.05540657
-0.099785492 -0.32713896 0.055396944
-0.099943437 -0.32724401 0.055357315
-0.10010476 -0.32734734 0.055341896
-0.10025837 -0.32745039 0.055297662
-0.10043163 -0.32756156 0.055279907
-0.10062595 -0.32767549 0.055327825
-0.10077336 -0.32778016 0.055249013
-0.10093942 -0.32788208 0.055261265
-0.10110458 -0.32798579 0.055258524
-0.10127552 -0.32809168 0.055264983
-0.10144035 -0.32820085 0.055226497
-0.10159853 -0.32830787 0.055175327
-0.10175826 -0.32840967 0.055163372
-0.10191667 -0.32851318 0.055135272
-0.10209049 -0.32862121 0.055139426
-0.10226391 -0.32872754 0.055152807
-0.10242222 -0.32883465 0.055101648
-0.10257556 -0.32893792 0.055055115
-0.10274559 -0.32904068 0.055077728
-0.10293685 -0.32915032 0.055140652
-0.1031016 -0.32926491 0.055067558
-0.1032441 -0.32936394 0.05500491
-0.1033964 -0.32946035 0.054997586
-0.10359122 -0.32957405 0.055048961
-0.10375984 -0.3296856 0.05501046
-0.10392839 -0.32979545 0.054982334
-0.10408711 -0.32989094 0.055006135
-0.10425149 -0.33000386 0.054942273
-0.1044225 -0.3301107 0.054942973
-0.10458186 -0.33021644 0.054904491
-0.10474183 -0.33031729 0.054899454
-0.10493621 -0.33043161 0.054945074
-0.10510206 -0.33053648 0.054937709
-0.10524691 -0.33063754 0.054871589
-0.10542239 -0.33074519 0.054884966
-0.10558596 -0.33085647 0.054828025
-0.10576164 -0.33096588 0.054831021
-0.1059257 -0.33107239 0.054806367
-0.10609315 -0.33117607 0.054812845
-0.1062452 -0.33127964 0.054759398
-0.10640843 -0.33138451 0.054741662
-0.10656239 -0.3314867 0.054704346
-0.10672648 -0.33159176 0.054688916
-0.10689914 -0.33169633 0.054710381
-0.10710064 -0.33181423 0.054761738
-0.10720698 -0.33191198 0.054564252
-0.10739213 -0.33201361 0.054653715
-0.10759103 -0.33213297 0.054685481
-0.10774782 -0.33224204 0.05461587
-0.10789455 -0.33234191 0.054564737
-0.10808925 -0.33244839 0.054661099
-0.1082488 -0.33256102 0.054579951
-0.10842925 -0.33267814 0.054552946
-0.10858999 -0.33277854 0.054553676
-0.10872977 -0.33287442 0.054500252
-0.10891235 -0.33299196 0.054479014
-0.10907912 -0.3330934 0.054497026
-0.10926524 -0.33321005 0.054495379
-0.10941495 -0.33330905 0.054461539
-0.10960429 -0.33342481 0.054478332
-0.10977787 -0.33353817 0.054447889
-0.10994175 -0.333644 0.0544267
-0.11011188 -0.3337554 0.054395106
-0.11025552 -0.33385205 0.05435206
-0.11043766 -0.33396694 0.054345809
-0.11063722 -0.33409074 0.054352194
-0.11079615 -0.33419001 0.054352932
-0.11098514 -0.33430773 0.05435589
-0.11115097 -0.33441716 0.054319698
-0.11128893 -0.33451155 0.054268591
-0.11149603 -0.33463401 0.054313023
-0.11162234 -0.33472055 0.054265406
-0.11180508 -0.33483601 0.054258004
-0.11198513 -0.33494666 0.054270219
-0.1121636 -0.33506876 0.054204002
-0.11231567 -0.33517158 0.054155163
-0.11248637 -0.33527347 0.054185852
-0.11266157 -0.33538494 0.05417385
-0.11281808 -0.33548582 0.054154985
-0.11300027 -0.33559579 0.054179881
-0.11315018 -0.33568978 0.054178335
-0.11336344 -0.3358101 0.054260805
-0.11351287 -0.33592552 0.054122008
-0.11367912 -0.33603558 0.054083519
-0.11384225 -0.33614224 0.054054253
-0.11403384 -0.33626014 0.054066435
-0.1142237 -0.33638057 0.054055549
-0.11437118 -0.33648145 0.054000955
-0.11452769 -0.33658415 0.05397056
-0.11468469 -0.33668277 0.05396783
-0.11484837 -0.33678976 0.053938568
-0.11501567 -0.33690029 0.053901222
-0.1152236 -0.33702475 0.053936422
-0.11540343 -0.33714077 0.053914037
-0.11556908 -0.33724973 0.053880148
-0.11575806 -0.3373636 0.053907331
-0.11592064 -0.33747062 0.05387345
-0.11609234 -0.33757827 0.053871848
-0.11625376 -0.33768785 0.053817213
-0.03473578 -0.29056996 0.02943927
-0.034904379 -0.29068971 0.029348858
-0.035067089 -0.29080376 0.029271148
-0.03522547 -0.29091218 0.029211912
-0.035385303 -0.29102081 0.029157281
-0.035541151 -0.29112619 0.029107269
-0.035700221 -0.29123414 0.02905379
-0.035850652 -0.29133248 0.029026864
-0.036004364 -0.29143339 0.028996479
-0.036157615 -0.29153389 0.028967232
-0.036305293 -0.29162884 0.028950691
-0.036457449 -0.29172808 0.02892492
-0.036604885 -0.29182088 0.028921071
-0.03675089 -0.29191393 0.028910305
-0.036897581 -0.2920059 0.028908767
-0.037040967 -0.29209542 0.028909547
-0.037188571 -0.29218888 0.028902236
-0.037331004 -0.29227731 0.028906472
-0.037473567 -0.29236597 0.028909564
-0.03761236 -0.29244936 0.028931107
-0.03775287 -0.29253307 0.028957274
-0.037892204 -0.29261515 0.028989203
-0.038030591 -0.29269591 0.029025748
-0.038168725 -0.29277632 0.029063448
-0.038304903 -0.29284948 0.029139215
-0.038435094 -0.29291835 0.029218458
-0.03856653 -0.29298672 0.029305775
-0.038697317 -0.29305634 0.029382717
-0.038826663 -0.29312375 0.029467732
-0.038958784 -0.29319292 0.029552737
-0.0390881 -0.29326013 0.029638901
-0.039220624 -0.29332972 0.029722756
-0.039346337 -0.29339141 0.0298297
-0.03947198 -0.29345286 0.029937793
-0.039599217 -0.29351422 0.0300528
-0.039721645 -0.29357293 0.030165512
-0.039847776 -0.29363233 0.030288603
-0.03996978 -0.29368767 0.030420924
-0.040093802 -0.29374591 0.030542869
-0.040221103 -0.29380658 0.030662488
-0.040360354 -0.29388055 0.030745173
-0.040504977 -0.29394037 0.030938573
-0.040608 -0.29397526 0.031125154
-0.037326977 -0.28716141 0.061193682
-0.037514649 -0.28728616 0.061147049
-0.037691675 -0.28739366 0.061167348
-0.037883706 -0.28752258 0.061111473
-0.038066845 -0.28764048 0.061090231
-0.038247705 -0.28775477 0.061082833
-0.038428593 -0.28786924 0.061074287
-0.038614519 -0.28799236 0.061031118
-0.038790286 -0.28809851 0.061054882
-0.038980179 -0.28822517 0.061004784
-0.039159771 -0.28833812 0.061000846
-0.039343718 -0.28845507 0.060988829
-0.039523691 -0.28856897 0.060980286
-0.039708305 -0.28869107 0.060938273
-0.03988732 -0.28880364 0.06093435
-0.040071607 -0.28892189 0.060915403
-0.040252268 -0.28903767 0.060897626
-0.040435322 -0.2891579 0.060861386
-0.040586099 -0.28924367 0.060915202
-0.040788122 -0.28938672 0.060809709
-0.040976487 -0.28950167 0.060827669
-0.041153759 -0.28961223 0.060829509
-0.041335471 -0.28973106 0.06079673
-0.041524515 -0.28985959 0.060731646
-0.041700587 -0.28996849 0.06073926
-0.041870661 -0.29006633 0.06079302
-0.042057753 -0.29019603 0.060712941
-0.042232916 -0.29030362 0.060725167
-0.042407949 -0.29041937 0.060685489
-0.04259371 -0.29053488 0.060689621
-0.042771958 -0.29064882 0.06067415
-0.042952731 -0.29076779 0.060636766
-0.043128729 -0.29087773 0.060637459
-0.043302327 -0.29098746 0.060630083
-0.043455184 -0.29107836 0.060659662
-0.043666638 -0.29122365 0.060577214
-0.043849751 -0.29134849 0.060512144
-0.044026092 -0.29145554 0.06053244
-0.044199266 -0.2915608 0.060551591
-0.044382975 -0.29168764 0.060476132
-0.044556901 -0.2917994 0.060457226
-0.044734724 -0.2919054 0.060490202
-0.044915289 -0.29202661 0.060437828
-0.045090809 -0.29213753 0.060430445
-0.045266338 -0.29224867 0.060421906
-0.04544656 -0.2923651 0.060398363
-0.045623511 -0.29247966 0.060373675
-0.045789272 -0.29257518 0.060425147
-0.045975909 -0.29270622 0.06033469
-0.04615853 -0.29282889 0.060281143
-0.046323653 -0.29291815 0.060369533
-0.046499502 -0.29303131 0.060349464
-0.046682701 -0.2931613 0.060252085
-0.046843305 -0.29323494 0.060421221
-0.046989076 -0.2933386 0.060342401
-0.04715471 -0.29344517 0.060323514
-0.047380015 -0.29359803 0.06024795
-0.047556564 -0.29370868 0.060246333
-0.047733858 -0.29382694 0.060199719
-0.047906049 -0.29393324 0.060208496
-0.048080094 -0.29404417 0.060195349
-0.048254121 -0.29415527 0.060181051
-0.048428707 -0.29426798 0.060158674
-0.048607916 -0.29438654 0.060117833
-0.04876785 -0.29449922 0.060037836
-0.048952512 -0.29460162 0.060120389
-0.049127154 -0.29471546 0.060091101
-0.049305744 -0.29483363 0.060050253
-0.049467564 -0.29492703 0.060099423
-0.049652833 -0.29505706 0.060010124
-0.049823791 -0.29516879 0.059979685
-0.049993411 -0.29528388 0.059922718
-0.050168734 -0.29538792 0.059958022
-0.05029653 -0.29544872 0.0600788
-0.050482482 -0.29559669 0.059878763
-0.05065389 -0.29571125 0.059832163
-0.050852105 -0.29583183 0.059853565
-0.051035598 -0.29594591 0.059857696
-0.051210988 -0.29605094 0.059887223
-0.051383372 -0.2961621 0.059866004
-0.051548295 -0.29627389 0.059811369
-0.051704187 -0.29635006 0.059945907
-0.05184903 -0.29644692 0.059906308
-0.052070037 -0.29659253 0.059859589
-0.052219056 -0.29669544 0.059798069
-0.052416757 -0.29682449 0.059764095
-0.052587919 -0.29693377 0.059749804
-0.052757069 -0.29704529 0.059713595
-0.052930377 -0.29715374 0.059713148
-0.053104565 -0.2972655 0.059695382
-0.053277455 -0.29738227 0.05964072
-0.053446613 -0.29748592 0.059654117
-0.053614847 -0.29758626 0.059684813
-0.05378877 -0.29770827 0.059601311
-0.053959854 -0.29782009 0.059570864
-0.054131877 -0.29792553 0.05958426
-0.054299861 -0.29802555 0.059616119
-0.054472022 -0.29814276 0.05955568
-0.054641187 -0.29824808 0.059558697
-0.054812975 -0.29836491 0.05949942
-0.054956578 -0.2984648 0.059435606
-0.055096805 -0.29855019 0.059450224
-0.055298407 -0.29866922 0.059494682
-0.055493705 -0.29879692 0.059459567
-0.055663623 -0.29890782 0.059430279
-0.055834532 -0.29901057 0.05945636
-0.055996355 -0.29910892 0.059474394
-0.056176633 -0.29923216 0.059408173
-0.056341939 -0.29933503 0.05941119
-0.056509752 -0.2994523 0.059333466
-0.056683637 -0.29955745 0.05935609
-0.056856081 -0.29967085 0.059321027
-0.057024203 -0.29977551 0.059324048
-0.057193343 -0.29988703 0.059287846
-0.057324339 -0.29997063 0.059277117
-0.057496853 -0.30006763 0.059345879
-0.057699915 -0.30020002 0.059311885
-0.057871047 -0.30032957 0.059169568
-0.057995826 -0.30041149 0.059145015
-0.058169983 -0.30052266 0.059130721
-0.058376394 -0.30063921 0.059209757
-0.058544431 -0.30074802 0.05918625
-0.058711961 -0.30085269 0.059186958
-0.058882643 -0.30096042 0.059180744
-0.059047021 -0.30106366 0.059178002
-0.05922142 -0.30118227 0.059117571
-0.059388913 -0.30128983 0.059099823
-0.059549976 -0.30139136 0.059094794
-0.059708074 -0.30149376 0.059072465
-0.059887655 -0.30160815 0.0590593
-0.060060464 -0.30170825 0.059109598
-0.06022488 -0.3018221 0.059039958
-0.060394857 -0.30192757 0.059045278
-0.060561568 -0.30202603 0.059081748
-0.060716249 -0.30213031 0.05903405
-0.060889266 -0.30224225 0.059010528
-0.061034385 -0.3023347 0.058999766
-0.061194889 -0.30244502 0.05893705
-0.061392277 -0.30257091 0.058921538
-0.061571062 -0.30268571 0.058902614
-0.061737556 -0.30278715 0.058919482
-0.061897721 -0.30289012 0.058901753
-0.062073216 -0.30300286 0.05888284
-0.062230036 -0.30310649 0.058847826
-0.062392887 -0.30321443 0.058809333
-0.062552854 -0.30331489 0.058806606
-0.062725246 -0.30342075 0.058818847
-0.062900163 -0.3035357 0.058783777
-0.063075393 -0.30364519 0.058784463
-0.06324403 -0.30375564 0.058752883
-0.063379906 -0.30383301 0.058800973
-0.063526101 -0.30393782 0.058716383
-0.063700065 -0.30405673 0.058652483
-0.063875481 -0.30416194 0.058680855
-0.0640743 -0.30429167 0.058646891
-0.06424278 -0.30439872 0.058636069
-0.064407811 -0.30450603 0.058610246
-0.064557731 -0.30460185 0.05859717
-0.064717188 -0.30470091 0.058601364
-0.064880133 -0.30479941 0.058622859
-0.06504868 -0.3049047 0.058623567
-0.065216362 -0.30501437 0.058593132
-0.065393239 -0.30512926 0.058566134
-0.065571509 -0.305237 0.058589891
-0.065726519 -0.30533984 0.058552571
-0.065872967 -0.30543366 0.058538347
-0.066049173 -0.30554998 0.058499817
-0.066208318 -0.30564901 0.05850286
-0.066361994 -0.30575559 0.058436707
-0.066549771 -0.30588058 0.058388926
-0.066717952 -0.30597195 0.058476143
-0.066877127 -0.30607045 0.058482647
-0.067029648 -0.30616701 0.058475323
-0.067202032 -0.30628181 0.058431044
-0.06734971 -0.30637002 0.058457181
-0.067516953 -0.30650026 0.058295257
-0.067697778 -0.30661032 0.058314398
-0.067853458 -0.30670738 0.058316294
-0.068020359 -0.30682534 0.058230493
-0.068225175 -0.30694127 0.058307238
-0.068376973 -0.30703846 0.058292996
-0.068535671 -0.30713722 0.05829604
-0.068684004 -0.30723333 0.058274891
-0.068854526 -0.30734989 0.058212157
-0.069033392 -0.30745524 0.058253214
-0.069177151 -0.30754358 0.058263212
-0.069335841 -0.30764216 0.058267407
-0.069508597 -0.30775282 0.058250804
-0.069666885 -0.30786064 0.058195025
-0.069841921 -0.307991 0.058063067
-0.070010893 -0.30808413 0.058142215
-0.070166498 -0.30818844 0.058097977
-0.070349447 -0.30830184 0.058104414
-0.070522554 -0.30841857 0.058050901
-0.070690788 -0.30850631 0.058161192
-0.070829414 -0.30859634 0.058140058
-0.070974089 -0.3087121 0.057980508
-0.07116539 -0.30883217 0.057977691
-0.071331404 -0.30892456 0.058049932
-0.071496442 -0.30903277 0.058018349
-0.071661167 -0.30914131 0.057983313
-0.071819507 -0.30923969 0.057987511
-0.071987629 -0.30934268 0.058000907
-0.072138011 -0.30944666 0.057938226
-0.072305433 -0.30955711 0.057902031
-0.072485916 -0.3096799 0.057839267
-0.072651513 -0.30978006 0.057860751
-0.072810754 -0.30987075 0.05791685
-0.072965182 -0.30996832 0.05791067
-0.073124148 -0.31007767 0.057847973
-0.073293015 -0.31019136 0.057796773
-0.073460191 -0.31029543 0.057799794
-0.073613301 -0.31039435 0.057779782
-0.073790364 -0.31049749 0.057827771
-0.073944509 -0.3106007 0.057784684
-0.074125461 -0.31071594 0.057771515
-0.074280493 -0.31081241 0.057774574
-0.074440792 -0.31091365 0.057768386
-0.074612372 -0.31102338 0.057752937
-0.074769117 -0.31111801 0.057774432
-0.074920803 -0.31122336 0.057708286
-0.075088389 -0.31133717 0.057651334
-0.07526578 -0.31144562 0.057667013
-0.075418599 -0.31154928 0.057615861
-0.075596116 -0.31166258 0.057601556
-0.075775243 -0.31176937 0.057634529
-0.075926445 -0.31186947 0.05759953
-0.076100864 -0.31196657 0.057675194
-0.076243639 -0.31206504 0.057617154
-0.076397538 -0.3121672 0.057579838
-0.076556101 -0.31227428 0.057529818
-0.076736636 -0.31238925 0.057516661
-0.076906383 -0.31249547 0.057516217
-0.077053986 -0.3125937 0.05747892
-0.077240497 -0.31270805 0.057493411
-0.077402182 -0.31280336 0.057529908
-0.07754799 -0.31289425 0.057531819
-0.07769493 -0.31299716 0.05746223
-0.077848956 -0.31310287 0.057403006
-0.078009076 -0.31322062 0.057291847
-0.07821212 -0.31333086 0.057397433
-0.07834962 -0.31342366 0.057354398
-0.078519329 -0.31352988 0.057353951
-0.078685917 -0.31363833 0.057326976
-0.078852877 -0.31374243 0.05732885
-0.078993499 -0.31383681 0.05728811
-0.079144426 -0.31394386 0.057208128
-0.079340748 -0.31404409 0.057350632
-0.07947807 -0.31414828 0.057234932
-0.079650827 -0.31424871 0.057282921
-0.079800479 -0.31435242 0.057219081
-0.079954371 -0.31445712 0.057165626
-0.080124803 -0.31457034 0.057123654
-0.080310158 -0.31467831 0.057173915
-0.080465205 -0.31477112 0.057200029
-0.080621518 -0.31487423 0.057166178
-0.080787495 -0.31498268 0.057136904
-0.080960721 -0.31509417 0.057116844
-0.081122659 -0.31520119 0.057080653
-0.081284456 -0.31530115 0.057088301
-0.081438825 -0.31540158 0.057063669
-0.081624143 -0.31551719 0.057065498
-0.081771478 -0.31561086 0.057055883
-0.081931889 -0.31571507 0.057031233
-0.082065463 -0.31580871 0.056967448
-0.082263283 -0.31591496 0.057077654
-0.082410604 -0.31602871 0.056941163
-0.082571551 -0.31612924 0.056941893
-0.082733199 -0.31622949 0.056947231
-0.082892142 -0.31633425 0.056913368
-0.083052702 -0.31644151 0.056870267
-0.083215006 -0.31654471 0.056859463
-0.083384886 -0.31664789 0.056878626
-0.083549052 -0.31675357 0.056859739
-0.083716601 -0.31686097 0.056843147
-0.083870567 -0.31695822 0.05683697
-0.084026873 -0.3170608 0.056806564
-0.084196799 -0.31716421 0.05682458
-0.084364936 -0.31727144 0.056811448
-0.084532529 -0.31737888 0.056794859
-0.084687047 -0.31747904 0.056772541
-0.084844947 -0.317572 0.056809038
-0.085022949 -0.3176907 0.056762431
-0.085207239 -0.31780127 0.056791931
-0.085366189 -0.31790292 0.056777678
-0.08550933 -0.31800109 0.056723084
-0.085674018 -0.31810087 0.056743413
-0.085829109 -0.31820378 0.056706093
-0.085979633 -0.31830233 0.056678012
-0.086138979 -0.3184039 0.056666061
-0.086302124 -0.31851274 0.05662296
-0.086465247 -0.31861317 0.05663291
-0.086630717 -0.31871855 0.056620941
-0.086784072 -0.31882182 0.056574397
-0.086947106 -0.31892511 0.056565899
-0.087120548 -0.31903112 0.05658159
-0.087272957 -0.31913999 0.056495834
-0.087424912 -0.31924349 0.056442376
-0.087590039 -0.31934628 0.056445405
-0.087753326 -0.31944957 0.056438047
-0.087915078 -0.31955588 0.056405328
-0.088070825 -0.31965575 0.056389924
-0.08823327 -0.31975666 0.056394108
-0.088416383 -0.31986594 0.05642708
-0.088593468 -0.31996635 0.056492358
-0.088760331 -0.32006657 0.05651845
-0.088929683 -0.32016891 0.05654107
-0.08907719 -0.32027581 0.056448407
-0.089231998 -0.32038367 0.056378793
-0.08941561 -0.32050586 0.056332171
-0.089568697 -0.32060641 0.056301787
-0.08972095 -0.32070461 0.056282923
-0.089893714 -0.3208065 0.056321688
-0.090061679 -0.32091674 0.05628895
-0.090223901 -0.32102063 0.056273527
-0.090388276 -0.32112661 0.056253489
-0.090556599 -0.32123193 0.056253046
-0.090727858 -0.32134166 0.05623645
-0.090878472 -0.32144743 0.056163386
-0.091032274 -0.32154074 0.056181435
-0.091198429 -0.3216418 0.056199457
-0.091386557 -0.32176098 0.056189727
-0.091546096 -0.32186776 0.056145474
-0.091694407 -0.32196203 0.056135863
-0.091866747 -0.32207409 0.056108885
-0.09202452 -0.32218105 0.056056559
-0.092179038 -0.32227919 0.056046929
-0.092347354 -0.32238033 0.056073014
-0.092511654 -0.32248878 0.056036826
-0.092663392 -0.32258961 0.055999517
-0.092839159 -0.32269686 0.056016352
-0.093002751 -0.32279649 0.056033224
-0.093167827 -0.32290271 0.056014333
-0.093327373 -0.3230117 0.055956241
-0.093504503 -0.32312346 0.055950016
-0.093649104 -0.3232249 0.05588042
-0.093825087 -0.32332808 0.05592379
-0.093971752 -0.32342717 0.055877268
-0.09414655 -0.32353491 0.055887185
-0.094309203 -0.32364145 0.055856772
-0.094479583 -0.32374534 0.055873625
-0.094647422 -0.32384944 0.055878952
-0.094789803 -0.32395518 0.055773616
-0.094962366 -0.32405695 0.055812381
-0.095143005 -0.32416469 0.05584535
-0.095311411 -0.32426897 0.055851825
-0.095471501 -0.32437372 0.055822574
-0.095616229 -0.32448331 0.055702232
-0.095770955 -0.32458615 0.055663761
-0.095958501 -0.32468981 0.055749774
-0.096132919 -0.32480022 0.055741247
-0.096294783 -0.32490501 0.055718906
-0.096421659 -0.32500267 0.055603229
-0.096606217 -0.32510883 0.055661563
-0.096780546 -0.32521939 0.055651885
-0.096924976 -0.32532257 0.055570759
-0.09710224 -0.32543111 0.055585291
-0.097282529 -0.32553771 0.055624031
-0.097444884 -0.32564461 0.055590149
-0.097617216 -0.32575539 0.055571247
-0.09778019 -0.32586232 0.055539675
-0.097933576 -0.32596341 0.055506971
-0.098112106 -0.32607037 0.055536494
-0.098296098 -0.32617748 0.055586763
-0.098463602 -0.32628649 0.055559788
-0.098612584 -0.32638961 0.055497117
-0.09878239 -0.32649294 0.055515118
-0.098948918 -0.32660392 0.055472009
-0.09912245 -0.32671124 0.05547962
-0.099280581 -0.32681638 0.055439994
-0.099441826 -0.32692352 0.055400357
-0.099608563 -0.32703078 0.055381458
-0.099769898 -0.32713977 0.055330284
-0.099930376 -0.32723945 0.055334475
-0.10012046 -0.32734764 0.055402022
-0.10030161 -0.32746667 0.055365786
-0.10046652 -0.32757589 0.0553273
-0.10061266 -0.32767338 0.055288844
-0.10077418 -0.327777 0.055272274
-0.10094952 -0.32789037 0.055248745
-0.10113206 -0.32799694 0.055296708
-0.10127405 -0.32809967 0.055208672
-0.10145167 -0.32820791 0.055226661
-0.10161665 -0.32831371 0.05521008
-0.10179731 -0.32843113 0.055181928
-0.10195569 -0.32853481 0.055152666
-0.10211565 -0.3286351 0.05515109
-0.10228363 -0.32873949 0.05515527
-0.10245298 -0.32885277 0.055108678
-0.10262331 -0.32896265 0.055087473
-0.10277811 -0.32906097 0.055077843
-0.10294609 -0.32916903 0.055058941
-0.1031168 -0.32927731 0.055049267
-0.10326552 -0.32938042 0.054985438
-0.10346197 -0.32949606 0.055031057
-0.10363419 -0.32960802 0.055004068
-0.10379171 -0.32970515 0.055012885
-0.10395525 -0.3298232 0.05491326
-0.10412778 -0.32992512 0.054950871
-0.10427397 -0.33002302 0.054910116
-0.10447056 -0.33013579 0.054974187
-0.10462148 -0.33023757 0.054927662
-0.10481153 -0.33034989 0.054968685
-0.10498379 -0.33046886 0.054897867
-0.10514083 -0.33057624 0.054839782
-0.10529393 -0.33067498 0.054820929
-0.10547923 -0.33078545 0.054855041
-0.10564029 -0.33089009 0.054830395
-0.10582548 -0.33100724 0.054821834
-0.10600084 -0.3311201 0.054801762
-0.10615255 -0.33121887 0.054777145
-0.10631201 -0.33132505 0.054736353
-0.10649578 -0.33143258 0.054783158
-0.10666845 -0.33154848 0.054733112
-0.10680474 -0.33164546 0.054658931
-0.10699765 -0.33175594 0.054723009
-0.10717188 -0.33186734 0.054707564
-0.10732518 -0.33197132 0.054656409
-0.10749934 -0.33207646 0.054680169
-0.1077078 -0.33220363 0.05470039
-0.10785883 -0.33230582 0.05465154
-0.10799116 -0.33240542 0.054545075
-0.10818402 -0.33251497 0.054614924
-0.10837461 -0.3326399 0.054578669
-0.10852803 -0.33274248 0.054536749
-0.10869113 -0.33285114 0.054494794
-0.10889577 -0.33296895 0.054558843
-0.1090396 -0.33307177 0.054477729
-0.10921367 -0.33317447 0.054516487
-0.10937591 -0.33328313 0.054471076
-0.10955701 -0.33339775 0.054462522
-0.10975065 -0.33351892 0.054462016
-0.10990484 -0.33362034 0.054430466
-0.11006026 -0.33372197 0.054402374
-0.11028598 -0.33385301 0.05446637
-0.11042925 -0.33394977 0.054421015
-0.11060041 -0.33406311 0.054381348
-0.11078276 -0.3341783 0.05437395
-0.11090457 -0.33427006 0.05427558
-0.11112559 -0.3343963 0.054351129
-0.11130522 -0.33451566 0.054306827
-0.11148196 -0.33462718 0.054300591
-0.11163773 -0.33472922 0.054271352
-0.1117899 -0.33482921 0.054240957
-0.11196125 -0.33493844 0.054227822
-0.11214906 -0.33505067 0.054260775
-0.11233569 -0.33517733 0.054197997
-0.11250126 -0.33528423 0.054176796
-0.11268134 -0.33539528 0.054186709
-0.11285168 -0.33550316 0.054178182
-0.11301561 -0.33560702 0.054169685
-0.11318095 -0.33571979 0.054110415
-0.11332241 -0.33581233 0.054084677
-0.11353113 -0.33593199 0.054153331
-0.11370334 -0.33604762 0.054103281
-0.11386979 -0.33616072 0.054046322
-0.11404137 -0.33626354 0.054074708
-0.11422242 -0.33637956 0.054056931
-0.11440904 -0.33649817 0.054044906
-0.11458948 -0.33660999 0.054051351
-0.11474616 -0.33671153 0.054029025
-0.11489284 -0.33681244 0.053970963
-0.11505874 -0.33692703 0.053902473
-0.11525156 -0.33704022 0.053949255
-0.11544212 -0.33715582 0.053971827
-0.11562458 -0.3372795 0.053911369
-0.11578888 -0.33738559 0.053890172
-0.11598508 -0.33750671 0.053900037
-0.11612996 -0.33760744 0.053836219
-0.11632848 -0.33772233 0.053894527
-0.035114609 -0.29080328 0.029461857
-0.035287179 -0.29092881 0.029350623
-0.035451375 -0.29104528 0.029263644
-0.035613772 -0.29115751 0.029196275
-0.035773866 -0.29126883 0.029125467
-0.035931256 -0.29137465 0.029078878
-0.036090352 -0.29148299 0.029023062
-0.036246758 -0.2915878 0.028978787
-0.036398601 -0.29168648 0.028955298
-0.036553603 -0.29178968 0.028915647
-0.036702584 -0.29188675 0.028891006
-0.036855854 -0.29198578 0.02887097
-0.037002362 -0.29207966 0.028856725
-0.037153747 -0.29217842 0.028830925
-0.037301857 -0.29227054 0.028833972
-0.037446514 -0.29236218 0.02882665
-0.037590537 -0.29245085 0.02883549
-0.037733383 -0.29254225 0.028822403
-0.037874911 -0.29262754 0.028842777
-0.03801794 -0.29271284 0.028868917
-0.038163126 -0.29280353 0.028869674
-0.038300652 -0.29288319 0.028909668
-0.038437713 -0.29296219 0.028951975
-0.038574044 -0.29304239 0.028983904
-0.038712226 -0.29312083 0.029034287
-0.038851708 -0.29320118 0.029077744
-0.03898311 -0.2932719 0.029150065
-0.039113626 -0.29333895 0.029241994
-0.039244406 -0.29341093 0.029303936
-0.039381582 -0.29348546 0.029375089
-0.03950632 -0.29354596 0.029485494
-0.03963349 -0.29360765 0.029598214
-0.039765157 -0.29367599 0.02968668
-0.039891157 -0.29373801 0.029792473
-0.040019784 -0.29380152 0.029899416
-0.04014425 -0.29386097 0.030015592
-0.040272377 -0.29392341 0.030127147
-0.040394582 -0.29397908 0.030258328
-0.040516604 -0.29403424 0.03039182
-0.040641185 -0.29409319 0.030511465
-0.040768705 -0.29414651 0.030678395
-0.040887773 -0.29420403 0.030785367
-0.041013315 -0.2942614 0.03091885
-0.041130457 -0.29430786 0.031088112
-0.038019113 -0.28760913 0.06109976
-0.038202222 -0.287727 0.061078485
-0.038385145 -0.28784478 0.06105721
-0.038566202 -0.28795606 0.061069403
-0.038757056 -0.28808755 0.060992733
-0.038945641 -0.28821909 0.060906831
-0.039122421 -0.28832003 0.060967498
-0.039305307 -0.28843871 0.060940459
-0.039486684 -0.28855494 0.060922652
-0.039669391 -0.28867 0.060917526
-0.039849304 -0.28878406 0.060907803
-0.040025853 -0.28889236 0.060921155
-0.040205196 -0.2890057 0.060913742
-0.040395036 -0.289134 0.060853224
-0.040577203 -0.28925276 0.060822725
-0.040756226 -0.28936222 0.060838394
-0.040934972 -0.28947517 0.060830973
-0.041106544 -0.28958309 0.060827039
-0.041251399 -0.28968963 0.060726266
-0.041484281 -0.28983501 0.060727928
-0.041656889 -0.2899414 0.060737833
-0.041827612 -0.29004842 0.060736217
-0.042016283 -0.29016465 0.060747232
-0.042199742 -0.29028767 0.060694803
-0.042375918 -0.2903972 0.060698938
-0.042557981 -0.29051387 0.060681127
-0.042738318 -0.29063168 0.060649484
-0.042914588 -0.2907376 0.060676675
-0.043097131 -0.29086006 0.060624257
-0.043272708 -0.29096919 0.060628392
-0.043453224 -0.29108819 0.06058982
-0.043633301 -0.29120219 0.060581245
-0.043814126 -0.29132229 0.060536902
-0.043990739 -0.2914297 0.060556039
-0.044169791 -0.29154667 0.060524389
-0.044343129 -0.29164767 0.060571216
-0.044525504 -0.29177186 0.06050726
-0.044704463 -0.29188931 0.060472149
-0.044877738 -0.2919952 0.060487822
-0.0450579 -0.29211086 0.060468867
-0.045235045 -0.29222518 0.060446464
-0.045418188 -0.29234767 0.060396343
-0.045580514 -0.29244542 0.060420126
-0.04575789 -0.29255092 0.060454246
-0.045945261 -0.29268336 0.060357969
-0.046121884 -0.29279262 0.060365565
-0.046295062 -0.29290974 0.060309701
-0.046449475 -0.29300603 0.060311593
-0.046647545 -0.29314843 0.060194515
-0.046834521 -0.29325557 0.060256302
-0.04697891 -0.29335618 0.060191296
-0.04718671 -0.29347908 0.060235716
-0.047365025 -0.29359907 0.06018215
-0.047536388 -0.29370302 0.06020245
-0.047709897 -0.29381216 0.060198512
-0.047887947 -0.29392669 0.060178403
-0.048063166 -0.29404035 0.060152534
-0.048238639 -0.29414907 0.060158968
-0.048410848 -0.29425573 0.06016542
-0.048592873 -0.29438117 0.060092233
-0.04876408 -0.29448575 0.060107909
-0.048939131 -0.29460645 0.060037058
-0.049116589 -0.29472134 0.060012341
-0.049287483 -0.29481933 0.060068399
-0.0494591 -0.29493204 0.060034469
-0.049635746 -0.29503894 0.060057051
-0.049800664 -0.29514724 0.060024291
-0.049936272 -0.29523614 0.059998542
-0.050157592 -0.29537171 0.060016394
-0.050333999 -0.29548541 0.059995137
-0.050508909 -0.29560217 0.059948504
-0.050680548 -0.29570994 0.059945725
-0.05083032 -0.29581225 0.05989109
-0.051020525 -0.29591632 0.059985168
-0.051199306 -0.2960459 0.059872765
-0.051365882 -0.29615453 0.059844609
-0.051548634 -0.2962667 0.059857957
-0.051724616 -0.29638159 0.059827477
-0.051889893 -0.29648703 0.059814326
-0.052065615 -0.29660174 0.059783842
-0.052197307 -0.29667321 0.059852704
-0.052416995 -0.29682365 0.059770178
-0.052589044 -0.29693571 0.059742019
-0.052762397 -0.29705259 0.059688468
-0.052931085 -0.29715377 0.059715696
-0.053105168 -0.2972649 0.059701368
-0.053281385 -0.29739347 0.059585512
-0.053450353 -0.29748678 0.059663504
-0.053599719 -0.29758483 0.059634238
-0.053743578 -0.2976723 0.059649996
-0.053965621 -0.29781765 0.059609003
-0.054139126 -0.2979286 0.059593529
-0.054310512 -0.29804206 0.059553832
-0.054484926 -0.2981576 0.059512965
-0.054653257 -0.29825929 0.05953557
-0.054789938 -0.29834008 0.059565201
-0.054991148 -0.2984682 0.059550796
-0.0551669 -0.29857928 0.05954339
-0.05531507 -0.29867584 0.059518754
-0.055499934 -0.29876631 0.059677459
-0.055680066 -0.29891247 0.059465833
-0.055850349 -0.29902524 0.059426136
-0.056020275 -0.29913688 0.059392206
-0.056158997 -0.29922974 0.059353754
-0.056348555 -0.29934415 0.059379768
-0.056526557 -0.29945609 0.059375808
-0.056697246 -0.29955816 0.059405338
-0.056871254 -0.29966342 0.059427928
-0.057041164 -0.29977813 0.059374399
-0.057210702 -0.29989156 0.059327777
-0.057374582 -0.30000579 0.059253484
-0.057528332 -0.30009013 0.059328057
-0.057719596 -0.30021915 0.059268683
-0.057891071 -0.30032921 0.059250906
-0.05806056 -0.30044714 0.059175447
-0.05822973 -0.30053967 0.059259206
-0.058384374 -0.30063042 0.059296854
-0.058565903 -0.30075553 0.059223667
-0.058734242 -0.30086729 0.059182823
-0.05888626 -0.30096203 0.059184708
-0.059072517 -0.30107987 0.059176125
-0.059243791 -0.30119547 0.059122577
-0.059411492 -0.301305 0.059093274
-0.059578579 -0.3014068 0.059110112
-0.059745669 -0.30150881 0.059125803
-0.059916291 -0.30162108 0.05909073
-0.060083691 -0.30173114 0.059056804
-0.060250573 -0.30183136 0.059082873
-0.060392786 -0.30191818 0.059096325
-0.06058798 -0.30205294 0.059016187
-0.06075488 -0.30215865 0.059007648
-0.060915601 -0.30226436 0.058974903
-0.061076187 -0.30236596 0.058967531
-0.061230544 -0.30246347 0.058961347
-0.061378688 -0.30255634 0.058959782
-0.061548337 -0.30266637 0.058935091
-0.061742559 -0.30279228 0.058906864
-0.061912086 -0.3028993 0.058900617
-0.062090561 -0.30301902 0.058849365
-0.062259812 -0.3031286 0.058825821
-0.062417004 -0.30322385 0.058844998
-0.062592328 -0.3033365 0.058826063
-0.062746055 -0.30343527 0.058809485
-0.062927485 -0.30355027 0.058799759
-0.063087516 -0.30364931 0.058806237
-0.063234888 -0.30374447 0.058787368
-0.063424453 -0.30387443 0.058715314
-0.063584633 -0.30397046 0.058741413
-0.063756958 -0.30407575 0.058757089
-0.063916847 -0.30417454 0.058764718
-0.064052731 -0.30425352 0.058802418
-0.064208999 -0.30437875 0.058628932
-0.064382993 -0.3044942 0.058586925
-0.064569384 -0.30461541 0.058557563
-0.064730965 -0.30472237 0.058520198
-0.064919919 -0.30482748 0.058602747
-0.065085195 -0.30493236 0.058593057
-0.065220922 -0.30503008 0.058511928
-0.065405145 -0.30514264 0.058528729
-0.065558344 -0.30523795 0.058531761
-0.065714002 -0.30533794 0.058515176
-0.065906137 -0.30546165 0.058492728
-0.066049173 -0.30555499 0.058468103
-0.066210754 -0.30565867 0.058451511
-0.066382498 -0.30576396 0.058464877
-0.066552915 -0.30587426 0.058441333
-0.066713214 -0.30596891 0.058476653
-0.066874646 -0.30607247 0.058460057
-0.067025363 -0.30617538 0.058405422
-0.067208573 -0.30630246 0.05832646
-0.06737078 -0.30639082 0.05840908
-0.067534603 -0.30649754 0.058382094
-0.067705363 -0.30660531 0.058375858
-0.067852646 -0.30670571 0.058323532
-0.0680243 -0.30679998 0.058406122
-0.06816978 -0.30691531 0.058252282
-0.068331875 -0.30703542 0.058134161
-0.068513535 -0.3071332 0.058234032
-0.068677641 -0.30723754 0.058223195
-0.068849444 -0.30735108 0.058184646
-0.069032691 -0.30746448 0.05819222
-0.069199532 -0.30756211 0.058234438
-0.069330037 -0.3076542 0.058168322
-0.069515467 -0.30777135 0.058160882
-0.069672696 -0.30786446 0.058193911
-0.069848709 -0.30797642 0.058181889
-0.07001663 -0.3080804 0.058188349
-0.070163086 -0.30817938 0.058141794
-0.070318289 -0.30827668 0.058140211
-0.070493951 -0.30840433 0.058027819
-0.070670813 -0.30851391 0.058034249
-0.070830591 -0.30860257 0.058105335
-0.070984267 -0.30870971 0.058035698
-0.071164049 -0.30882862 0.057994813
-0.071331002 -0.3089267 0.058034733
-0.071483381 -0.30901438 0.058082774
-0.071630746 -0.30912414 0.057971604
-0.071805969 -0.30924293 0.057913437
-0.07197763 -0.30934709 0.057933737
-0.072142579 -0.30944848 0.057944812
-0.072282553 -0.30953571 0.057946734
-0.072462969 -0.30965263 0.057920858
-0.072633564 -0.30975848 0.057926152
-0.07279548 -0.30986419 0.057898022
-0.07295458 -0.30997363 0.057835281
-0.073109925 -0.31006992 0.057840619
-0.073291302 -0.31019092 0.057792813
-0.073455133 -0.31029364 0.057791214
-0.073609143 -0.31038582 0.057817325
-0.073768012 -0.31049472 0.057756893
-0.073929474 -0.31059468 0.057763372
-0.074126765 -0.31071815 0.057762828
-0.074287131 -0.31081942 0.05775661
-0.074428752 -0.31090987 0.057744689
-0.074585229 -0.31101546 0.057695795
-0.07475169 -0.31112036 0.057690717
-0.074934281 -0.31123373 0.057695985
-0.075101823 -0.3113426 0.057670139
-0.075254686 -0.31144136 0.057650104
-0.075414374 -0.31154311 0.057638131
-0.075586282 -0.31164742 0.057658426
-0.075724579 -0.31174091 0.057614196
-0.07591065 -0.3118557 0.057624072
-0.076076128 -0.31196621 0.057579774
-0.076242477 -0.31207103 0.057574697
-0.076415859 -0.31218812 0.057519998
-0.076568946 -0.31228632 0.057504579
-0.076714247 -0.31238216 0.05747303
-0.076893024 -0.31248966 0.057500217
-0.077060007 -0.31258941 0.057529755
-0.07720533 -0.31269407 0.057442829
-0.077357173 -0.31279311 0.057417028
-0.07754121 -0.31290954 0.057408445
-0.077724792 -0.31302205 0.057422936
-0.077867299 -0.31311125 0.057422541
-0.078051902 -0.31323153 0.057392031
-0.078207187 -0.31333199 0.057370842
-0.078357257 -0.31343213 0.057331197
-0.078530014 -0.3135362 0.057356112
-0.078703687 -0.31364378 0.057362553
-0.078847468 -0.31374016 0.057321776
-0.079005644 -0.31384647 0.057275191
-0.079149447 -0.31395054 0.057185959
-0.0793005 -0.31405348 0.057132471
-0.079480924 -0.3141565 0.05719427
-0.079661079 -0.31427145 0.057179928
-0.07983163 -0.31436959 0.057233684
-0.080007255 -0.31447986 0.05723089
-0.080159903 -0.31457046 0.05726162
-0.080333874 -0.31468919 0.057198837
-0.08048375 -0.31478518 0.057184584
-0.080667578 -0.31490532 0.057151768
-0.080823451 -0.31499428 0.057205558
-0.080972113 -0.31509098 0.057182077
-0.081135958 -0.31520775 0.057091638
-0.081281044 -0.31530622 0.057042778
-0.081455551 -0.31542057 0.057010002
-0.081625752 -0.31551975 0.057055682
-0.081798047 -0.31563178 0.05702867
-0.081961766 -0.31573442 0.057027064
-0.082133949 -0.31584308 0.057020821
-0.082280114 -0.31594077 0.056981187
-0.082451254 -0.3160466 0.056988787
-0.082613692 -0.31614989 0.056977965
-0.082775272 -0.31626016 0.056919828
-0.082937509 -0.31636351 0.056907848
-0.083101697 -0.31646279 0.056929313
-0.083251424 -0.31656834 0.056853905
-0.083444156 -0.31668112 0.056902986
-0.083595939 -0.31677938 0.056881797
-0.083749883 -0.31688303 0.05683523
-0.08391805 -0.31698719 0.056841679
-0.084094286 -0.31710058 0.056821585
-0.084256813 -0.31720081 0.056830369
-0.084415197 -0.31730267 0.056812622
-0.084570557 -0.31740868 0.056756821
-0.084743947 -0.31751406 0.056775954
-0.084900841 -0.31761646 0.05674899
-0.085067548 -0.31772134 0.056745064
-0.085219473 -0.31781951 0.056725033
-0.085385844 -0.31792748 0.056700349
-0.085554242 -0.31804344 0.056632962
-0.085700594 -0.31813759 0.056616407
-0.085862555 -0.31824115 0.056602113
-0.086031392 -0.31834826 0.056592423
-0.086188175 -0.3184506 0.056565456
-0.086348377 -0.31855467 0.056540783
-0.086508967 -0.31865865 0.056518417
-0.086684175 -0.31875569 0.056597546
-0.086850926 -0.31885803 0.056609768
-0.087023243 -0.31896165 0.056635834
-0.08719644 -0.31907335 0.056614589
-0.087365828 -0.3191779 0.056623355
-0.087544188 -0.31929097 0.056613624
-0.087687656 -0.31939408 0.056529012
-0.087848857 -0.31950337 0.056475498
-0.088004857 -0.31960592 0.056443915
-0.088165633 -0.31970471 0.056455016
-0.088348553 -0.31981936 0.056453351
-0.088505901 -0.31992424 0.056412533
-0.088640623 -0.32002628 0.056300253
-0.088821553 -0.32012853 0.056368977
-0.089000642 -0.32024664 0.056330409
-0.089155927 -0.32034931 0.056295369
-0.089308903 -0.32044485 0.056296103
-0.089485526 -0.32054588 0.05635561
-0.089666188 -0.32065874 0.056356262
-0.089839891 -0.32076308 0.056383476
-0.0899968 -0.32085323 0.056433801
-0.090149343 -0.32096878 0.056306478
-0.09032163 -0.3210808 0.056279466
-0.090484321 -0.32118955 0.056235176
-0.090637952 -0.32128772 0.056222059
-0.090798251 -0.32139441 0.056181245
-0.090954974 -0.3214969 0.056153119
-0.091119967 -0.32159814 0.056165356
-0.091276646 -0.3217077 0.056092236
-0.091434322 -0.32181004 0.056068726
-0.09163443 -0.32192063 0.056160476
-0.091788888 -0.32203045 0.056076981
-0.09193705 -0.32212481 0.056066193
-0.092109278 -0.32223004 0.056081865
-0.092272282 -0.32233644 0.05605372
-0.09242925 -0.32244125 0.056011759
-0.092592552 -0.32254308 0.056013614
-0.092754833 -0.32264957 0.05598202
-0.0929306 -0.32275242 0.056026526
-0.093085349 -0.3228575 0.055974185
-0.093256623 -0.32296759 0.05595525
-0.093423769 -0.3230671 0.055987097
-0.093576968 -0.32317665 0.055900138
-0.093749121 -0.32328239 0.055912353
-0.093933523 -0.32338938 0.055964921
-0.094093211 -0.32349408 0.055934489
-0.09426143 -0.32360244 0.055914409
-0.094410621 -0.32370788 0.055837851
-0.094574787 -0.32381225 0.055827014
-0.094737768 -0.32391462 0.055824257
-0.094900198 -0.32402337 0.055778816
-0.095056161 -0.3241241 0.055758774
-0.095231235 -0.32423219 0.055767521
-0.095394984 -0.32433468 0.055767063
-0.095526494 -0.32444072 0.055616722
-0.095717281 -0.32454824 0.05569119
-0.095900901 -0.32465619 0.055734519
-0.096063323 -0.32476094 0.055714458
-0.096239425 -0.32486731 0.0557382
-0.09640456 -0.32497814 0.055690445
-0.096561208 -0.32508314 0.05564617
-0.096729122 -0.32518584 0.05566071
-0.096890643 -0.32528675 0.055661418
-0.097072385 -0.32539132 0.05571859
-0.097245947 -0.32550216 0.055704277
-0.097407036 -0.32560918 0.055664599
-0.09755969 -0.32571822 0.055578813
-0.097725809 -0.32582125 0.055584118
-0.097895429 -0.32593217 0.055553652
-0.098061591 -0.32603726 0.055546269
-0.098240182 -0.32614243 0.055587314
-0.098400965 -0.32625145 0.0555338
-0.098555036 -0.32635462 0.055490684
-0.098738559 -0.32646582 0.055513255
-0.098906107 -0.32657304 0.055497788
-0.099077024 -0.32668039 0.055495009
-0.09923695 -0.32678941 0.055438038
-0.099402174 -0.3269023 0.055377591
-0.099554345 -0.32700175 0.055350639
-0.099711314 -0.32710692 0.055306368
-0.099904612 -0.32721511 0.055386595
-0.10008462 -0.32732299 0.055416085
-0.10024811 -0.32743591 0.055348724
-0.10040275 -0.32753927 0.055306766
-0.10057398 -0.32764697 0.055302829
-0.10073807 -0.32775441 0.055272382
-0.10091079 -0.32785684 0.055307671
-0.10106395 -0.32796198 0.055248413
-0.10122949 -0.32806778 0.055234112
-0.10140798 -0.32818151 0.055220921
-0.10157987 -0.32829309 0.055195071
-0.10175803 -0.32840329 0.055202648
-0.1019242 -0.3285093 0.055189505
-0.10209977 -0.32861769 0.055198241
-0.1022588 -0.32872507 0.055148203
-0.10243042 -0.32883155 0.055153489
-0.10259099 -0.32894081 0.055097669
-0.10275832 -0.32904881 0.055076443
-0.10291393 -0.32914731 0.055069096
-0.10308491 -0.32925394 0.055070929
-0.10325904 -0.32936949 0.055028915
-0.10341682 -0.32947171 0.055006556
-0.10361096 -0.32958898 0.055032559
-0.10377219 -0.32968479 0.055064414
-0.10394291 -0.32979509 0.055042025
-0.10411315 -0.32990199 0.055039249
-0.10425708 -0.33000648 0.054947708
-0.1044213 -0.33011457 0.0549138
-0.10458279 -0.33022237 0.054870665
-0.10477 -0.33033279 0.054912835
-0.10494641 -0.33044884 0.054876581
-0.1050908 -0.33054835 0.054818496
-0.10526509 -0.33065429 0.054837637
-0.10545507 -0.33076862 0.054865949
-0.10562862 -0.33087468 0.054881621
-0.10580184 -0.33099222 0.054823458
-0.10591139 -0.33108616 0.054662794
-0.10609205 -0.33118826 0.054731522
-0.10629004 -0.33131033 0.054742511
-0.10647836 -0.33142489 0.054762751
-0.1066424 -0.33153176 0.054735765
-0.10678151 -0.33163235 0.054650009
-0.10694917 -0.33173487 0.054664545
-0.10715219 -0.33185315 0.054719366
-0.10731064 -0.33195946 0.054673929
-0.1074771 -0.33206838 0.054643475
-0.10765417 -0.33217716 0.054655679
-0.10783744 -0.33229789 0.054617096
-0.10800654 -0.33240572 0.054603942
-0.10814557 -0.33250004 0.054557413
-0.10837273 -0.33262393 0.054672148
-0.10853578 -0.3327404 0.054580562
-0.10869525 -0.33284548 0.054546669
-0.1088595 -0.33295286 0.054517373
-0.10903256 -0.33306462 0.05449497
-0.1092037 -0.33317155 0.054495648
-0.10937408 -0.33327687 0.054503262
-0.10952834 -0.33338439 0.054433607
-0.1097108 -0.33349928 0.054428495
