# .PCD v0.7 - Point Cloud Data file format
VERSION 0.7
FIELDS x y z
SIZE 4 4 4
TYPE F F F
COUNT 1 1 1
WIDTH 1271
HEIGHT 1
VIEWPOINT 0 0 0 1 0 0 0
POINTS 1271
DATA ascii
-0.13567744 -0.27686813 0.058173291
-0.13586336 -0.27692449 0.058183156
-0.13603668 -0.276981 0.058164224
-0.13621263 -0.27704772 0.058078371
-0.13641621 -0.27711183 0.058072045
-0.13662753 -0.27718177 0.058041465
-0.13679327 -0.27723494 0.058029469
-0.13695718 -0.27728057 0.058067083
-0.137183 -0.27735907 0.058007628
-0.13734823 -0.27741081 0.058004864
-0.1375331 -0.27746421 0.058033191
-0.1377169 -0.2775282 0.057984233
-0.13791806 -0.27759922 0.057923686
-0.13812104 -0.27766365 0.057913892
-0.13828114 -0.27770627 0.057964209
-0.13848884 -0.27777964 0.057901345
-0.13866423 -0.27783582 0.057889316
-0.13883473 -0.27790296 0.057788488
-0.13904662 -0.27796414 0.057821348
-0.13923042 -0.27801156 0.057890061
-0.13939741 -0.27805555 0.057946119
-0.13958487 -0.27813089 0.05782447
-0.13977833 -0.27820373 0.05773396
-0.13999762 -0.27827272 0.05772759
-0.14015794 -0.27831659 0.05776982
-0.14034906 -0.27836871 0.057821207
-0.14052399 -0.2784262 0.057798799
-0.14071062 -0.27850762 0.057632171
-0.14090538 -0.27856576 0.057648934
-0.14111297 -0.27861181 0.057779867
-0.14130826 -0.27867788 0.057741262
-0.14147615 -0.2787379 0.05768542
-0.14165384 -0.27878976 0.057709157
-0.14181793 -0.27884045 0.057711005
-0.14200972 -0.27893162 0.057486691
-0.14223836 -0.27899817 0.057518356
-0.14243294 -0.27905545 0.057540886
-0.14259344 -0.2791 0.057578508
-0.14277431 -0.27915755 0.057568774
-0.14296518 -0.27922437 0.057515182
-0.14317295 -0.27929565 0.057467312
-0.14333349 -0.27934036 0.057503782
-0.14352424 -0.27940309 0.057479024
-0.14370866 -0.27945575 0.05751197
-0.14387889 -0.27951193 0.057488427
-0.14405589 -0.27956989 0.057467178
-0.14424621 -0.27963445 0.057428584
-0.14443517 -0.27971026 0.05730693
-0.14464419 -0.2797631 0.057392865
-0.14483055 -0.27982837 0.057340436
-0.14501822 -0.27988315 0.057365298
-0.1452083 -0.279946 0.057338241
-0.14538868 -0.28000194 0.057338897
-0.14556301 -0.28005126 0.057373021
-0.14573926 -0.2801103 0.057342544
-0.14591864 -0.28017145 0.057303976
-0.1461063 -0.28022656 0.057326529
-0.14627722 -0.28029287 0.057232618
-0.14649296 -0.28035218 0.057287388
-0.14670637 -0.28042227 0.057260256
-0.14688595 -0.28048071 0.057241306
-0.14705263 -0.28053191 0.057245459
-0.14721905 -0.28058416 0.05724154
-0.14740106 -0.28066042 0.057101451
-0.14759731 -0.28072405 0.057082459
-0.14777377 -0.28076643 0.057170786
-0.14797695 -0.28081954 0.057241742
-0.14814377 -0.28087026 0.057249352
-0.14830871 -0.28093845 0.057128932
-0.14849359 -0.28102455 0.056925401
-0.14870319 -0.28109166 0.056910969
-0.14887586 -0.28113547 0.056980859
-0.14908926 -0.28118217 0.057119843
-0.14925423 -0.28123754 0.057090547
-0.14944044 -0.28131625 0.056942377
-0.1496378 -0.28138509 0.056888767
-0.14983463 -0.28143638 0.056958593
-0.15000698 -0.28149161 0.056946583
-0.15019077 -0.28155577 0.05689647
-0.15037362 -0.2816045 0.056953631
-0.15056083 -0.28166938 0.056905821
-0.15072691 -0.28172931 0.056846537
-0.15091729 -0.28178707 0.056856383
-0.15111481 -0.28185418 0.056815468
-0.15129597 -0.28191456 0.056786127
-0.15149073 -0.2819714 0.056812115
-0.15168181 -0.2820279 0.056832351
-0.15185425 -0.28208965 0.056774199
-0.15203841 -0.28214434 0.056792136
-0.15221782 -0.28220046 0.056789335
-0.15239009 -0.282262 0.056732334
-0.1525538 -0.28231743 0.056699581
-0.15276961 -0.28238633 0.056686293
-0.15294418 -0.28243706 0.056711189
-0.15314282 -0.2825011 0.056694485
-0.15329966 -0.28255427 0.056662902
-0.15350987 -0.28261298 0.056709617
-0.15370902 -0.28266403 0.056786355
-0.15387842 -0.2827349 0.056656685
-0.1540557 -0.28279394 0.056628514
-0.15423067 -0.28285614 0.056572657
-0.15441081 -0.28291672 0.056539856
-0.15460436 -0.28297594 0.056546245
-0.15481396 -0.28303608 0.056581423
-0.1549758 -0.28309307 0.056533679
-0.15513639 -0.28314611 0.056511313
-0.15536727 -0.28321692 0.056517597
-0.15554591 -0.28327379 0.056507871
-0.15573841 -0.28333446 0.056501575
-0.15589854 -0.28339303 0.056438837
-0.15607187 -0.28344595 0.056445278
-0.15626678 -0.28350383 0.056464352
-0.15647432 -0.28357193 0.056438394
-0.15663086 -0.28362924 0.056376819
-0.15681607 -0.28368828 0.056365933
-0.15701643 -0.28374979 0.056371141
-0.1571959 -0.28381032 0.056337185
-0.15735422 -0.28386068 0.056328669
-0.15754303 -0.28392509 0.05628778
-0.1577414 -0.28398418 0.056305684
-0.15791704 -0.28403944 0.056300581
-0.1580838 -0.2840991 0.056244757
-0.15827295 -0.28415859 0.056239609
-0.15846039 -0.28421542 0.056249473
-0.15865378 -0.28427523 0.05625125
-0.15884355 -0.28433424 0.056250721
-0.15901707 -0.28439569 0.056197174
-0.15918685 -0.28445628 0.056141339
-0.15938741 -0.28450972 0.056204226
-0.15957522 -0.28456649 0.056215238
-0.15974234 -0.28463325 0.056109801
-0.15990986 -0.28469151 0.056065511
-0.16009581 -0.28474984 0.056061532
-0.16026053 -0.28481033 0.055995323
-0.16046599 -0.28486416 0.056066275
-0.16067073 -0.28492635 0.05607608
-0.1608505 -0.28498974 0.056022517
-0.16104041 -0.28504506 0.056048531
-0.16122594 -0.28510389 0.056039933
-0.16140507 -0.285164 0.056008302
-0.16156521 -0.28522387 0.055936333
-0.16176149 -0.28527826 0.055983085
-0.16196637 -0.28534067 0.055991739
-0.16214874 -0.28539836 0.055984322
-0.16231774 -0.28546211 0.055904254
-0.16251281 -0.28552115 0.055915248
-0.16268808 -0.28557697 0.055905536
-0.16288035 -0.28563806 0.055895772
-0.16304812 -0.28569558 0.055857241
-0.16321486 -0.28575379 0.055811789
-0.16341318 -0.28581417 0.055820473
-0.16360769 -0.28587708 0.055802625
-0.16378468 -0.28593829 0.055758297
-0.16395664 -0.28598982 0.055771671
-0.16415745 -0.28605521 0.055750348
-0.1643454 -0.2861096 0.055778664
-0.16451424 -0.28616634 0.055748206
-0.16470706 -0.28623036 0.055718835
-0.16487962 -0.2862879 0.055690669
-0.16506219 -0.28634876 0.055661321
-0.16526723 -0.2864117 0.055666529
-0.16543324 -0.28646398 0.055661455
-0.16561706 -0.28652114 0.055660937
-0.16580246 -0.28658044 0.055648889
-0.16596657 -0.28664559 0.055548083
-0.1661555 -0.28670582 0.055537175
-0.16635071 -0.28676847 0.055522792
-0.16654183 -0.28682759 0.055524569
-0.16671716 -0.28688648 0.055492934
-0.16689493 -0.28694129 0.055495903
-0.1670744 -0.28699809 0.055488482
-0.16725512 -0.28705704 0.055468373
-0.16744688 -0.28711051 0.055511676
-0.16763781 -0.28716177 0.055568822
-0.16782033 -0.28722274 0.055538327
-0.16800933 -0.2872833 0.055525109
-0.1682079 -0.28735009 0.055488802
-0.16840394 -0.28741807 0.055438656
-0.16856897 -0.28747651 0.055387445
-0.16873688 -0.28753361 0.055352367
-0.1689216 -0.28759089 0.055353008
-0.16910253 -0.28765252 0.055314444
-0.16928953 -0.28770629 0.055345073
-0.16949025 -0.28775671 0.055429876
-0.16964364 -0.28783038 0.055244882
-0.16982414 -0.28788456 0.055258222
-0.17000672 -0.28794298 0.055246182
-0.1702009 -0.28799656 0.055294089
-0.17040692 -0.28805283 0.055348895
-0.17058401 -0.2881186 0.055272266
-0.17078118 -0.28817618 0.055298258
-0.17096111 -0.28824565 0.055202015
-0.17113782 -0.28829929 0.055210747
-0.17131695 -0.28836408 0.055145659
-0.17150585 -0.28842267 0.055146281
-0.17168172 -0.28847915 0.055133112
-0.17186613 -0.28853714 0.055127986
-0.17206447 -0.28860176 0.055106666
-0.17224294 -0.28865969 0.05508887
-0.17241621 -0.28872186 0.055029556
-0.1726051 -0.28877607 0.05506134
-0.17278594 -0.28884012 0.055005465
-0.17296574 -0.28889993 0.054977279
-0.17315048 -0.28895575 0.05498831
-0.17333658 -0.28901118 0.055005096
-0.17352593 -0.28907007 0.055004567
-0.17370057 -0.28913397 0.054936029
-0.17390102 -0.28919142 0.054970071
-0.17408784 -0.28925571 0.054925721
-0.17426056 -0.28932014 0.054849111
-0.17445494 -0.28937539 0.054885481
-0.17464216 -0.28943086 0.054904573
-0.17483076 -0.28949243 0.05488329
-0.17501172 -0.28955212 0.054858569
-0.17518932 -0.28961498 0.054803852
-0.17539096 -0.28967476 0.054824065
-0.17556909 -0.28973535 0.054786652
-0.17574647 -0.28978989 0.054790772
-0.17593348 -0.28984997 0.054776415
-0.17613602 -0.28991395 0.054768931
-0.1763196 -0.28997511 0.054739583
-0.17650114 -0.29002863 0.054759838
-0.17669061 -0.29008821 0.054754701
-0.176872 -0.29014802 0.054729979
-0.17705399 -0.29020771 0.054707553
-0.17724578 -0.29026476 0.054725483
-0.17742948 -0.29032806 0.054681137
-0.17760453 -0.29038963 0.0546299
-0.17781256 -0.29045254 0.054642007
-0.1779888 -0.29051581 0.054581534
-0.17815135 -0.2905727 0.054536097
-0.17829946 -0.29064101 0.054377653
-0.17852193 -0.29068485 0.054556988
-0.17872912 -0.29073855 0.054632541
-0.17892964 -0.29080564 0.05459854
-0.17909953 -0.29086855 0.054526549
-0.17928188 -0.29092655 0.054516807
-0.1794668 -0.29098779 0.054489769
-0.17966573 -0.29104772 0.054503061
-0.17983688 -0.2911084 0.054449521
-0.18002844 -0.29117009 0.054433998
-0.1802216 -0.29123145 0.05442423
-0.18040547 -0.29128751 0.054431792
-0.18058261 -0.29134879 0.054387465
-0.18078539 -0.29141006 0.054399598
-0.18097183 -0.29146755 0.054402545
-0.18115509 -0.29152942 0.054367431
-0.18134427 -0.29158825 0.054366902
-0.18153042 -0.29164776 0.054354854
-0.18169418 -0.29171184 0.054260962
-0.18189758 -0.29177153 0.05428578
-0.18207498 -0.29183108 0.054254137
-0.18227549 -0.29188791 0.054292802
-0.18248019 -0.29195645 0.054257628
-0.18266097 -0.29201722 0.054224826
-0.18285383 -0.29207572 0.054234676
-0.18303457 -0.29214007 0.054176494
-0.18322608 -0.29219717 0.054193273
-0.18338527 -0.29225674 0.054121312
-0.18358701 -0.2923156 0.054148432
-0.18375391 -0.29237723 0.054078758
-0.18395239 -0.29243508 0.054105897
-0.18415377 -0.29249251 0.054142248
-0.18434834 -0.29255968 0.054094415
-0.18451399 -0.29261816 0.054044351
-0.18472016 -0.29267839 0.054071471
-0.184908 -0.29274169 0.054036342
-0.18509921 -0.29279611 0.054071568
-0.18528682 -0.29285786 0.054046817
-0.18547601 -0.29292271 0.054003619
-0.1856665 -0.29298407 0.053988092
-0.18584447 -0.29304737 0.053931072
-0.18601905 -0.2930997 0.053944439
-0.18621227 -0.29316077 0.053936981
-0.18640313 -0.29322386 0.053909916
-0.18656439 -0.2932961 0.053752594
-0.18674853 -0.29335207 0.053761307
-0.18696049 -0.2934058 0.053847238
-0.18718863 -0.29347187 0.053881206
-0.18737994 -0.29353511 0.053854145
-0.18758175 -0.29360014 0.053837441
-0.18774803 -0.29365885 0.05378738
-0.18792094 -0.2937167 0.053758062
-0.1881375 -0.29377836 0.05379783
-0.18831322 -0.29383591 0.053776585
-0.1884892 -0.29389504 0.053744946
-0.18868862 -0.29396063 0.053719014
-0.18885191 -0.29401514 0.053692032
-0.18906203 -0.29407641 0.053720288
-0.18924943 -0.29414511 0.053645942
-0.18943736 -0.29420143 0.053660423
-0.18962677 -0.29425919 0.05366797
-0.18981603 -0.29432619 0.053609766
-0.1900107 -0.29438803 0.053600002
-0.19021307 -0.2944521 0.053591359
-0.19040067 -0.29451028 0.053591996
-0.19056019 -0.29456249 0.053573098
-0.19076759 -0.29463217 0.05353561
-0.19098769 -0.29470208 0.053524621
-0.19117142 -0.29475939 0.053522956
-0.19135383 -0.29482132 0.053485531
-0.19153416 -0.29487756 0.053483877
-0.19172581 -0.29493278 0.053514495
-0.19192421 -0.2950021 0.053459734
-0.1921154 -0.29506335 0.053446513
-0.19228935 -0.29512185 0.053414881
-0.19249082 -0.29518661 0.053399332
-0.1927018 -0.29525059 0.05341028
-0.19288498 -0.29530984 0.053393621
-0.1930508 -0.29536629 0.053358551
-0.19325808 -0.29543221 0.053347599
-0.19343305 -0.29548937 0.053327501
-0.1936595 -0.29555672 0.053348795
-0.19385108 -0.29562262 0.053303272
-0.19402753 -0.29568124 0.053276252
-0.19419648 -0.29574043 0.053228486
-0.19444995 -0.29580042 0.053361595
-0.19461435 -0.29586568 0.053260788
-0.19480048 -0.29592794 0.053229123
-0.19499309 -0.29598981 0.053214744
-0.1951979 -0.29605365 0.053213023
-0.19537099 -0.29611415 0.05316525
-0.19555944 -0.29617503 0.053148575
-0.19577375 -0.29623842 0.053171054
-0.19595942 -0.29630235 0.053126704
-0.19614932 -0.29636464 0.053103108
-0.19634722 -0.2964265 0.053100247
-0.19654122 -0.29649138 0.053067412
-0.19676816 -0.29655987 0.053081777
-0.19694161 -0.29661787 0.053052455
-0.19714314 -0.29667437 0.053095736
-0.19734783 -0.29674697 0.053031728
-0.19751814 -0.29680657 0.052983962
-0.19771799 -0.29686874 0.052983403
-0.19788969 -0.29692701 0.052948318
-0.19809166 -0.29698917 0.052952375
-0.10785547 -0.27235493 0.02885402
-0.108046 -0.27242604 0.028769273
-0.10823579 -0.27249676 0.028685683
-0.10842411 -0.27256799 0.028595176
-0.1086029 -0.27263173 0.028536998
-0.10878509 -0.27269682 0.02847651
-0.10896114 -0.27275711 0.028436786
-0.1091366 -0.27281705 0.028398231
-0.1093115 -0.27287662 0.028360819
-0.10948201 -0.27293274 0.028338425
-0.10965136 -0.27298799 0.028319493
-0.10981936 -0.27304381 0.028293647
-0.10998706 -0.27309793 0.028279329
-0.11015645 -0.27315354 0.028258089
-0.11032036 -0.27320465 0.028256476
-0.11048444 -0.273256 0.028253706
-0.11064503 -0.27330613 0.028252104
-0.11080697 -0.27335584 0.028256258
-0.11097215 -0.27340835 0.028247714
-0.11112507 -0.2734538 0.02826228
-0.11127789 -0.27349597 0.02829992
-0.11143099 -0.27353838 0.028336402
-0.11157987 -0.27357721 0.028389048
-0.11173411 -0.27362064 0.028420916
-0.11188328 -0.27365971 0.028472403
-0.11203495 -0.27369761 0.02853772
-0.11217385 -0.27372944 0.028618079
-0.11231904 -0.27376503 0.028685734
-0.11246168 -0.27379835 0.028763773
-0.11260597 -0.27383137 0.028847575
-0.11274508 -0.27386147 0.028940611
-0.11288486 -0.2738921 0.029031355
-0.11302422 -0.27392226 0.0291244
-0.11316163 -0.27394894 0.029238205
-0.11329762 -0.27397597 0.029346254
-0.11343323 -0.27400255 0.029456615
-0.1135643 -0.27402496 0.029586595
-0.11370055 -0.2740519 0.029695794
-0.11383507 -0.27407715 0.029813077
-0.11397496 -0.2741054 0.029921116
-0.11410379 -0.27411801 0.030115698
-0.11420362 -0.27411658 0.030346127
-0.11432954 -0.27413332 0.030504953
-0.11444753 -0.27414256 0.030699573
-0.1145625 -0.27414876 0.030909188
-0.10954128 -0.26847589 0.060121492
-0.10974282 -0.26853874 0.06011977
-0.10994372 -0.26861322 0.060033847
-0.11015777 -0.26867622 0.060058616
-0.1103669 -0.26874679 0.060018811
-0.11056578 -0.2688075 0.060026325
-0.1107597 -0.26886344 0.060056925
-0.11097041 -0.26893595 0.06000673
-0.11116901 -0.26899412 0.060031548
-0.1113724 -0.26905966 0.060014829
-0.11158337 -0.26913291 0.059960023
-0.11179031 -0.26920229 0.059923671
-0.11198013 -0.26926231 0.059916224
-0.11219358 -0.2693308 0.059900623
-0.11239944 -0.26939952 0.059866585
-0.11259688 -0.26945981 0.059874114
-0.11280254 -0.26953122 0.059820469
-0.11299502 -0.26958394 0.059870683
-0.11319612 -0.26964828 0.059857424
-0.11340395 -0.26971972 0.059808396
-0.11360314 -0.26978233 0.059803218
-0.11380066 -0.26984328 0.059806127
-0.11401372 -0.26992074 0.059725933
-0.11421371 -0.26998454 0.059713837
-0.11440023 -0.2700341 0.059773292
-0.11460936 -0.27010792 0.059710413
-0.11480722 -0.27016979 0.059707552
-0.11501061 -0.27023774 0.059673522
-0.11518627 -0.27029839 0.059630346
-0.11544076 -0.27039978 0.0594716
-0.11560762 -0.27042812 0.059638392
-0.11580863 -0.27049404 0.059613608
-0.11601108 -0.2705588 0.059600346
-0.11619969 -0.27061114 0.059644796
-0.11641122 -0.27068925 0.059556536
-0.11661133 -0.27075472 0.059532903
-0.11681067 -0.27081949 0.059512734
-0.11701588 -0.2708911 0.059456781
-0.11721583 -0.27095687 0.059430849
-0.11740389 -0.27100903 0.059475303
-0.11759993 -0.27107048 0.059471287
-0.11779794 -0.27113432 0.05945459
-0.11798569 -0.2711862 0.059500203
-0.1181909 -0.2712588 0.059437335
-0.11837037 -0.27130732 0.059488729
-0.11860359 -0.27140746 0.059291974
-0.11880649 -0.27147478 0.059261415
-0.11896709 -0.27152017 0.059293255
-0.11914929 -0.27157229 0.059325047
-0.11937323 -0.2716361 0.059365947
-0.11956609 -0.27169478 0.059374623
-0.11977883 -0.27177832 0.059250601
-0.11997273 -0.27183861 0.059250057
-0.12016499 -0.27189696 0.059259899
-0.12036647 -0.27196708 0.05920627
-0.12055968 -0.27202684 0.059208028
-0.1207557 -0.27208683 0.059214398
-0.12095283 -0.27215186 0.059187315
-0.12114196 -0.27220663 0.05921562
-0.12134416 -0.27227861 0.05915045
-0.12153985 -0.27234223 0.059130296
-0.1217327 -0.2724022 0.059129748
-0.12193153 -0.27246663 0.059110738
-0.12212836 -0.27253222 0.059079036
-0.12232425 -0.27259672 0.059053104
-0.12251508 -0.27265444 0.059064109
-0.12270948 -0.27271718 0.059047408
-0.12290341 -0.27277556 0.059060704
-0.12309419 -0.27283341 0.05907055
-0.1232561 -0.27288589 0.059055097
-0.12344435 -0.27295223 0.058999203
-0.12368543 -0.27303079 0.058973137
-0.12385875 -0.27308401 0.058977269
-0.12403125 -0.27314433 0.058929488
-0.12426957 -0.27321941 0.058921896
-0.12446389 -0.27328342 0.058895968
-0.12464907 -0.27334231 0.058886223
-0.12485454 -0.27341077 0.058853351
-0.12504682 -0.27347219 0.058841273
-0.12523912 -0.27353379 0.058828037
-0.12543443 -0.27359581 0.058818266
-0.12563126 -0.27366483 0.058762338
-0.12582338 -0.27372214 0.058779098
-0.12601331 -0.27378055 0.058783174
-0.12620214 -0.27384189 0.058764193
-0.12640008 -0.27390897 0.058724418
-0.1265924 -0.273967 0.058736566
-0.12678018 -0.27402231 0.058757946
-0.12697928 -0.27409187 0.058703173
-0.12717077 -0.27415368 0.058686491
-0.12736452 -0.2742146 0.058681332
-0.12754491 -0.27427247 0.058668129
-0.12775429 -0.27434587 0.058608718
-0.1279425 -0.27440262 0.05862087
-0.12813309 -0.27446368 0.058607649
-0.12832345 -0.27452451 0.058595579
-0.12851936 -0.27459031 0.05856042
-0.12869212 -0.27464047 0.058585308
-0.12890354 -0.27471384 0.058530502
-0.12907623 -0.27475846 0.058594614
-0.12926744 -0.27481598 0.058607914
-0.12947464 -0.27489325 0.058516197
-0.12962915 -0.27494261 0.058506534
-0.12985657 -0.27501398 0.058501285
-0.13005333 -0.27508327 0.058443058
-0.13024348 -0.2751455 0.058420599
-0.13043368 -0.27520189 0.058439676
-0.13062401 -0.27526483 0.058412608
-0.13082567 -0.27534589 0.058281694
-0.13101026 -0.27539712 0.058325008
-0.1312001 -0.27545324 0.058345232
-0.1313906 -0.27551752 0.058308937
-0.13158333 -0.27558041 0.058287635
-0.13176937 -0.275635 0.058310188
-0.13193263 -0.27567863 0.05836048
-0.13213873 -0.27575928 0.058242239
-0.13233073 -0.27582127 0.058225546
-0.13253017 -0.27588686 0.058199614
-0.13272098 -0.27594638 0.058197923
-0.13291085 -0.27600363 0.058210075
-0.13310218 -0.27606475 0.058198005
-0.1332892 -0.27612278 0.058198631
-0.13347843 -0.27618682 0.05816118
-0.13365918 -0.27624482 0.058147989
-0.13383749 -0.27630481 0.058115184
-0.13401608 -0.27636588 0.058075462
-0.13424125 -0.27644613 0.058002152
-0.13442789 -0.27649525 0.058065079
-0.13461474 -0.27655417 0.058058787
-0.13479152 -0.27660134 0.058113649
-0.13495976 -0.27666065 0.058063574
-0.13515992 -0.27674305 0.057919979
-0.13535693 -0.27679539 0.057982866
-0.13551064 -0.27683863 0.058014736
-0.1357297 -0.2769126 0.057972595
-0.13593096 -0.27697974 0.057939719
-0.13612054 -0.2770392 0.05793573
-0.13628727 -0.27709609 0.057899497
-0.13646716 -0.27715528 0.05787592
-0.13666268 -0.27721381 0.057891522
-0.13685289 -0.27727687 0.057863306
-0.13705999 -0.27734435 0.057840802
-0.13723357 -0.2773912 0.057891075
-0.13742113 -0.2774578 0.057831712
-0.1376067 -0.27753112 0.057720449
-0.13779962 -0.27757844 0.057809878
-0.13796701 -0.27762628 0.057839401
-0.13814437 -0.27767542 0.057881586
-0.13835214 -0.2777493 0.05781525
-0.1385248 -0.27780899 0.057772085
-0.13874024 -0.27789259 0.057653822
-0.13892351 -0.27793854 0.05773174
-0.13910131 -0.27799091 0.057752009
-0.13928363 -0.2780523 0.057718039
-0.13948378 -0.27812544 0.057640195
-0.13968971 -0.27819371 0.057609618
-0.13987523 -0.27825773 0.057564106
-0.14004883 -0.27830377 0.057620138
-0.14023671 -0.27835912 0.057641529
-0.14039381 -0.27840489 0.057663009
-0.14059436 -0.27849406 0.057472114
-0.14081202 -0.27854776 0.057570703
-0.14098658 -0.27860612 0.05754137
-0.14119519 -0.27867505 0.057511948
-0.14135571 -0.27872497 0.057511494
-0.14154346 -0.27878174 0.057522498
-0.14172119 -0.27884352 0.057475857
-0.14191243 -0.2789095 0.057429172
-0.14210686 -0.27896672 0.057451706
-0.14228086 -0.27901399 0.057499666
-0.14245477 -0.27907833 0.057426497
-0.14264204 -0.27915117 0.057322156
-0.14283316 -0.27919957 0.057400052
-0.14300016 -0.27925232 0.057393827
-0.14320022 -0.27933615 0.057239838
-0.14339823 -0.2793875 0.057311952
-0.14358564 -0.27944398 0.057324115
-0.14378271 -0.27951112 0.057282031
-0.14396004 -0.27956221 0.057310369
-0.14413418 -0.27961069 0.057350252
-0.14431012 -0.27967644 0.057271317
-0.14450341 -0.27974257 0.057228096
-0.14471076 -0.27980801 0.057220589
-0.14489478 -0.27986234 0.05724084
-0.14505769 -0.27991542 0.057223074
-0.14525093 -0.27997959 0.057193693
-0.14542097 -0.28003198 0.057196673
-0.14560734 -0.28009352 0.057170779
-0.14579801 -0.28017035 0.057045653
-0.1459991 -0.28022867 0.057075083
-0.1461919 -0.28027484 0.057172585
-0.14637148 -0.2803331 0.057154786
-0.14653167 -0.28039673 0.057056274
-0.1467081 -0.28046769 0.056941584
-0.14691064 -0.28051996 0.057017144
-0.14710002 -0.28058162 0.056996997
-0.14728589 -0.28064233 0.056975711
-0.14746866 -0.2807008 0.056963664
-0.14766721 -0.28076839 0.056921579
-0.14786644 -0.28082094 0.056987926
-0.14803064 -0.28087917 0.056936707
-0.1482311 -0.28094003 0.056946523
-0.14841707 -0.28099966 0.056933317
-0.14859849 -0.28106144 0.056894738
-0.14879964 -0.28113097 0.05684457
-0.14898309 -0.28118658 0.056854431
-0.14916016 -0.28123903 0.05687239
-0.14933771 -0.28129035 0.056899577
-0.14951788 -0.28135452 0.056841396
-0.14970408 -0.28142217 0.056771658
-0.14987685 -0.28147572 0.056772325
-0.15006858 -0.28153878 0.056747563
-0.15023725 -0.28159285 0.056735553
-0.15043107 -0.28165102 0.056749996
-0.1506142 -0.2817156 0.056695268
-0.15082482 -0.28178746 0.056649692
-0.15099953 -0.28183675 0.056684952
-0.15119191 -0.28189787 0.056675188
-0.15137395 -0.28195611 0.056663141
-0.15154362 -0.2820079 0.056669582
-0.1517358 -0.2820693 0.056657508
-0.15193413 -0.28214106 0.056585427
-0.15211838 -0.28219509 0.056607977
-0.15230827 -0.28225332 0.056613214
-0.1524827 -0.28231066 0.05659081
-0.1526411 -0.28236789 0.056533836
-0.15284999 -0.28243449 0.056521717
-0.15304202 -0.28249568 0.056510791
-0.15321869 -0.28255549 0.056475684
-0.15340984 -0.28261167 0.056498226
-0.15358102 -0.28266117 0.056524269
-0.15374455 -0.2827161 0.056494974
-0.15393087 -0.28277957 0.056455232
-0.15411708 -0.28283715 0.056457013
-0.15431203 -0.28289989 0.056441471
-0.15449595 -0.28296065 0.056415573
-0.1546838 -0.28302169 0.056396589
-0.15484674 -0.28307691 0.056363828
-0.15503989 -0.28313634 0.056367896
-0.15522981 -0.28319994 0.056335062
-0.15541269 -0.28326169 0.056299951
-0.15558746 -0.28331766 0.056287922
-0.15577722 -0.28338122 0.056255087
-0.15597853 -0.28343603 0.056309894
-0.15616018 -0.28349903 0.056263238
-0.15633288 -0.28355241 0.05626506
-0.1565064 -0.28360492 0.056274951
-0.15672854 -0.28366604 0.056330852
-0.15689202 -0.2837297 0.056239262
-0.15707853 -0.28379649 0.056176443
-0.15724522 -0.28384703 0.056185205
-0.15743396 -0.28391126 0.056145452
-0.15762421 -0.28397381 0.056120697
-0.15779893 -0.28402525 0.056140963
-0.1579898 -0.28408721 0.056121975
-0.15816185 -0.28414136 0.056116872
-0.15834872 -0.28419849 0.056123268
-0.15851884 -0.2842631 0.056039736
-0.15869346 -0.28431901 0.05602771
-0.15888083 -0.2843799 0.056008719
-0.15907012 -0.28443485 0.056035876
-0.15926863 -0.28450212 0.055996098
-0.15946071 -0.28456691 0.055959798
-0.1596213 -0.28462303 0.05591552
-0.15979259 -0.28467384 0.055932332
-0.15998623 -0.28473327 0.055937558
-0.16017821 -0.28479409 0.055928938
-0.16036193 -0.28485027 0.055935349
-0.16054618 -0.28490984 0.055918679
-0.16073205 -0.28496814 0.0559147
-0.16091385 -0.28501475 0.055984542
-0.16109967 -0.28508797 0.055874437
-0.16126178 -0.28514263 0.055843987
-0.16147949 -0.28520221 0.055901058
-0.16163132 -0.28526452 0.055793345
-0.1618288 -0.28532496 0.055799711
-0.16200945 -0.28537661 0.055831507
-0.16218284 -0.28544402 0.055735275
-0.1623701 -0.28550485 0.055716295
-0.16256301 -0.28555834 0.055761885
-0.16274416 -0.28562346 0.055699091
-0.16291194 -0.2856774 0.05568593
-0.16307804 -0.28573248 0.055661239
-0.16327989 -0.28579688 0.055649132
-0.16345693 -0.2858448 0.055699393
-0.16364041 -0.28591144 0.055630811
-0.16382584 -0.28597349 0.055599153
-0.16401136 -0.28603867 0.055545565
-0.16420124 -0.28609154 0.055588864
-0.16438444 -0.28614867 0.055587191
-0.16456842 -0.28620848 0.055568218
-0.16476223 -0.28626859 0.055568829
-0.16493189 -0.28632772 0.055523362
-0.16511637 -0.28639027 0.055485934
-0.16530463 -0.2864446 0.05551539
-0.16549221 -0.28649643 0.055561006
-0.16568232 -0.28656483 0.055494718
-0.16585751 -0.28662369 0.055463083
-0.16602191 -0.28668261 0.055407256
-0.16620822 -0.2867412 0.055402115
-0.16639252 -0.28679803 0.055405058
-0.16658182 -0.28685513 0.055417206
-0.16676012 -0.28691804 0.055363648
-0.16695137 -0.28697702 0.055366572
-0.16712946 -0.28703159 0.055371832
-0.16731605 -0.28709304 0.055347085
-0.16750567 -0.28715301 0.055339627
-0.16767499 -0.28721476 0.055274554
-0.16786039 -0.28727403 0.055262499
-0.16804902 -0.28733447 0.055249281
-0.16823089 -0.28738746 0.055274148
-0.16840978 -0.28744993 0.055225197
-0.16860093 -0.28751457 0.055187739
-0.16876903 -0.2875714 0.055154964
-0.16895732 -0.28762168 0.055213265
-0.16915925 -0.28768155 0.055233467
-0.1693258 -0.28774941 0.055118795
-0.16950768 -0.28780532 0.055122904
-0.16969179 -0.28786796 0.055084318
-0.16987476 -0.28792095 0.055111479
-0.17005807 -0.28797391 0.05513981
-0.17025635 -0.28803816 0.055120792
-0.17045891 -0.28810069 0.055123687
-0.17062449 -0.28816354 0.055042468
-0.17079291 -0.28822032 0.055010848
-0.17098232 -0.2882784 0.055016089
-0.17116429 -0.28833467 0.055017881
-0.17134 -0.28839582 0.054971248
-0.17152315 -0.28845406 0.054961495
-0.17171443 -0.28851876 0.054924048
-0.17188133 -0.28857845 0.054868214
-0.17205402 -0.28863361 0.05485734
-0.17223632 -0.28869227 0.054842982
-0.17243385 -0.2887454 0.054901257
-0.17263094 -0.28880119 0.054939929
-0.17281696 -0.28886327 0.054909416
-0.17300032 -0.28892401 0.05488237
-0.17317902 -0.28898415 0.054849565
-0.17337212 -0.28903931 0.054883629
-0.17355984 -0.28910762 0.054812729
-0.17372213 -0.2891688 0.054736137
-0.17390369 -0.28922576 0.05473217
-0.1741039 -0.28928104 0.05478121
-0.17428349 -0.28934094 0.054751862
-0.17446636 -0.28940415 0.054706361
-0.17465457 -0.28946349 0.054700065
-0.17483407 -0.28951916 0.054700714
-0.17502719 -0.28957921 0.054700173
-0.17520083 -0.28963891 0.054659307
-0.17537338 -0.28969467 0.054643825
-0.17557175 -0.2897554 0.054650187
-0.17577399 -0.28981504 0.054672688
-0.17594753 -0.28988314 0.054571845
-0.17613076 -0.28993803 0.054586329
-0.17631246 -0.28999341 0.054593887
-0.17649631 -0.29005641 0.05455184
-0.17666912 -0.29011846 0.054492529
-0.17685626 -0.29017648 0.054493155
-0.17705119 -0.29023045 0.0545399
-0.17724149 -0.29028979 0.054538209
-0.17741585 -0.29035345 0.054470815
-0.17761622 -0.29041219 0.054495633
-0.17778759 -0.29047263 0.054444391
-0.17797588 -0.29053265 0.054433487
-0.17815763 -0.29059631 0.05438222
-0.17833531 -0.2906532 0.054370183
-0.17851391 -0.29070988 0.054361604
-0.17871355 -0.29076725 0.054394491
-0.17891391 -0.29082647 0.054415844
-0.17909458 -0.29089242 0.054346126
-0.17927383 -0.29094914 0.054338694
-0.17945583 -0.29101092 0.054301273
-0.17962858 -0.29106921 0.054268487
-0.17982146 -0.29112855 0.054272555
-0.18001051 -0.29118505 0.054288182
-0.1801963 -0.29124981 0.054238051
-0.18037865 -0.29130977 0.054214466
-0.1805785 -0.29136965 0.054230057
-0.18075678 -0.2914269 0.054216869
-0.18092683 -0.29148772 0.054159865
-0.18112551 -0.29154983 0.054157
-0.18131953 -0.29161116 0.054149531
-0.18148801 -0.29167053 0.054099455
-0.1816764 -0.29172766 0.054109309
-0.18188918 -0.29179075 0.054130621
-0.18206894 -0.29184797 0.054120891
-0.18225482 -0.29190755 0.054107681
-0.18242617 -0.29196116 0.054104891
-0.18262358 -0.29202923 0.054057039
-0.18280309 -0.29209188 0.054008089
-0.18298943 -0.29214802 0.054020256
-0.18318076 -0.29221031 0.054000102
-0.18337174 -0.2922692 0.054003019
-0.18354596 -0.29233459 0.053922936
-0.18375112 -0.29239109 0.053974275
-0.18392886 -0.29245076 0.053942624
-0.18411218 -0.29251117 0.053917885
-0.18431088 -0.29257411 0.05390925
-0.18449998 -0.29263195 0.053915642
-0.18468207 -0.29269606 0.053862065
-0.18485905 -0.29275596 0.053826965
-0.18506156 -0.29281846 0.053829849
-0.18525168 -0.29288131 0.053802785
-0.18542834 -0.29293805 0.053789601
-0.18562683 -0.29299474 0.053824801
-0.18581259 -0.29305512 0.053805821
-0.18599424 -0.29311776 0.053761475
-0.18618475 -0.29318076 0.053734407
-0.18639594 -0.29324237 0.053762652
-0.18655249 -0.29330227 0.053682618
-0.1867536 -0.29336384 0.053688977
-0.18692732 -0.29342291 0.053652726
-0.18713562 -0.29348201 0.05369252
-0.18731691 -0.29354486 0.05364586
-0.18753886 -0.2936134 0.053648703
-0.18772234 -0.29366657 0.053675864
-0.18789575 -0.29373059 0.053603861
-0.18807554 -0.29378745 0.05359643
-0.1882803 -0.29385373 0.053577401
-0.18847689 -0.29391795 0.05355493
-0.1886649 -0.29397708 0.053549781
-0.18884812 -0.29403374 0.053551581
-0.18902016 -0.29409179 0.053518794
-0.18922469 -0.29415834 0.053497456
-0.18942261 -0.29421955 0.053499207
-0.18959355 -0.2942763 0.05347335
-0.18981072 -0.29434609 0.05345659
-0.19000494 -0.29440489 0.053467575
-0.19016577 -0.2944583 0.053442895
-0.19035077 -0.29452121 0.053404309
-0.19057077 -0.29459092 0.053394467
-0.19077261 -0.29464915 0.053426199
-0.19095789 -0.29470319 0.053451054
-0.19115251 -0.29478014 0.053333998
-0.19132742 -0.29483825 0.053306971
-0.1915268 -0.29489994 0.053308725
-0.19173402 -0.29496828 0.053280454
-0.19191641 -0.29502875 0.053253405
-0.19209649 -0.29508945 0.053219453
-0.19227865 -0.29514855 0.053201634
-0.19247404 -0.29520071 0.053262215
-0.19267321 -0.29527286 0.053188983
-0.19288333 -0.29533547 0.053208005
-0.19306634 -0.29539612 0.053180959
-0.19326009 -0.29545733 0.05317349
-0.19346356 -0.29552355 0.053152155
-0.1936346 -0.29558241 0.053111304
-0.19385038 -0.29564774 0.053123381
-0.19405562 -0.29571253 0.053115882
-0.19423532 -0.29577088 0.053098071
-0.19441949 -0.29583171 0.053072181
-0.19463772 -0.29589716 0.05308887
-0.19481961 -0.295968 0.052986845
-0.19499746 -0.29602104 0.053002492
-0.19517985 -0.2960794 0.052990444
-0.19541317 -0.29614547 0.053035934
-0.19558419 -0.29621294 0.052933939
-0.19578378 -0.29627582 0.05292761
-0.19598639 -0.29633722 0.052938573
-0.19617721 -0.29639801 0.052927651
-0.19638526 -0.29646468 0.052913226
-0.19657594 -0.2965256 0.052901156
-0.19678238 -0.2965911 0.052891344
-0.1969339 -0.29665023 0.052805565
-0.19718438 -0.29672018 0.052861378
-0.19736099 -0.29678339 0.052802056
-0.19755737 -0.29684559 0.052793428
-0.19777916 -0.29691327 0.052802026
-0.19796368 -0.29697618 0.052762292
-0.19816999 -0.29703677 0.05278708
-0.10748567 -0.27224779 0.02879915
-0.10767666 -0.27231905 0.028714437
-0.10787101 -0.27239168 0.028627401
-0.10805716 -0.27246094 0.028546158
-0.10824698 -0.27253181 0.028461445
-0.10842492 -0.27259332 0.028417125
-0.10860486 -0.27265659 0.028364733
-0.1087801 -0.27271467 0.028338868
-0.10895334 -0.27277276 0.028308408
-0.10912636 -0.27283078 0.028277939
-0.10929561 -0.27288586 0.028260168
-0.10946803 -0.27294517 0.028219331
-0.10963656 -0.27299985 0.028202713
-0.10980268 -0.27305263 0.028194176
-0.10997009 -0.27310503 0.028191406
-0.11013057 -0.27315333 0.028202493
-0.11029664 -0.2732079 0.02818127
-0.11045849 -0.27325904 0.028175056
-0.11061487 -0.2733041 0.028199989
-0.11077611 -0.27335328 0.028206464
-0.11093173 -0.27339777 0.0282337
-0.11109149 -0.2734426 0.028267853
-0.11123522 -0.2734803 0.028317044
-0.11139072 -0.27352151 0.028367355
-0.11154138 -0.2735635 0.028401531
-0.11168726 -0.27359977 0.028465705
-0.11183684 -0.27363589 0.028539097
-0.11197429 -0.27366483 0.028636735
-0.11211986 -0.27369907 0.028714746
-0.11226222 -0.27373213 0.028793927
-0.11240233 -0.27376321 0.02888233
-0.11254114 -0.27379307 0.028976506
-0.11268164 -0.27382264 0.029076446
-0.11281872 -0.2738508 0.029178694
-0.11295395 -0.27387726 0.029289037
-0.11308908 -0.27390355 0.02940052
-0.1132246 -0.27392831 0.029523537
-0.11335871 -0.27395347 0.02964079
-0.11349134 -0.27397716 0.029764969
-0.11363298 -0.27400708 0.029864904
-0.11378326 -0.27403939 0.029967118
-0.1139055 -0.2740407 0.030227402
-0.11403035 -0.27405128 0.030427722
-0.1091409 -0.26837602 0.059947506
-0.10932778 -0.2684249 0.060012717
-0.10954832 -0.26850355 0.05994061
-0.10976581 -0.2685819 0.059863891
-0.10994892 -0.26862732 0.059945259
-0.11014816 -0.26868832 0.059951626
-0.11035414 -0.26875594 0.059925675
-0.11056601 -0.26882946 0.059870884
-0.1107439 -0.26888722 0.059853092
-0.11098023 -0.26896769 0.059802845
-0.11118579 -0.26903552 0.0597746
-0.11138545 -0.26909763 0.059774041
-0.11156964 -0.26915199 0.059794292
-0.11178717 -0.26922449 0.059759084
-0.11198805 -0.26928809 0.059750453
-0.11219546 -0.26935846 0.059708357
-0.11240311 -0.26942921 0.059663959
-0.11259908 -0.26948822 0.059677258
-0.11280929 -0.26955926 0.05963631
-0.11300343 -0.26961654 0.059657671
-0.11320308 -0.26967961 0.059650198
-0.11339436 -0.26973405 0.059685417
-0.11360306 -0.26980677 0.059629485
-0.1137948 -0.26986185 0.059661239
-0.11396459 -0.26991287 0.059673451
-0.11420154 -0.26999679 0.059600137
-0.11441125 -0.27007127 0.05953382
-0.1146113 -0.27013558 0.059518278
-0.11477065 -0.27018416 0.059524745
-0.11501705 -0.27026793 0.059473321
-0.1152145 -0.27032983 0.059469312
-0.11540706 -0.27038646 0.059491839
-0.1156164 -0.27046165 0.059419762
-0.11579414 -0.27051073 0.059463084
-0.11600703 -0.27057856 0.059450962
-0.11620905 -0.27064613 0.059416957
-0.11641307 -0.27071604 0.059370257
-0.11660714 -0.27077496 0.059380092
-0.11681005 -0.27084097 0.059358776
-0.11700956 -0.27090627 0.05933515
-0.11720135 -0.27096283 0.059356529
-0.11741132 -0.27104047 0.059268303
-0.11760342 -0.27109453 0.059308127
-0.11779965 -0.27115652 0.059300661
-0.11799967 -0.27122313 0.059268966
-0.11820769 -0.27129933 0.059186518
-0.11840156 -0.27135897 0.059190586
-0.11859588 -0.27141926 0.059191205
-0.11879459 -0.27148169 0.059186026
-0.11898474 -0.2715371 0.059212029
-0.11919001 -0.27161101 0.059139952
-0.11939108 -0.27168003 0.059093274
-0.11958624 -0.27173862 0.059107713
-0.11977547 -0.27179325 0.059137166
-0.11998484 -0.27187312 0.05903165
-0.12017369 -0.27192748 0.059062265
-0.12036745 -0.27198464 0.059083626
-0.12056932 -0.27205572 0.059024259
-0.12076145 -0.27211449 0.059030637
-0.12096258 -0.272185 0.058973569
-0.12116032 -0.27224779 0.058963798
-0.12134855 -0.27230179 0.058995564
-0.12153628 -0.27235514 0.059030782
-0.12174213 -0.27243263 0.058934499
-0.12194803 -0.27250689 0.058861271
-0.12212881 -0.2725623 0.058866534
-0.12229282 -0.27261364 0.058863774
-0.12250093 -0.27266893 0.058930077
-0.12269631 -0.27272564 0.058958367
-0.12290496 -0.27279702 0.058911655
-0.1231063 -0.27287003 0.058837287
-0.1232888 -0.27292451 0.058852926
-0.12349917 -0.27299902 0.058787763
-0.12369014 -0.27305794 0.058790687
-0.12387565 -0.27311301 0.058808625
-0.12403974 -0.27315724 0.058856603
-0.12427743 -0.27325225 0.058706027
-0.12446784 -0.27332333 0.05862131
-0.12466278 -0.27337211 0.05870495
-0.12485126 -0.27342796 0.058724023
-0.12504785 -0.27349624 0.058672741
-0.12524144 -0.2735602 0.058645673
-0.12543634 -0.27362633 0.058605928
-0.12563211 -0.27368963 0.058588088
-0.12582245 -0.27374899 0.058586404
-0.12600113 -0.27380341 0.05859397
-0.12620789 -0.27387112 0.058569178
-0.126403 -0.27393863 0.058520205
-0.12659572 -0.27400246 0.05849199
-0.12678218 -0.27405608 0.058522604
-0.12697503 -0.27412042 0.058490932
-0.12716338 -0.27417737 0.058501944
-0.12735891 -0.27424175 0.058476023
-0.12755387 -0.27431035 0.058418978
-0.12771481 -0.27438021 0.058277838
-0.12793222 -0.27443823 0.058345266
-0.1281296 -0.27449653 0.058366634
-0.12831432 -0.27454764 0.058411092
-0.12850547 -0.27461049 0.058386348
-0.12869385 -0.27466846 0.058390427
-0.12885749 -0.27471834 0.058396894
-0.1290686 -0.27478075 0.058419373
-0.1292692 -0.27485678 0.058321945
-0.12945545 -0.27491114 0.058346801
-0.12964308 -0.27496818 0.058355499
-0.12983739 -0.27503869 0.058283456
-0.13002816 -0.27510241 0.058251783
-0.13022232 -0.27517334 0.05817629
-0.13041143 -0.27522808 0.058204595
-0.13058707 -0.27527946 0.058227167
-0.13073978 -0.27531996 0.058276333
-0.13093166 -0.27539346 0.058177769
-0.13116224 -0.27546743 0.058160983
-0.1313545 -0.2755295 0.058144309
-0.1315458 -0.27558964 0.058139164
-0.13172801 -0.27564973 0.058114439
-0.13191268 -0.27571577 0.058052797
-0.1320689 -0.27575767 0.058099646
-0.13229959 -0.27583331 0.05807133
-0.13248768 -0.27589393 0.058055818
-0.13267793 -0.27596006 0.058005698
-0.13286389 -0.27601579 0.058020175
-0.13305487 -0.27607664 0.058009263
-0.13324364 -0.27613991 0.05797644
-0.13342626 -0.27619523 0.057986319
-0.1336132 -0.27625403 0.057981186
-0.13377985 -0.27630779 0.057966881
-0.13397071 -0.27638665 0.057827957
-0.13414952 -0.27643186 0.057901271
-0.13436052 -0.27649876 0.057891451
-0.13454619 -0.27656415 0.057836734
-0.13471687 -0.27662209 0.057801664
-0.13492219 -0.2766819 0.057829924
-0.13510981 -0.27674478 0.057797119
-0.13530944 -0.27680653 0.057798862
-0.13549165 -0.27686241 0.057804119
-0.13568175 -0.27692395 0.057786301
-0.13585095 -0.27697852 0.057771988
-0.1360224 -0.27703005 0.057784192
-0.13622485 -0.27710325 0.057710975
-0.13641034 -0.27716061 0.057712764
-0.13657747 -0.2772207 0.057654638
-0.13676836 -0.27728769 0.057599906
-0.13696946 -0.27734488 0.057637408
-0.13715617 -0.27739468 0.057695702
-0.13732132 -0.27744764 0.05768371
-0.13749896 -0.27751443 0.05760134
-0.13772739 -0.27759537 0.057530351
-0.13791019 -0.27764151 0.057605952
-0.13807613 -0.27770025 0.057554744
-0.13826418 -0.27775696 0.057566918
-0.13846055 -0.27782434 0.057521388
-0.13865855 -0.27788284 0.057542752
-0.13881591 -0.27793112 0.057546929
-0.13899177 -0.27799428 0.057486467
-0.13918431 -0.27806079 0.057438649
-0.13937211 -0.27811757 0.057449661
-0.13958432 -0.2781857 0.057434075
-0.13976498 -0.27823815 0.057460099
-0.13992207 -0.27828601 0.057466578
-0.14012805 -0.27835965 0.057397969
-0.14032285 -0.27842203 0.057384737
-0.14051779 -0.27848703 0.057353057
-0.14070252 -0.27855065 0.057308719
-0.14087918 -0.27859521 0.05738204
-0.14103971 -0.27864805 0.057360832
-0.14122152 -0.27872521 0.057213865
-0.14141802 -0.27875856 0.057410523
-0.14159517 -0.27880603 0.057464223
-0.1417558 -0.27886766 0.057380751
-0.14195746 -0.27896643 0.057124175
-0.14217521 -0.27902523 0.057186991
-0.14234203 -0.27907562 0.057196911
-0.14252578 -0.27913651 0.057169873
-0.14272317 -0.27919611 0.05718201
-0.14287978 -0.27924156 0.057204641
-0.14307694 -0.27930823 0.057166032
-0.14326023 -0.2793732 0.057109021
-0.14343712 -0.27942628 0.057122361
-0.14361106 -0.27947176 0.057182997
-0.1437982 -0.2795285 0.057192855
-0.14396371 -0.27959344 0.057096679
-0.14414911 -0.27966735 0.056980845
-0.14433628 -0.27972099 0.057012614
-0.14452443 -0.27976686 0.057102039
-0.14470047 -0.27982679 0.057064645
-0.14488444 -0.27990592 0.056908444
-0.14508253 -0.27995762 0.056978244
-0.14526866 -0.28001893 0.056953508
-0.14544462 -0.28007656 0.056932259
-0.14567482 -0.28015074 0.056913164
-0.14583123 -0.28019696 0.056930028
-0.14603075 -0.28026208 0.056907557
-0.14620429 -0.28031281 0.056930143
-0.14637969 -0.2803719 0.056897361
-0.14656474 -0.28043613 0.056849573
-0.14673983 -0.28048018 0.056922887
-0.14690125 -0.28050601 0.057095423
-0.14707649 -0.28058031 0.056954242
-0.14726004 -0.28064942 0.056868386
-0.14747447 -0.28072569 0.056799755
-0.14765856 -0.28079122 0.056740422
-0.14782754 -0.28084475 0.056733038
-0.14802323 -0.28090787 0.056716345
-0.1482199 -0.28096774 0.056725025
-0.14840367 -0.28102148 0.056748733
-0.14858446 -0.28108421 0.0567021
-0.1487498 -0.28114781 0.056615144
-0.14893468 -0.28119832 0.056664221
-0.14912263 -0.28125107 0.056704059
-0.14930107 -0.28131908 0.056614768
-0.14947233 -0.28137577 0.056590073
-0.14965414 -0.28143442 0.056574576
-0.14985983 -0.28150892 0.056499038
-0.15004428 -0.28156111 0.056535434
-0.15022084 -0.28160512 0.056612205
-0.15039121 -0.28165486 0.056634799
-0.15056378 -0.28170836 0.056635465
-0.15074517 -0.28177598 0.056555394
-0.15091904 -0.2818346 0.056522615
-0.15111944 -0.28190243 0.056482852
-0.15130155 -0.28195989 0.056476574
-0.15149061 -0.28201902 0.056473747
-0.15169328 -0.2820822 0.05647203
-0.15186603 -0.28214225 0.056426566
-0.15205605 -0.28219956 0.056438722
-0.15224054 -0.2822597 0.056418609
-0.15240431 -0.28231421 0.056392785
-0.15257661 -0.28237444 0.056345019
-0.15275855 -0.28243184 0.056338742
-0.15293846 -0.28248599 0.056350935
-0.15311296 -0.28254238 0.056335449
-0.15330517 -0.28260899 0.056286484
-0.15349762 -0.28266883 0.056285944
-0.15367492 -0.28273305 0.056220874
-0.15383774 -0.28278825 0.056188129
-0.15399843 -0.28284049 0.05617154
-0.15421049 -0.28290159 0.056205541
-0.15439154 -0.28296 0.056190051
-0.15458493 -0.2830185 0.056201048
-0.15474056 -0.28307194 0.056164857
-0.15492031 -0.28313741 0.056096315
-0.15510426 -0.28319186 0.056115407
-0.15529414 -0.28326017 0.056049153
-0.1554815 -0.28331569 0.05606823
-0.15565152 -0.28336662 0.0560816
-0.15582781 -0.28342029 0.056089178
-0.15602754 -0.28347656 0.056130141
-0.15619351 -0.28353745 0.056063946
-0.15637177 -0.28359386 0.056056529
-0.15655307 -0.28365657 0.056011051
-0.15672541 -0.28371471 0.055978276
-0.15691423 -0.28378317 0.055908561
-0.15710704 -0.2838425 0.055912632
-0.15727402 -0.28389686 0.055894874
-0.15744951 -0.28395599 0.055862091
-0.1576273 -0.28401273 0.055851225
-0.15780745 -0.28407151 0.055831112
-0.15798396 -0.2841295 0.055808716
-0.15816769 -0.28418908 0.055790901
-0.1583543 -0.28424159 0.055829592
-0.15853256 -0.28428939 0.0558833
-0.15872632 -0.28434396 0.055923119
-0.15890351 -0.28440979 0.055846512
-0.15906546 -0.28447688 0.055727281
-0.15927489 -0.28450531 0.055987328
-0.15946399 -0.28455648 0.056040999
-0.1596202 -0.28463641 0.055817999
-0.15980329 -0.2846927 0.055822093
-0.15999839 -0.28473893 0.055924185
-0.16018523 -0.28479621 0.055929434
-0.16036615 -0.28485459 0.05591394
-0.16055214 -0.28490886 0.055938795
-0.1607337 -0.2849668 0.055927906
-0.16093208 -0.28502262 0.055968873
-0.16110545 -0.28510171 0.055789646
-0.16131243 -0.28515831 0.055844419
-0.16148044 -0.28519756 0.055936202
-0.16165859 -0.2852653 0.055848062
-0.16183497 -0.28533769 0.055723026
-0.16201757 -0.28540179 0.055670626
-0.1622045 -0.2854453 0.055773903
-0.16234988 -0.28551504 0.055599358
-0.16257077 -0.2855795 0.055628724
-0.16272953 -0.28564626 0.055504885
-0.16290541 -0.28570113 0.055503242
-0.16309953 -0.28575709 0.055533845
-0.1632625 -0.2858206 0.055442285
-0.16344453 -0.28587803 0.055436019
-0.16362862 -0.2859374 0.055420507
-0.16381273 -0.28599676 0.055405002
-0.16398236 -0.28605568 0.055360705
-0.16418652 -0.28611836 0.055365905
-0.1643628 -0.28616378 0.055432305
-0.16453436 -0.2862184 0.055422597
-0.16470432 -0.28628328 0.055336788
-0.16490139 -0.28634426 0.055338547
-0.16508386 -0.28640166 0.055333428
-0.16525772 -0.286452 0.055359464
-0.16543989 -0.28651562 0.055309363
-0.16562459 -0.28657776 0.055275414
-0.16580474 -0.28663948 0.055234548
-0.1659673 -0.2866962 0.055190269
-0.16615957 -0.28674838 0.055243943
-0.16634226 -0.28680584 0.055238821
-0.16653362 -0.28686729 0.055224448
-0.16671658 -0.28692469 0.055220477
-0.16688356 -0.28697628 0.055222318
-0.16705978 -0.28704277 0.055138804
-0.16723281 -0.28710243 0.055096794
-0.16742784 -0.28715384 0.055161987
-0.16759886 -0.28721726 0.055088859
-0.16778162 -0.28727213 0.055102184
-0.16797768 -0.28733149 0.055113174
-0.16815846 -0.28737941 0.055171486
-0.16834605 -0.28745091 0.055077553
-0.16851047 -0.28750399 0.055063255
-0.16868943 -0.28756616 0.055016629
-0.16887473 -0.2876254 0.055004586
-0.16906005 -0.28768206 0.055010986
-0.16924867 -0.2877399 0.055016227
-0.16941305 -0.28780076 0.054946579
-0.16958313 -0.28786162 0.054889593
-0.16976477 -0.28791746 0.054893702
-0.16996403 -0.28797343 0.05493582
-0.17014231 -0.2880308 0.054921482
-0.1703306 -0.28808904 0.054923266
-0.17052899 -0.28815058 0.054923862
-0.17070587 -0.28821841 0.054832265
-0.17087945 -0.28827533 0.054811031
-0.1710631 -0.28833309 0.054805897
-0.17125222 -0.28839597 0.054776546
-0.17143713 -0.28845331 0.054777186
-0.17160524 -0.28850526 0.054779023
-0.17178936 -0.2885583 0.054808494
-0.1719721 -0.28862602 0.054730717
-0.1721449 -0.28868333 0.054704867
-0.1723185 -0.28874266 0.054666329
-0.17250587 -0.28879705 0.054693479
-0.17270394 -0.28885686 0.054705612
-0.17287861 -0.28891587 0.05467169
-0.17305671 -0.28897598 0.054637749
-0.17325351 -0.28903636 0.054642968
-0.17343794 -0.28909209 0.054653987
-0.17360333 -0.28915653 0.054561265
-0.17380147 -0.28920776 0.054634526
-0.17396966 -0.289269 0.054570626
-0.17416227 -0.28932661 0.054586235
-0.17434269 -0.28938824 0.054546528
-0.17451346 -0.28944427 0.054525293
-0.17470348 -0.28950289 0.054528221
-0.17489834 -0.2895622 0.054536905
-0.17509311 -0.28962585 0.054514453
-0.17525533 -0.28968248 0.054470178
-0.1754483 -0.28974459 0.054454654
-0.1756267 -0.28980479 0.05442071
-0.17581342 -0.28986251 0.054422498
-0.17600338 -0.28992355 0.054408129
-0.17619239 -0.28998283 0.05440414
-0.17634599 -0.29003984 0.054337982
-0.17654249 -0.29009706 0.054365106
-0.17673571 -0.29015324 0.054392252
-0.1768972 -0.29021013 0.054344516
-0.17707543 -0.29027855 0.054251768
-0.17725551 -0.29033437 0.054252423
-0.17746599 -0.29039222 0.054306034
-0.17763923 -0.29044998 0.054277875
-0.17782396 -0.29050678 0.054281976
-0.17801689 -0.29056743 0.054276817
-0.17818394 -0.29062879 0.054209471
-0.17835003 -0.29069036 0.05413866
-0.17854871 -0.29074192 0.05421076
-0.17875059 -0.29080632 0.054198667
-0.1789296 -0.2908667 0.054164726
-0.17911454 -0.29092568 0.05415383
-0.17930225 -0.29098976 0.054112941
-0.17947489 -0.29104409 0.054107849
