# .PCD v0.7 - Point Cloud Data file format
VERSION 0.7
FIELDS x y z
SIZE 4 4 4
TYPE F F F
COUNT 1 1 1
WIDTH 1289
HEIGHT 1
VIEWPOINT 0 0 0 1 0 0 0
POINTS 1289
DATA ascii
-0.27386412 -0.12309508 0.060294315
-0.27405769 -0.12301529 0.060251057
-0.27426168 -0.12292614 0.06024006
-0.27445874 -0.12284007 0.060229074
-0.27463561 -0.12276331 0.060215853
-0.27482173 -0.12268431 0.060189918
-0.27500769 -0.12260791 0.060146682
-0.27516946 -0.12253447 0.060156561
-0.27536023 -0.12245204 0.060139842
-0.27554181 -0.12237199 0.060134672
-0.27574819 -0.12228432 0.060106363
-0.27593181 -0.12219981 0.060125403
-0.2761246 -0.12212105 0.060077541
-0.27633366 -0.1220293 0.060068823
-0.27650505 -0.12195684 0.060042933
-0.27668267 -0.12188127 0.060019333
-0.27687103 -0.12179331 0.060047578
-0.27702683 -0.12172098 0.060067851
-0.27724719 -0.12163372 0.059994541
-0.27743185 -0.12155281 0.059985902
-0.27759624 -0.1214755 0.060014218
-0.27780357 -0.12139215 0.05995363
-0.27799544 -0.12131143 0.059921909
-0.27817565 -0.12122912 0.059936345
-0.2783196 -0.1211524 0.060022369
-0.27853701 -0.12107357 0.059900641
-0.27873632 -0.12099345 0.059842385
-0.27891305 -0.12091284 0.059855677
-0.27910671 -0.12082184 0.059888519
-0.27929142 -0.12075058 0.059814163
-0.27946559 -0.1206779 0.059781343
-0.27965453 -0.12058797 0.059821114
-0.27986169 -0.12050317 0.059770912
-0.28006122 -0.12042719 0.059683826
-0.28021762 -0.12034377 0.059777882
-0.28042376 -0.12026196 0.059710383
-0.28059432 -0.12018512 0.059716769
-0.280819 -0.12009389 0.059657276
-0.28099367 -0.12000979 0.059700556
-0.28118742 -0.11993197 0.059643462
-0.28133768 -0.11987383 0.059584208
-0.28154284 -0.11977974 0.05960317
-0.28171039 -0.11969525 0.059670687
-0.28190324 -0.11963377 0.059505217
-0.28209114 -0.1195438 0.05954846
-0.28227744 -0.11946285 0.059535198
-0.28246489 -0.11937594 0.059558839
-0.2826345 -0.11930259 0.059544474
-0.28282192 -0.1192225 0.059521995
-0.28298903 -0.11914787 0.059523784
-0.28318781 -0.11906426 0.059490897
-0.28336301 -0.11899111 0.059458077
-0.28357461 -0.11890502 0.059403237
-0.28375015 -0.11882529 0.059414227
-0.28392884 -0.11874399 0.059426356
-0.28413182 -0.11865646 0.05940729
-0.28430998 -0.11857489 0.05942288
-0.28448212 -0.1185004 0.059408523
-0.28464964 -0.11842661 0.05940339
-0.28482789 -0.11835264 0.059367105
-0.28502133 -0.11827037 0.05934114
-0.28519556 -0.11819766 0.059308328
-0.28537574 -0.11812164 0.059280112
-0.28555116 -0.1180462 0.059262276
-0.28573534 -0.11796551 0.05925364
-0.28593346 -0.11787947 0.059239194
-0.28611141 -0.11780223 0.059225958
-0.28628182 -0.11772733 0.059219673
-0.28646252 -0.11764429 0.059237562
-0.28665069 -0.11756708 0.059193172
-0.28683412 -0.11749452 0.059131503
-0.28701827 -0.11741029 0.059147082
-0.28719959 -0.11734054 0.05907274
-0.28738534 -0.11724931 0.059130967
-0.28756547 -0.1171789 0.059064701
-0.28774834 -0.11709812 0.059060674
-0.28793475 -0.1170161 0.059054337
-0.28811204 -0.11693932 0.059039958
-0.28830773 -0.11684792 0.059069332
-0.28848046 -0.11676706 0.05909647
-0.2886557 -0.11669764 0.059038281
-0.28886774 -0.11660796 0.059006505
-0.28903732 -0.11653817 0.058967937
-0.28920642 -0.11646334 0.058965113
-0.28939617 -0.11638051 0.058954153
-0.28956926 -0.11630017 0.058976684
-0.28975952 -0.11621798 0.058959953
-0.28993949 -0.11614491 0.058912128
-0.29010284 -0.11606924 0.058932379
-0.29027978 -0.11599313 0.05891455
-0.29046479 -0.11591581 0.058880541
-0.29065073 -0.11582926 0.058906484
-0.2908231 -0.11575872 0.058864444
-0.29100162 -0.11567954 0.058862753
-0.29119241 -0.1155988 0.058834489
-0.29138973 -0.11552074 0.058768168
-0.29156995 -0.11543842 0.058782607
-0.29175946 -0.11535655 0.058765881
-0.29192504 -0.11528397 0.058758456
-0.29210567 -0.11520807 0.05872792
-0.29230103 -0.11512259 0.0587181
-0.29247832 -0.11504835 0.058686428
-0.29265732 -0.11496454 0.058714699
-0.29282662 -0.11489148 0.058699191
-0.29300827 -0.11481768 0.058651358
-0.2931909 -0.11473921 0.058632351
-0.2933791 -0.1146564 0.058626011
-0.29356059 -0.114583 0.058575876
-0.29374731 -0.11450475 0.058543023
-0.29394117 -0.1144179 0.058547042
-0.29410362 -0.11434821 0.058529243
-0.29429856 -0.11426326 0.058517117
-0.29448515 -0.11417827 0.058530375
-0.29463065 -0.11410799 0.058567978
-0.2948482 -0.11401212 0.058561545
-0.2950249 -0.11393885 0.058525264
-0.2952027 -0.11386795 0.058469377
-0.29537466 -0.11379387 0.058452699
-0.29556727 -0.113713 0.058419831
-0.29573587 -0.11362414 0.05851385
-0.29588443 -0.11355131 0.058559515
-0.29606935 -0.11349641 0.058373328
-0.29627818 -0.11341715 0.058280453
-0.29643911 -0.11332814 0.058398701
-0.29662952 -0.11325214 0.05833932
-0.29682526 -0.11317073 0.058300674
-0.2970016 -0.11308961 0.058318578
-0.29717153 -0.11302137 0.058268476
-0.29735255 -0.11293242 0.058325566
-0.29755256 -0.11285284 0.058261544
-0.29774204 -0.1127764 0.058207922
-0.29791865 -0.11269602 0.058220066
-0.2980665 -0.11263098 0.058215007
-0.29828078 -0.11253928 0.05819013
-0.29845971 -0.11245432 0.058226477
-0.29864493 -0.11238961 0.058106001
-0.29882079 -0.11229431 0.058221899
-0.29899997 -0.11222246 0.058168322
-0.29915896 -0.11215805 0.058125172
-0.29933038 -0.11208558 0.058099285
-0.29950926 -0.11199978 0.058141388
-0.29968175 -0.11193176 0.058082059
-0.29985973 -0.11185704 0.058051541
-0.30003384 -0.11178134 0.058039475
-0.30021319 -0.11171348 0.057958219
-0.30039859 -0.11162394 0.058006071
-0.30058303 -0.11154703 0.057970919
-0.30076048 -0.11147087 0.057951923
-0.30095667 -0.11138111 0.057968613
-0.30113506 -0.11131097 0.057905808
-0.30130881 -0.11123458 0.057899512
-0.30147263 -0.11116191 0.057897851
-0.30165279 -0.11108149 0.057899602
-0.30183321 -0.11100298 0.057887517
-0.30201271 -0.11091691 0.057929631
-0.30219346 -0.11084113 0.057897948
-0.30237406 -0.11076425 0.057874326
-0.30256841 -0.11068904 0.057797644
-0.3027218 -0.1106139 0.057844441
-0.30291235 -0.11053598 0.057797734
-0.30309939 -0.11045741 0.057766031
-0.30327392 -0.11039592 0.057655971
-0.30346748 -0.11031853 0.057596579
-0.30364415 -0.11023796 0.057609867
-0.30380076 -0.1101529 0.057714306
-0.30397761 -0.11007158 0.05773221
-0.30415764 -0.10997883 0.057818122
-0.30434132 -0.10990395 0.057771433
-0.30452821 -0.10983021 0.057707455
-0.30473787 -0.10974429 0.057657234
-0.30492759 -0.10967895 0.05752752
-0.30509502 -0.10958824 0.057637688
-0.30526558 -0.10950903 0.057660226
-0.30545872 -0.10942893 0.057620429
-0.30560985 -0.10935531 0.057663776
-0.30578589 -0.10929451 0.057544485
-0.30595884 -0.10922865 0.05746901
-0.30614138 -0.10915954 0.057386592
-0.30632272 -0.10906418 0.057486344
-0.30649671 -0.10898378 0.057506565
-0.30668756 -0.10889199 0.057553243
-0.30686745 -0.10881677 0.057520412
-0.30703714 -0.10874862 0.057470307
-0.30721575 -0.1086833 0.057374068
-0.307392 -0.10861055 0.057335488
-0.307576 -0.10852535 0.057357978
-0.30776927 -0.10844063 0.057349317
-0.30794933 -0.10836227 0.057337232
-0.30814031 -0.10827281 0.057367768
-0.30831078 -0.10817904 0.057489451
-0.30851093 -0.1081089 0.057360865
-0.30866569 -0.10803738 0.057378832
-0.30885467 -0.1079605 0.057329834
-0.30902126 -0.10789034 0.057302803
-0.3091976 -0.10781619 0.05727344
-0.30936739 -0.10774478 0.057245247
-0.30956677 -0.1076458 0.057314958
-0.30976903 -0.10756165 0.057275146
-0.30994341 -0.10748313 0.05728152
-0.31012404 -0.10740316 0.057278663
-0.31030667 -0.10732722 0.057242364
-0.31048372 -0.10726192 0.057150736
-0.31066555 -0.1071772 0.057176691
-0.31083649 -0.10710103 0.05717732
-0.31101152 -0.10703153 0.057120293
-0.31118089 -0.10697184 0.057013705
-0.31137729 -0.10687657 0.057067282
-0.31155708 -0.10679968 0.057045978
-0.31173986 -0.10671266 0.057084613
-0.31192198 -0.10662832 0.057107117
-0.31210184 -0.10655158 0.057084661
-0.31226429 -0.10647614 0.057106063
-0.31244233 -0.10639632 0.057110127
-0.31262952 -0.10631464 0.057099175
-0.31280068 -0.10624754 0.05703754
-0.31297663 -0.10618254 0.056947079
-0.3131488 -0.10611194 0.05690619
-0.31331187 -0.10603521 0.056934521
-0.31348801 -0.10596115 0.056905154
-0.31367481 -0.10587268 0.056941472
-0.31386203 -0.10578352 0.056981243
-0.31406724 -0.10570551 0.056890685
-0.31420654 -0.10566378 0.056753069
-0.31440207 -0.10557448 0.056768611
-0.31461048 -0.10547335 0.056825612
-0.31478748 -0.105404 0.056761652
-0.31496933 -0.1053223 0.056766856
-0.31514376 -0.10525239 0.056714438
-0.31532115 -0.10517524 0.056702375
-0.31550902 -0.10508578 0.056742147
-0.31569034 -0.10500586 0.056736976
-0.31585884 -0.10493095 0.056736451
-0.31602237 -0.10486148 0.05671405
-0.31622201 -0.10477035 0.056729577
-0.31638283 -0.10469514 0.056754444
-0.31657776 -0.10460899 0.056750383
-0.31673622 -0.10453346 0.056784485
-0.31690794 -0.10445797 0.056778193
-0.31709027 -0.10438234 0.056740746
-0.31725052 -0.10433146 0.056601901
-0.31743318 -0.10425483 0.05657021
-0.31760925 -0.10418115 0.056538537
-0.31779373 -0.10410608 0.056490697
-0.31798148 -0.10402431 0.056478593
-0.31816542 -0.10392949 0.056566801
-0.31833276 -0.10386307 0.056512106
-0.31851897 -0.1037847 0.056481555
-0.31870738 -0.10370196 0.056474056
-0.31887907 -0.10363191 0.056430873
-0.31905085 -0.10356657 0.056355402
-0.31924856 -0.10347105 0.05640668
-0.31942511 -0.10339665 0.056378465
-0.31961337 -0.10331923 0.056335233
-0.31979841 -0.10324308 0.05629316
-0.31996161 -0.10317459 0.056264985
-0.3201417 -0.10309368 0.056270193
-0.32032132 -0.10300925 0.056300774
-0.32052416 -0.10290145 0.056420051
-0.32071444 -0.10282075 0.056392945
-0.32089835 -0.10274257 0.056368172
-0.32107762 -0.10266813 0.05633188
-0.32123637 -0.1026035 0.056291044
-0.32141495 -0.10253021 0.056248989
-0.32160896 -0.10243905 0.056281827
-0.32178769 -0.10236146 0.056268599
-0.32195717 -0.10229121 0.056233484
-0.32213232 -0.10221962 0.05619029
-0.32231447 -0.10214052 0.056177042
-0.32248592 -0.10207498 0.056103885
-0.32268435 -0.10198525 0.056113649
-0.3228544 -0.10191016 0.056109674
-0.32306606 -0.10180725 0.056168973
-0.32324719 -0.10172249 0.056197241
-0.32343119 -0.10164476 0.056169003
-0.32360193 -0.10156903 0.056167323
-0.32376647 -0.10150673 0.056093033
-0.32394016 -0.10143394 0.05606252
-0.32413962 -0.10134713 0.056049231
-0.32431781 -0.10127114 0.056026779
-0.32451743 -0.10118426 0.05601348
-0.32468992 -0.10110978 0.05599796
-0.3248246 -0.10107078 0.05585574
-0.32503015 -0.10097159 0.055908144
-0.32519618 -0.10090678 0.055846527
-0.32537866 -0.10082465 0.055852886
-0.32558361 -0.1007098 0.056013659
-0.32575518 -0.10064047 0.055965859
-0.32593614 -0.10057105 0.055890366
-0.32611987 -0.1004909 0.055879429
-0.32628813 -0.10042629 0.05580974
-0.32648537 -0.10033691 0.055820659
-0.32667056 -0.10024186 0.055906553
-0.32685733 -0.10016426 0.055869095
-0.32703555 -0.1000986 0.055776305
-0.32720867 -0.10002079 0.055781543
-0.32739773 -0.09993691 0.055779811
-0.32759354 -0.099825107 0.055947527
-0.327779 -0.099768266 0.055772867
-0.32795262 -0.099693298 0.055757344
-0.32813022 -0.099616036 0.055745266
-0.32831207 -0.099536225 0.055737797
-0.32847577 -0.099474639 0.055661201
-0.32865801 -0.099397361 0.055635281
-0.32884929 -0.099305205 0.055683106
-0.32904044 -0.099222265 0.055668697
-0.32920906 -0.09915714 0.055601299
-0.32940805 -0.09906698 0.055612221
-0.32959244 -0.098987222 0.055596661
-0.32977349 -0.098908938 0.055581115
-0.3299576 -0.098829627 0.055563264
-0.33012581 -0.098756559 0.055551216
-0.33030957 -0.09868063 0.055511445
-0.33049172 -0.098606788 0.055462465
-0.3306666 -0.098528199 0.055467699
-0.33086789 -0.098441429 0.055448629
-0.33104002 -0.098366424 0.055437729
-0.3312408 -0.098269537 0.055488985
-0.33141702 -0.098203257 0.055406585
-0.33160907 -0.098117366 0.055409454
-0.33178571 -0.098037146 0.05542044
-0.33197069 -0.097965434 0.055348393
-0.33216351 -0.097878858 0.055353563
-0.3323285 -0.097812988 0.055302333
-0.33253077 -0.097717807 0.055337444
-0.33269283 -0.097652882 0.055288531
-0.33288831 -0.097558357 0.055339806
-0.33307663 -0.097485319 0.055266596
-0.33323351 -0.09742406 0.055208474
-0.33343926 -0.097330391 0.055222824
-0.33363345 -0.097245425 0.055213001
-0.33380416 -0.097178012 0.055154834
-0.33397502 -0.097105443 0.055131257
-0.33414814 -0.097040191 0.055051163
-0.33435428 -0.096936688 0.055131234
-0.3345437 -0.096845359 0.055179074
-0.33476982 -0.096743643 0.05518645
-0.33492798 -0.09668114 0.055132933
-0.33510667 -0.096597634 0.055160053
-0.33530566 -0.096515104 0.05511909
-0.33549258 -0.096434392 0.055102371
-0.33567512 -0.096358672 0.055064924
-0.33584332 -0.096289657 0.055025209
-0.3360391 -0.09619686 0.055063795
-0.33622593 -0.096116535 0.055044778
-0.33641952 -0.09603335 0.055024579
-0.33659807 -0.095962293 0.054967545
-0.33676344 -0.095896564 0.054914001
-0.33694369 -0.095821358 0.054880008
-0.33714843 -0.095730677 0.05487708
-0.33735844 -0.095629856 0.054927163
-0.33752528 -0.095558241 0.054909352
-0.33771867 -0.09546905 0.054930665
-0.33790538 -0.095393851 0.05487705
-0.33811358 -0.095299937 0.054885637
-0.33829856 -0.095220082 0.054868937
-0.33847824 -0.095143765 0.054844167
-0.33866715 -0.095064193 0.054813609
-0.33883765 -0.094989084 0.054808471
-0.33904278 -0.094898917 0.054800924
-0.33921978 -0.094825655 0.054763492
-0.3394205 -0.094733886 0.054780167
-0.33961621 -0.09465383 0.054732297
-0.33978745 -0.09457618 0.05474215
-0.3399685 -0.094505183 0.054677028
-0.3401787 -0.094410226 0.054686759
-0.34034568 -0.094343454 0.05463551
-0.34053221 -0.094262742 0.054619953
-0.34073257 -0.094171979 0.054630861
-0.34091607 -0.094088368 0.054644138
-0.34110159 -0.094015054 0.054581314
-0.34128624 -0.093936533 0.054556534
-0.34148222 -0.093848556 0.054561697
-0.34167013 -0.093764864 0.054562263
-0.34185928 -0.093683995 0.054539781
-0.34204486 -0.093608789 0.054489631
-0.34223193 -0.093526132 0.054485604
-0.34245205 -0.093422353 0.054525271
-0.34262922 -0.093347833 0.054495905
-0.3428171 -0.093264654 0.054493025
-0.343009 -0.093183398 0.054464765
-0.34319842 -0.093098864 0.05446649
-0.34337863 -0.093023501 0.054433648
-0.34355691 -0.092948139 0.054406587
-0.34375736 -0.092862599 0.054381762
-0.34394228 -0.092782766 0.054365046
-0.34415394 -0.092690207 0.054354023
-0.34433818 -0.092611194 0.054333862
-0.34453344 -0.092521504 0.054352861
-0.34471539 -0.092446722 0.054310787
-0.34490585 -0.092365608 0.054285992
-0.34506059 -0.092309713 0.0541979
-0.3452813 -0.092205152 0.054241031
-0.25310341 -0.13494629 0.042531762
-0.2532208 -0.13486901 0.042702045
-0.25333601 -0.13479303 0.042870015
-0.25345087 -0.13471568 0.043048371
-0.25356033 -0.13463853 0.043241724
-0.25366396 -0.1345616 0.043451235
-0.25376278 -0.13448477 0.043674596
-0.24835412 -0.13413578 0.062409427
-0.24854138 -0.13404575 0.062454998
-0.24876064 -0.13395286 0.06242324
-0.24894726 -0.13386294 0.062469967
-0.24919246 -0.13376918 0.062365502
-0.24940632 -0.13367835 0.062336072
-0.24960828 -0.13358653 0.062349323
-0.24981795 -0.13349603 0.062330268
-0.25003734 -0.13340376 0.062293902
-0.25025186 -0.1333133 0.062259853
-0.25045145 -0.13322186 0.062277719
-0.25063655 -0.13313246 0.062325604
-0.25086176 -0.13304351 0.062248871
-0.25107634 -0.13295032 0.062233262
-0.25131723 -0.13285816 0.062131125
-0.25144041 -0.13278458 0.062258732
-0.25172308 -0.13267756 0.062131107
-0.25192383 -0.13258661 0.062142052
-0.25214347 -0.1324954 0.062097609
-0.25233105 -0.13240641 0.062135112
-0.25254276 -0.13231552 0.062112607
-0.25279567 -0.13222581 0.061957397
-0.25295043 -0.13213581 0.062101044
-0.25317416 -0.13204668 0.062030084
-0.25332937 -0.13196632 0.06210687
-0.25357246 -0.13186757 0.062042773
-0.25377595 -0.13177729 0.062041022
-0.25399473 -0.13168867 0.061981604
-0.25418368 -0.13159856 0.062022559
-0.25440386 -0.13151017 0.061957367
-0.25461453 -0.13142025 0.061931394
-0.25481337 -0.13133202 0.061929673
-0.25501648 -0.13124223 0.061925627
-0.25523108 -0.1311543 0.061874285
-0.25543302 -0.13106468 0.061872553
-0.25564936 -0.13097699 0.061814286
-0.25583884 -0.13089241 0.06181604
-0.25603265 -0.13081133 0.0617809
-0.25621113 -0.13072164 0.061850704
-0.25647402 -0.13062681 0.061700087
-0.25666606 -0.13053414 0.061749101
-0.25686568 -0.13044676 0.061739303
-0.25702971 -0.13036028 0.061831053
-0.25812182 -0.12991934 0.061524712
-0.25828356 -0.12982947 0.061646439
-0.25845844 -0.12976106 0.061582536
-0.25870711 -0.12965541 0.061548386
-0.25891006 -0.12956908 0.061521284
-0.25910607 -0.12948075 0.061528794
-0.25929525 -0.12939394 0.061546691
-0.25950369 -0.12930635 0.061511509
-0.25969222 -0.12922677 0.061482139
-0.25988665 -0.1291512 0.061407797
-0.26009259 -0.12906203 0.06139107
-0.2603009 -0.12897128 0.061377786
-0.26050258 -0.12887296 0.061435997
-0.26070088 -0.12878717 0.061419286
-0.26087373 -0.12871626 0.061378434
-0.26108691 -0.1286225 0.061370909
-0.26129216 -0.12853381 0.06135302
-0.2615118 -0.12845363 0.061233647
-0.26168132 -0.12836435 0.061327685
-0.26183698 -0.12828141 0.061420623
-0.26208055 -0.12819417 0.061276972
-0.26228514 -0.12811339 0.061207213
-0.26248902 -0.12801953 0.061228529
-0.26266742 -0.12794428 0.061200343
-0.26284716 -0.12786166 0.061218269
-0.26309842 -0.12775707 0.061169125
-0.2632702 -0.12767766 0.061189383
-0.26348239 -0.127583 0.061191075
-0.26366282 -0.12750837 0.06115251
-0.26387095 -0.12742314 0.061102338
-0.26404738 -0.12734249 0.061116822
-0.26425096 -0.12725894 0.061068967
-0.26442105 -0.12717773 0.061106518
-0.26468682 -0.12706992 0.061035428
-0.26488492 -0.12699202 0.060965687
-0.26505598 -0.12691309 0.060984798
-0.26525339 -0.1268294 0.060956553
-0.26546228 -0.12672924 0.061005525
-0.26562592 -0.1266575 0.060998142
-0.26584715 -0.12655897 0.060998656
-0.26605663 -0.12647723 0.060920805
-0.26622596 -0.12639226 0.060986027
-0.26641136 -0.12631357 0.060960136
-0.26662615 -0.12622063 0.060942218
-0.266826 -0.12614009 0.060885157
-0.26702225 -0.12605709 0.060855769
-0.26718733 -0.12599032 0.060810331
-0.26741311 -0.1258828 0.060858101
-0.26761511 -0.12580098 0.060803346
-0.26781189 -0.12571637 0.060783178
-0.26799652 -0.12563413 0.060783796
-0.26816323 -0.12555747 0.060800605
-0.26839411 -0.12546602 0.060723856
-0.26859039 -0.12538385 0.060688697
-0.26873711 -0.12530607 0.060773589
-0.26895893 -0.12522425 0.06065882
-0.26914302 -0.125138 0.060688257
-0.2693274 -0.1250584 0.060671583
-0.26953545 -0.12497014 0.060642168
-0.26970172 -0.12489165 0.060672816
-0.2698983 -0.12480578 0.060661875
-0.27010584 -0.12472216 0.060602486
-0.27029398 -0.12463479 0.060627304
-0.27048865 -0.12455554 0.060577162
-0.27070576 -0.12446529 0.060533889
-0.27089518 -0.12438294 0.06052066
-0.27106085 -0.12430692 0.060536314
-0.27121532 -0.12423078 0.060586594
-0.2714684 -0.12413286 0.060486726
-0.27166206 -0.12404947 0.060467727
-0.27183372 -0.12396806 0.060501814
-0.27203256 -0.12388136 0.060489707
-0.27223319 -0.12380931 0.060372695
-0.27241933 -0.12372214 0.060402136
-0.27260986 -0.12363844 0.060394671
-0.27281103 -0.12355512 0.060352594
-0.27299738 -0.12347295 0.060347438
-0.27317101 -0.12339237 0.060369998
-0.27335858 -0.12332034 0.060292214
-0.27353925 -0.12324665 0.060246736
-0.27373976 -0.12315394 0.060270365
-0.27393931 -0.12306099 0.060298607
-0.27413198 -0.12297855 0.060276143
-0.27431297 -0.12289536 0.060294073
-0.27448678 -0.12282268 0.060262449
-0.27471581 -0.12275629 0.060020842
-0.27487057 -0.12266053 0.060203701
-0.2750549 -0.12258114 0.060185868
-0.27523458 -0.12250041 0.060191117
-0.27540937 -0.12242337 0.060186006
-0.27560514 -0.12234007 0.060160078
-0.27580917 -0.12225954 0.060090318
-0.27597937 -0.12218388 0.06008983
-0.27617198 -0.12209723 0.060096197
-0.27636412 -0.12201045 0.060104854
-0.27653772 -0.12193345 0.060103208
-0.27671129 -0.12186187 0.060064666
-0.27691358 -0.12177618 0.060035259
-0.27712187 -0.12169003 0.059990846
-0.27729046 -0.12161151 0.060014568
-0.27749175 -0.12153406 0.059932142
-0.27767909 -0.12144604 0.059963886
-0.27786592 -0.1213662 0.059941441
-0.27806371 -0.12127945 0.059932802
-0.27822265 -0.12120303 0.059971534
-0.27841488 -0.12112843 0.059897199
-0.27860659 -0.12104234 0.059902415
-0.27880421 -0.12095585 0.059892617
-0.2789965 -0.12087595 0.059854023
-0.2791785 -0.12080063 0.059815459
-0.27934316 -0.12072387 0.059839193
-0.27955726 -0.12063006 0.059829347
-0.27973953 -0.12054918 0.059827663
-0.27989796 -0.12046365 0.05992981
-0.28011072 -0.12039062 0.059782788
-0.28030488 -0.12031548 0.059706144
-0.28048921 -0.12023591 0.05968947
-0.28067183 -0.12016185 0.059640527
-0.2808437 -0.12008272 0.059658486
-0.28103146 -0.11999569 0.059682146
-0.28122148 -0.11991613 0.059648171
-0.2814036 -0.11984228 0.059599228
-0.28158256 -0.11976374 0.059591785
-0.28175896 -0.11968395 0.059600506
-0.28194511 -0.11960933 0.059544638
-0.28211907 -0.11952506 0.059591394
-0.28230563 -0.11945093 0.059530914
-0.28250879 -0.11935943 0.059538394
-0.28267053 -0.11928515 0.059554063
-0.28284431 -0.11921094 0.059532814
-0.28301534 -0.11913864 0.05950696
-0.28320998 -0.11905617 0.059478737
-0.2833882 -0.11897796 0.059471305
-0.28355592 -0.11890051 0.059490412
-0.28375575 -0.11881795 0.059447188
-0.28394505 -0.11872904 0.05947892
-0.28415212 -0.11865852 0.059331913
-0.28430009 -0.11857951 0.059421405
-0.28449047 -0.11849504 0.059419706
-0.28466639 -0.11841581 0.059426114
-0.28484201 -0.11834385 0.059384108
-0.28503233 -0.11827077 0.059305169
-0.28520665 -0.11819072 0.059321959
-0.28540853 -0.11810708 0.059279867
-0.28558508 -0.11802097 0.059331235
-0.28575724 -0.11795494 0.059259266
-0.28593779 -0.11787569 0.059251823
-0.28612334 -0.11779626 0.059230544
-0.28630778 -0.11771612 0.059217326
-0.2865003 -0.11763018 0.059219081
-0.28667396 -0.11756214 0.059156328
-0.28686002 -0.11747535 0.059183463
-0.28702652 -0.11740185 0.059179515
-0.2872152 -0.1173256 0.059127096
-0.28742507 -0.11723331 0.059119575
-0.28758985 -0.11715429 0.059158292
-0.28774211 -0.11708608 0.05916132
-0.28792387 -0.11701308 0.059107766
-0.28810972 -0.11692622 0.059136044
-0.28829283 -0.11685025 0.059098624
-0.28847504 -0.11677364 0.059068136
-0.28865802 -0.11669332 0.059060685
-0.28883627 -0.1166178 0.059034809
-0.28902709 -0.11654059 0.058982387
-0.28920239 -0.11645774 0.059015304
-0.28939131 -0.1163741 0.059012461
-0.28956971 -0.11629919 0.058981974
-0.2897518 -0.11622333 0.058946863
-0.28991783 -0.11615054 0.058939461
-0.29009011 -0.11606445 0.059003524
-0.29028237 -0.11598474 0.058963779
-0.29046911 -0.11590935 0.058911357
-0.29065281 -0.11583599 0.058854342
-0.2908206 -0.11575513 0.058896512
-0.29100344 -0.11567571 0.058883302
-0.29118362 -0.11560408 0.058825139
-0.29137793 -0.11553346 0.05871737
-0.2915591 -0.11544698 0.058757201
-0.29174989 -0.11536131 0.058762409
-0.29192373 -0.11528234 0.058773443
-0.29211286 -0.11520029 0.058759056
-0.29228699 -0.11512763 0.058726281
-0.29245538 -0.11505328 0.058722336
-0.29265982 -0.11496866 0.058679089
-0.29284728 -0.11487854 0.058724664
-0.29299954 -0.11479966 0.058800302
-0.29315352 -0.11474206 0.05872608
-0.29334626 -0.11467892 0.058572199
-0.29353449 -0.11458998 0.058607399
-0.29372633 -0.11449995 0.058639124
-0.29389259 -0.11443621 0.058569476
-0.29408818 -0.11435925 0.058500897
-0.29427075 -0.1142747 0.05852342
-0.29445437 -0.11419901 0.05848255
-0.29463562 -0.11411215 0.058524679
-0.29480204 -0.11404274 0.058493074
-0.29499221 -0.11395702 0.058500595
-0.2951678 -0.11388217 0.058478177
-0.29534942 -0.11379566 0.05851686
-0.29553995 -0.1137186 0.058464423
-0.29571834 -0.11364166 0.058447778
-0.29590312 -0.11356154 0.058433414
-0.29604596 -0.11349364 0.058462966
-0.29625615 -0.11340866 0.058404721
-0.29644278 -0.11333299 0.058354616
-0.29661939 -0.11325261 0.058366783
-0.29674393 -0.11318741 0.058433291
-0.29696399 -0.11311806 0.058238976
-0.29711282 -0.1130168 0.058477186
-0.29728177 -0.11295576 0.058381014
-0.29748493 -0.1128846 0.058250163
-0.29767349 -0.11279535 0.058286503
-0.29782766 -0.11272664 0.058287207
-0.29800546 -0.11266065 0.058197938
-0.2982263 -0.11256638 0.058170784
-0.29838651 -0.11249362 0.058180697
-0.29854926 -0.1124289 0.058128357
-0.29872888 -0.11235888 0.05806097
-0.29891461 -0.11225969 0.058173411
-0.29911777 -0.11218209 0.058086358
-0.29931286 -0.11208892 0.058129605
-0.29947087 -0.11202155 0.058109552
-0.29965872 -0.11194262 0.058077887
-0.2998521 -0.11185682 0.058076177
-0.3000285 -0.11177568 0.05809411
-0.30019942 -0.11170207 0.058077477
-0.30037761 -0.11162929 0.058033153
-0.30056489 -0.11154892 0.058013014
-0.30074939 -0.11147267 0.057973292
-0.30091947 -0.11139569 0.057982028
-0.30106714 -0.11133156 0.057971217
-0.30125153 -0.11125586 0.057928037
-0.30142394 -0.11119397 0.057827249
-0.30159554 -0.11112802 0.057756428
-0.30180416 -0.11102901 0.057798475
-0.30200016 -0.11093881 0.057818662
-0.30217963 -0.11085343 0.057856187
-0.3023597 -0.11077303 0.057857979
-0.30253685 -0.11069751 0.057835557
-0.3027136 -0.11061791 0.057841968
-0.30289108 -0.11054698 0.057787269
-0.3030684 -0.11047578 0.057734884
-0.30320656 -0.11042538 0.057659552
-0.30343437 -0.11029867 0.057831816
-0.30360451 -0.11021776 0.057867069
-0.30374774 -0.11012611 0.058056869
-0.30391163 -0.11004478 0.058114029
-0.30408567 -0.10996909 0.058102004
-0.30427948 -0.10988836 0.058064554
-0.30446008 -0.10981028 0.058049049
-0.30462426 -0.10973763 0.058046266
-0.3048048 -0.10966058 0.05802384
-0.30498853 -0.10958568 0.0579772
-0.30516571 -0.10951116 0.057947867
-0.30534679 -0.10941726 0.058038421
-0.30552372 -0.10934877 0.057968736
-0.30570066 -0.10927775 0.057916351
-0.30587852 -0.10919002 0.057974629
-0.30605936 -0.10910741 0.057989091
-0.30623996 -0.109029 0.057975899
-0.30641705 -0.10895468 0.057945415
-0.30659407 -0.10888038 0.057914928
-0.30677429 -0.10880553 0.057878673
-0.30695137 -0.10872985 0.057857405
-0.30713171 -0.1086529 0.057834987
-0.30731192 -0.10857685 0.057806801
-0.3074919 -0.10850244 0.057768241
-0.30766806 -0.10843277 0.05770893
-0.30785111 -0.10835733 0.057668064
-0.30802646 -0.10829174 0.057583399
-0.30820283 -0.10821893 0.05754485
-0.30838609 -0.10814086 0.057521261
-0.3085663 -0.10806277 0.057506908
-0.3087405 -0.10800127 0.05739804
-0.30892074 -0.10792249 0.057388306
-0.30909649 -0.10785148 0.05733937
-0.30927679 -0.10777235 0.057331935
-0.30946276 -0.10768034 0.05739481
-0.30965203 -0.10758755 0.057453047
-0.30982447 -0.10750479 0.057494052
-0.31000564 -0.10743593 0.057413988
-0.31018117 -0.10739046 0.057192147
-0.31035921 -0.1073086 0.057210077
-0.31053761 -0.10723743 0.057154227
-0.31070751 -0.10717631 0.057055745
-0.31088942 -0.10710187 0.057011422
-0.31106281 -0.10702665 0.056998238
-0.3112466 -0.10694511 0.05699655
-0.31143859 -0.10684484 0.05709745
-0.31162626 -0.10675056 0.057170685
-0.31181052 -0.10666848 0.057171304
-0.31202173 -0.10658221 0.057118822
-0.3122012 -0.10651581 0.057027228
-0.31237465 -0.10643209 0.057071686
-0.31256339 -0.10635395 0.057031952
-0.31273824 -0.10628367 0.056980722
-0.3129161 -0.10620427 0.056982517
-0.31309646 -0.10612578 0.056970466
-0.31327638 -0.10604867 0.056950346
-0.31345221 -0.10597525 0.056917567
-0.31362793 -0.10589442 0.0569355
-0.31380883 -0.10582231 0.056878485
-0.31399256 -0.10574232 0.056866433
-0.31417012 -0.10566423 0.056860156
-0.31435117 -0.10558425 0.056856178
-0.3145076 -0.10552572 0.056780793
-0.31469539 -0.10543545 0.056826368
-0.31487992 -0.1053675 0.056730151
-0.31502345 -0.1053203 0.056616761
-0.31519252 -0.1052431 0.056630109
-0.31540653 -0.10512252 0.056802411
-0.31557453 -0.10504224 0.056839969
-0.31573999 -0.10496818 0.056842953
-0.31590778 -0.10490748 0.056747936
-0.31609243 -0.10481997 0.056784295
-0.31626952 -0.10474989 0.05672498
-0.31644788 -0.1046828 0.056641467
-0.31666288 -0.10458112 0.056682348
-0.31684583 -0.10450944 0.056616113
-0.3170307 -0.10442217 0.056650165
-0.31721261 -0.10434707 0.056610443
-0.31737143 -0.10428206 0.056571942
-0.31754571 -0.10420644 0.056558754
-0.31772926 -0.10412246 0.056574371
-0.31791103 -0.10404234 0.05656923
-0.31811497 -0.10395405 0.056552511
-0.31829119 -0.10387485 0.05655776
-0.31845436 -0.10380639 0.056529623
-0.31863397 -0.10373078 0.05650029
-0.31882903 -0.10364998 0.056459375
-0.31899813 -0.10357498 0.056457732
-0.31917176 -0.10351086 0.056368463
-0.31935441 -0.10341981 0.056434806
-0.31950125 -0.10336775 0.056344464
-0.31970599 -0.10326893 0.056396902
-0.31988096 -0.10318352 0.056448273
-0.32006657 -0.10310642 0.056410845
-0.32023633 -0.10303079 0.056411505
-0.32041061 -0.1029606 0.056361437
-0.32059467 -0.10288623 0.056310184
-0.32076991 -0.10280985 0.056299303
-0.32094434 -0.10273061 0.056310326
-0.32113275 -0.10264871 0.056297101
-0.3213135 -0.10257582 0.056245852
-0.32149464 -0.102498 0.056226891
-0.32167608 -0.10241971 0.056210224
-0.32187039 -0.10233638 0.056188915
-0.32204676 -0.10225848 0.056184947
-0.32221636 -0.10218783 0.056152176
-0.32239181 -0.10211559 0.056112479
-0.32257101 -0.10204118 0.056076221
-0.32274887 -0.10196109 0.056082625
-0.32294634 -0.10186126 0.056163907
-0.32312858 -0.10177838 0.056176059
-0.32329622 -0.10171878 0.056074135
-0.32345831 -0.10166011 0.05598259
-0.32366848 -0.1015599 0.05602809
-0.32384077 -0.10148161 0.056039132
-0.3240279 -0.10139892 0.056035135
-0.32421118 -0.10131863 0.05602653
-0.32441142 -0.10123062 0.056019038
-0.32456478 -0.1011599 0.056035887
-0.3247439 -0.10109672 0.055923544
-0.32490528 -0.1010282 0.055901181
-0.32510382 -0.10093247 0.055951327
-0.3252869 -0.10084938 0.055962332
-0.32543495 -0.10080747 0.055799354
-0.32564461 -0.10070612 0.055854082
-0.32581949 -0.10062838 0.055853579
-0.32601067 -0.10054067 0.055871472
-0.32618061 -0.10047021 0.055836398
-0.32636431 -0.10038345 0.055870455
-0.32654569 -0.10030671 0.055843413
-0.32672906 -0.10022724 0.055829052
-0.32692933 -0.10014023 0.055814642
-0.32709521 -0.10006919 0.055795722
-0.32725441 -0.10001063 0.055712253
-0.32745564 -0.099913031 0.055767007
-0.32763472 -0.099839687 0.055723842
-0.32780868 -0.099764049 0.05571181
-0.32797873 -0.099687606 0.055717088
-0.32820228 -0.099557526 0.055925094
-0.32836226 -0.09953133 0.055619147
-0.32854834 -0.099436745 0.055699304
-0.32873881 -0.099357493 0.055661865
-0.32892203 -0.099278919 0.055641733
-0.32910296 -0.099203393 0.055607781
-0.32928866 -0.09912169 0.055601489
-0.32946929 -0.099043764 0.055584826
-0.32963517 -0.098970532 0.055580888
-0.32980567 -0.098905757 0.055505466
-0.33000118 -0.098811708 0.055553317
-0.33019444 -0.098737657 0.055472061
-0.33036444 -0.098662257 0.055470422
-0.33053952 -0.098588824 0.055439942
-0.33073804 -0.098494291 0.055482022
-0.33092675 -0.09841498 0.05545035
-0.33108017 -0.098360509 0.055356532
-0.33130813 -0.098246105 0.055444635
-0.33148679 -0.098171249 0.055412997
-0.33166197 -0.098092705 0.055417109
-0.33183324 -0.098021641 0.055382024
-0.33202294 -0.097936124 0.055389553
-0.33219424 -0.097867772 0.055336025
-0.33236453 -0.097797997 0.055295184
-0.33255339 -0.097713694 0.05529695
-0.33274785 -0.097625382 0.055309065
-0.33292249 -0.09755826 0.055237092
-0.3330991 -0.097486176 0.055192776
-0.33329457 -0.097394362 0.055225641
-0.33347344 -0.097314663 0.055226281
-0.33366939 -0.097230107 0.055208415
-0.33384851 -0.097157761 0.055158336
-0.33403894 -0.097067341 0.055196978
-0.33423918 -0.096973062 0.055232134
-0.33440512 -0.096908785 0.055167098
-0.33454981 -0.096866503 0.055016823
-0.33475697 -0.096759647 0.055116519
-0.33494848 -0.096668586 0.055156317
-0.33514139 -0.096592821 0.055087745
-0.33532482 -0.096506357 0.05512064
-0.33550051 -0.096438259 0.055052117
-0.33569506 -0.096353635 0.055038884
-0.33589125 -0.096264884 0.055048682
-0.33607584 -0.096186891 0.055020485
-0.33626842 -0.096104659 0.05499687
-0.33644226 -0.096031792 0.054966405
-0.33663025 -0.095947877 0.054968163
-0.33682355 -0.095858201 0.054992966
-0.33700567 -0.095787749 0.054920975
-0.33717415 -0.095709637 0.054942388
-0.33736786 -0.095617577 0.05498217
-0.33755869 -0.095542237 0.054917064
-0.33774325 -0.095462561 0.0549004
-0.3379212 -0.095387854 0.054869913
-0.33810809 -0.095307991 0.054847464
-0.33830208 -0.095222771 0.054839991
-0.33848163 -0.095146507 0.054815263
-0.3386808 -0.095055938 0.054828525
-0.33885184 -0.09498667 0.054781921
-0.33905038 -0.094899088 0.054776736
-0.33923945 -0.094819441 0.054746214
-0.33942547 -0.094738767 0.054731846
-0.339625 -0.094650418 0.054728962
-0.33979061 -0.094580688 0.054701965
-0.3399784 -0.094498381 0.05469336
-0.34019345 -0.094400398 0.054708883
-0.34036928 -0.09433274 0.054636899
-0.34053749 -0.09425848 0.054632947
-0.34073457 -0.094171032 0.054631233
-0.34093684 -0.09408246 0.054621425
-0.34110987 -0.094009615 0.054593258
-0.34130505 -0.093922332 0.054596156
-0.34149095 -0.093840532 0.054589853
-0.34167778 -0.093763918 0.054545507
-0.34185559 -0.093688428 0.054520786
-0.34204569 -0.093604587 0.05451563
-0.34224448 -0.093518078 0.054502375
-0.34243399 -0.093435019 0.054493751
-0.34263113 -0.093346357 0.054500103
-0.34280443 -0.093273714 0.054469638
-0.34299606 -0.093190737 0.054454092
-0.34318626 -0.093109228 0.054432794
-0.34338295 -0.093023315 0.054421853
-0.34356815 -0.092943013 0.054407485
-0.34376389 -0.092858203 0.054391932
-0.34394783 -0.092781171 0.054359123
-0.34414032 -0.092699669 0.054330904
-0.34431425 -0.092623025 0.054325785
-0.34450191 -0.092550114 0.054253772
-0.3447215 -0.092444345 0.05430847
-0.34490991 -0.09236329 0.05428949
-0.34508637 -0.092288233 0.05426592
-0.34528157 -0.092204511 0.054244608
-0.24675433 -0.13482547 0.062560499
-0.24694024 -0.13473518 0.062611841
-0.24715245 -0.13464203 0.062603161
-0.24738528 -0.13454938 0.062528692
-0.24757941 -0.13445882 0.062556952
-0.24782705 -0.13436569 0.062440932
-0.24798992 -0.13427532 0.062562674
-0.24818663 -0.13418481 0.062582858
-0.2484324 -0.13409065 0.062479526
-0.24864982 -0.13399941 0.062441997
-0.24886444 -0.13390841 0.062411398
-0.24910523 -0.13381645 0.06230808
-0.24931127 -0.13372451 0.062309787
-0.24948548 -0.13363537 0.062388837
-0.24972945 -0.13354217 0.062284365
-0.24989682 -0.13345639 0.062361129
-0.25010562 -0.13337696 0.062269427
-0.25033048 -0.13327089 0.062310293
-0.25056818 -0.13317844 0.062219657
-0.25077116 -0.13308871 0.062215619
-0.25096837 -0.13299766 0.062238097
-0.25118276 -0.13290778 0.06220058
-0.2513696 -0.13281709 0.062251925
-0.25162086 -0.13272658 0.062107071
-0.25180042 -0.13263775 0.062167659
-0.25201425 -0.1325483 0.062128991
-0.25221524 -0.13245758 0.062137626
-0.25242898 -0.13236833 0.062097803
-0.25263786 -0.13227767 0.062082205
-0.25284639 -0.13218871 0.062056236
-0.25303441 -0.13210325 0.062068369
-0.25324911 -0.13201118 0.062044691
-0.25346825 -0.13191919 0.062007159
-0.25367588 -0.13183062 0.061981186
-0.25387928 -0.13174053 0.061978288
-0.25409362 -0.13165051 0.061941929
-0.25427479 -0.13156386 0.061982907
-0.25446033 -0.13148052 0.06198813
-0.25464854 -0.13139889 0.061973747
-0.25550133 -0.13102756 0.061918236
-0.25568298 -0.13094459 0.061932698
-0.25593698 -0.13084933 0.061812043
-0.25616196 -0.13076389 0.061712231
-0.2569128 -0.13042381 0.06175271
-0.25715569 -0.13032584 0.061683983
-0.25736579 -0.13023226 0.061684527
-0.25756094 -0.13014348 0.061697789
-0.25777641 -0.13006057 0.06160954
-0.2579625 -0.12996818 0.061674714
-0.2581096 -0.12989175 0.061749235
-0.25839919 -0.12979457 0.061533935
-0.25858426 -0.12970753 0.061565686
-0.25877345 -0.12963122 0.061512098
-0.25894296 -0.12954536 0.061583094
-0.25918323 -0.12944683 0.061525889
-0.25938064 -0.12935704 0.061539154
-0.25958461 -0.12926942 0.061517805
-0.25976294 -0.1291859 0.061546121
-0.26000938 -0.12909721 0.06140358
-0.26017806 -0.12901509 0.061451521
-0.26038963 -0.12892289 0.061438218
-0.26059598 -0.12884134 0.061368436
-0.26078844 -0.12876815 0.061283711
-0.26094431 -0.12868173 0.061399706
-0.26115412 -0.12858608 0.061415248
-0.26139858 -0.12849115 0.061321147
-0.26159835 -0.1284042 0.061307877
-0.26178297 -0.12831804 0.061335012
-0.26197568 -0.12823814 0.061295256
-0.26216722 -0.12815639 0.061271638
-0.26239088 -0.12806052 0.061246775
-0.26259109 -0.12797405 0.061228897
-0.26277551 -0.1278863 0.061267566
-0.26299855 -0.12780394 0.061152771
-0.26320291 -0.12771817 0.061117589
-0.26336241 -0.12763013 0.061233573
-0.26358497 -0.12754627 0.061130308
-0.26376384 -0.12746015 0.061174754
-0.26396191 -0.12737988 0.06112114
-0.26417848 -0.12729006 0.061076697
-0.26435769 -0.12720411 0.061118841
-0.26454893 -0.12712146 0.061102137
-0.26475939 -0.12703519 0.061051957
-0.26495853 -0.12694971 0.061030619
-0.26514706 -0.12686506 0.061035834
-0.26534849 -0.12677805 0.061017953
-0.26553684 -0.1266955 0.061009336
-0.26573133 -0.12661581 0.060962658
-0.26591259 -0.12653251 0.060980581
-0.26611286 -0.12644772 0.060951166
-0.26632255 -0.12636027 0.060911361
-0.26651162 -0.12628028 0.060883142
-0.26672393 -0.12618318 0.060900971
-0.26692143 -0.12610048 0.060865797
-0.26709399 -0.12601835 0.060902193
-0.2673012 -0.1259352 0.060840487
-0.26748148 -0.12585641 0.060830742
-0.26768571 -0.12577309 0.060779415
-0.26787695 -0.12568992 0.060766175
-0.26807281 -0.12560336 0.060762148
-0.26828596 -0.12550911 0.060758069
-0.26847416 -0.12542781 0.060741384
-0.26865977 -0.1253397 0.060778894
-0.26886481 -0.12525719 0.06071949
-0.26904991 -0.1251756 0.060714342
-0.26925129 -0.12509269 0.060668789
-0.26941973 -0.12501033 0.060719032
-0.26962355 -0.12493905 0.060586996
-0.26982194 -0.1248383 0.060671747
-0.26997438 -0.12475951 0.060746245
-0.27021918 -0.12467239 0.060597949
-0.27040294 -0.12458883 0.060610101
-0.27059981 -0.1245103 0.060548414
-0.2707825 -0.12442891 0.060549036
-0.27093399 -0.12435681 0.060580887
-0.27117354 -0.12426507 0.060479872
-0.27137196 -0.12417364 0.060501214
-0.27155825 -0.12409336 0.060483374
-0.27172482 -0.12401558 0.060508251
-0.27188164 -0.12394722 0.060498577
-0.27210203 -0.12385179 0.060480639
-0.27232647 -0.12375981 0.06042695
-0.27251825 -0.12367658 0.060412556
-0.27271309 -0.1235942 0.060383167
-0.27290219 -0.12351047 0.060380302
-0.27308828 -0.12342843 0.06037515
-0.27327767 -0.12334491 0.060369998
-0.2734752 -0.12326608 0.060308307
-0.27365935 -0.12318133 0.060327377
-0.27382812 -0.1231219 0.060220812
-0.27403709 -0.1230195 0.060284771
-0.2742461 -0.12293948 0.06019653
-0.27442986 -0.1228549 0.0602156
-0.2746011 -0.12277673 0.060228944
-0.27476275 -0.12270081 0.060256146
-0.27498639 -0.12261053 0.060193229
-0.27514628 -0.12254183 0.06017663
-0.27535325 -0.1224544 0.060144894
-0.27553383 -0.12237429 0.060143217
-0.27573317 -0.12229245 0.060096517
-0.27591375 -0.12220725 0.06012943
-0.2760987 -0.12212351 0.060139261
-0.27628475 -0.12205079 0.060070697
-0.2764917 -0.12196404 0.060034357
-0.27665731 -0.12189262 0.06001889
-0.27685905 -0.12179887 0.06004598
-0.27705902 -0.12171268 0.06002694
-0.27723327 -0.12163641 0.060018361
-0.27742669 -0.12155348 0.059997045
-0.27762043 -0.12146802 0.059991878
-0.27781647 -0.1213863 0.059954412
-0.27799022 -0.12131295 0.059927385
-0.2781702 -0.1212365 0.059902649
-0.27836907 -0.12115911 0.059827134
-0.27854452 -0.12107535 0.059865817
-0.2787275 -0.12099179 0.059880272
-0.27892238 -0.12090448 0.059884325
-0.2791186 -0.12082657 0.059820335
-0.27929592 -0.12075249 0.059787542
-0.27947468 -0.1206703 0.059805468
-0.27964932 -0.12058928 0.059828021
-0.27984205 -0.12051037 0.059781343
-0.28003836 -0.12042718 0.059753098
-0.28024232 -0.12033547 0.059759416
-0.2804164 -0.12025742 0.059763525
-0.28058702 -0.12018088 0.059767641
-0.28078726 -0.12009373 0.059754383
-0.28097895 -0.12002446 0.059645444
-0.28114587 -0.11994634 0.05967148
-0.28132811 -0.11986956 0.059642121
-0.28152487 -0.1197843 0.059626557
-0.28171551 -0.11970565 0.059584498
-0.28188628 -0.11961667 0.059672784
-0.28206769 -0.11954637 0.059601925
-0.28226253 -0.11946703 0.059551779
-0.28244758 -0.1193858 0.059544321
-0.28262144 -0.11930511 0.059566878
-0.28280067 -0.11922747 0.059552521
-0.28297016 -0.1191477 0.059582006
-0.28315905 -0.11907238 0.059522651
-0.28335583 -0.11899151 0.059477113
-0.28353232 -0.11891609 0.059455849
-0.28371856 -0.11883263 0.059459917
-0.28391144 -0.11875689 0.059391335
-0.2841005 -0.11867182 0.059397697
-0.2842727 -0.11859407 0.059405267
-0.28446552 -0.11852243 0.059309009
-0.28465483 -0.11843777 0.059311923
-0.28483742 -0.11835607 0.059314847
-0.28501713 -0.11827245 0.059339695
-0.28518695 -0.11820085 0.059312679
-0.28536597 -0.1181206 0.059316777
-0.28557146 -0.11803229 0.059295423
-0.28575498 -0.11794375 0.059342161
-0.28592536 -0.11787292 0.059308227
-0.2861107 -0.11779359 0.059286945
-0.28630552 -0.11771359 0.059241407
-0.28649047 -0.11763424 0.059221268
-0.28666237 -0.11756105 0.059198864
-0.28684992 -0.11747987 0.059183322
-0.28704229 -0.11740267 0.059126273
-0.28722093 -0.11733121 0.059071556
-0.28740329 -0.11724184 0.059127524
-0.28759074 -0.11716528 0.059080858
-0.28776997 -0.11708611 0.059076883
-0.28794914 -0.11701137 0.059042923
-0.28813919 -0.11693316 0.058999717
-0.288326 -0.11684774 0.059015311
-0.28849807 -0.11676683 0.059044793
-0.2886751 -0.11669508 0.058997005
-0.28884959 -0.11661649 0.05900342
-0.28903931 -0.11652927 0.059022464
-0.28922018 -0.11645699 0.058966592
-0.28940755 -0.11637709 0.058942992
-0.28958797 -0.11629993 0.05892171
-0.28975362 -0.11621731 0.058982335
-0.28993693 -0.11614327 0.058931075
-0.29011217 -0.11606079 0.058961693
-0.29030648 -0.11597372 0.058965743
-0.29046476 -0.11589793 0.059002176
-0.29065639 -0.11583903 0.058822911
-0.29086587 -0.11575405 0.058766954
-0.29102784 -0.11567219 0.058833357
-0.29120368 -0.11560132 0.058783263
-0.29140708 -0.11551496 0.058755003
-0.291592 -0.11542241 0.058824807
-0.29178444 -0.11534483 0.058770049
-0.29192889 -0.11529128 0.058697
-0.2921195 -0.11520604 0.058699898
-0.29230705 -0.11511673 0.058739707
-0.29250741 -0.1150329 0.058703378
-0.29267883 -0.11494517 0.058781289
-0.29286256 -0.11487468 0.058704656
-0.2930128 -0.11480585 0.058718055
-0.2932103 -0.11474366 0.058543377
-0.29340285 -0.11464908 0.058603927
-0.29356253 -0.11456231 0.058710694
-0.29373944 -0.1144823 0.0587194
-0.29389548 -0.11440242 0.058790438
-0.2940712 -0.11434092 0.058676928
-0.29426977 -0.11425552 0.058656752
-0.29442832 -0.11417962 0.058693193
-0.2946032 -0.11411782 0.058584299
-0.29478624 -0.11402711 0.058647178
-0.29495493 -0.11395466 0.058629394
-0.2951405 -0.11388353 0.058551606
-0.29532972 -0.11382773 0.058358513
-0.29551071 -0.11372504 0.058509018
-0.29567733 -0.1136491 0.058521226
-0.29589328 -0.11357633 0.05836264
-0.29608083 -0.11349466 0.058350563
-0.29624209 -0.11342466 0.058338564
-0.29646578 -0.11332742 0.058322918
-0.2966423 -0.11324774 0.058330476
-0.29681978 -0.11317021 0.058320738
-0.29699671 -0.11309154 0.058320232
-0.2971777 -0.1130133 0.058304716
-0.29734918 -0.11293045 0.058349185
-0.29753205 -0.11285729 0.058293302
-0.29769704 -0.11278768 0.058267459
-0.29789117 -0.11270425 0.058247298
-0.29807162 -0.11263623 0.058163758
-0.29824629 -0.11255129 0.058212824
-0.29842553 -0.11248025 0.058153503
-0.29860187 -0.11240034 0.058163371
-0.2987828 -0.11232329 0.058139782
-0.29895869 -0.11224171 0.058162335
-0.29912713 -0.11217292 0.058120329
-0.29931235 -0.11208499 0.058157846
-0.29949322 -0.11202239 0.058036253
-0.2996636 -0.11193325 0.058126841
-0.29984057 -0.11185559 0.058119416
-0.30002579 -0.11178257 0.058055464
-0.30020258 -0.11170465 0.058050334
-0.3003819 -0.11162154 0.05807288
-0.30056077 -0.1115539 0.057991643
-0.30073106 -0.11147954 0.057981927
-0.3009139 -0.11139622 0.057995234
-0.30109292 -0.11131088 0.05803391
-0.30126965 -0.11123264 0.05803109
-0.30143243 -0.11115418 0.058072124
-0.30162334 -0.11107726 0.058017381
-0.30180201 -0.11101344 0.057910785
-0.30194956 -0.11095107 0.057888448
-0.30215883 -0.11085787 0.057889
-0.30233544 -0.11077951 0.057887331
-0.30251235 -0.11070392 0.057866059
-0.30266282 -0.11063737 0.057863317
-0.30281022 -0.11053266 0.058129229
-0.30298305 -0.11044379 0.058210596
-0.30315414 -0.11037722 0.058145531
-0.30333152 -0.11030565 0.058095433
-0.30350903 -0.11023828 0.058016509
-0.30368996 -0.11017819 0.057877634
-0.30386358 -0.11010626 0.057841383
-0.30404058 -0.11004165 0.057745166
-0.30421746 -0.10998066 0.057624742
-0.30439398 -0.10990829 0.057582725
-0.30457368 -0.10983466 0.057539538
-0.30474997 -0.10976936 0.057450242
-0.30492601 -0.10970738 0.05733905
-0.3051053 -0.1096353 0.057286639
-0.30528101 -0.10957058 0.057195045
-0.30545667 -0.10950335 0.057120744
-0.30563608 -0.10942189 0.057131752
-0.30582073 -0.10930604 0.057360664
-0.30599692 -0.10923077 0.057339396
-0.30616701 -0.10915227 0.057358503
-0.30635121 -0.10905597 0.057455972
-0.30652475 -0.10897644 0.057471611
-0.30670509 -0.10892443 0.057279684
-0.30687678 -0.10883147 0.057392187
-0.3070538 -0.10874921 0.057415877
-0.30722675 -0.10867607 0.057390012
-0.30741358 -0.10859029 0.057407916
-0.30759963 -0.10851097 0.05738432
-0.30776703 -0.10843315 0.057406887
-0.30794522 -0.10836563 0.05732682
-0.30812854 -0.1082838 0.057328589
-0.3083207 -0.10818531 0.057416815
-0.30848828 -0.10812573 0.057314862
-0.30866292 -0.10805947 0.057237107
-0.30883199 -0.10798989 0.057198569
-0.30901548 -0.1079073 0.057204947
-0.3092075 -0.1078272 0.057168651
-0.30938768 -0.10774659 0.057171579
-0.30955759 -0.10767257 0.057160717
-0.30972293 -0.10759246 0.0572052
-0.30988917 -0.10752212 0.057180502
-0.31006461 -0.10744988 0.057140786
-0.31024396 -0.10737337 0.05711836
-0.31042498 -0.10729001 0.057137437
-0.31060684 -0.10720374 0.057173807
-0.31079221 -0.10712676 0.057136372
-0.31097728 -0.10703973 0.057168115
-0.31116998 -0.10695694 0.057147957
-0.31133139 -0.10689367 0.057089832
-0.31153584 -0.10679973 0.057109993
-0.3117128 -0.10672189 0.057103716
-0.31186721 -0.10666258 0.057039853
-0.31204689 -0.10658525 0.057022035
-0.31224084 -0.10649835 0.057026081
-0.3124314 -0.10640447 0.057087794
-0.31260455 -0.10633903 0.057008885
-0.31276104 -0.10627268 0.056986522
-0.31293467 -0.10618836 0.057034452
-0.31311247 -0.10611695 0.05698204
-0.31331015 -0.10604416 0.056878854
-0.3134912 -0.105963 0.05688294
-0.31367141 -0.10587661 0.056925081
-0.31384563 -0.10580695 0.056871533
-0.31402269 -0.1057296 0.056861799
-0.31417945 -0.10566244 0.056844044
-0.31436533 -0.10558355 0.056818143
-0.31453079 -0.10551507 0.056783065
-0.31471086 -0.10543706 0.056768712
-0.31488881 -0.10536439 0.056724377
-0.31508765 -0.10526667 0.056787215
-0.31526428 -0.10518406 0.056814376
-0.31544542 -0.10510387 0.056811545
-0.31562623 -0.10503096 0.056760278
-0.31580153 -0.10495828 0.056724031
-0.31594387 -0.10489398 0.056730539
-0.31613052 -0.10481355 0.056712698
-0.3163141 -0.10473415 0.056697175
-0.31649232 -0.10466085 0.056656305
-0.31664523 -0.10459676 0.056629337
-0.31682447 -0.1045327 0.056522742
-0.31700468 -0.10444342 0.056584485
-0.31719792 -0.10436022 0.056565475
-0.31737947 -0.10427426 0.056600686
-0.31756723 -0.10418636 0.05663012
-0.31773174 -0.10410391 0.056693058
