# .PCD v0.7 - Point Cloud Data file format
VERSION 0.7
FIELDS x y z
SIZE 4 4 4
TYPE F F F
COUNT 1 1 1
WIDTH 1107
HEIGHT 1
VIEWPOINT 0 0 0 1 0 0 0
POINTS 1107
DATA ascii
-0.032677755 -0.3197102 0.057347402
-0.03287708 -0.31984138 0.057299897
-0.033027932 -0.3199296 0.057342868
-0.033242237 -0.3200601 0.057366945
-0.033440914 -0.32019088 0.057319447
-0.033642873 -0.320326 0.057255734
-0.033835623 -0.32044968 0.057232544
-0.034029424 -0.32057482 0.057203583
-0.03420493 -0.32067683 0.057257954
-0.034426283 -0.32083511 0.057115514
-0.034607936 -0.32094517 0.057139799
-0.034799106 -0.32106754 0.057118937
-0.034995466 -0.32119673 0.057072598
-0.03516636 -0.32129779 0.057113133
-0.035350528 -0.32140684 0.0571559
-0.035551831 -0.32154286 0.057082951
-0.035744179 -0.3216674 0.057051681
-0.035954632 -0.32181579 0.056931272
-0.036125574 -0.32191268 0.057001859
-0.036312215 -0.32202783 0.057012238
-0.03650254 -0.32215029 0.056986753
-0.036690556 -0.32226989 0.056971692
-0.036889941 -0.32240468 0.05689875
-0.037072916 -0.32251787 0.056906838
-0.037263539 -0.32264134 0.056875579
-0.037443254 -0.32275036 0.056898713
-0.037642516 -0.32288575 0.056821145
-0.037829328 -0.32300457 0.056806095
-0.038033783 -0.32314742 0.056698442
-0.0492763 -0.33361891 0.032141201
-0.049438626 -0.33373898 0.03200838
-0.049598478 -0.33385536 0.031890601
-0.049763963 -0.33397579 0.031769313
-0.049927026 -0.33409256 0.031663086
-0.050083227 -0.33420116 0.031584635
-0.050241806 -0.33431402 0.031486519
-0.050402772 -0.33442542 0.031409197
-0.050557666 -0.33452982 0.031355035
-0.050713401 -0.33463877 0.031271964
-0.050867386 -0.33474207 0.031221282
-0.05102101 -0.33484501 0.031171754
-0.051173702 -0.33494654 0.031128014
-0.051327363 -0.33504999 0.031075008
-0.051478647 -0.3351495 0.031039372
-0.051628191 -0.33524922 0.03099449
-0.051780999 -0.33534873 0.030965777
-0.051932793 -0.3354466 0.030944005
-0.05207945 -0.33554178 0.030918797
-0.05222436 -0.33563715 0.030884355
-0.052376833 -0.33573675 0.030853329
-0.052527789 -0.33583379 0.030833878
-0.052672535 -0.33592612 0.030820247
-0.052823104 -0.33602276 0.030801948
-0.052973412 -0.33611906 0.030784816
-0.053117685 -0.33621097 0.03077234
-0.053266354 -0.33630785 0.030743653
-0.053416669 -0.33640465 0.030723043
-0.053563163 -0.33649778 0.030711714
-0.053708725 -0.33659273 0.030683048
-0.053853638 -0.33668306 0.030684436
-0.054000422 -0.33677718 0.030667324
-0.054151222 -0.33687574 0.030636311
-0.054292634 -0.33696681 0.030616917
-0.054440662 -0.33706024 0.0306102
-0.054589432 -0.33715525 0.03059539
-0.054735858 -0.33724946 0.030575957
-0.054881148 -0.33734149 0.030566951
-0.055024795 -0.33743411 0.030546382
-0.055173002 -0.33752865 0.030532729
-0.055321317 -0.33762354 0.03051676
-0.05546217 -0.33771473 0.030493904
-0.055610046 -0.33780903 0.030480253
-0.055754945 -0.33790115 0.030468926
-0.055902086 -0.33799419 0.03046106
-0.056044444 -0.3380852 0.03044628
-0.056192216 -0.33817992 0.030429162
-0.056337126 -0.33827269 0.030413216
-0.056485578 -0.33836931 0.030385682
-0.056628685 -0.33846271 0.030357031
-0.056772571 -0.33855373 0.030349188
-0.056918453 -0.33864498 0.030348264
-0.057066053 -0.33874041 0.030325364
-0.05720944 -0.33884457 0.030221563
-0.057354867 -0.33892596 0.030288847
-0.057500135 -0.33901638 0.030291393
-0.057643935 -0.33910811 0.030277768
-0.057787303 -0.33919895 0.030268773
-0.057933569 -0.33929223 0.030255124
-0.05807922 -0.33938417 0.03024842
-0.058224421 -0.33948022 0.030210506
-0.058365926 -0.33957213 0.030185331
-0.058509711 -0.33966503 0.03016362
-0.058653712 -0.33975333 0.030175423
-0.05879971 -0.33984712 0.030157154
-0.058941342 -0.33994025 0.030123893
-0.059088919 -0.34003323 0.030118329
-0.059229195 -0.34012312 0.030102411
-0.05937596 -0.3402141 0.030107263
-0.059518632 -0.34030533 0.030092482
-0.059663117 -0.34040204 0.030046487
-0.059806742 -0.34049043 0.030055979
-0.059951153 -0.34058127 0.030051596
-0.060093671 -0.34067288 0.03003335
-0.060236283 -0.34076503 0.030011635
-0.06037892 -0.34085751 0.029987616
-0.060521267 -0.34094933 0.029967055
-0.060663573 -0.34104127 0.029945353
-0.060807545 -0.34113199 0.029939812
-0.060951166 -0.34122169 0.029940054
-0.06109599 -0.34131569 0.029914869
-0.061236583 -0.34140268 0.029920913
-0.061380681 -0.34149462 0.029907284
-0.06152096 -0.34158871 0.029861307
-0.06166121 -0.34167498 0.029870817
-0.061807297 -0.34176704 0.029865274
-0.061948754 -0.3418583 0.02984472
-0.062089689 -0.34194776 0.029834578
-0.062233608 -0.34204072 0.029812865
-0.062374886 -0.34213221 0.029789997
-0.062518433 -0.34222427 0.029772906
-0.062657222 -0.34231535 0.029741965
-0.062802315 -0.34240496 0.029749144
-0.062940262 -0.34249291 0.029736705
-0.063083373 -0.34258422 0.029723084
-0.063226596 -0.34267643 0.02970368
-0.063367501 -0.34276879 0.029672727
-0.063508116 -0.34286016 0.029647557
-0.063650548 -0.34294945 0.029645503
-0.063790239 -0.3430365 0.029646933
-0.063930713 -0.34312829 0.029618297
-0.064070232 -0.34321493 0.029622033
-0.064213142 -0.34330839 0.029592231
-0.064353324 -0.3434 0.029563595
-0.064497791 -0.34348941 0.029569615
-0.064637758 -0.34358054 0.029543297
-0.06477952 -0.3436681 0.029550496
-0.064919047 -0.34375685 0.029539201
-0.065058872 -0.34384871 0.029507102
-0.06520059 -0.34393689 0.029509671
-0.065339871 -0.34402516 0.029500704
-0.065476827 -0.3441149 0.029470928
-0.065618813 -0.34420761 0.029442284
-0.06575796 -0.34429663 0.029427534
-0.065899812 -0.34438992 0.029394262
-0.066038713 -0.34447762 0.029387597
-0.066182524 -0.34456548 0.02940172
-0.066319019 -0.34465608 0.029363859
-0.066460356 -0.34474564 0.029354867
-0.066601634 -0.34483534 0.029344724
-0.066740364 -0.3449257 0.029318415
-0.066881455 -0.34501281 0.029325617
-0.067025095 -0.34510106 0.02933627
-0.067161053 -0.34518954 0.029311128
-0.067302063 -0.34528375 0.02926746
-0.067440405 -0.34537354 0.029243458
-0.067578577 -0.3454681 0.029184777
-0.06771405 -0.34556067 0.029128429
-0.067857474 -0.34564456 0.029169142
-0.067998283 -0.34573022 0.029185595
-0.068138987 -0.34581774 0.029188171
-0.06827689 -0.34590745 0.029163018
-0.068417467 -0.34599587 0.029158659
-0.068555199 -0.34608594 0.029130042
-0.068695419 -0.34617722 0.029103722
-0.068833292 -0.34626383 0.029100534
-0.068973668 -0.34635213 0.029096179
-0.069111474 -0.34643868 0.02909299
-0.069251269 -0.34653115 0.029056262
-0.069385253 -0.34662503 0.02898374
-0.069528893 -0.34670791 0.02903254
-0.069669105 -0.34679565 0.029031653
-0.06980627 -0.34688488 0.029006515
-0.069946378 -0.3469727 0.029004462
-0.070083588 -0.3470608 0.028987411
-0.070220411 -0.34715062 0.028956484
-0.070360579 -0.3472375 0.028961377
-0.070500284 -0.34732652 0.028948929
-0.070633821 -0.34741706 0.028898373
-0.070773229 -0.3475067 0.028880155
-0.070910431 -0.34759304 0.028875818
-0.071049109 -0.34768516 0.028836783
-0.071186326 -0.34777099 0.028835913
-0.071326189 -0.34785801 0.028838504
-0.071464792 -0.34794945 0.028804097
-0.071603537 -0.34803995 0.028776627
-0.071744412 -0.34812322 0.028810414
-0.071883932 -0.34821102 0.028806062
-0.072019786 -0.34830055 0.028772837
-0.072159581 -0.34838718 0.028777733
-0.072292387 -0.34847611 0.028735265
-0.072433665 -0.3485671 0.028715875
-0.072561473 -0.34866038 0.028620265
-0.072704062 -0.34874731 0.028635554
-0.072845437 -0.34882942 0.028679747
-0.072980955 -0.34891826 0.028649982
-0.073122665 -0.34900743 0.028645616
-0.073259011 -0.349094 0.028635502
-0.073399 -0.34917966 0.028648494
-0.073533192 -0.34927073 0.028596772
-0.073669367 -0.3493574 0.028585508
-0.073812261 -0.3494437 0.028606568
-0.073951803 -0.34953022 0.028611463
-0.07408873 -0.34962171 0.028568972
-0.074224204 -0.34970939 0.028547313
-0.074360885 -0.34980091 0.028503671
-0.074493498 -0.34988728 0.028478552
-0.074640274 -0.34997278 0.028522711
-0.074770801 -0.35006255 0.028464079
-0.07491146 -0.35014683 0.02848978
-0.075046659 -0.35023433 0.02846811
-0.075188205 -0.35032842 0.028427906
-0.075326286 -0.35041121 0.028452471
-0.075466953 -0.35049567 0.028477011
-0.075605713 -0.35058296 0.028472666
-0.07574448 -0.35067025 0.028468318
-0.075874552 -0.35075942 0.028412003
-0.07600899 -0.35084742 0.028383404
-0.07615716 -0.35093185 0.028441425
-0.076295607 -0.35101944 0.028433613
-0.076427698 -0.35110548 0.028408498
-0.076580875 -0.35118413 0.028530072
-0.076722577 -0.3512679 0.028563865
-0.076863721 -0.35135245 0.028589554
-0.077004127 -0.35143349 0.028637219
-0.077150621 -0.35151669 0.028696412
-0.077298567 -0.35159853 0.028771779
-0.077443302 -0.35167983 0.028836761
-0.077591486 -0.351762 0.028910965
-0.077737994 -0.35184199 0.028993275
-0.077882946 -0.35191968 0.02908485
-0.078036018 -0.35200197 0.029179834
-0.078182928 -0.35208252 0.029259823
-0.078335248 -0.35215816 0.029398751
-0.07848727 -0.3522346 0.029530743
-0.085035846 -0.35313132 0.052282799
-0.08519759 -0.35323432 0.052269053
-0.085361086 -0.35333985 0.052244894
-0.085528135 -0.35344353 0.052249622
-0.085679814 -0.35353112 0.052300684
-0.085845679 -0.35364902 0.052199058
-0.086000659 -0.35374516 0.052203856
-0.086150117 -0.35384727 0.052141629
-0.086316839 -0.3539446 0.052190289
-0.086474195 -0.35404953 0.052143052
-0.086625136 -0.3541508 0.052093539
-0.086804412 -0.35425889 0.052121304
-0.086966425 -0.35436171 0.052109871
-0.087136768 -0.35446423 0.052137695
-0.087301075 -0.35456929 0.052120473
-0.087485135 -0.3546851 0.052114688
-0.087644346 -0.35478908 0.052082457
-0.087792046 -0.35488522 0.05205493
-0.087953351 -0.35498533 0.052059691
-0.088111579 -0.35509259 0.051999733
-0.088266023 -0.35519814 0.05193517
-0.088417441 -0.35529581 0.051913403
-0.088589348 -0.35540399 0.051907688
-0.088749975 -0.3555131 0.05184539
-0.088928647 -0.35562196 0.051865079
-0.089087568 -0.35571715 0.051894121
-0.089241765 -0.35581964 0.051850371
-0.089407817 -0.35592124 0.051865503
-0.089583158 -0.35602576 0.051901393
-0.089748748 -0.35613599 0.051852942
-0.089917123 -0.3562454 0.051822975
-0.090083353 -0.35634989 0.051818457
-0.090245359 -0.35645011 0.05182552
-0.090402931 -0.35654885 0.05182337
-0.090564057 -0.35665745 0.05176685
-0.09072835 -0.3567625 0.051749632
-0.090884216 -0.35686702 0.051698927
-0.091050878 -0.35696882 0.05171521
-0.09121839 -0.35707316 0.05171762
-0.091386907 -0.35717729 0.051725805
-0.091549605 -0.3572776 0.051735178
-0.091710165 -0.35738358 0.051694855
-0.091879614 -0.35749528 0.051653314
-0.092024945 -0.35760176 0.051541414
-0.092214346 -0.35771182 0.05160033
-0.092369415 -0.35781127 0.051582005
-0.092513941 -0.35791275 0.051502474
-0.092686452 -0.35801384 0.051549941
-0.092868209 -0.35811588 0.051632032
-0.093018956 -0.35822105 0.051553614
-0.093176723 -0.35832494 0.051515624
-0.093344323 -0.35842723 0.051533062
-0.093510397 -0.35853696 0.051490393
-0.093691759 -0.35864669 0.051515833
-0.093843535 -0.35874441 0.051495213
-0.093996882 -0.35884422 0.051466499
-0.094165228 -0.35894662 0.051486246
-0.094335556 -0.35905579 0.051466666
-0.094492286 -0.35916212 0.051406715
-0.094653882 -0.35926551 0.0513895
-0.094807886 -0.35936981 0.051331874
-0.09497647 -0.35947463 0.051335439
-0.095155619 -0.35958281 0.051362045
-0.09530665 -0.35968962 0.051273227
-0.095439233 -0.3597849 0.051184531
-0.095609859 -0.35988516 0.051229686
-0.095783025 -0.3599875 0.051271368
-0.095974803 -0.36009043 0.051391542
-0.096130691 -0.36019674 0.051328134
-0.096259363 -0.36030304 0.05114349
-0.096445613 -0.36040676 0.051233649
-0.096612096 -0.36051852 0.051178258
-0.09678027 -0.36062163 0.051192217
-0.096944518 -0.36071661 0.051246669
-0.097116239 -0.36081964 0.051276799
-0.097271167 -0.36093217 0.051164828
-0.097441055 -0.36103746 0.051170692
-0.097600468 -0.36114338 0.051125754
-0.097739607 -0.36123577 0.051086716
-0.097908325 -0.36134329 0.051071774
-0.09806186 -0.36145347 0.050970223
-0.098237798 -0.36155865 0.051003791
-0.098406754 -0.36166015 0.051032785
-0.098575048 -0.36176574 0.05102941
-0.09872514 -0.36186987 0.050955623
-0.098906204 -0.36198121 0.050968349
-0.099065468 -0.36208314 0.050951153
-0.099222451 -0.36218312 0.050937444
-0.099386692 -0.36229092 0.050900567
-0.099531695 -0.36238715 0.050860338
-0.0996949 -0.3624891 0.050860461
-0.099877231 -0.36259684 0.050904393
-0.10004854 -0.3627066 0.050884813
-0.10020104 -0.36280867 0.050836444
-0.10035495 -0.3629069 0.050821595
-0.10053626 -0.36301303 0.050872475
-0.10069773 -0.36311713 0.05084949
-0.10086618 -0.36322513 0.050829921
-0.10103051 -0.36332744 0.05083235
-0.10118428 -0.36343142 0.050775886
-0.10134809 -0.36354122 0.050722819
-0.10150276 -0.36364335 0.050683696
-0.10166452 -0.36374569 0.050674576
-0.10183622 -0.36384839 0.050707012
-0.10198106 -0.36395022 0.050626323
-0.10216936 -0.3640573 0.050701439
-0.10233348 -0.36416534 0.050662249
-0.10248971 -0.36426762 0.050628886
-0.10265634 -0.36437219 0.050625518
-0.10283011 -0.36448076 0.050625574
-0.10298215 -0.36458462 0.050562181
-0.10315238 -0.36468953 0.050572667
-0.10330617 -0.36479175 0.050528921
-0.1034734 -0.36489651 0.050526701
-0.10364014 -0.36500132 0.050522171
-0.10381119 -0.36510298 0.050559249
-0.10397443 -0.36521113 0.050515432
-0.10412845 -0.36531168 0.0504844
-0.10430405 -0.36542076 0.050489075
-0.10446393 -0.36552694 0.050444126
-0.10463184 -0.36563036 0.050454628
-0.10477273 -0.36573166 0.050360091
-0.10496183 -0.36583859 0.05043982
-0.10510939 -0.36594212 0.050359115
-0.10527881 -0.36605087 0.050338387
-0.10544075 -0.36615396 0.050324641
-0.10561807 -0.3662602 0.050357051
-0.10577381 -0.36636445 0.050307509
-0.10593785 -0.3664695 0.050289128
-0.10610785 -0.36657685 0.050281111
-0.10626209 -0.36668098 0.050225798
-0.10643934 -0.36678585 0.050267454
-0.10660835 -0.3668932 0.050254826
-0.10675007 -0.36699599 0.050153345
-0.1069321 -0.36710322 0.050199594
-0.10708764 -0.36720914 0.050137326
-0.10727957 -0.36731607 0.050229758
-0.10744162 -0.36742282 0.050190587
-0.10760328 -0.36753109 0.050138693
-0.1077606 -0.36763567 0.050093763
-0.10794935 -0.36774418 0.050160781
-0.1080928 -0.36784708 0.050066225
-0.10825478 -0.36795232 0.050037455
-0.10843398 -0.36805826 0.050080251
-0.10860042 -0.36816725 0.050044514
-0.10876356 -0.36826965 0.050041169
-0.10893345 -0.36837611 0.050038934
-0.10909624 -0.36848316 0.050000913
-0.10926428 -0.3685894 0.049991757
-0.10941546 -0.36869177 0.049935307
-0.10959624 -0.36880147 0.049958438
-0.10975233 -0.36890611 0.04990774
-0.10991352 -0.36901149 0.04987435
-0.11008441 -0.36911988 0.049862858
-0.11027117 -0.36923072 0.049904447
-0.11043294 -0.36933631 0.049872212
-0.11059399 -0.36944029 0.049848072
-0.11074482 -0.36954716 0.049758099
-0.11091565 -0.36965129 0.04977667
-0.1110951 -0.36976129 0.04979172
-0.11127155 -0.36986938 0.049806789
-0.11144674 -0.36997885 0.049806837
-0.11160718 -0.37008294 0.049779229
-0.11175949 -0.37018716 0.049714681
-0.11194853 -0.37029764 0.049768969
-0.11211522 -0.37040582 0.049740173
-0.1122579 -0.3705084 0.04964447
-0.1124478 -0.37061924 0.049699917
-0.11259915 -0.37072334 0.049631905
-0.1127643 -0.37082991 0.049607735
-0.11293527 -0.37093899 0.049591616
-0.11311708 -0.37104869 0.049619369
-0.11328068 -0.37115508 0.04958944
-0.11345935 -0.37126574 0.049596399
-0.11361828 -0.37137133 0.049551457
-0.11380069 -0.37148139 0.049579203
-0.11394497 -0.37158287 0.049498521
-0.11412956 -0.37169623 0.049512379
-0.11427946 -0.37179878 0.049449004
-0.11444238 -0.37190527 0.049415603
-0.1146137 -0.37201342 0.049407579
-0.11480282 -0.37212655 0.049443379
-0.11494714 -0.37222803 0.049362697
-0.11514977 -0.37234539 0.049428463
-0.11531892 -0.37245333 0.049412359
-0.11547605 -0.37255746 0.049369752
-0.11567535 -0.37267306 0.049433228
-0.11584109 -0.37278178 0.04939634
-0.11600015 -0.37288779 0.049349092
-0.1161695 -0.37299731 0.049322583
-0.11633296 -0.37310427 0.049288023
-0.11652893 -0.37321958 0.049338803
-0.11668625 -0.37332532 0.049285784
-0.11686429 -0.37343556 0.049292747
-0.11703575 -0.37354577 0.049270853
-0.1172009 -0.3736546 0.049230494
-0.11738375 -0.37376606 0.049250152
-0.11757005 -0.3738797 0.049269781
-0.11771931 -0.37398508 0.049183287
-0.11788637 -0.37409449 0.049147543
-0.11805719 -0.37420347 0.049131434
-0.11824815 -0.37431839 0.049162596
-0.11841966 -0.37442634 0.049156882
-0.11859 -0.37453794 0.049119968
-0.11874807 -0.37464413 0.049066946
-0.11891607 -0.37475395 0.049032345
-0.11909837 -0.37486589 0.04904623
-0.1192766 -0.37497821 0.049039312
-0.11944751 -0.37508756 0.04902089
-0.11962728 -0.37520036 0.049017444
-0.11979041 -0.37530795 0.048977103
-0.11997214 -0.37542132 0.048978262
-0.1201465 -0.37553167 0.048967913
-0.12031446 -0.37564179 0.048931003
-0.12049334 -0.37575337 0.048932191
-0.12064561 -0.37585968 0.048852608
-0.12083289 -0.37597346 0.048875697
-0.1209822 -0.37607902 0.048788052
-0.12118915 -0.3761991 0.048853792
-0.12136728 -0.37631199 0.048842259
-0.12153313 -0.37642306 0.048789181
-0.030239679 -0.31814343 0.057657957
-0.030429095 -0.31826079 0.057664849
-0.030639712 -0.3184039 0.057582617
-0.030836977 -0.31853107 0.057554789
-0.031026315 -0.3186487 0.057559378
-0.031208381 -0.31875756 0.057594061
-0.031408295 -0.31888834 0.057552353
-0.031605493 -0.31901592 0.05752106
-0.031809423 -0.31915194 0.057459667
-0.031986851 -0.31925547 0.057511725
-0.032214727 -0.31942141 0.057343852
-0.032385182 -0.31951654 0.057424843
-0.032594591 -0.31966004 0.057334527
-0.032773528 -0.31976581 0.057377324
-0.032963332 -0.31988519 0.057371501
-0.033159412 -0.3200126 0.057336748
-0.033352163 -0.32013592 0.057315886
-0.033532668 -0.32024398 0.057349429
-0.033745658 -0.32039315 0.057234813
-0.033933409 -0.3205106 0.057233632
-0.034126285 -0.32063469 0.057208147
-0.034323435 -0.32076436 0.057161823
-0.034509856 -0.3208805 0.057164118
-0.034685008 -0.32098228 0.057218492
-0.034899715 -0.32113495 0.057086542
-0.035081919 -0.32124603 0.057106197
-0.035279088 -0.3213765 0.057054102
-0.035434201 -0.32145959 0.057152517
-0.035655025 -0.32162112 0.0569847
-0.035818949 -0.32171345 0.057056479
-0.036006387 -0.32182243 0.057114247
-0.036205549 -0.32195628 0.057047114
-0.036392651 -0.32207447 0.057037838
-0.036584016 -0.32219842 0.057006583
-0.036783032 -0.32233268 0.056935981
-0.036964685 -0.32244405 0.05695102
-0.037154462 -0.32256633 0.056924403
-0.037328318 -0.32267722 0.056908287
-0.03751453 -0.322795 0.056897864
-0.037722085 -0.32293183 0.056846861
-0.037898961 -0.3230373 0.056882728
-0.038099755 -0.32317525 0.056793619
-0.038285848 -0.32329348 0.056779727
-0.038470231 -0.32340947 0.056773949
-0.038645741 -0.32351345 0.056814454
-0.03883744 -0.32363969 0.056768168
-0.039020505 -0.32375422 0.056767017
-0.039207909 -0.32387486 0.056741565
-0.039396387 -0.32399717 0.056709178
-0.039574739 -0.3241055 0.056731168
-0.039765991 -0.32423198 0.056681417
-0.039954282 -0.32435447 0.056646712
-0.040129326 -0.32445848 0.056684908
-0.040310908 -0.32457176 0.056686081
-0.040497448 -0.32469219 0.05665832
-0.04069696 -0.32483128 0.056555349
-0.040866517 -0.32492778 0.056622475
-0.041056074 -0.32505304 0.056573898
-0.041244011 -0.32517612 0.056533419
-0.041421063 -0.32528365 0.056555413
-0.041604694 -0.3254008 0.056538075
-0.041793793 -0.32552609 0.056487195
-0.041973379 -0.32563764 0.056491833
-0.042153042 -0.32574937 0.056495331
-0.042346846 -0.32588214 0.056412049
-0.042522021 -0.32598752 0.056440994
-0.042705372 -0.32610515 0.056419037
-0.042883363 -0.3262178 0.056408674
-0.043076735 -0.32635081 0.056321926
-0.043264233 -0.32648107 0.05622828
-0.043416794 -0.32655868 0.056354456
-0.043616384 -0.32668987 0.05630812
-0.043812316 -0.3268277 0.056198254
-0.055447154 -0.33752093 0.031807434
-0.055602238 -0.33763677 0.031672385
-0.055756003 -0.33775035 0.031547755
-0.055913948 -0.33786523 0.031432338
-0.056063738 -0.33797109 0.031344708
-0.056217767 -0.33808255 0.03123625
-0.056369174 -0.33818865 0.031154392
-0.056522898 -0.33829603 0.03107368
-0.056672916 -0.33839977 0.031002231
-0.05682338 -0.33850494 0.030922692
-0.056970753 -0.33860785 0.030845476
-0.057121605 -0.33871016 0.0307879
-0.057269793 -0.33881116 0.030728023
-0.057420064 -0.33891279 0.030672755
-0.057567321 -0.33901224 0.030619819
-0.057712182 -0.33911097 0.030561116
-0.057860486 -0.33920878 0.030524347
-0.058006689 -0.33930656 0.030478351
-0.05815519 -0.33940548 0.030434657
-0.058300313 -0.33950114 0.030399069
-0.058447689 -0.33959773 0.030366933
-0.058592051 -0.33969194 0.030338284
-0.058736518 -0.33978671 0.030306166
-0.058880076 -0.33987927 0.030285619
-0.059024602 -0.33997473 0.030248882
-0.059166435 -0.34006864 0.030211
-0.059311979 -0.3401618 0.030195057
-0.059456699 -0.34025285 0.030190675
-0.059602842 -0.34034818 0.030162023
-0.059745271 -0.3404389 0.030149568
-0.059888698 -0.34053284 0.030118611
-0.060030535 -0.34062225 0.030113094
-0.060175512 -0.34071505 0.030097155
-0.060315862 -0.34080675 0.030068532
-0.060460702 -0.34089965 0.030051442
-0.060603015 -0.34099144 0.030030901
-0.060747907 -0.34108499 0.030009182
-0.060886994 -0.34117362 0.029996747
-0.06103123 -0.3412655 0.02998428
-0.061175093 -0.34135631 0.029977597
-0.06131934 -0.34144866 0.029961664
-0.061456259 -0.34153822 0.029933061
-0.06160073 -0.34163201 0.029907878
-0.061742291 -0.34172332 0.029887341
-0.061886251 -0.34181583 0.029869096
-0.062026594 -0.34190297 0.029872837
-0.062172003 -0.34199297 0.029878849
-0.062313382 -0.34208468 0.029854847
-0.062454555 -0.3421759 0.029833153
-0.062595338 -0.34226578 0.029819556
-0.062736124 -0.34235597 0.029803643
-0.062879674 -0.34244886 0.029780779
-0.063016526 -0.34254241 0.029723279
-0.063158922 -0.34263068 0.029728169
-0.063299619 -0.34272197 0.029704161
-0.063442022 -0.34281072 0.029705573
-0.063584447 -0.34289983 0.029704683
-0.063726924 -0.34298947 0.029700313
-0.06386485 -0.34307966 0.029671714
-0.064002298 -0.34316757 0.029656973
-0.064145222 -0.34326106 0.02962718
-0.064287424 -0.3433505 0.029622814
-0.064429507 -0.3434394 0.029621923
-0.064569205 -0.34352842 0.029609486
-0.064708881 -0.34361774 0.029594732
-0.064848766 -0.34370917 0.02956612
-0.064990863 -0.34380001 0.029551351
-0.065128036 -0.34389022 0.029519282
-0.065272138 -0.34397873 0.029529933
-0.065411195 -0.34406525 0.029532526
-0.065552942 -0.34415489 0.029524695
-0.06568981 -0.34424508 0.029491473
-0.065829068 -0.34433594 0.029464008
-0.065970592 -0.34442529 0.02945734
-0.066111967 -0.34451309 0.029461073
-0.06625089 -0.34460178 0.029447488
-0.066389911 -0.34469396 0.029409621
-0.0665287 -0.34478304 0.02939257
-0.066669859 -0.34487021 0.029399771
-0.066808522 -0.34495893 0.029385027
-0.066949688 -0.34504917 0.029370274
-0.067085735 -0.34514257 0.029310474
-0.067226708 -0.34523207 0.029300332
-0.067365088 -0.34531718 0.029309865
-0.067505985 -0.34540647 0.029300887
-0.067644268 -0.34549394 0.029293077
-0.06778504 -0.34558412 0.029277164
-0.067925811 -0.34567252 0.029273968
-0.068063878 -0.34576166 0.029253453
-0.068199217 -0.34585103 0.02921908
-0.068339817 -0.34593949 0.02921473
-0.068474971 -0.34602892 0.029179204
-0.068618208 -0.34611642 0.029193327
-0.068755977 -0.34620488 0.029176282
-0.068896107 -0.34629628 0.029148811
-0.069034196 -0.34638038 0.029164128
-0.069174334 -0.3464705 0.029145906
-0.069311693 -0.34656033 0.029117299
-0.069442853 -0.34665439 0.029030947
-0.069586672 -0.3467361 0.029088985
-0.069726691 -0.34682515 0.029077705
-0.069864161 -0.34691229 0.029068749
-0.070000499 -0.3470057 0.029010098
-0.070131734 -0.3470951 0.028957263
-0.070274815 -0.34718138 0.02897948
-0.070412226 -0.34726751 0.028977457
-0.070551604 -0.34735781 0.028954621
-0.070688471 -0.34744602 0.028935265
-0.070831053 -0.34753442 0.028940145
-0.070968717 -0.34761891 0.028950837
-0.071108207 -0.34770781 0.028938398
-0.071244605 -0.34779704 0.028909799
-0.071381412 -0.34788442 0.028896226
-0.071518287 -0.34797135 0.028886121
-0.071657263 -0.3480612 0.028864438
-0.071791478 -0.34814662 0.028853195
-0.07192912 -0.3482402 0.028799158
-0.072062626 -0.34832731 0.028772891
-0.072202325 -0.34841406 0.028776634
-0.07234221 -0.34850028 0.028784994
-0.072481707 -0.34858754 0.028784122
-0.072618358 -0.348674 0.028776322
-0.072754264 -0.34876227 0.028752353
-0.072894782 -0.34884679 0.02877574
-0.073033258 -0.34893632 0.028754061
-0.073169023 -0.3490245 0.028730094
-0.073306136 -0.3491095 0.028735008
-0.073442489 -0.34919608 0.028724905
-0.073580123 -0.34928691 0.028690515
-0.07371603 -0.3493742 0.028673481
-0.073851228 -0.34946284 0.028643737
-0.073989943 -0.34955093 0.028633617
-0.074126534 -0.34963652 0.0286316
-0.07426279 -0.34972274 0.028623812
-0.074397966 -0.3498109 0.028597524
-0.074534029 -0.34989733 0.028587423
-0.074672513 -0.34998542 0.028576154
-0.074811533 -0.35007256 0.028574122
-0.074943408 -0.35015991 0.028538615
-0.075078972 -0.35024685 0.028522737
-0.075217389 -0.35033473 0.028512619
-0.07535363 -0.35042048 0.028508289
-0.075485192 -0.35051316 0.028433496
-0.075625725 -0.35059768 0.028456885
-0.075765677 -0.35068312 0.028471027
-0.075900152 -0.35077116 0.028442439
-0.076035224 -0.35085824 0.028423097
-0.076176181 -0.35094237 0.0284511
-0.076309867 -0.35103121 0.028413279
-0.076437764 -0.35112241 0.028332718
-0.076581232 -0.35120812 0.028360717
-0.076721638 -0.35129303 0.028380629
-0.07685966 -0.35138085 0.028369363
-0.07699088 -0.35146749 0.028336175
-0.077121489 -0.35155472 0.028296059
-0.077260494 -0.35164118 0.028298644
-0.077396967 -0.35173047 0.028270043
-0.077533156 -0.35181567 0.02826919
-0.077677414 -0.35190088 0.028304109
-0.077807873 -0.35198787 0.028265145
-0.077930838 -0.35207808 0.028169602
-0.078067325 -0.35216689 0.028144471
-0.078214183 -0.35224968 0.028208271
-0.078351468 -0.35233378 0.028220115
-0.078496784 -0.35241836 0.028264273
-0.078630589 -0.35250193 0.02826459
-0.078770101 -0.35258806 0.028271802
-0.078912683 -0.35267159 0.028311359
-0.079052947 -0.35275349 0.028352082
-0.079196736 -0.35283631 0.028402034
-0.079339057 -0.3529205 0.0284358
-0.079481229 -0.35300133 0.028492697
-0.07962548 -0.35308427 0.028543796
-0.079770915 -0.35316649 0.028605299
-0.079918154 -0.35324758 0.028682964
-0.080064505 -0.35332957 0.028750233
-0.080208965 -0.35340631 0.028846404
-0.080359697 -0.35348567 0.02895179
-0.080506653 -0.35356462 0.029043326
-0.080661044 -0.35364547 0.029154465
-0.080815911 -0.35372305 0.029291019
-0.08743161 -0.35465401 0.052097891
-0.087599672 -0.35475445 0.052130349
-0.087761089 -0.35485753 0.052114308
-0.087915465 -0.35495722 0.052091379
-0.088067509 -0.35504568 0.0521378
-0.088220611 -0.35514584 0.052105628
-0.08835458 -0.35524979 0.051961474
-0.088527814 -0.3553575 0.051965009
-0.088683926 -0.35545647 0.051954776
-0.088854 -0.35556531 0.051936366
-0.089019045 -0.35567003 0.051924925
-0.089188404 -0.35577339 0.051942352
-0.089339741 -0.35587391 0.051899791
-0.089510873 -0.35597399 0.051948413
-0.089666151 -0.35607892 0.05189196
-0.089836106 -0.35619062 0.051852748
-0.090007119 -0.35629371 0.051879406
-0.090181574 -0.35640416 0.051869057
-0.090328544 -0.35650843 0.051780302
-0.090473652 -0.35660228 0.051757429
-0.090632893 -0.35670322 0.051747173
-0.090786897 -0.35680282 0.051723085
-0.090960108 -0.35690826 0.051742803
-0.091116048 -0.35701004 0.051711768
-0.09128125 -0.35711485 0.051700324
-0.09145046 -0.35722136 0.051694635
-0.091622584 -0.35732725 0.051706266
-0.091787875 -0.35743213 0.051694822
-0.0919514 -0.35753232 0.051708817
-0.092097081 -0.35762864 0.051670924
-0.09226352 -0.35773587 0.051647909
-0.092430472 -0.35784793 0.051592536
-0.092582069 -0.35794553 0.051571935
-0.092743039 -0.35805371 0.051517755
-0.092913821 -0.35815278 0.051572159
-0.093078405 -0.35826758 0.051486749
-0.093239762 -0.35836837 0.051486883
-0.093384005 -0.35846478 0.051442061
-0.093544036 -0.35856342 0.051451452
-0.093722254 -0.35867119 0.051476911
-0.093879715 -0.35877508 0.05143778
-0.094036087 -0.35887906 0.051392872
-0.09418653 -0.3589792 0.051349163
-0.094347559 -0.35908481 0.051313478
-0.094536573 -0.35918909 0.051411688
-0.094713748 -0.35929507 0.051445238
-0.094874278 -0.35941222 0.051325187
-0.095029518 -0.3595095 0.051323052
-0.095198736 -0.35961652 0.051313899
-0.095341928 -0.3597129 0.051264457
-0.095524415 -0.35982302 0.051292192
-0.095688194 -0.35992402 0.051301569
-0.09586098 -0.36003083 0.051309727
-0.095983967 -0.36012903 0.051157542
-0.096155502 -0.36023372 0.051174957
-0.09631446 -0.36033091 0.051190134
-0.096474774 -0.36043236 0.051181037
-0.096635863 -0.36053589 0.051160369
-0.096806087 -0.3606388 0.051184725
-0.096972451 -0.36075053 0.051129356
-0.097143516 -0.36085561 0.051142145
-0.097322948 -0.36096445 0.051165294
-0.097474873 -0.36107069 0.051084582
-0.097622007 -0.36117297 0.051010847
-0.097773865 -0.36126879 0.051004104
-0.097946845 -0.36136985 0.051053874
-0.098112985 -0.36147946 0.051012374
-0.098275177 -0.36158112 0.051010195
-0.098434448 -0.36168692 0.050965272
-0.098593757 -0.36178869 0.050949246
-0.098769456 -0.36189407 0.050980501
-0.098944992 -0.36199757 0.051024474
-0.099111214 -0.36210528 0.050996844
-0.099270992 -0.36220524 0.050995834
-0.099414848 -0.3623113 0.050880503
-0.099605873 -0.3624227 0.050937098
-0.099743932 -0.36252093 0.050851852
-0.099894956 -0.36262676 0.050769996
-0.1000645 -0.3627249 0.050825559
-0.10023101 -0.36283457 0.050785221
-0.10036787 -0.36293644 0.050668772
-0.10050245 -0.36303246 0.05058356
-0.10070861 -0.36313695 0.050756782
-0.10089506 -0.36324888 0.050789122
-0.10104765 -0.36335653 0.050701477
-0.1012108 -0.36345875 0.050699294
-0.1013779 -0.36356297 0.050700553
-0.10154029 -0.36366343 0.050707623
-0.10173379 -0.36377409 0.050780371
-0.1018856 -0.36387801 0.050715856
-0.10203359 -0.36398536 0.050609738
-0.10220182 -0.364088 0.050627172
-0.10237408 -0.36419091 0.050660767
-0.10252158 -0.36429456 0.050578929
-0.10270978 -0.36440191 0.05065171
-0.1028598 -0.36450568 0.050580263
-0.1030237 -0.36460838 0.050578073
-0.10318731 -0.36471462 0.050549306
-0.10336092 -0.36482322 0.050548222
-0.10352813 -0.36492801 0.050546002
-0.10369354 -0.36503619 0.05051145
-0.10383918 -0.36513785 0.050435398
-0.10399061 -0.3652347 0.05041942
-0.10418212 -0.36534479 0.050487563
-0.1043645 -0.36545774 0.050494511
-0.10450924 -0.36555934 0.050415006
-0.10468226 -0.36566824 0.050409287
-0.1048459 -0.36576962 0.050415196
-0.10500866 -0.36587438 0.050393365
-0.10517147 -0.36597916 0.050371535
-0.10533889 -0.36608437 0.050367013
-0.10550378 -0.36619273 0.050328989
-0.10568466 -0.36630428 0.050339412
-0.10585011 -0.36640778 0.050338365
-0.10601352 -0.36651278 0.050317686
-0.10616087 -0.36661452 0.050248567
-0.10633681 -0.36672413 0.050250933
-0.10649598 -0.36682549 0.050237212
-0.1066624 -0.36693251 0.05021536
-0.10684434 -0.36703968 0.050261609
-0.1070018 -0.3671442 0.050217848
-0.10716522 -0.36725262 0.050172895
-0.10732397 -0.36735728 0.050133757
-0.10748453 -0.36745742 0.050135057
-0.10767689 -0.36757094 0.050182395
-0.10782978 -0.3676734 0.050132878
-0.10798861 -0.36777976 0.050082188
-0.10815842 -0.36788437 0.050092667
-0.10833681 -0.36799484 0.050099641
-0.10849392 -0.36809945 0.050053578
-0.10866787 -0.36820632 0.050066348
-0.10884543 -0.36831224 0.050102212
-0.10900137 -0.36841986 0.050029572
-0.10916726 -0.36852884 0.049991541
-0.10932554 -0.36863369 0.049948938
-0.10949301 -0.36873683 0.049959444
-0.10965757 -0.36883962 0.049959566
-0.10983216 -0.36895001 0.049950369
-0.11001076 -0.36905798 0.049975827
-0.11016668 -0.36916414 0.049913589
-0.11033665 -0.36927244 0.049898647
-0.11050314 -0.36937726 0.049892977
-0.11065009 -0.36948198 0.049800746
-0.11082885 -0.36958879 0.049835451
-0.11098902 -0.36969566 0.049787052
-0.11117758 -0.36980566 0.049842499
-0.1113347 -0.36990917 0.049804531
-0.11149043 -0.37001681 0.049730733
-0.1116678 -0.37012225 0.04976891
-0.11182605 -0.37023035 0.049703192
-0.11201684 -0.37034258 0.049752839
-0.11217701 -0.3704496 0.049703293
-0.11233155 -0.37055278 0.049656082
-0.11250084 -0.37065998 0.049645778
-0.11269522 -0.37077317 0.049704652
-0.11286298 -0.37088022 0.049688574
-0.11301658 -0.37098473 0.049627502
-0.1131809 -0.37108982 0.049610283
-0.11334372 -0.37119606 0.049578052
-0.11352237 -0.37130669 0.049585022
-0.11367752 -0.37141156 0.049528569
-0.11385729 -0.37152112 0.049548239
-0.11401254 -0.37162602 0.049491785
-0.11419766 -0.37173811 0.049517203
-0.11435395 -0.37184188 0.04947345
-0.11452272 -0.37195089 0.049448114
-0.11470508 -0.37206125 0.049473546
-0.11485828 -0.37216586 0.049410176
-0.11502524 -0.37227321 0.049388319
-0.1151845 -0.37238178 0.049323745
-0.11537381 -0.37249243 0.049378034
-0.1155408 -0.37260127 0.049345776
-0.11569841 -0.37270686 0.049295083
-0.11587708 -0.37281686 0.049306672
-0.11605984 -0.37292778 0.049329787
-0.11622719 -0.37303686 0.049297526
-0.11639768 -0.37314531 0.049283747
-0.11658929 -0.37325969 0.04932183
-0.11672951 -0.37336168 0.049219236
-0.1169154 -0.37347361 0.049249277
-0.11708274 -0.37358153 0.049225107
-0.11725102 -0.37369102 0.049193993
-0.11741003 -0.37379587 0.049154855
-0.11762609 -0.37391609 0.049259827
-0.11776797 -0.37401852 0.049161844
-0.11796141 -0.37413386 0.049201079
-0.11810982 -0.37423772 0.049121551
-0.11828724 -0.37434953 0.049114663
-0.11847509 -0.37446123 0.049155079
-0.11865038 -0.37457266 0.049141269
-0.11881216 -0.37467971 0.049098633
-0.1189864 -0.374791 0.049081363
-0.11915254 -0.37489787 0.049059514
-0.11931577 -0.37500533 0.049020335
-0.11947571 -0.37511206 0.048971951
-0.11968099 -0.37523222 0.049029596
-0.11983818 -0.37533835 0.048973132
-0.12002666 -0.37545332 0.048992746
-0.12018441 -0.37555966 0.048937432
-0.12037504 -0.37567404 0.048970908
-0.1205171 -0.37577656 0.048872925
-0.1207002 -0.37589046 0.04887639
-0.12087411 -0.37600088 0.048863743
-0.12107526 -0.37611943 0.048914488
-0.12124215 -0.37622821 0.048882224
-0.12138909 -0.37633198 0.048796933
-0.12158667 -0.37644863 0.048845381
-0.030260742 -0.31817469 0.057528906
-0.030439924 -0.3182798 0.057577506
-0.030639246 -0.31840727 0.057556652
-0.030828714 -0.31852499 0.057561278
-0.03102814 -0.31865284 0.057538107
-0.031224053 -0.31877652 0.057528831
-0.031427901 -0.31891006 0.057484843
-0.031634435 -0.31904915 0.05741309
-0.031822089 -0.31916314 0.057436228
-0.032016534 -0.31928772 0.057414241
-0.032203108 -0.31940052 0.05744084
-0.032409053 -0.31953958 0.057366788
-0.032609738 -0.31967017 0.057329744
-0.032792289 -0.31978047 0.057356376
-0.032981604 -0.31989712 0.057367943
-0.033185642 -0.3200345 0.057297368
-0.033384338 -0.32016319 0.057264954
-0.033579819 -0.32029018 0.057230256
-0.033771146 -0.32040986 0.057229094
-0.033963639 -0.32053337 0.057205975
-0.034155104 -0.32065347 0.057202496
-0.034345433 -0.3207745 0.057187475
-0.034544986 -0.32090518 0.057144657
-0.034730189 -0.32101989 0.057151623
-0.034918454 -0.32113639 0.057159729
-0.035100721 -0.32124522 0.057195604
-0.035307668 -0.32138604 0.05711345
-0.03549682 -0.32150632 0.057098441
-0.035688255 -0.32162738 0.057088032
-0.035877008 -0.32174739 0.057073019
-0.03607329 -0.32187507 0.057037167
-0.036260229 -0.32199296 0.057029091
-0.036456756 -0.32212126 0.05698977
-0.036650468 -0.32224602 0.056963168
-0.036815956 -0.32233348 0.057076558
-0.037031036 -0.32248929 0.056923874
-0.037205867 -0.32259899 0.056920506
-0.037418533 -0.32274243 0.056845255
-0.037604138 -0.32285708 0.056854524
-0.037791368 -0.32297647 0.056837212
-0.037977353 -0.32309186 0.056843024
-0.038167559 -0.32321554 0.056808349
-0.03836159 -0.32334211 0.056770194
-0.038542699 -0.32345122 0.056799144
-0.038738716 -0.3235808 0.056748256
-0.038925383 -0.32370538 0.056691661
-0.039114125 -0.3238202 0.056713626
-0.039302818 -0.32394019 0.056698613
-0.039493024 -0.32406244 0.056674346
-0.039675444 -0.32417655 0.056673236
-0.03986318 -0.32429561 0.056660548
-0.040039707 -0.32440168 0.056690671
-0.040233959 -0.32453018 0.056639805
-0.040427331 -0.32465765 0.056592405
-0.040604983 -0.32476828 0.056594789
-0.040775821 -0.32488278 0.056539446
-0.040985331 -0.32501224 0.056549728
-0.041143827 -0.32511204 0.056544147
-0.041356023 -0.32524559 0.056537084
-0.041547887 -0.32537469 0.056471206
-0.041726947 -0.32549095 0.056440067
-0.041921355 -0.32561579 0.056415774
-0.042101968 -0.32572621 0.056433171
-0.042278189 -0.32583302 0.056456372
-0.042478126 -0.32597223 0.05635462
-0.042660218 -0.32608518 0.056360446
-0.042838089 -0.3261919 0.056391716
-0.043022573 -0.32631153 0.056360558
-0.043214042 -0.32643893 0.056305081
-0.043392442 -0.32654974 0.056309778
-0.043577861 -0.32666832 0.056290165
-0.043766864 -0.32679257 0.056246258
-0.043950815 -0.32691526 0.056190826
-0.04412993 -0.32702166 0.056230191
-0.044321496 -0.3271504 0.056165464
-0.044501126 -0.32726392 0.056156285
-0.044684783 -0.32738075 0.056141309
-0.044864636 -0.32749489 0.056128651
-0.045047477 -0.32761073 0.056117147
-0.045214713 -0.32771778 0.0560988
-0.045405354 -0.3278304 0.056145024
-0.045585677 -0.3279458 0.05612544
-0.045770615 -0.32806557 0.056095425
-0.045956977 -0.32819107 0.056030735
-0.046122152 -0.32828563 0.056092136
-0.046313729 -0.32841343 0.056034345
-0.046501927 -0.32853928 0.055975422
-0.046668544 -0.32863981 0.056000993
-0.046860848 -0.32876268 0.055981338
-0.047038808 -0.32887548 0.055969857
-0.047227126 -0.32900238 0.055904001
-0.047402017 -0.32911032 0.055913337
-0.047573321 -0.32921928 0.05589959
-0.047759004 -0.32933527 0.055899613
-0.047940858 -0.32945195 0.055877712
-0.048115581 -0.32956728 0.055833895
-0.048288599 -0.32968345 0.05577622
-0.048463747 -0.32978168 0.055856049
-0.048653752 -0.3298986 0.05586876
-0.048842251 -0.3300316 0.055760145
-0.04901658 -0.33013594 0.0557926
-0.049182054 -0.33025098 0.055709552
-0.049356259 -0.33035916 0.055714265
-0.049556147 -0.33048713 0.055692255
-0.049734846 -0.3305999 0.055684235
-0.049929261 -0.33074179 0.05553861
-0.050111774 -0.33086213 0.055493593
-0.06185269 -0.34150866 0.031907454
-0.062002547 -0.34162629 0.031736668
-0.062151451 -0.3417415 0.031578612
-0.062299456 -0.34185436 0.031433266
-0.062444195 -0.34196422 0.031294875
-0.06258665 -0.34207523 0.031138003
-0.062730089 -0.34218201 0.031015802
-0.062872559 -0.34228557 0.030912083
-0.063015267 -0.3423914 0.030793354
-0.063161731 -0.34249455 0.030710412
-0.06330622 -0.34260035 0.030599758
-0.063446954 -0.34269992 0.030516863
-0.06358964 -0.34279859 0.030448964
-0.063732229 -0.34289768 0.030377612
-0.063874453 -0.34299573 0.030312041
-0.064016551 -0.34309405 0.030244146
-0.064158425 -0.34319204 0.030177426
-0.0643024 -0.34328958 0.030123387
-0.06444113 -0.34338447 0.030064773
-0.06458199 -0.34347877 0.030020002
-0.064725503 -0.34357616 0.029964816
-0.064863637 -0.34366989 0.029911976
-0.065003753 -0.34376144 0.029883392
-0.065144248 -0.34385711 0.029827069
-0.065286905 -0.34395188 0.029786918
-0.065424174 -0.34404245 0.029752571
-0.065566495 -0.34413603 0.029719355
-0.065704048 -0.34423232 0.029645717
-0.06583868 -0.34432498 0.029584814
-0.065982416 -0.34440953 0.02962207
-0.066124231 -0.344502 0.029594626
-0.066263378 -0.34459278 0.029567203
-0.066402413 -0.34468317 0.029542092
-0.066541381 -0.34477398 0.029513516
-0.066680253 -0.3448649 0.029483788
-0.066819042 -0.34495613 0.029451746
-0.066957667 -0.34504464 0.029438192
-0.067096226 -0.34513211 0.029431572
-0.067239881 -0.34522295 0.02942377
-0.067375764 -0.34531218 0.029392896
-0.067514122 -0.345402 0.029368944
-0.067652367 -0.34549367 0.029331122
-0.067790598 -0.34558177 0.029318735
-0.067931466 -0.34566796 0.02933174
-0.068069585 -0.34575662 0.02931473
-0.068207622 -0.34584558 0.0292954
-0.068345696 -0.34593275 0.029288782
-0.068483599 -0.3460218 0.029268298
-0.068621233 -0.34611309 0.029230483
-0.068756498 -0.34619948 0.029216958
-0.068899676 -0.34628761 0.029226482
-0.069037326 -0.3463763 0.029207163
-0.069171928 -0.34646717 0.029158965
-0.069309339 -0.34655637 0.029135015
-0.069444202 -0.34664333 0.029115714
-0.069578104 -0.34673652 0.029047871
-0.06972418 -0.3468219 0.029089741
-0.069861665 -0.34690887 0.029081974
-0.07000187 -0.3469961 0.029084593
-0.070139199 -0.34708348 0.029073352
-0.070276089 -0.34717286 0.029045951
-0.070416294 -0.34725958 0.029052027
-0.070553422 -0.34734717 0.029038481
-0.070690505 -0.3474347 0.029024936
-0.070827216 -0.34752363 0.028999843
-0.070964359 -0.34761038 0.028992079
-0.071104079 -0.34769845 0.028986603
-0.071240902 -0.34778616 0.028970756
-0.071376488 -0.34787813 0.028919086
-0.071513839 -0.34796339 0.028922873
-0.071647495 -0.34805089 0.028894329
-0.071786739 -0.34813964 0.028881924
-0.071920648 -0.34822583 0.02886378
-0.072057232 -0.34831306 0.028850239
-0.072196938 -0.3484 0.02885286
-0.072335921 -0.34848887 0.02883815
-0.07246951 -0.34857535 0.02881654
-0.072608903 -0.34866288 0.028813384
-0.072746344 -0.34874725 0.028824106
-0.072883017 -0.34883356 0.028817497
-0.073025599 -0.34892097 0.02882934
-0.073158763 -0.34900784 0.028803103
-0.073291317 -0.34909597 0.028765328
-0.073431298 -0.34918177 0.028777186
