# .PCD v0.7 - Point Cloud Data file format
VERSION 0.7
FIELDS x y z
SIZE 4 4 4
TYPE F F F
COUNT 1 1 1
WIDTH 700
HEIGHT 1
VIEWPOINT 0 0 0 1 0 0 0
POINTS 700
DATA ascii
-0.1662233 -0.32024145 0.06303706
-0.16644612 -0.320274 0.063039608
-0.16668692 -0.32031664 0.062987901
-0.16692542 -0.32035819 0.062941968
-0.1671589 -0.32039532 0.062922575
-0.16738722 -0.32043138 0.062905498
-0.16760117 -0.32045773 0.062943831
-0.1678389 -0.3204993 0.062896743
-0.16807704 -0.32054123 0.062847346
-0.16828258 -0.32056475 0.062897235
-0.16852875 -0.32060978 0.06283398
-0.16874592 -0.32064009 0.062846929
-0.1689733 -0.32067457 0.062840238
-0.16920814 -0.32071525 0.062796623
-0.16942544 -0.32074589 0.062807269
-0.16968343 -0.32080024 0.062688619
-0.16990285 -0.32083055 0.062703863
-0.17011622 -0.32085919 0.062724903
-0.17034361 -0.32089433 0.062713601
-0.17057241 -0.32093221 0.062683851
-0.17081857 -0.32097864 0.062610202
-0.17103079 -0.32100695 0.062632397
-0.17124572 -0.32103691 0.062645361
-0.17146648 -0.32107043 0.0626387
-0.17170557 -0.32111505 0.062570855
-0.17190969 -0.32113692 0.062631138
-0.17215119 -0.32118142 0.062566742
-0.17237598 -0.32121965 0.062530071
-0.17261121 -0.32125878 0.062497996
-0.17284226 -0.3213011 0.06243825
-0.17303888 -0.32131872 0.062521607
-0.17327447 -0.32136217 0.062458389
-0.17350096 -0.32139829 0.062439024
-0.17370942 -0.32142523 0.062467001
-0.17391516 -0.32144862 0.062518045
-0.17415896 -0.32149774 0.062422514
-0.17439806 -0.3215422 0.062355816
-0.17461212 -0.32157296 0.062361866
-0.17482935 -0.32160392 0.062370203
-0.17505318 -0.32164106 0.062340468
-0.17529106 -0.32168531 0.062273782
-0.17550564 -0.32171682 0.062275216
-0.17571428 -0.32174459 0.062297419
-0.17594925 -0.32178938 0.062223837
-0.17616278 -0.3218185 0.062241405
-0.17637599 -0.3218495 0.062245149
-0.17660213 -0.32188696 0.062215403
-0.17681561 -0.32191828 0.062216844
-0.1770329 -0.3219502 0.062218271
-0.17726396 -0.32199329 0.062152758
-0.17749004 -0.32203123 0.062119558
-0.17769817 -0.32205939 0.062138312
-0.17790893 -0.32208937 0.062146671
-0.17814219 -0.32213455 0.062068477
-0.17835949 -0.3221671 0.062065281
-0.17859301 -0.32221279 0.06198363
-0.17880926 -0.32224485 0.061982747
-0.17901492 -0.32227185 0.062007278
-0.17923471 -0.32230648 0.06199139
-0.17944716 -0.32233828 0.061988227
-0.1796843 -0.32238516 0.061901934
-0.1798934 -0.32241488 0.061910313
-0.18010412 -0.32244581 0.061911762
-0.18031155 -0.32247451 0.061925903
-0.18052873 -0.32250798 0.061915793
-0.18075626 -0.32255101 0.061846849
-0.18097439 -0.32258543 0.061830968
-0.18118258 -0.32261503 0.061839342
-0.18138009 -0.32263482 0.061907716
-0.18161243 -0.3226819 0.061814532
-0.18181309 -0.32270408 0.061869055
-0.18204972 -0.32275465 0.061755113
-0.18227106 -0.32279202 0.061720774
-0.18247479 -0.32281891 0.061744153
-0.18268713 -0.32284993 0.061746746
-0.18290481 -0.32288724 0.061708964
-0.18312928 -0.32292747 0.061657317
-0.18333882 -0.32295904 0.061653003
-0.1835573 -0.32299504 0.061625604
-0.1837644 -0.32302496 0.061630521
-0.18389735 -0.32301983 0.061810996
-0.18415594 -0.32309377 0.06155052
-0.18442461 -0.32314259 0.061483711
-0.18462217 -0.32316318 0.061546326
-0.18482073 -0.32318693 0.061587024
-0.18502408 -0.32321203 0.061623085
-0.18525383 -0.32325777 0.061536826
-0.18547785 -0.32330173 0.061457522
-0.18569505 -0.32333806 0.061426662
-0.1858972 -0.32336503 0.06144774
-0.18610264 -0.32339215 0.061471116
-0.18630755 -0.32342142 0.06147835
-0.18653485 -0.32346636 0.061395574
-0.18674134 -0.32349712 0.061393574
-0.1869463 -0.32352418 0.061416954
-0.18716687 -0.32356668 0.061344568
-0.18738067 -0.32360122 0.061322946
-0.18758586 -0.32363132 0.061324425
-0.18779954 -0.32366601 0.061301641
-0.18800309 -0.32369491 0.061310038
-0.18821804 -0.32373089 0.061279185
-0.18842381 -0.32376188 0.06127489
-0.18864129 -0.3238003 0.061229043
-0.1888423 -0.32382739 0.061247818
-0.18904595 -0.32385412 0.06127236
-0.18926653 -0.32389835 0.06118729
-0.18947861 -0.32393265 0.061165676
-0.1896822 -0.32396233 0.061168309
-0.18988709 -0.32399049 0.061183609
-0.19010048 -0.32402909 0.061132014
-0.19031379 -0.324065 0.061100014
-0.19052878 -0.32410541 0.061036885
-0.19072622 -0.32413292 0.061048757
-0.1909284 -0.32416195 0.061054856
-0.1911395 -0.32419056 0.061073594
-0.19135389 -0.32423103 0.061009306
-0.19156267 -0.32426357 0.060996935
-0.19176036 -0.32428876 0.061026096
-0.19197309 -0.3243252 0.060989499
-0.19218029 -0.32435957 0.060962133
-0.19238488 -0.32439762 0.060904808
-0.1925889 -0.32442313 0.060938559
-0.19276141 -0.32444271 0.060981672
-0.19292268 -0.3244606 0.06102483
-0.19320132 -0.32451883 0.060900331
-0.19340827 -0.32454428 0.060937531
-0.19358416 -0.3245737 0.060912602
-0.19378874 -0.32461604 0.060824148
-0.19399616 -0.32464221 0.06085673
-0.19422647 -0.32468519 0.060791232
-0.1944432 -0.32471779 0.060786892
-0.19464457 -0.32475114 0.060760703
-0.19483182 -0.32477319 0.06080145
-0.19499086 -0.3247925 0.060831934
-0.19525698 -0.32485062 0.060694799
-0.19546364 -0.32487652 0.060728546
-0.19567597 -0.32491195 0.060698867
-0.19586076 -0.32494202 0.060678504
-0.1960493 -0.3249763 0.060631622
-0.19626409 -0.32500434 0.060658418
-0.19645061 -0.32502598 0.060701475
-0.19662982 -0.32505381 0.060691513
-0.19689029 -0.32511172 0.060549796
-0.1971145 -0.32514355 0.060559258
-0.19730166 -0.32516986 0.060568877
-0.19751123 -0.32520726 0.060521904
-0.19773057 -0.32524499 0.060482964
-0.19793293 -0.32528195 0.060431413
-0.19810903 -0.32531089 0.060409941
-0.19833486 -0.32534152 0.06042977
-0.19850464 -0.32536307 0.060455598
-0.19872983 -0.32540879 0.060364753
-0.19892713 -0.32543251 0.060404297
-0.19913761 -0.32546449 0.060397685
-0.1993259 -0.32548907 0.060421124
-0.19954312 -0.3255257 0.060387962
-0.1997547 -0.32557195 0.060278721
-0.19993496 -0.3255865 0.060366761
-0.20014299 -0.32561165 0.060407426
-0.20034502 -0.32564601 0.06037432
-0.20055288 -0.32568836 0.060289308
-0.20073608 -0.3257198 0.060257431
-0.20093207 -0.32574666 0.060272768
-0.20114976 -0.32577637 0.060290337
-0.20133045 -0.32580474 0.060278073
-0.20152935 -0.32583582 0.060265727
-0.2017141 -0.32587016 0.060214244
-0.20195487 -0.32590523 0.060217887
-0.20212394 -0.32593629 0.060173381
-0.20234171 -0.32597157 0.060150586
-0.20251963 -0.3259967 0.06015908
-0.20274678 -0.32603654 0.060113192
-0.20293239 -0.32605851 0.060152799
-0.20315185 -0.32609707 0.060108088
-0.2033515 -0.32612556 0.060115345
-0.20352572 -0.32615566 0.060083508
-0.20370859 -0.32617864 0.060112737
-0.20392632 -0.32622057 0.060041517
-0.20411506 -0.32625329 0.060006168
-0.20430312 -0.32628512 0.059976578
-0.20452487 -0.32632369 0.059934169
-0.20473684 -0.32635719 0.059918314
-0.20492736 -0.3263824 0.059939444
-0.20509885 -0.32640925 0.059928373
-0.20530325 -0.3264356 0.059956364
-0.20548582 -0.32647058 0.059897974
-0.20569575 -0.32650107 0.059901726
-0.2058848 -0.32652387 0.059939012
-0.20609087 -0.32655981 0.059898965
-0.20628923 -0.32660043 0.059816293
-0.20648575 -0.32662499 0.059848934
-0.20668998 -0.3266581 0.05982735
-0.20689075 -0.32669118 0.059802316
-0.20706537 -0.32670537 0.059886932
-0.20729408 -0.3267478 0.05982374
-0.20749359 -0.32677883 0.059812546
-0.20768395 -0.32681921 0.059722997
-0.20788215 -0.32684782 0.059727952
-0.20808595 -0.3268815 0.059701756
-0.20828091 -0.32690296 0.059755154
-0.2084581 -0.32693002 0.059748664
-0.20870166 -0.3269783 0.0596589
-0.20889427 -0.32700229 0.059691548
-0.20902994 -0.32700279 0.059833966
-0.20928974 -0.32707578 0.059581563
-0.20946601 -0.32710159 0.059583142
-0.20964508 -0.32712591 0.059598565
-0.20982185 -0.32715324 0.059589766
-0.21002802 -0.32719597 0.059500154
-0.21024944 -0.32722485 0.059528079
-0.21042013 -0.32724509 0.059564278
-0.2106196 -0.32727957 0.059527725
-0.21082184 -0.32732281 0.059430055
-0.21102589 -0.32735133 0.059441898
-0.21121059 -0.3273727 0.059484966
-0.21141364 -0.32740912 0.05943802
-0.21160445 -0.32743949 0.059422251
-0.2118236 -0.32747307 0.059413292
-0.21199685 -0.32749021 0.059474841
-0.21218395 -0.32752001 0.05945909
-0.21237318 -0.32755819 0.059384532
-0.21258712 -0.32759956 0.059313331
-0.21277376 -0.32761455 0.059404813
-0.21297489 -0.32764643 0.059388999
-0.21316022 -0.3276698 0.059418216
-0.21333222 -0.32769561 0.059415217
-0.21354112 -0.32774886 0.0592518
-0.21375699 -0.32778704 0.05920596
-0.21394575 -0.32781124 0.059232853
-0.21412259 -0.32782701 0.059308235
-0.21432465 -0.32786709 0.059233621
-0.21450602 -0.32788828 0.059274383
-0.21471626 -0.32793811 0.059137482
-0.21490794 -0.32795861 0.059194356
-0.21509154 -0.32797018 0.059307747
-0.21527171 -0.32800826 0.059223995
-0.21547818 -0.32806307 0.059046756
-0.21566981 -0.32808232 0.059112854
-0.2158623 -0.32810897 0.0591259
-0.21606657 -0.32814905 0.059053585
-0.21626215 -0.32817122 0.059102368
-0.21645164 -0.32820565 0.059055477
-0.21663758 -0.32824206 0.058990151
-0.21682957 -0.3282623 0.059049323
-0.21703701 -0.32830951 0.058928575
-0.2172256 -0.32833272 0.058962397
-0.2174321 -0.32836002 0.05898577
-0.21760307 -0.32838646 0.058976993
-0.21780609 -0.32842019 0.058949653
-0.21799833 -0.32845598 0.058895834
-0.21819761 -0.32848567 0.058893874
-0.2183861 -0.32851836 0.058858518
-0.2185782 -0.32854667 0.05885889
-0.21876311 -0.32857537 0.058848906
-0.21896215 -0.32860771 0.058827348
-0.21914729 -0.32863137 0.058854267
-0.21938296 -0.32865334 0.058947846
-0.21958427 -0.32865834 0.059128039
-0.21978949 -0.32866538 0.059297837
-0.21998405 -0.32867476 0.059438854
-0.22018671 -0.32868016 0.059617888
-0.2203608 -0.32868478 0.059771679
-0.2205528 -0.32869458 0.059906937
-0.22077817 -0.32870394 0.060081266
-0.22097225 -0.32870519 0.060281098
-0.22117613 -0.32871723 0.060412854
-0.22137472 -0.32871932 0.060611501
-0.22157371 -0.32872212 0.060805537
-0.22177577 -0.32873088 0.060959205
-0.16605277 -0.32020429 0.063124351
-0.16628325 -0.32024083 0.063106112
-0.16651693 -0.32027927 0.063077487
-0.16674376 -0.32031399 0.063068502
-0.1669623 -0.32034418 0.063083753
-0.16720055 -0.32038552 0.063038968
-0.16742592 -0.3204197 0.063032292
-0.1676628 -0.32046053 0.062989816
-0.16788992 -0.32049593 0.062976211
-0.1680916 -0.32051697 0.063039966
-0.16834979 -0.32057026 0.062929362
-0.16856496 -0.32059917 0.06295041
-0.16881157 -0.32064441 0.062885985
-0.16902894 -0.32067475 0.062898941
-0.16927409 -0.32072121 0.062824145
-0.16950345 -0.3207587 0.062797844
-0.16972597 -0.32079232 0.062792331
-0.16993922 -0.3208206 0.062815681
-0.17017473 -0.320862 0.062767446
-0.17040274 -0.32089913 0.062742308
-0.17062938 -0.32093558 0.062720634
-0.17083904 -0.32096207 0.062753215
-0.17099762 -0.32097641 0.062819459
-0.17130411 -0.32104066 0.06268099
-0.17151996 -0.32107106 0.062691651
-0.17174056 -0.32110441 0.062686138
-0.17194842 -0.32113016 0.062722191
-0.17209668 -0.3211458 0.062767714
-0.17241831 -0.32121468 0.0626119
-0.17264344 -0.32125866 0.062533721
-0.17287621 -0.32129064 0.06255123
-0.1731002 -0.32132667 0.062529564
-0.17331819 -0.32135916 0.062527522
-0.17354272 -0.32139575 0.062502399
-0.17374356 -0.32142538 0.062502727
-0.17396596 -0.32146278 0.062469546
-0.17418085 -0.32149369 0.062475584
-0.17444338 -0.32154304 0.062398419
-0.17465027 -0.32156911 0.062431023
-0.17487502 -0.32160655 0.062400125
-0.17510611 -0.32164618 0.062359985
-0.17532189 -0.32168403 0.06231644
-0.175539 -0.3217091 0.062367447
-0.17576055 -0.32174495 0.06234464
-0.17598063 -0.32177994 0.062326446
-0.17621152 -0.32182208 0.062267855
-0.17643851 -0.32185984 0.06223695
-0.17665221 -0.32189104 0.06223955
-0.17687009 -0.32192507 0.062225975
-0.17710668 -0.32197154 0.062142
-0.17731574 -0.322 0.062159605
-0.17752282 -0.32202518 0.062199116
-0.17775762 -0.3220709 0.062118594
-0.17795591 -0.32209238 0.062175445
-0.17819709 -0.32214063 0.062083371
-0.17840779 -0.32217059 0.062091745
-0.17863566 -0.32221228 0.062033162
-0.17884548 -0.32223976 0.062058829
-0.17899093 -0.32224646 0.062166627
-0.17927255 -0.32230416 0.062049024
-0.17949662 -0.32234165 0.062016979
-0.17969416 -0.32236305 0.062073834
-0.17992625 -0.32240629 0.062008321
-0.18014027 -0.32243928 0.061998222
-0.18037497 -0.32248691 0.061903868
-0.18058598 -0.32251802 0.06190417
-0.18080333 -0.32255372 0.061877914
-0.18101087 -0.32258037 0.061907057
-0.18121587 -0.32260743 0.061930433
-0.18144687 -0.32265103 0.061861463
-0.1816532 -0.32267922 0.061877929
-0.18188336 -0.32272252 0.061810113
-0.18208367 -0.32274652 0.061850816
-0.18230969 -0.32278937 0.061781861
-0.18253458 -0.32283157 0.061716374
-0.18274185 -0.32285866 0.061742052
-0.18294971 -0.32288852 0.061748125
-0.1831658 -0.32292229 0.061734565
-0.18337102 -0.32295033 0.061751027
-0.18359073 -0.32298702 0.061720163
-0.18379803 -0.32301679 0.061726235
-0.18402328 -0.3230603 0.061651517
-0.18424305 -0.32309985 0.061599888
-0.18446743 -0.32314071 0.061543636
-0.1846641 -0.32316273 0.061594725
-0.18489282 -0.32320726 0.061516531
-0.18509759 -0.32323572 0.061529547
-0.18530113 -0.32326081 0.061565612
-0.18551734 -0.32329839 0.061524376
-0.18572716 -0.32333109 0.061511997
-0.18593708 -0.32336396 0.061498459
-0.18615793 -0.32340318 0.061450284
-0.18637949 -0.32344568 0.061379045
-0.18657635 -0.32346585 0.061443973
-0.18678346 -0.32349685 0.061440833
-0.1869857 -0.323524 0.061460763
-0.18719959 -0.32356077 0.061422996
-0.18742988 -0.32360867 0.061321743
-0.18762058 -0.32362649 0.061397072
-0.18783262 -0.32365951 0.061384674
-0.18804799 -0.32369807 0.061335374
-0.18825971 -0.32373375 0.061303377
-0.1884665 -0.32376534 0.061295629
-0.18867248 -0.32379365 0.061310932
-0.1888839 -0.32382944 0.061277784
-0.18909337 -0.32386366 0.061253868
-0.18930264 -0.32389784 0.061229959
-0.18949072 -0.32393014 0.061196912
-0.18970764 -0.32395187 0.061272137
-0.18992819 -0.32399356 0.061205514
-0.19014296 -0.32403317 0.061148141
-0.19034715 -0.32406342 0.06114731
-0.19055478 -0.32409689 0.061126862
-0.19077121 -0.32413563 0.06107755
-0.19096506 -0.32415676 0.061132111
-0.19116217 -0.32418963 0.061104793
-0.19136439 -0.32422736 0.061047465
-0.19159012 -0.32425764 0.061069615
-0.19180182 -0.32429567 0.06102033
-0.19198692 -0.32431775 0.061058775
-0.1922058 -0.32435384 0.061031368
-0.19241796 -0.3243897 0.060998224
-0.19262153 -0.32442051 0.060992781
-0.19283237 -0.32445541 0.060965404
-0.19303319 -0.32448375 0.06097497
-0.19324696 -0.32452494 0.060904909
-0.19345033 -0.32455605 0.060897164
-0.1936487 -0.3245886 0.0608733
-0.19386205 -0.32462355 0.060848221
-0.19404049 -0.32464591 0.06087748
-0.19423129 -0.32467434 0.06087555
-0.19444165 -0.32471311 0.060819343
-0.19462043 -0.32473266 0.060869355
-0.19487503 -0.32477784 0.060814127
-0.19508389 -0.3248156 0.060763698
-0.19526784 -0.32484415 0.060753733
-0.19543889 -0.32485557 0.060854502
-0.19568713 -0.32492226 0.060635559
-0.19588721 -0.32494435 0.060690098
-0.19608466 -0.32497758 0.060660467
-0.19628756 -0.32500273 0.060695387
-0.19649062 -0.32503885 0.060650751
-0.19668201 -0.32506928 0.060634982
-0.19688874 -0.32509899 0.060641058
-0.19705819 -0.32510465 0.060782202
-0.19726476 -0.32514524 0.060708724
-0.19748548 -0.32520247 0.06052909
-0.19765675 -0.32520255 0.060712889
-0.19791198 -0.32526681 0.060519286
-0.19810385 -0.32529873 0.060493141
-0.19832936 -0.32533231 0.06049107
-0.19854335 -0.32535991 0.060520187
-0.19874007 -0.32538623 0.06054014
-0.19894242 -0.32541955 0.060515106
-0.19914334 -0.32545123 0.060500447
-0.19932759 -0.32548663 0.060440898
-0.19950157 -0.32551336 0.060433269
-0.19970623 -0.32553357 0.06050624
-0.19994937 -0.32557815 0.060442984
-0.20015283 -0.32561386 0.060401797
-0.20034982 -0.32565412 0.06032028
-0.20053577 -0.3256844 0.060299926
-0.20071542 -0.32570627 0.060333788
-0.20095448 -0.32573777 0.060361646
-0.2011428 -0.32578054 0.060252488
-0.20134261 -0.32581696 0.060202088
-0.20154583 -0.32583082 0.060320035
-0.20175844 -0.32587165 0.060251147
-0.20194906 -0.32590955 0.060180023
-0.20211244 -0.32592729 0.060226642
-0.2023305 -0.32596245 0.060204998
-0.20255941 -0.32599926 0.060183309
-0.20275682 -0.32602853 0.060182512
-0.20296322 -0.32606655 0.060127482
-0.20315903 -0.32610381 0.060066722
-0.20331988 -0.32612291 0.060100667
-0.20352943 -0.32615617 0.060083669
-0.20373842 -0.32618874 0.060071293
-0.20391953 -0.32621384 0.06008324
-0.20412157 -0.32625154 0.060025923
-0.20434761 -0.32627985 0.060063049
-0.20453332 -0.3263129 0.060021937
-0.2047264 -0.32635877 0.059895463
-0.20492834 -0.32638031 0.059955761
-0.20514014 -0.326419 0.05990186
-0.20531592 -0.32643542 0.059971485
-0.20551924 -0.32647124 0.059929147
-0.20571752 -0.32649809 0.059946794
-0.20592093 -0.32654074 0.059854873
-0.20610553 -0.326561 0.059906006
-0.20627701 -0.32658169 0.059939906
-0.20649125 -0.32662672 0.059842177
-0.20668121 -0.3266443 0.059918664
-0.20689528 -0.32668978 0.059817478
-0.20708957 -0.3267298 0.059734814
-0.20730174 -0.32676554 0.059702821
-0.20749001 -0.32679376 0.059699751
-0.20768893 -0.32681596 0.059751984
-0.20789596 -0.32684842 0.059738457
-0.20807518 -0.32687923 0.059706599
-0.20828407 -0.32690862 0.059717283
-0.20847756 -0.32694158 0.059685364
-0.20867497 -0.32696009 0.05976297
-0.20885189 -0.32699424 0.059704602
-0.20908073 -0.32703969 0.05961949
-0.2092714 -0.32706669 0.059627943
-0.20945169 -0.32709327 0.059628367
-0.20966254 -0.32713765 0.059531793
-0.20985401 -0.32714894 0.059655562
-0.21004194 -0.32718742 0.059577532
-0.21023566 -0.32721391 0.059592891
-0.21046893 -0.32726589 0.059465107
-0.21065655 -0.32729512 0.059453964
-0.21084514 -0.32731709 0.059497021
-0.21104413 -0.3273499 0.059471995
-0.21124092 -0.32738698 0.059413537
-0.21143524 -0.32740518 0.05949001
-0.21161312 -0.3274371 0.059448935
-0.21179901 -0.32746133 0.05947239
-0.21202473 -0.3275049 0.059397683
-0.21223763 -0.3275401 0.059370294
-0.21241224 -0.32756126 0.059404176
-0.21258254 -0.32759252 0.059359662
-0.21280561 -0.32762796 0.059341468
-0.21300758 -0.32764745 0.059416749
-0.21318847 -0.32769608 0.059256889
-0.21338464 -0.32772091 0.05928722
-0.21356404 -0.3277483 0.059280731
-0.21375728 -0.32777569 0.059289165
-0.21396054 -0.32781926 0.059190325
-0.21418189 -0.32784858 0.059214793
-0.21434881 -0.32786557 0.059270624
-0.21454364 -0.32790333 0.059205256
-0.21474764 -0.3279334 0.059205581
-0.21494295 -0.32795191 0.059280902
-0.21511507 -0.32797951 0.059265204
-0.21530755 -0.32803002 0.059104137
-0.21551621 -0.32807216 0.059021421
-0.21572915 -0.32809061 0.059116263
-0.21591848 -0.32811773 0.059122413
-0.21609707 -0.32814294 0.059130922
-0.21628663 -0.32817292 0.059116311
-0.21648709 -0.32820818 0.059075132
-0.21667984 -0.3282347 0.059089348
-0.21687348 -0.32827875 0.05897671
-0.21707335 -0.32830918 0.058970131
-0.21726957 -0.32833764 0.058973953
-0.2174623 -0.3283689 0.058953561
-0.21765141 -0.32840165 0.0589182
-0.2178404 -0.32843363 0.058888607
-0.21804018 -0.32844159 0.059045777
-0.21823627 -0.32848158 0.058965407
-0.21841431 -0.32851824 0.058889732
-0.21861416 -0.32854012 0.058945429
-0.21879959 -0.32856682 0.058950439
-0.21900254 -0.32860148 0.058916174
-0.21919776 -0.32864293 0.058824293
-0.21939723 -0.32867217 0.058825783
-0.21958198 -0.3287051 0.058784671
-0.21977811 -0.3287307 0.058809247
-0.21996272 -0.32876346 0.058769297
-0.22016209 -0.32879251 0.058771946
-0.22035463 -0.32881838 0.058790758
-0.22060254 -0.32883775 0.058916599
-0.22080587 -0.32884115 0.059110649
-0.22099768 -0.3288514 0.05924248
-0.22120051 -0.32886344 0.059373114
-0.22140178 -0.32886562 0.059574086
-0.22159979 -0.32886839 0.059767008
-0.22179292 -0.32887977 0.059891917
-0.22199839 -0.32888684 0.060061745
-0.22219782 -0.32888967 0.060255807
-0.22239701 -0.32889581 0.060425662
-0.22260083 -0.32890007 0.060613938
-0.22280127 -0.32890496 0.060794167
-0.16663435 -0.32029811 0.063066497
-0.16686811 -0.32033673 0.06303668
-0.16708806 -0.32036602 0.063059993
-0.16732855 -0.32040864 0.063008234
-0.16753447 -0.32043189 0.063060433
-0.16778156 -0.32047674 0.062999427
-0.16801472 -0.32051557 0.062967315
-0.16823031 -0.32054278 0.063001022
-0.16844989 -0.32057407 0.063009329
-0.16871874 -0.32063371 0.062864035
-0.1689555 -0.32067513 0.062816918
-0.16918021 -0.32070798 0.062819436
-0.16937676 -0.32072636 0.062897049
-0.16958183 -0.32074791 0.062960781
-0.16983038 -0.32079664 0.062873244
-0.17006657 -0.3208383 0.062823817
-0.17028871 -0.32087186 0.062818281
-0.17050973 -0.32090303 0.062828891
-0.17073077 -0.32093614 0.062825665
-0.17096989 -0.32097822 0.062776223
-0.1711947 -0.32101378 0.062759139
-0.17143229 -0.32105708 0.062699318
-0.17163908 -0.32108203 0.062739983
-0.17187282 -0.32112142 0.062704414
-0.17209807 -0.32115766 0.062682711
-0.17232645 -0.32119405 0.062663302
-0.17257558 -0.32124507 0.062559612
-0.17280138 -0.32129326 0.062451407
-0.17304073 -0.3213256 0.06247348
-0.17321146 -0.32132891 0.062633082
-0.17345585 -0.32137764 0.062540948
-0.17368138 -0.32141298 0.062526166
-0.17390066 -0.32144645 0.062518336
-0.17411083 -0.32147238 0.062555514
-0.17433208 -0.32150725 0.0625396
-0.17458078 -0.32155755 0.062440526
-0.17479756 -0.32158986 0.062438473
-0.1750083 -0.32161841 0.062457196
-0.17523219 -0.32165539 0.062428586
-0.17546658 -0.32169726 0.062375709
-0.17567039 -0.32172164 0.06241753
-0.17589663 -0.32175851 0.062392369
-0.17612591 -0.32179946 0.062340669
-0.17633396 -0.32182476 0.062380165
-0.17655459 -0.32186031 0.062358484
-0.17678457 -0.3219001 0.062316
-0.17700008 -0.32193252 0.062311646
-0.17723355 -0.3219749 0.062254153
-0.17744647 -0.32200584 0.062257882
-0.17766105 -0.32203797 0.062254678
-0.17787214 -0.32206783 0.062264174
-0.17809784 -0.3221097 0.062202107
-0.17831618 -0.32214049 0.062212735
-0.1785298 -0.32217026 0.062225677
-0.17875719 -0.32221156 0.062169369
-0.17898823 -0.32225341 0.062113047
-0.17919382 -0.32228008 0.062139869
-0.17940474 -0.32230836 0.062160902
-0.17955743 -0.32232845 0.062178727
-0.17986599 -0.32239461 0.062028646
-0.18007331 -0.3224228 0.062046237
-0.18028986 -0.32245541 0.062041879
-0.18049921 -0.32248518 0.062050231
-0.18073298 -0.32253012 0.061974287
-0.18094477 -0.32256183 0.061971106
-0.18115975 -0.32259369 0.061970197
-0.18136567 -0.32262138 0.061990101
-0.18160467 -0.32267073 0.061887614
-0.18181601 -0.32270253 0.061883274
-0.18202426 -0.32272995 0.061907776
-0.18222718 -0.32275575 0.06193807
-0.18245712 -0.32279918 0.06186907
-0.18267024 -0.32283267 0.061854333
-0.18287748 -0.32285959 0.061881155
-0.18309081 -0.32289344 0.061864108
-0.18332812 -0.32294303 0.061758168
-0.18353625 -0.32297325 0.061761908
-0.18374501 -0.32300165 0.061779492
-0.18396093 -0.32303795 0.061747454
-0.18418869 -0.32308105 0.061678454
-0.18438394 -0.32310176 0.061737619
-0.18459195 -0.32312992 0.061756354
-0.18481417 -0.32317156 0.061691992
-0.18504944 -0.32322118 0.06158375
-0.18525606 -0.32325101 0.06158866
-0.18546392 -0.32327944 0.061605088
-0.18567325 -0.3233116 0.061596148
-0.18588652 -0.32334447 0.061586022
-0.18611203 -0.32338977 0.061498582
-0.18633112 -0.32342765 0.061458457
-0.18651719 -0.32344148 0.061558027
-0.18672618 -0.32347894 0.061509863
-0.18694746 -0.32351381 0.061493948
-0.18716981 -0.32355481 0.061434194
-0.18738431 -0.32359216 0.061392937
-0.18758944 -0.32361925 0.061416306
-0.1877946 -0.32364905 0.061420057
-0.18800324 -0.32367918 0.061424956
-0.18821204 -0.3237122 0.061409093
-0.18843099 -0.3237513 0.061359741
-0.18863919 -0.32378405 0.061345026
-0.18885127 -0.32381755 0.061329149
-0.18905562 -0.32384723 0.061332911
-0.18926103 -0.32387516 0.06135051
-0.18947758 -0.32391563 0.061288476
-0.18969548 -0.32395476 0.061237983
-0.18987668 -0.3239783 0.061261438
-0.19009027 -0.32400823 0.061273232
-0.1903158 -0.32404894 0.061219245
-0.19051273 -0.32407543 0.061238028
-0.19070339 -0.32411066 0.061186478
-0.19093812 -0.32414293 0.06120396
-0.19114122 -0.32417241 0.061207719
-0.19135998 -0.32421356 0.061143376
-0.1915648 -0.32424486 0.061135605
-0.1917707 -0.32427728 0.061120905
-0.19197151 -0.324305 0.061135061
-0.19218406 -0.32434094 0.061101884
-0.19234945 -0.32436231 0.061124258
-0.19259113 -0.3244051 0.061072499
-0.19280612 -0.32444078 0.061043926
-0.19299065 -0.3244561 0.061130814
-0.19322643 -0.32451242 0.060974121
-0.19341105 -0.32453108 0.061036788
-0.19362465 -0.32457224 0.0609667
-0.1938415 -0.32460409 0.060968094
-0.19402692 -0.32462683 0.061001919
-0.19423555 -0.32467327 0.060888026
-0.19446822 -0.32471186 0.060857065
-0.19467027 -0.32474548 0.060829695
-0.19485888 -0.32477185 0.06084045
-0.19500767 -0.32477665 0.060965538
-0.19522482 -0.32483321 0.060787015
-0.19547559 -0.32487482 0.060753677
-0.19568172 -0.3248997 0.060794346
-0.19585603 -0.32491794 0.06084897
-0.19605321 -0.3249611 0.060746651
-0.19630301 -0.32499877 0.060741
-0.19649261 -0.32503051 0.060713682
-0.19669995 -0.32505697 0.060743954
-0.19689128 -0.32507634 0.060808904
-0.19707811 -0.32510149 0.060826577
-0.19729266 -0.32515481 0.060668822
-0.1975015 -0.32517582 0.060740612
-0.19770589 -0.32522178 0.060625575
-0.19793068 -0.32525399 0.060632717
-0.19809227 -0.32526895 0.060697787
-0.19832265 -0.32531574 0.06060455
-0.19851498 -0.32533258 0.060689099
-0.19875464 -0.32538724 0.06054854
-0.19896835 -0.32543048 0.060463462
-0.19916238 -0.32545355 0.060504172
-0.19933496 -0.32546189 0.060629167
-0.19954495 -0.32550505 0.060540639
-0.19977124 -0.32554856 0.060467035
-0.19997081 -0.32557893 0.060460433
