# .PCD v0.7 - Point Cloud Data file format
VERSION 0.7
FIELDS x y z
SIZE 4 4 4
TYPE F F F
COUNT 1 1 1
WIDTH 1255
HEIGHT 1
VIEWPOINT 0 0 0 1 0 0 0
POINTS 1255
DATA ascii
-0.35027015 -0.30332407 0.058413275
-0.35047656 -0.30332085 0.058384608
-0.35068554 -0.30332321 0.058314435
-0.35087669 -0.30330718 0.058383819
-0.35107958 -0.30330452 0.058351714
-0.35123867 -0.30330041 0.058341719
-0.35147971 -0.30329475 0.058322109
-0.35168412 -0.30329052 0.058301523
-0.35187241 -0.30328554 0.058290236
-0.35208124 -0.3032752 0.058313422
-0.35229135 -0.30328 0.058224805
-0.35249326 -0.30327395 0.058218058
-0.35268965 -0.30326638 0.058224022
-0.35288453 -0.30325741 0.058240369
-0.35308999 -0.30325502 0.058205944
-0.35329154 -0.30324897 0.058199201
-0.35350531 -0.30325869 0.058073673
-0.35368845 -0.30325344 0.058065869
-0.35388091 -0.30324253 0.05809721
-0.35408548 -0.30323625 0.058091611
-0.35429108 -0.30322725 0.058105595
-0.35448998 -0.30322301 0.058086194
-0.35468763 -0.30322152 0.058047187
-0.35486826 -0.30321413 0.058055539
-0.35507527 -0.30321091 0.058026873
-0.3552863 -0.30320814 0.057993565
-0.35543028 -0.3031978 0.058033217
-0.35569018 -0.30319968 0.05795357
-0.35586774 -0.30318928 0.057984985
-0.35607949 -0.30318367 0.057972435
-0.35627526 -0.30317703 0.057971485
-0.35645336 -0.30317587 0.057934884
-0.35664886 -0.3031691 0.057935085
-0.35687441 -0.30316713 0.057892494
-0.35707444 -0.303166 0.057850029
-0.35727087 -0.30315623 0.057872124
-0.35743937 -0.30314863 0.05788514
-0.35765958 -0.30314997 0.05781953
-0.35785717 -0.30313244 0.057898112
-0.35805655 -0.30313119 0.057856798
-0.35825109 -0.30313355 0.057790153
-0.35845742 -0.30312738 0.057783384
-0.35860047 -0.30310604 0.057903726
-0.35883996 -0.30311456 0.057780374
-0.35904717 -0.30311495 0.057725191
-0.35922444 -0.30310988 0.057717413
-0.35944268 -0.30310547 0.057694457
-0.35963979 -0.3030974 0.057703879
-0.35983211 -0.30308774 0.057725996
-0.36002052 -0.30308861 0.057672061
-0.360232 -0.30309117 0.057599567
-0.36042821 -0.30308217 0.057615906
-0.36059585 -0.30306882 0.057671577
-0.36081454 -0.3030661 0.057635933
-0.36100695 -0.30305693 0.057654589
-0.36121219 -0.30306256 0.057561386
-0.36140615 -0.30305615 0.057559289
-0.3616021 -0.30305311 0.057531826
-0.36179709 -0.30304873 0.057514738
-0.36199489 -0.30304298 0.057506867
-0.36218154 -0.30303696 0.057503652
-0.36236101 -0.30303136 0.057499327
-0.36257166 -0.303036 0.057411853
-0.36278063 -0.3030313 0.057393551
-0.36297563 -0.30302799 0.057368398
-0.36316481 -0.30302063 0.057374395
-0.36336583 -0.30301508 0.057364199
-0.36356083 -0.30301225 0.057335593
-0.36375278 -0.3030034 0.057351951
-0.36395195 -0.303002 0.057311788
-0.36414289 -0.30299115 0.057343148
-0.36434144 -0.30298883 0.057309903
-0.36453554 -0.30298492 0.057289362
-0.36471936 -0.30298263 0.057259656
-0.36492354 -0.30297729 0.057247136
-0.36511588 -0.30296984 0.057253122
-0.3653138 -0.30296722 0.057222188
-0.36551061 -0.30296212 0.057209712
-0.36570361 -0.3029567 0.0572007
-0.36589798 -0.30295497 0.057164028
-0.36608943 -0.30294567 0.057183851
-0.36628625 -0.3029412 0.057166755
-0.3664715 -0.3029348 0.057167009
-0.36666337 -0.30292672 0.057177603
-0.36686119 -0.30292583 0.057133999
-0.3670623 -0.30292436 0.057093836
-0.36724696 -0.30291671 0.057103306
-0.36742958 -0.30291414 0.057075918
-0.36764437 -0.3029114 0.057041444
-0.36784098 -0.30290821 0.057015125
-0.36802259 -0.302903 0.057007328
-0.36822563 -0.30289772 0.056994822
-0.36840975 -0.30288848 0.057015829
-0.36858109 -0.30288568 0.056993101
-0.36878118 -0.30288345 0.056958701
-0.36898825 -0.302881 0.056924265
-0.36919367 -0.30287138 0.056942862
-0.36937687 -0.30285767 0.056997303
-0.36955392 -0.30286735 0.056881178
-0.36975023 -0.30286652 0.05683757
-0.36996606 -0.30285561 0.05686304
-0.37014002 -0.30285034 0.056857582
-0.37032798 -0.30284321 0.056862436
-0.37052375 -0.30284098 0.056829218
-0.37071979 -0.30284172 0.056774087
-0.37091067 -0.30283055 0.056807745
-0.37109894 -0.302827 0.056786075
-0.37130857 -0.30282414 0.056753937
-0.37149262 -0.30281523 0.056772642
-0.37168109 -0.30281639 0.056716401
-0.37187967 -0.30281171 0.056700446
-0.37205347 -0.30280897 0.056676548
-0.37223759 -0.30280197 0.056681424
-0.37242892 -0.30279738 0.056666665
-0.37261698 -0.30280042 0.056596592
-0.37283289 -0.30279341 0.056593239
-0.37302047 -0.30278677 0.056594629
-0.37321514 -0.30278111 0.056586768
-0.37340975 -0.30278066 0.056540869
-0.37360799 -0.30276516 0.056604467
-0.37378839 -0.30276328 0.056572467
-0.37398627 -0.30276522 0.056508105
-0.37417704 -0.30276442 0.056465685
-0.37436438 -0.30275902 0.056457862
-0.37455887 -0.30275196 0.056460377
-0.37475005 -0.30274221 0.056483656
-0.37494779 -0.30273911 0.056456186
-0.3751429 -0.30272514 0.056509409
-0.37532973 -0.30272511 0.0564624
-0.37552336 -0.30272639 0.056403823
-0.37571475 -0.30271551 0.056435168
-0.37590933 -0.30270785 0.056442302
-0.37610075 -0.30269775 0.056467883
-0.37629777 -0.30269784 0.056417353
-0.37648386 -0.30269969 0.056356516
-0.37667194 -0.30268863 0.056390185
-0.37686786 -0.30269361 0.056303933
-0.37706804 -0.3026931 0.05625686
-0.37725663 -0.30267966 0.056307808
-0.37744972 -0.30267909 0.056263074
-0.3776415 -0.30266789 0.056296729
-0.37783638 -0.30265895 0.056313075
-0.37802565 -0.30265912 0.056263737
-0.37822485 -0.30266133 0.056197066
-0.37841511 -0.30265662 0.056183461
-0.37861651 -0.3026495 0.056184795
-0.37880981 -0.3026464 0.056158494
-0.3790057 -0.30263397 0.056200199
-0.37919909 -0.30263057 0.056176208
-0.37938941 -0.30262554 0.056164913
-0.3795785 -0.30262446 0.056124799
-0.37976897 -0.3026188 0.056118116
-0.37995771 -0.30261838 0.056073397
-0.38016248 -0.30261162 0.056071248
-0.38034064 -0.30261108 0.056030035
-0.38054505 -0.30260527 0.056020979
-0.3807368 -0.30259594 0.056040801
-0.38093376 -0.30258223 0.056091718
-0.38112399 -0.30258629 0.056013558
-0.38131711 -0.30258259 0.055991873
-0.38151172 -0.3025752 0.055996701
-0.38171208 -0.30257079 0.05597844
-0.3818934 -0.30257013 0.055937212
-0.38208324 -0.30256575 0.055921301
-0.38228154 -0.30255795 0.055928405
-0.3824845 -0.30255532 0.055896301
-0.38265935 -0.30255318 0.055867791
-0.38286057 -0.30254668 0.055864505
-0.38305417 -0.30254152 0.055853192
-0.38324553 -0.30253395 0.055860333
-0.3834362 -0.30253473 0.055806387
-0.38363087 -0.30253425 0.055760488
-0.38382322 -0.30251142 0.055879444
-0.38402382 -0.30248675 0.056009881
-0.38422817 -0.30246869 0.056090727
-0.38441467 -0.30250257 0.055794723
-0.38460159 -0.30250329 0.055741947
-0.3848002 -0.30250159 0.055704094
-0.38500288 -0.30249867 0.0556743
-0.38518861 -0.30248922 0.055696446
-0.38536963 -0.30248201 0.055703647
-0.3855792 -0.30247915 0.055671506
-0.38577208 -0.30246964 0.055692472
-0.38595641 -0.30246842 0.05565469
-0.38614097 -0.30246675 0.055620365
-0.38634086 -0.30246264 0.055599794
-0.38653657 -0.30245963 0.055572342
-0.3867285 -0.30245188 0.055580627
-0.38691938 -0.3024509 0.055539355
-0.38712415 -0.3024396 0.055570636
-0.38731545 -0.30243295 0.055570871
-0.38750359 -0.30243585 0.055501945
-0.38769636 -0.302432 0.055481412
-0.38789314 -0.30241781 0.05553579
-0.38808194 -0.3024053 0.05557983
-0.38827536 -0.3024008 0.055563901
-0.3884683 -0.30240619 0.055475365
-0.38865992 -0.30240393 0.055443313
-0.3888593 -0.30239153 0.055483848
-0.38905543 -0.30239242 0.055427566
-0.38924184 -0.3023968 0.055348277
-0.38944039 -0.30238569 0.055379588
-0.38964808 -0.30238053 0.05536475
-0.38982332 -0.30238137 0.055314329
-0.39000869 -0.30237398 0.055321496
-0.39019889 -0.30236503 0.055339023
-0.39038691 -0.30237108 0.055247042
-0.39057535 -0.30236831 0.055219617
-0.39077231 -0.30235159 0.055292442
-0.39096335 -0.3023459 0.055285748
-0.39116427 -0.302333 0.055329733
-0.3913441 -0.30234402 0.055203207
-0.39155129 -0.30232805 0.055267911
-0.391756 -0.30232272 0.055255394
-0.39196727 -0.30232152 0.055210564
-0.39213246 -0.30232909 0.055112936
-0.39230844 -0.30233601 0.055017557
-0.39250305 -0.30232662 0.055037364
-0.39269826 -0.30231309 0.055087142
-0.39290252 -0.30229396 0.055176061
-0.39310497 -0.30228052 0.055223487
-0.39331704 -0.302268 0.055261657
-0.39350122 -0.30227336 0.055175461
-0.39369154 -0.30228278 0.055058114
-0.39387211 -0.30228797 0.054974243
-0.39406502 -0.30227751 0.055002123
-0.39427334 -0.30226561 0.055036847
-0.39446679 -0.30226815 0.054969054
-0.39464915 -0.30226481 0.054947425
-0.39484683 -0.3022567 0.054956831
-0.39504513 -0.30224812 0.054969702
-0.39524129 -0.30224162 0.054967605
-0.39543399 -0.30224153 0.054919407
-0.39562148 -0.30223992 0.054883916
-0.39582348 -0.30222821 0.054918669
-0.39600915 -0.30223134 0.054848608
-0.39618343 -0.30223534 0.054775141
-0.39639106 -0.30222186 0.054821394
-0.39660075 -0.30220678 0.054879166
-0.39679849 -0.3021993 0.054883972
-0.396988 -0.30220199 0.054816194
-0.39714429 -0.30221537 0.054678261
-0.39736295 -0.3021901 0.05480862
-0.39757904 -0.30217603 0.054857135
-0.39775699 -0.30218256 0.054764055
-0.39794806 -0.30218378 0.054706641
-0.39813387 -0.3021836 0.054660786
-0.39832762 -0.30217972 0.054640248
-0.39852926 -0.30216944 0.054664638
-0.3987326 -0.30216068 0.054677486
-0.39893118 -0.30215585 0.054662682
-0.39911774 -0.30215785 0.05460069
-0.39930889 -0.30215076 0.05460437
-0.39950967 -0.30214426 0.054601088
-0.399701 -0.30213985 0.054585181
-0.39988765 -0.30214435 0.05450473
-0.400085 -0.30213532 0.054521065
-0.40028861 -0.30212685 0.054531604
-0.40047187 -0.30212864 0.054471929
-0.4006764 -0.30211702 0.05450552
-0.40085426 -0.30212027 0.054436646
-0.40106103 -0.30210716 0.054480597
-0.40127367 -0.30209744 0.054498009
-0.40145761 -0.30210376 0.054404907
-0.40164673 -0.30209628 0.054412059
-0.40184084 -0.3020927 0.054389209
-0.40204057 -0.30208263 0.054412451
-0.40225711 -0.30206808 0.054464433
-0.40241802 -0.30208084 0.054329935
-0.40262985 -0.30206975 0.054357722
-0.40282375 -0.30206648 0.054332577
-0.40301788 -0.30206069 0.054325871
-0.40320635 -0.30206123 0.054274239
-0.40338659 -0.30206266 0.054218031
-0.40360272 -0.30204201 0.054314964
-0.40379998 -0.30204129 0.0542702
-0.40398577 -0.302046 0.054188617
-0.40419471 -0.30203515 0.054215267
-0.4043932 -0.30202451 0.054243125
-0.40458605 -0.30202678 0.054177634
-0.40476841 -0.30202234 0.054164067
-0.40497041 -0.30201188 0.054189604
-0.40519133 -0.30199376 0.054266922
-0.40536755 -0.30200458 0.054142725
-0.4055697 -0.30199647 0.054150961
-0.40576598 -0.30199218 0.054132722
-0.405945 -0.30199882 0.054038487
-0.40614516 -0.30198562 0.05408477
-0.40634745 -0.30197769 0.054091863
-0.40653923 -0.30197638 0.054052897
-0.40674484 -0.30196863 0.054057658
-0.40694883 -0.30196407 0.054039381
-0.40711507 -0.30197212 0.053938292
-0.40732208 -0.30195946 0.053978786
-0.40751117 -0.30195776 0.053943288
-0.40772808 -0.30194351 0.053992949
-0.40793228 -0.30194321 0.053943548
-0.40811759 -0.30194384 0.053891927
-0.4082967 -0.30194405 0.053844955
-0.4085061 -0.30192849 0.053906187
-0.40871567 -0.30191904 0.053922452
-0.40890318 -0.30191851 0.053878896
-0.40910012 -0.30191451 0.053858347
-0.409275 -0.30191925 0.05377911
-0.40947166 -0.3019115 0.053786233
-0.40967637 -0.30190316 0.053795606
-0.40987802 -0.30189666 0.053792331
-0.41007769 -0.30189133 0.053780988
-0.41028303 -0.30188093 0.053805351
-0.41047788 -0.30187839 0.053774435
-0.41067329 -0.30187368 0.053759657
-0.41087407 -0.30186987 0.053736776
-0.41107979 -0.30186337 0.053732321
-0.41128618 -0.30185089 0.053771671
-0.41144419 -0.3018705 0.053587615
-0.41165015 -0.30185834 0.053624656
-0.41185012 -0.30184954 0.053638682
-0.4120551 -0.3018437 0.053629611
-0.41225675 -0.30183971 0.053607889
-0.41246298 -0.30183145 0.053616103
-0.41265002 -0.30183345 0.05355411
-0.41285482 -0.30182245 0.053583082
-0.4130553 -0.30182287 0.053529091
-0.41323912 -0.30181932 0.053508602
-0.41344312 -0.30180898 0.053532969
-0.41364804 -0.30180362 0.053520452
-0.41384664 -0.30180332 0.053472228
-0.41406149 -0.30179119 0.053506918
-0.41425315 -0.30179098 0.053459883
-0.41443807 -0.30179241 0.053402498
-0.41465718 -0.30178013 0.05343717
-0.41486883 -0.30177343 0.053432684
-0.4150221 -0.30178034 0.053343181
-0.41525596 -0.30176958 0.053362798
-0.41546088 -0.30175778 0.053397544
-0.4156526 -0.30175945 0.053336669
-0.41582149 -0.30176207 0.053274754
-0.41604793 -0.30175015 0.05330478
-0.41624734 -0.30174813 0.053269234
-0.41644597 -0.30173638 0.053305164
-0.41662744 -0.30173635 0.053259317
-0.41684696 -0.30172816 0.053264022
-0.41704243 -0.30172482 0.053238869
-0.41722387 -0.30172324 0.053204559
-0.41746163 -0.30170327 0.053291008
-0.41772786 -0.30168658 0.053346198
-0.41797227 -0.30166715 0.053426862
-0.41820249 -0.30164963 0.053497218
-0.41844678 -0.30162412 0.053622823
-0.41868517 -0.3016032 0.053716198
-0.4189176 -0.30158356 0.053801525
-0.41915646 -0.30156276 0.053893737
-0.41939867 -0.30153903 0.054006673
-0.41963509 -0.30151972 0.054088533
-0.41988084 -0.30149478 0.054209523
-0.42011139 -0.30147851 0.054270655
-0.42035854 -0.30145493 0.054381266
-0.42059249 -0.30143586 0.054461978
-0.42084554 -0.30141005 0.054587543
-0.42108345 -0.30139118 0.054665927
-0.42131793 -0.30137241 0.054744329
-0.42157251 -0.30134654 0.054869898
-0.42181563 -0.30132434 0.054971315
-0.42208257 -0.30129349 0.055130243
-0.31804949 -0.30406532 0.061134055
-0.31829059 -0.30406374 0.061084457
-0.31852588 -0.30406034 0.061049879
-0.31874999 -0.30405322 0.061045334
-0.31899387 -0.30405298 0.060985342
-0.31919959 -0.30403975 0.061030462
-0.31943378 -0.30403635 0.060995884
-0.31967917 -0.304037 0.060928974
-0.31989139 -0.30402622 0.060954459
-0.3201341 -0.30402461 0.060904853
-0.32035732 -0.30401781 0.060898006
-0.32058316 -0.30401206 0.060883068
-0.32080996 -0.30400676 0.060864668
-0.32103893 -0.30400229 0.060839344
-0.32128042 -0.30400243 0.060777068
-0.32147855 -0.30398712 0.060839511
-0.32170796 -0.30398312 0.060810726
-0.32192883 -0.30397612 0.060806192
-0.32217106 -0.30397701 0.060738146
-0.32237616 -0.30396444 0.060778648
-0.3226077 -0.3039616 0.060740627
-0.32285884 -0.30396456 0.060655247
-0.32307231 -0.30395532 0.060669195
-0.32328984 -0.30394763 0.060670439
-0.32351029 -0.3039411 0.060662445
-0.32376173 -0.30394641 0.060559772
-0.32394898 -0.30392754 0.060651086
-0.32419133 -0.30392796 0.060586497
-0.32441875 -0.3039245 0.060554262
-0.32462606 -0.30391341 0.060583234
-0.32484034 -0.30390504 0.06059026
-0.32507449 -0.3039045 0.060534935
-0.32530352 -0.30390209 0.060494617
-0.32552782 -0.30389622 0.060480841
-0.32575554 -0.30389354 0.060442835
-0.32597205 -0.30388653 0.060439479
-0.32618585 -0.30387852 0.060444213
-0.32639915 -0.30387035 0.060450085
-0.32660401 -0.30385888 0.060482524
-0.32684028 -0.3038584 0.060426038
-0.32707727 -0.30386013 0.060353398
-0.32727134 -0.30384445 0.060419325
-0.32750669 -0.30384576 0.060350154
-0.32772705 -0.30383924 0.06034217
-0.32795581 -0.30383807 0.060292628
-0.32815832 -0.30382434 0.060342371
-0.32838577 -0.30382463 0.060282469
-0.32861596 -0.30382267 0.060238689
-0.32883146 -0.3038218 0.060190372
-0.32903299 -0.30380243 0.060281627
-0.32923037 -0.30378851 0.060333699
-0.32947338 -0.30379426 0.060229909
-0.32970986 -0.30379742 0.060146898
-0.32994485 -0.30379826 0.060081184
-0.3301799 -0.30380112 0.06000049
-0.3303625 -0.30377924 0.06011489
-0.33058551 -0.30377704 0.060074612
-0.3307935 -0.30376828 0.06008628
-0.33100754 -0.30376229 0.060076021
-0.33121786 -0.30375281 0.060092282
-0.33143774 -0.30374962 0.060060084
-0.33165544 -0.30374554 0.060034811
-0.33182895 -0.30373481 0.06006971
-0.33207306 -0.30372766 0.060060456
-0.33231711 -0.30373603 0.05993706
-0.33252898 -0.30372775 0.059944101
-0.33275372 -0.30372754 0.05988881
-0.33292449 -0.3037158 0.059931789
-0.33316636 -0.3037101 0.059912167
-0.33339888 -0.30371198 0.059839562
-0.33359528 -0.30369875 0.059887026
-0.33379635 -0.30368975 0.059902184
-0.33402541 -0.30369031 0.059839964
-0.33424661 -0.30368721 0.059806611
-0.33445045 -0.3036778 0.059824064
-0.33465481 -0.30366871 0.059839204
-0.33486533 -0.30366266 0.059830114
-0.33510494 -0.30366915 0.059721731
-0.33530939 -0.30366036 0.059734561
-0.33551556 -0.30365041 0.059755471
-0.33573583 -0.30364969 0.059704822
-0.3359451 -0.30364355 0.059696883
-0.33616516 -0.30364302 0.059645087
-0.3363722 -0.30363381 0.059660219
-0.33658013 -0.30362725 0.059655748
-0.33679327 -0.3036235 0.059629351
-0.33700004 -0.30361649 0.059628338
-0.33721638 -0.30361247 0.059603073
-0.3374334 -0.3036111 0.059558205
-0.33763909 -0.30360162 0.059575651
-0.337845 -0.3035945 0.059575804
-0.33805841 -0.30359152 0.059543636
-0.33827406 -0.30358985 0.059501085
-0.33848274 -0.30358234 0.059503525
-0.33868966 -0.30357611 0.059496753
-0.33891055 -0.30357775 0.059428811
-0.33911309 -0.30356932 0.059439354
-0.33933201 -0.30356789 0.059394479
-0.33954006 -0.30356273 0.05937963
-0.33974838 -0.30355552 0.059379768
-0.33993822 -0.3035447 0.05941112
-0.34017041 -0.30354908 0.059320062
-0.34037983 -0.30354276 0.059313282
-0.34058958 -0.30353677 0.059304193
-0.34078205 -0.30352303 0.059356291
-0.34100112 -0.30352271 0.05930334
-0.34120071 -0.30351329 0.05932197
-0.3414312 -0.30352244 0.059196331
-0.34162432 -0.30350929 0.059243813
-0.34181854 -0.30349442 0.059303977
-0.34201416 -0.30348277 0.059339918
-0.3422333 -0.30348319 0.0592812
-0.34245703 -0.30348912 0.05918096
-0.34266317 -0.30348185 0.059182264
-0.34285814 -0.30347008 0.059219368
-0.34307963 -0.30347261 0.059144504
-0.34327909 -0.30346382 0.059158519
-0.34349978 -0.30346876 0.059066363
-0.34370932 -0.30346668 0.059028447
-0.34391463 -0.30345944 0.059029751
-0.34410337 -0.30344394 0.059095703
-0.34431577 -0.30344146 0.059060082
-0.34452602 -0.3034403 0.059015248
-0.34473333 -0.3034347 0.059003871
-0.34494361 -0.30343387 0.058956727
-0.34513327 -0.30341914 0.059016906
-0.34534651 -0.30342054 0.058952454
-0.34554613 -0.30341002 0.058979154
-0.34576368 -0.30341476 0.058889322
-0.34596094 -0.30340275 0.058927566
-0.34616381 -0.30339745 0.058915045
-0.34637305 -0.30339679 0.058866758
-0.34655538 -0.30339095 0.058863565
-0.34677288 -0.30337965 0.05889133
-0.34697402 -0.30337632 0.058864988
-0.34717813 -0.30336672 0.058883592
-0.34738177 -0.30336833 0.058820345
-0.34759092 -0.30336264 0.058808953
-0.34778816 -0.30335394 0.058822975
-0.34795985 -0.30335519 0.058770262
-0.34820133 -0.30335692 0.058696453
-0.34841165 -0.30334666 0.05871848
-0.34860939 -0.30334467 0.058682933
-0.34881943 -0.30334038 0.058661155
-0.34900293 -0.30333042 0.058687933
-0.34922159 -0.30332708 0.058656894
-0.34941393 -0.30332434 0.058628298
-0.34963191 -0.30332074 0.058599554
-0.34982508 -0.3033095 0.058633212
-0.35002443 -0.30330339 0.058627628
-0.35022587 -0.30329907 0.0586082
-0.35042974 -0.30329373 0.058595672
-0.3506341 -0.30329216 0.058555484
-0.35082567 -0.30328301 0.058574144
-0.35101485 -0.30328178 0.058535177
-0.35124832 -0.30328614 0.05844412
-0.35144547 -0.30327883 0.058447771
-0.35163659 -0.30326626 0.0584918
-0.35183766 -0.30326259 0.058467768
-0.35203844 -0.30325532 0.058470245
-0.35224041 -0.30325273 0.058438133
-0.3524344 -0.30324286 0.058461402
-0.35263309 -0.30323741 0.058451213
-0.35284203 -0.30323818 0.058392555
-0.3530485 -0.30324045 0.058323521
-0.35324752 -0.30323574 0.058307566
-0.35343763 -0.30322617 0.058329701
-0.35363382 -0.30321515 0.058361024
-0.35382077 -0.30320993 0.058352046
-0.35402855 -0.3032068 0.058322214
-0.35423267 -0.303204 0.058291242
-0.3544319 -0.303204 0.058240693
-0.35461125 -0.30319527 0.058259424
-0.35483754 -0.30319247 0.058222577
-0.35503858 -0.30319101 0.058182407
-0.35520586 -0.30318156 0.058209263
-0.35541427 -0.30318424 0.058136769
-0.35562575 -0.30316594 0.058217593
-0.35581473 -0.30317649 0.058092155
-0.35602185 -0.30316588 0.058117665
-0.35620934 -0.30315843 0.058124825
-0.35639748 -0.30315176 0.058126211
-0.3566207 -0.30315128 0.058073249
-0.3568137 -0.30314177 0.058094211
-0.35700217 -0.30314463 0.058025278
-0.35719979 -0.30313638 0.058035843
-0.35739976 -0.30312648 0.058057923
-0.3576088 -0.30311862 0.058062676
-0.35780516 -0.30311355 0.058050182
-0.35801131 -0.30311629 0.057977702
-0.35820439 -0.30311212 0.057959467
-0.35840857 -0.30311289 0.057901978
-0.35859796 -0.30309927 0.057954095
-0.35879713 -0.30309865 0.057908162
-0.35899222 -0.30308765 0.057939492
-0.35918033 -0.30308741 0.057893615
-0.3593854 -0.30308017 0.057894919
-0.35958442 -0.30307484 0.057883583
-0.35978127 -0.3030718 0.057856105
-0.35997975 -0.30307135 0.057809018
-0.36017299 -0.30306339 0.057818457
-0.36035544 -0.30305582 0.05782795
-0.36053959 -0.30305085 0.05781782
-0.36073515 -0.30304092 0.057841077
-0.36092919 -0.30304599 0.057754826
-0.36110809 -0.30303302 0.057804681
-0.3613157 -0.30304876 0.057636499
-0.36151093 -0.30303273 0.057704724
-0.36171427 -0.30302396 0.057717565
-0.3619298 -0.30301729 0.057711903
-0.36213094 -0.30301112 0.057706319
-0.36232024 -0.30300346 0.057714619
-0.36250633 -0.3029967 0.057717167
-0.36271092 -0.30299714 0.057661984
-0.36289495 -0.3029936 0.057641495
-0.36310387 -0.30298904 0.057622034
-0.36329845 -0.3029851 0.057601482
-0.36348984 -0.30298224 0.057574037
-0.36369032 -0.30297592 0.057569601
-0.36388525 -0.30297327 0.057539832
-0.36405033 -0.3029691 0.057528649
-0.3642509 -0.30296341 0.0575196
-0.36446398 -0.30295336 0.057539318
-0.36466056 -0.30295518 0.0574761
-0.364849 -0.30295539 0.057426766
-0.36505306 -0.30295008 0.057414241
-0.36524433 -0.30294031 0.057437524
-0.36543724 -0.30293441 0.05743197
-0.36562142 -0.30293414 0.057387263
-0.36579147 -0.30292556 0.057407185
-0.36599594 -0.3029221 0.057380833
-0.36621395 -0.30291644 0.057367083
-0.36639485 -0.30290797 0.057383496
-0.36659738 -0.30291006 0.057316791
-0.36679441 -0.30290699 0.057289325
-0.36697143 -0.30289802 0.057310365
-0.36715877 -0.30289891 0.057256415
-0.36737767 -0.30289778 0.057209238
-0.36754099 -0.30287907 0.057305288
-0.36773714 -0.30288672 0.057199415
-0.36794019 -0.30288124 0.057188056
-0.36813405 -0.30286843 0.057233222
-0.36833376 -0.30286416 0.057213806
-0.36852786 -0.30286655 0.057147142
-0.36872676 -0.30285966 0.057147328
-0.36889693 -0.30285248 0.057156876
-0.36909604 -0.3028467 0.057148986
-0.36928514 -0.30284452 0.057116941
-0.36947036 -0.3028414 0.057092983
-0.36966941 -0.30283624 0.057080485
-0.36986089 -0.30282882 0.057086464
-0.37005609 -0.30282238 0.05708437
-0.37026268 -0.30282041 0.057046469
-0.37044346 -0.3028135 0.057051353
-0.37062806 -0.30280834 0.057042383
-0.37079853 -0.30280432 0.057028875
-0.37099424 -0.30280334 0.056986406
-0.37120369 -0.30279922 0.056963488
-0.37139162 -0.30279383 0.056955658
-0.37160081 -0.30278784 0.056946572
-0.37176365 -0.3027806 0.056958456
-0.37199074 -0.30277747 0.056923915
-0.37217525 -0.30277625 0.056886122
-0.37234864 -0.30276787 0.056903731
-0.37253666 -0.30276904 0.056847472
-0.3727347 -0.30275574 0.056894936
-0.37293312 -0.30275467 0.056852456
-0.37309951 -0.30274922 0.0568505
-0.37329069 -0.30274493 0.056833424
-0.37348181 -0.30273911 0.05682788
-0.37366951 -0.3027249 0.05688462
-0.37387428 -0.3027401 0.056721058
-0.37405807 -0.30273718 0.056695953
-0.37423465 -0.30273592 0.056660507
-0.37442198 -0.30273035 0.056653831
-0.3746092 -0.30272621 0.056636784
-0.3748 -0.3027204 0.056631241
-0.37499452 -0.30271223 0.056641825
-0.37518933 -0.30270141 0.056672003
-0.3753635 -0.30268642 0.056738023
-0.37555346 -0.3026894 0.05666792
-0.37573951 -0.30269408 0.056586314
-0.37593272 -0.30269635 0.056520816
-0.37612906 -0.30270022 0.056442607
-0.37632301 -0.30269507 0.056431293
-0.37652659 -0.30267343 0.056538668
-0.37671179 -0.30265838 0.056602336
-0.3769066 -0.30264944 0.056618683
-0.37709999 -0.30264837 0.056577388
-0.37728766 -0.30265802 0.056458876
-0.37747049 -0.30263883 0.056553677
-0.377655 -0.30264544 0.056458242
-0.37784451 -0.30264437 0.056418117
-0.37804079 -0.30264401 0.056371041
-0.37822798 -0.30262291 0.056478508
-0.37842101 -0.30262139 0.05644067
-0.37860325 -0.30262074 0.056399442
-0.37879577 -0.3026205 0.056352384
-0.37899148 -0.30262095 0.056299545
-0.37918484 -0.30260497 0.056367781
-0.37937251 -0.30259705 0.056378394
-0.37955928 -0.30259216 0.056367118
-0.37974337 -0.30259565 0.056294736
-0.37993246 -0.30259398 0.056259226
-0.38013291 -0.30257916 0.056317054
-0.38031757 -0.30258015 0.056263119
-0.38049984 -0.30257773 0.056234561
-0.38070068 -0.30257204 0.056225512
-0.38089296 -0.30255204 0.056323729
-0.38108394 -0.30255422 0.056259386
-0.38127032 -0.30255011 0.056242343
-0.3814632 -0.30254704 0.056216035
-0.38165182 -0.30254567 0.056178231
-0.38184038 -0.30253616 0.056200366
-0.38201937 -0.30253276 0.0561799
-0.3822051 -0.30253777 0.056095984
-0.3823902 -0.30253607 0.056061648
-0.38258103 -0.30253682 0.056007683
-0.3827734 -0.30253407 0.055979073
-0.38296953 -0.30252337 0.056008101
-0.38316679 -0.30251059 0.0560521
-0.3833499 -0.30251253 0.055991255
-0.38353822 -0.30250397 0.056006484
-0.38372767 -0.30250007 0.055987116
-0.38391963 -0.30249137 0.056002319
-0.38410687 -0.30249164 0.055952989
-0.38429525 -0.30248967 0.055919793
-0.38448551 -0.30248415 0.055911947
-0.38466972 -0.30248326 0.055871844
-0.38486215 -0.30247393 0.055891663
-0.38505748 -0.30246574 0.055902239
-0.38523912 -0.3024632 0.055874843
-0.38543767 -0.30245554 0.055880789
-0.3856301 -0.30245233 0.05585565
-0.38581082 -0.30245125 0.055817876
-0.38601026 -0.3024478 0.055792693
-0.38620269 -0.30244443 0.055768695
-0.38637879 -0.30244491 0.055720568
-0.38658503 -0.30243617 0.05573225
-0.38676777 -0.30243173 0.055718672
-0.38696218 -0.30243048 0.055678532
-0.38714311 -0.30242357 0.055683412
-0.38733038 -0.30241755 0.055680197
-0.38751888 -0.30241477 0.05565276
-0.38771465 -0.30240661 0.055663336
-0.38791543 -0.30239636 0.055687729
-0.38811103 -0.30238864 0.055694848
-0.38830417 -0.302389 0.055643179
-0.38849008 -0.30238506 0.055624977
-0.38867113 -0.30238301 0.055594116
-0.38886312 -0.30238014 0.055566665
-0.38904279 -0.30237532 0.055556566
-0.38924465 -0.30236864 0.055554431
-0.38944462 -0.30236438 0.055535015
-0.38962361 -0.30236477 0.055486873
-0.38979089 -0.30236679 0.055429563
-0.38997373 -0.30235809 0.055447128
-0.39019135 -0.30234915 0.055457599
-0.39037716 -0.30234945 0.055408262
-0.39056486 -0.30234343 0.055405047
-0.39075926 -0.30233762 0.055398338
-0.39093447 -0.30233812 0.055350214
-0.39112166 -0.30233276 0.055342384
-0.39131832 -0.3023206 0.055381779
-0.39151525 -0.30230829 0.055422321
-0.39171657 -0.30229896 0.055439796
-0.39190704 -0.30229786 0.055399667
-0.39208946 -0.30229795 0.055352665
-0.39228475 -0.30230266 0.055268697
-0.39247066 -0.30229887 0.055249348
-0.39267477 -0.30228317 0.055312924
-0.39286143 -0.30227876 0.055298179
-0.39304024 -0.30228242 0.055225831
-0.39322299 -0.30227843 0.055208795
-0.39342463 -0.30226925 0.055225108
-0.39362329 -0.30225626 0.055270262
-0.39381802 -0.30225423 0.055235878
-0.39398512 -0.30226582 0.055108234
-0.39417532 -0.30225798 0.055117689
-0.39437082 -0.30224839 0.05513864
-0.39457074 -0.30223802 0.055164188
-0.39476132 -0.30223987 0.055102158
-0.39495069 -0.3022396 0.055056274
-0.39514801 -0.30222538 0.055110648
-0.39534143 -0.30222136 0.055091262
-0.39552489 -0.30222017 0.055053473
-0.39571336 -0.30221754 0.055024888
-0.39591333 -0.30220452 0.055070035
-0.39609617 -0.30221009 0.054982677
-0.39625978 -0.3022204 0.054865435
-0.39646748 -0.30219769 0.054979719
-0.39667138 -0.30219063 0.054979868
-0.39687687 -0.30217928 0.055011157
-0.39706948 -0.30217621 0.05498486
-0.39724687 -0.30218324 0.054888301
-0.39743513 -0.30217797 0.054879315
-0.39761779 -0.30218324 0.054794256
-0.39781469 -0.30217078 0.05483596
-0.3980203 -0.30215693 0.054885685
-0.39821699 -0.30215058 0.054882426
-0.39838874 -0.30216187 0.054755922
-0.39859203 -0.30214182 0.054851774
-0.39879942 -0.30212978 0.05488766
-0.39898741 -0.30213612 0.054793358
-0.39917669 -0.30213317 0.054767068
-0.39936674 -0.30212688 0.054764997
-0.39954242 -0.30213726 0.054644234
-0.39974475 -0.30212149 0.054708965
-0.39992836 -0.3021203 0.054671176
-0.40013692 -0.3021079 0.054709367
-0.4003337 -0.30210719 0.054664597
-0.4005177 -0.30210316 0.054647557
-0.40071639 -0.3020933 0.054669648
-0.40091279 -0.30208525 0.054679073
-0.40110016 -0.30208141 0.054659717
-0.40128538 -0.30208677 0.054573495
-0.4014529 -0.30209741 0.054452781
-0.40166441 -0.30208099 0.054519769
-0.40186572 -0.30206963 0.054552227
-0.40205449 -0.30206984 0.054502878
-0.4022533 -0.30206046 0.054521516
-0.40246296 -0.30204833 0.054557391
-0.40264812 -0.3020463 0.05452536
-0.40283847 -0.30204788 0.054465629
-0.40303457 -0.30203825 0.054486588
-0.40324363 -0.30202928 0.054499399
-0.40342942 -0.30202928 0.054452382
-0.40363145 -0.30202058 0.054465227
-0.40382108 -0.30202264 0.054402053
-0.40399832 -0.30202603 0.05433201
-0.40418842 -0.30201852 0.054339159
-0.40441266 -0.30200213 0.054402627
-0.40458363 -0.3020097 0.054303803
-0.40478724 -0.30199572 0.05435469
-0.40497586 -0.30199847 0.054286901
-0.40517139 -0.30198997 0.054299787
-0.40537176 -0.30198288 0.054301113
-0.40556449 -0.30198073 0.054267898
-0.40576503 -0.30197364 0.054269224
-0.40596461 -0.30196941 0.054249808
-0.40614277 -0.30197436 0.054168243
-0.40634301 -0.30195895 0.054230675
-0.40655234 -0.30194449 0.054283842
-0.40674484 -0.30194911 0.054201048
-0.40693927 -0.30194616 0.054173581
-0.40712047 -0.30194709 0.05412082
-0.40733141 -0.30193618 0.054147463
-0.40752682 -0.30193269 0.05412345
-0.40772271 -0.30192482 0.054131728
-0.40792137 -0.30192155 0.054105386
-0.40811306 -0.30192038 0.054065261
-0.40832138 -0.30191147 0.054078087
-0.40850666 -0.30191618 0.053996474
-0.4086858 -0.30191028 0.053994454
-0.40888399 -0.30190343 0.053994644
-0.40910068 -0.30189389 0.054009728
-0.40928176 -0.30189702 0.053940825
-0.40947643 -0.30189231 0.053926043
-0.40969217 -0.30188155 0.053950354
-0.40987048 -0.30188039 0.05391375
-0.41006282 -0.30187327 0.053917423
-0.41026574 -0.30186608 0.053918742
-0.41045851 -0.3018685 0.053852081
-0.41065672 -0.30186212 0.053848814
-0.41085899 -0.30185354 0.053860508
-0.41105261 -0.30185169 0.05382498
-0.41125244 -0.30184838 0.053798646
-0.41144556 -0.30184123 0.053802319
-0.4116576 -0.30182949 0.053834721
-0.41184756 -0.30182794 0.053798053
-0.41204804 -0.30182445 0.053772863
-0.41224161 -0.30181915 0.053762704
-0.41243297 -0.30181691 0.053730644
-0.41262534 -0.30181417 0.053702034
-0.41278294 -0.30182609 0.05357445
-0.41302612 -0.30180219 0.053688552
-0.41322324 -0.3018007 0.053649548
-0.41342673 -0.30179411 0.053646255
-0.41360599 -0.30179653 0.053583119
-0.41384453 -0.30177024 0.053715702
-0.41407031 -0.3017543 0.053775705
-0.41435117 -0.30173349 0.053857349
-0.41455996 -0.30172297 0.053881694
-0.41478831 -0.30170268 0.053972818
-0.41501141 -0.30168697 0.054031685
-0.41524625 -0.30166382 0.054142367
-0.41548264 -0.30164185 0.054243825
-0.41571125 -0.30162218 0.054330342
-0.41595054 -0.30159917 0.054438703
-0.41618171 -0.30157864 0.05453096
-0.41642398 -0.30155459 0.054646224
-0.41664979 -0.30153707 0.054717761
-0.41688949 -0.30151469 0.054821502
-0.41713953 -0.30148584 0.054970168
-0.41737923 -0.30146217 0.055083137
-0.417606 -0.30144492 0.055152357
-0.41784614 -0.30142316 0.055251502
-0.41808081 -0.30140251 0.055343743
-0.41833186 -0.30137596 0.055475105
-0.41858259 -0.30134818 0.055615693
-0.3180559 -0.30404729 0.061264969
-0.31828609 -0.30404198 0.061245382
-0.31853276 -0.30404088 0.061191127
-0.31875569 -0.30403334 0.061190028
-0.31898752 -0.30402738 0.061175056
-0.31919262 -0.30401385 0.061222471
-0.31944302 -0.30401447 0.061154358
-0.31969053 -0.30401585 0.061081648
-0.31992006 -0.30400947 0.061070137
-0.32014441 -0.304003 0.061060965
-0.320382 -0.30399966 0.061025202
-0.32059985 -0.30398947 0.061044887
-0.32085297 -0.30399188 0.060962912
-0.32105026 -0.30397612 0.061028831
-0.32128635 -0.30397269 0.060994223
-0.32152215 -0.30396926 0.060959622
-0.32176554 -0.3039687 0.060901925
-0.32195449 -0.30395007 0.060990937
-0.32220989 -0.30395415 0.060896277
-0.32242525 -0.3039453 0.060906745
-0.32265422 -0.30393991 0.060888328
-0.32288179 -0.3039341 0.060873374
-0.32311603 -0.30393088 0.060837619
-0.32333827 -0.30392492 0.060824998
-0.32356396 -0.30391869 0.060813509
-0.3237879 -0.30391192 0.060806639
-0.3240279 -0.30391133 0.060750104
-0.32424015 -0.30390194 0.060765211
-0.32448104 -0.30390197 0.06070406
-0.32470438 -0.30389535 0.060696036
-0.32491824 -0.30388513 0.06071689
-0.3251375 -0.30387709 0.060720429
-0.32538348 -0.30387959 0.06063965
-0.32559031 -0.30387369 0.060630564
-0.3257629 -0.30384228 0.060817685
-0.32604736 -0.30386043 0.060612172
-0.32626706 -0.30385301 0.060611095
-0.32651535 -0.30385715 0.060517609
-0.32671624 -0.30384237 0.060575437
-0.32691815 -0.30382973 0.060617119
-0.32712972 -0.30382633 0.060588397
-0.3273856 -0.30382708 0.060517948
-0.32762167 -0.30382696 0.060459126
-0.32784081 -0.30382174 0.060441904
-0.32805777 -0.30381393 0.060444299
-0.32828534 -0.30381063 0.060410887
-0.32851917 -0.30381009 0.060355544
-0.32873449 -0.30380186 0.060361397
-0.32894963 -0.30379364 0.060367264
-0.329166 -0.30378601 0.060368501
-0.32940149 -0.30378667 0.060303919
-0.32961407 -0.30377761 0.060316712
-0.32982418 -0.3037675 0.060337588
-0.33004326 -0.30376324 0.060313456
-0.33026668 -0.30375913 0.060286976
-0.33047274 -0.30374745 0.060320556
-0.33071122 -0.30375022 0.060239818
-0.33092251 -0.30374104 0.060253777
-0.33114278 -0.30373594 0.060235389
-0.33138421 -0.30374047 0.0601408
-0.33159494 -0.30373132 0.060154751
-0.33180332 -0.30372113 0.06017679
-0.33202022 -0.30371487 0.060167644
-0.33223745 -0.30371082 0.060142364
-0.33244988 -0.30370271 0.060148232
-0.33266151 -0.30369428 0.060156424
-0.33290765 -0.30370212 0.060036436
-0.33311668 -0.3036927 0.060052704
-0.33333889 -0.30368957 0.060019325
-0.33353752 -0.30367532 0.060073696
-0.33377582 -0.30368012 0.059977964
-0.33398488 -0.30367103 0.059991933
-0.33420348 -0.30366662 0.059968948
-0.33441919 -0.30366087 0.059956349
-0.33464009 -0.3036578 0.059922978
-0.33484796 -0.30364841 0.05993925
-0.33504421 -0.3036333 0.060000554
-0.33525109 -0.30362347 0.06002029
-0.33548766 -0.30362865 0.059922259
-0.33570901 -0.30362636 0.059883118
-0.33593619 -0.30362713 0.059819732
-0.33614409 -0.30361822 0.059832551
-0.33636242 -0.30361477 0.059802644
-0.33658665 -0.30361658 0.059732348
-0.33678815 -0.3036046 0.059769414
-0.33699858 -0.30359733 0.059769534
-0.33720636 -0.30358872 0.059780039
-0.33741716 -0.30358395 0.05976171
-0.33762828 -0.30357727 0.05975721
-0.33784914 -0.30357593 0.059711155
-0.33805144 -0.3035647 0.059742447
-0.33827785 -0.3035666 0.059670992
-0.33848885 -0.30356026 0.059664182
-0.33870071 -0.30355668 0.059636619
-0.33891964 -0.30355495 0.059594035
-0.33912322 -0.30354476 0.059617244
-0.33934411 -0.30354434 0.059564263
-0.33954993 -0.30353785 0.059559785
-0.33975348 -0.30352783 0.059581846
-0.33997422 -0.30352774 0.05952657
-0.34018061 -0.30351949 0.059534773
-0.34038487 -0.30351242 0.059534922
-0.34059435 -0.30350614 0.059528127
-0.34081349 -0.30350798 0.059459023
-0.34102532 -0.30350333 0.059439525
-0.34122035 -0.30350301 0.059392437
-0.34141859 -0.3034952 0.05939953
-0.34165168 -0.30348685 0.059401851
-0.34185603 -0.30347806 0.059414677
-0.34206796 -0.30347636 0.059373282
-0.34227628 -0.30347261 0.059348032
-0.34247845 -0.30347505 0.059279002
-0.34270105 -0.30346563 0.05929175
-0.34290433 -0.30345908 0.059288442
-0.34310845 -0.30345058 0.05929897
-0.34332108 -0.30344763 0.059266791
-0.34352407 -0.30343857 0.059281938
-0.34373766 -0.30343905 0.059224375
-0.34394521 -0.30343312 0.059215285
-0.34414861 -0.30342719 0.059207357
-0.34432921 -0.30341402 0.059258368
-0.34454745 -0.30341807 0.059173107
-0.34474313 -0.30342039 0.059106424
-0.34498128 -0.30341187 0.059108712
-0.34518027 -0.30340341 0.059120409
-0.34538421 -0.3033984 0.059105568
-0.34558934 -0.30339164 0.059103407
-0.34580049 -0.30339184 0.059048176
-0.34599686 -0.30337909 0.059092179
-0.34620172 -0.30337515 0.059069261
-0.34641269 -0.30337286 0.059032477
-0.34661287 -0.3033658 0.059033796
-0.3468138 -0.3033593 0.059030503
-0.34702444 -0.30336002 0.058971807
-0.34722352 -0.30334952 0.058998507
-0.34743819 -0.30335358 0.058914423
-0.34764406 -0.30334833 0.058900721
-0.34784532 -0.30334261 0.058891661
-0.34804365 -0.30333182 0.058920667
-0.3482416 -0.30332372 0.058930073
-0.34845477 -0.3033275 0.058848307
-0.34864959 -0.30331713 0.058875017
-0.34885383 -0.30331117 0.058867101
-0.34906197 -0.3033115 0.058811873
-0.34926149 -0.30330506 0.058808587
-0.34946814 -0.30330452 0.058760293
-0.34966019 -0.30328906 0.058825076
-0.34986255 -0.30328521 0.058802169
-0.35006735 -0.30328032 0.058786169
-0.3502678 -0.30327511 0.058773652
-0.3504751 -0.30327579 0.05871613
-0.35067278 -0.30326846 0.058719769
-0.35088319 -0.30326888 0.058663379
-0.35108152 -0.30326232 0.058661252
-0.35128072 -0.30325323 0.058677569
-0.3514761 -0.30324757 0.058669694
-0.35168698 -0.30324906 0.058605228
-0.35187405 -0.3032327 0.058678113
-0.35208166 -0.30323148 0.058634419
-0.35227916 -0.30322465 0.058634602
-0.35248441 -0.30322507 0.0585794
-0.35266963 -0.30322117 0.058561191
-0.35288924 -0.30321765 0.058531273
-0.353089 -0.30321342 0.058511846
-0.35328582 -0.30320644 0.058513179
-0.3534829 -0.30319977 0.058512207
-0.35368827 -0.30319768 0.058475453
-0.35386375 -0.30319223 0.058471136
-0.35409698 -0.30319956 0.058358125
-0.35428566 -0.30318487 0.058418319
-0.3544884 -0.30318066 0.058397718
-0.35467964 -0.30317247 0.058409456
-0.3548865 -0.30317286 0.058354244
-0.35508361 -0.30317104 0.058317527
-0.35528564 -0.30316263 0.058328062
-0.3554776 -0.30315146 0.058361717
-0.35567263 -0.30314359 0.058369979
-0.35588709 -0.30315754 0.058213245
-0.35607266 -0.30314356 0.058268845
-0.35627052 -0.30313075 0.058312841
-0.35647061 -0.3031334 0.05824266
-0.35666665 -0.30312723 0.058238246
-0.35687336 -0.30312493 0.058202632
-0.3570652 -0.30311847 0.058201682
-0.35725242 -0.30311543 0.058176547
-0.35744852 -0.30310518 0.058202107
-0.35765657 -0.30310521 0.058149185
-0.35784569 -0.30309567 0.058171328
-0.35805684 -0.30309528 0.058120701
-0.35823673 -0.30308825 0.05812674
-0.35842192 -0.30308339 0.058115445
-0.35862195 -0.30307865 0.058099467
-0.35883328 -0.30307433 0.058077674
-0.35900965 -0.30307293 0.058043357
-0.35921386 -0.30306932 0.058018144
-0.35943049 -0.30306262 0.058012467
-0.35963309 -0.30305701 0.058002241
-0.35982805 -0.3030512 0.057995521
-0.3600269 -0.30304572 0.057985313
-0.36021918 -0.30304158 0.05796707
-0.36041608 -0.30303901 0.057936125
-0.36061993 -0.3030417 0.057864774
-0.36081451 -0.30303022 0.057899565
-0.36098516 -0.30302149 0.057920635
-0.361186 -0.30302003 0.057880431
-0.36137918 -0.30301222 0.057888713
-0.36157435 -0.30300781 0.057871606
-0.36178717 -0.30300865 0.057811748
-0.36199084 -0.30300033 0.057821129
-0.36218449 -0.30299377 0.057820179
-0.36237842 -0.30299428 0.057767328
-0.36256725 -0.30298585 0.057781387
-0.36275852 -0.30297515 0.057811581
-0.36296365 -0.30297685 0.057747155
-0.3631334 -0.30297393 0.057725564
-0.36331892 -0.30296639 0.057733871
-0.36351219 -0.30296707 0.057679873
-0.36370665 -0.30296317 0.057659313
-0.36393192 -0.30296308 0.057602853
-0.36414239 -0.302955 0.057608739
-0.36434412 -0.30295178 0.057581227
-0.36452699 -0.30293903 0.057628755
-0.36472321 -0.30293176 0.057632402
-0.36490542 -0.30292559 0.057631508
-0.36511958 -0.30292666 0.057569336
-0.36531392 -0.30292401 0.057539552
-0.36551127 -0.30292016 0.057517827
-0.36569038 -0.30290672 0.057571139
-0.36586475 -0.30290914 0.057509169
-0.36608079 -0.3029075 0.057466585
-0.3662881 -0.302892 0.057527836
-0.36646751 -0.30288923 0.057502743
-0.36667967 -0.30288771 0.057460189
-0.36687359 -0.30288586 0.057424638
-0.36706141 -0.3028765 0.057445616
-0.36726215 -0.30287397 0.057413504
-0.36746004 -0.30287433 0.057360634
-0.36765122 -0.3028644 0.057385061
-0.36784399 -0.30286008 0.057367966
-0.36804104 -0.30285844 0.057330102
-0.36823383 -0.3028549 0.057307243
-0.36842471 -0.3028439 0.057339739
-0.36862105 -0.30284038 0.057315711
-0.36880362 -0.3028397 0.057274461
-0.36897814 -0.30283552 0.057260912
-0.36920059 -0.30282125 0.057309408
-0.36939856 -0.30282727 0.05721502
-0.36957282 -0.30282262 0.057204939
-0.36977351 -0.30280644 0.057273142
-0.36995548 -0.30280498 0.057237647
-0.37016195 -0.30280113 0.057213571
-0.37035751 -0.30279654 0.057197623
-0.37055987 -0.30279002 0.057194315
-0.37074366 -0.30277786 0.05723723
-0.37094653 -0.30277506 0.057206254
-0.37111387 -0.30277443 0.057168525
-0.3713057 -0.30277029 0.057150286
-0.37150431 -0.3027631 0.05715277
-0.37169591 -0.30275694 0.057149526
-0.37187326 -0.30275124 0.057146337
-0.37205788 -0.30274799 0.057123527
-0.37227115 -0.30275017 0.05705329
-0.37248755 -0.30274743 0.057018783
-0.37266472 -0.30274159 0.057016753
-0.37284893 -0.30273455 0.057021618
-0.37302607 -0.30272794 0.057025358
-0.3732174 -0.3027232 0.057011731
-0.37340161 -0.30272183 0.056975078
-0.37359998 -0.30271417 0.056981023
-0.37378043 -0.30271608 0.056921322
-0.37397861 -0.30271143 0.056905348
-0.37418783 -0.30269602 0.056965441
-0.37437898 -0.30269095 0.056954123
-0.37458053 -0.30268887 0.056918535
-0.37476149 -0.30267709 0.056959156
-0.37495515 -0.30268434 0.056856725
-0.37513793 -0.30269182 0.056755506
-0.37532884 -0.30268583 0.056751102
-0.37552989 -0.30268389 0.056714367
-0.37571004 -0.30267906 0.05670426
-0.37591183 -0.30267018 0.056718256
-0.37610278 -0.30266356 0.056718469
-0.37630105 -0.30265513 0.056730185
-0.37649122 -0.30265373 0.056692343
-0.3766793 -0.30264312 0.056722555
-0.37686667 -0.3026371 0.056719329
-0.37706006 -0.30263653 0.056674555
-0.37724912 -0.30263954 0.05660443
-0.3774499 -0.30263591 0.05658038
-0.37764522 -0.30262473 0.056612864
-0.37783706 -0.302614 0.056643061
-0.37802818 -0.30260661 0.056649029
-0.37821475 -0.30260375 0.05662274
-0.37840381 -0.30260456 0.056568775
-0.37859884 -0.30260897 0.056487095
-0.37879434 -0.30259794 0.056518421
-0.37899357 -0.3025865 0.056552026
-0.37918136 -0.30257857 0.05656264
-0.37936765 -0.30257589 0.056535203
-0.37955838 -0.30258119 0.056447778
-0.37974882 -0.30257586 0.056438766
-0.37994152 -0.30257422 0.056402065
-0.38012996 -0.30256438 0.05642651
-0.38032573 -0.30255368 0.056455534
-0.38051781 -0.30255362 0.056407303
-0.38071609 -0.30254596 0.056413248
-0.38091072 -0.30254802 0.056348868
-0.38110375 -0.30254477 0.056323707
-0.38128725 -0.3025392 0.05631819
-0.38147533 -0.3025308 0.056332253
-0.38167915 -0.30252671 0.056310497
-0.38186535 -0.30252293 0.056291126
-0.38205731 -0.30251393 0.056308635
-0.38224101 -0.30251589 0.056247771
-0.38243926 -0.30250838 0.056252558
-0.38262638 -0.30250254 0.056248173
-0.3828223 -0.30250013 0.056216072
-0.38302049 -0.30249298 0.056218557
-0.38321424 -0.30248782 0.056207228
-0.38339603 -0.30249265 0.056125611
-0.38358864 -0.30248961 0.056099292
-0.3837738 -0.30248067 0.056117985
-0.38397691 -0.30247742 0.056090467
-0.38417307 -0.30246764 0.056112561
-0.38435966 -0.30245644 0.056147389
-0.38455606 -0.30245906 0.056078397
-0.38475129 -0.30245119 0.056086656
-0.38492942 -0.30244911 0.05605695
-0.38513458 -0.30244216 0.056055944
-0.38531566 -0.30244672 0.055976633
-0.38552165 -0.30243832 0.055985998
-0.38571385 -0.30242428 0.056040406
-0.38590929 -0.30242208 0.056007162
-0.38610256 -0.30241773 0.055990063
-0.38629305 -0.30241773 0.055941846
-0.38648844 -0.30241537 0.055909745
-0.38666552 -0.3024092 0.055910029
-0.38684779 -0.30240053 0.055927586
-0.38704067 -0.30239165 0.055943932
-0.38724372 -0.30238321 0.055954464
-0.38743237 -0.30238059 0.055925865
-0.38762209 -0.3023814 0.055871885
-0.3878127 -0.30238077 0.055828273
-0.38800558 -0.3023769 0.055807721
-0.3881993 -0.30237192 0.055795241
-0.38839412 -0.30236548 0.055793129
-0.38857615 -0.30236232 0.055770326
-0.38876855 -0.30235454 0.0557786
-0.38895324 -0.30235693 0.055714272
-0.38914785 -0.30234644 0.055742145
-0.38934395 -0.30233854 0.0557504
-0.38954046 -0.30233455 0.055729829
-0.38970506 -0.30234876 0.055583723
-0.38988245 -0.30235532 0.055490602
-0.39005998 -0.30235732 0.055430915
-0.39025834 -0.30233836 0.055519886
-0.39046106 -0.30232272 0.05558347
-0.39066476 -0.30230218 0.055682786
-0.39086673 -0.30228797 0.05573599
-0.39105916 -0.30229685 0.055622038
-0.39124537 -0.30230859 0.055488512
-0.39142454 -0.3023124 0.055414982
-0.39160389 -0.30230823 0.05540026
-0.39180377 -0.30229282 0.055462699
-0.39201263 -0.30227163 0.05556545
-0.39221618 -0.30225283 0.055652089
-0.39242098 -0.30223665 0.055719119
-0.39260215 -0.30226034 0.055499129
-0.392773 -0.30226898 0.055392202
-0.39297825 -0.30225247 0.05546153
-0.39316732 -0.30225283 0.055411011
-0.39336038 -0.30225259 0.055363942
-0.39356515 -0.30224046 0.05540099
-0.39374605 -0.30223858 0.05536896
-0.39394319 -0.30223083 0.05537606
-0.39413273 -0.30222723 0.055354375
-0.3943201 -0.30222577 0.055317707
-0.39451167 -0.30222023 0.055309843
-0.39469767 -0.30222005 0.055263959
-0.3948876 -0.30221283 0.055268783
-0.39508885 -0.30220479 0.055277027
-0.39526922 -0.30220982 0.055194259
-0.39544708 -0.30221072 0.055142641
-0.39566231 -0.30219308 0.055217691
-0.3958545 -0.30219033 0.055189073
-0.39605546 -0.30217662 0.055238824
-0.3962374 -0.30218005 0.055167578
-0.39642757 -0.30217612 0.055148199
-0.39662772 -0.30216041 0.055212945
-0.39682519 -0.30215624 0.055193517
-0.39699739 -0.30216798 0.055063523
