# .PCD v0.7 - Point Cloud Data file format
VERSION 0.7
FIELDS x y z
SIZE 4 4 4
TYPE F F F
COUNT 1 1 1
WIDTH 1299
HEIGHT 1
VIEWPOINT 0 0 0 1 0 0 0
POINTS 1299
DATA ascii
-0.036613088 -0.28788215 0.061061539
-0.036800444 -0.28800935 0.06100674
-0.036993608 -0.28814319 0.060933467
-0.037164204 -0.28824237 0.060988285
-0.037332516 -0.28833407 0.061081171
-0.037514545 -0.28844929 0.061080594
-0.03770544 -0.28858003 0.061017707
-0.037887316 -0.288699 0.060992911
-0.038078867 -0.28883144 0.060921952
-0.03826113 -0.28895161 0.06089139
-0.038443923 -0.28906915 0.060879283
-0.038615443 -0.28917056 0.06092371
-0.038804032 -0.28929874 0.06086776
-0.038977142 -0.2894032 0.060899504
-0.03916315 -0.28952718 0.060859703
-0.039351873 -0.28965634 0.060797967
-0.039534979 -0.28977555 0.060776629
-0.039704636 -0.28987414 0.060831454
-0.039879091 -0.28997761 0.060874738
-0.040068716 -0.29011342 0.060774945
-0.040246814 -0.29022396 0.060788222
-0.040428869 -0.29034618 0.060743816
-0.040612955 -0.29046839 0.06070748
-0.040779248 -0.29057768 0.060681578
-0.040981099 -0.29071352 0.060630187
-0.041145727 -0.29080307 0.060721941
-0.041336134 -0.29093844 0.060627919
-0.041513722 -0.29105341 0.060611207
-0.04167952 -0.29114097 0.06072025
-0.041868329 -0.29127845 0.060606621
-0.042063363 -0.29142445 0.06046414
-0.042235807 -0.29152554 0.060514346
-0.042411946 -0.29163411 0.060532242
-0.042578951 -0.29173782 0.060544401
-0.042707846 -0.29180932 0.060607433
-0.042893469 -0.29194701 0.060479969
-0.043126635 -0.29209989 0.060445782
-0.043300167 -0.29220846 0.060453311
-0.04348325 -0.29233262 0.060400825
-0.043660268 -0.29244411 0.060403734
-0.04383646 -0.29255399 0.060413551
-0.044010434 -0.29266414 0.060412999
-0.04418765 -0.2927765 0.060411286
-0.044366665 -0.29289806 0.060358822
-0.044542804 -0.29300848 0.060365181
-0.044714183 -0.29311347 0.060386553
-0.044903662 -0.29325432 0.06025447
-0.04508508 -0.2933774 0.060201995
-0.045251377 -0.29346597 0.060306422
-0.045432046 -0.29359317 0.060225114
-0.045572221 -0.29369164 0.060163543
-0.04578371 -0.29382056 0.060194016
-0.045957513 -0.29392689 0.060216531
-0.046128795 -0.29403296 0.060230985
-0.046304036 -0.29414296 0.060236197
-0.046481218 -0.29426375 0.060181431
-0.046653166 -0.29436597 0.060222406
-0.046830431 -0.29448754 0.060163021
-0.047006313 -0.29459998 0.060155541
-0.047183238 -0.29471529 0.060134221
-0.047360312 -0.29483122 0.06010944
-0.047534056 -0.29494506 0.060084671
-0.04771075 -0.29506058 0.060061045
-0.047882691 -0.29517013 0.060055885
-0.048061166 -0.29529759 0.059964206
-0.048237734 -0.29541376 0.059935968
-0.048391022 -0.29550642 0.059963163
-0.048577912 -0.29561755 0.060007557
-0.048752099 -0.29573461 0.059964329
-0.048923824 -0.29584497 0.059953403
-0.04909949 -0.29595983 0.059929773
-0.049256533 -0.29606399 0.059899293
-0.049446423 -0.29618475 0.059895236
-0.049622089 -0.29630053 0.05986584
-0.049790181 -0.29640108 0.059902221
-0.049965858 -0.2965174 0.059869364
-0.050134107 -0.29661861 0.059902284
-0.050309319 -0.29674217 0.059822142
-0.050480582 -0.29685351 0.059803151
-0.050648853 -0.29696369 0.059779547
-0.050823968 -0.29708004 0.059744395
-0.051000103 -0.29719153 0.059743844
-0.051169679 -0.29729834 0.059746765
-0.051342901 -0.29740909 0.059739292
-0.05150073 -0.29752055 0.059666134
-0.051688306 -0.29763708 0.059679382
-0.05184944 -0.29773286 0.05971808
-0.05201482 -0.29784468 0.059672579
-0.052175157 -0.29794765 0.059662845
-0.052369643 -0.2980715 0.059657611
-0.05254088 -0.29818705 0.059612092
-0.052703947 -0.29829136 0.05960466
-0.052866474 -0.2983937 0.059607599
-0.053022441 -0.29850233 0.059544824
-0.053224683 -0.29863879 0.059491135
-0.053393293 -0.29873341 0.059566721
-0.053544383 -0.29882136 0.059614681
-0.053721234 -0.29894137 0.059563372
-0.053904548 -0.29906714 0.059501667
-0.054077189 -0.29918137 0.059469979
-0.054245964 -0.29929039 0.059455603
-0.054413587 -0.29939374 0.059472378
-0.054580681 -0.29950926 0.059410721
-0.05475606 -0.29962575 0.059375565
-0.054922726 -0.29972467 0.059416562
-0.055081729 -0.29981083 0.059507173
-0.055228502 -0.2999239 0.059379831
-0.055433102 -0.30006865 0.059283458
-0.055599231 -0.30016482 0.059339441
-0.055764057 -0.30027097 0.059327386
-0.055937242 -0.30037677 0.059351061
-0.056096647 -0.30048573 0.059299804
-0.056250609 -0.30057549 0.059347767
-0.056416467 -0.30069205 0.059274577
-0.056602132 -0.30080774 0.059285525
-0.056741472 -0.30089557 0.059287384
-0.056915984 -0.30101594 0.059224553
-0.057068169 -0.3011176 0.059190631
-0.05724857 -0.30124223 0.059124313
-0.057427783 -0.3013553 0.059126057
-0.057597339 -0.30145806 0.059154354
-0.057768159 -0.30157828 0.059077688
-0.057931766 -0.30168188 0.059077173
-0.058095202 -0.30178329 0.05908934
-0.058274411 -0.30190152 0.059058785
-0.058456287 -0.30201501 0.059068583
-0.058610257 -0.30210751 0.059099235
-0.058780327 -0.30223075 0.059000663
-0.058961973 -0.30234188 0.059024315
-0.059122082 -0.30244085 0.059038803
-0.059285406 -0.30255431 0.058974847
-0.059457742 -0.30266434 0.058968529
-0.059629995 -0.3027809 0.058920704
-0.059777487 -0.30288434 0.058856808
-0.059940308 -0.30298904 0.058845907
-0.060103439 -0.30307892 0.058929585
-0.060290724 -0.30320224 0.058899008
-0.060462728 -0.30331114 0.05889846
-0.060628191 -0.30342337 0.058850646
-0.060781807 -0.30351752 0.058869772
-0.060956262 -0.30363584 0.058819622
-0.061133809 -0.30375317 0.05878792
-0.061290409 -0.30384901 0.058808185
-0.061458707 -0.30395937 0.058783434
-0.061626874 -0.30407006 0.058756366
-0.061788909 -0.30417591 0.058735091
-0.061963808 -0.30428314 0.058756456
-0.062113404 -0.30438188 0.058730613
-0.062269069 -0.30448428 0.058705896
-0.06245837 -0.30460739 0.058684543
-0.062611043 -0.30470607 0.058671363
-0.062772825 -0.30481067 0.058657013
-0.062940903 -0.30491742 0.058654182
-0.063106239 -0.30502027 0.058665194
-0.063279018 -0.30513862 0.058608126
-0.063436702 -0.3052454 0.058563795
-0.063609816 -0.30536029 0.058529798
-0.063789845 -0.30547443 0.058528073
-0.063955307 -0.30557552 0.058550626
-0.064116746 -0.30567917 0.058540881
-0.064269125 -0.30577636 0.058535792
-0.064436242 -0.30588529 0.058515649
-0.064617231 -0.30600899 0.058457412
-0.064759612 -0.30610299 0.058432743
-0.064910285 -0.30619231 0.058470324
-0.065070197 -0.30628732 0.058509029
-0.065253921 -0.30641258 0.058451936
-0.065437935 -0.30653623 0.058406375
-0.065593727 -0.30663282 0.058418564
-0.0657719 -0.3067511 0.058383401
-0.06593544 -0.30685756 0.058364429
-0.066099696 -0.30696172 0.058362756
-0.066255115 -0.3070592 0.058368035
-0.066408023 -0.30716369 0.058319107
-0.066584758 -0.30727428 0.058326617
-0.066760331 -0.30738798 0.05830992
-0.06691692 -0.30749187 0.058279432
-0.067097276 -0.30760273 0.058299627
-0.067244112 -0.30769277 0.058317613
-0.067414716 -0.30780864 0.058267485
-0.06757354 -0.3079156 0.058226608
-0.067736864 -0.30802962 0.058159195
-0.06790632 -0.30813834 0.058149435
-0.068040736 -0.30824617 0.058005992
-0.068225645 -0.30833864 0.058159962
-0.068371363 -0.30841458 0.05826214
-0.068560585 -0.30855563 0.058127757
-0.06871701 -0.30865026 0.058154941
-0.068861984 -0.30874366 0.058144107
-0.06904459 -0.30887282 0.058058176
-0.069224522 -0.30898416 0.058073752
-0.069374651 -0.30908266 0.058051359
-0.069539726 -0.30919817 0.05798164
-0.069713838 -0.30930507 0.058001846
-0.069865748 -0.30940032 0.058007136
-0.070015535 -0.30950579 0.05793976
-0.070190363 -0.30961826 0.057927676
-0.07034792 -0.30971783 0.057928331
-0.070510633 -0.30981606 0.057957809
-0.070668638 -0.30992141 0.057923853
-0.070839375 -0.31003332 0.057899095
-0.071001232 -0.31014532 0.057838611
-0.071185343 -0.31025672 0.057870325
-0.071330704 -0.31035462 0.057832949
-0.071497977 -0.31045884 0.057842806
-0.071660541 -0.31055754 0.057868812
-0.071813516 -0.31066281 0.057815276
-0.071978167 -0.31076464 0.057829749
-0.072136767 -0.31086835 0.057808481
-0.07230743 -0.31097966 0.057787191
-0.07247553 -0.31108847 0.057771657
-0.072643124 -0.31119236 0.057784971
-0.072798163 -0.31129453 0.057759106
-0.072965994 -0.31139821 0.057774719
-0.073145017 -0.31151062 0.057779919
-0.073298328 -0.31160417 0.057801355
-0.073453009 -0.31172189 0.0576763
-0.073628217 -0.31182805 0.05770573
-0.073785722 -0.31193233 0.057676397
-0.073935397 -0.31204429 0.057567507
-0.074095607 -0.31215048 0.057537019
-0.074271142 -0.31225151 0.057599895
-0.074432731 -0.31235638 0.057583239
-0.07459677 -0.31245893 0.057590794
-0.074777275 -0.31256989 0.057610981
-0.074931122 -0.31267241 0.057578199
-0.075088553 -0.31277627 0.057551175
-0.075264864 -0.31289542 0.057503331
-0.075426824 -0.31298637 0.057575475
-0.075567245 -0.31310424 0.057392798
-0.075732768 -0.31320113 0.057441864
-0.075904734 -0.31331035 0.057439018
-0.076072663 -0.31341848 0.057426956
-0.076230951 -0.31351283 0.057463363
-0.076393247 -0.31362104 0.057428248
-0.076558322 -0.31372297 0.057443868
-0.076724447 -0.31382832 0.057442188
-0.076905556 -0.31395966 0.057336666
-0.077068999 -0.31405064 0.057414576
-0.077231459 -0.31415054 0.057432514
-0.077394962 -0.31426963 0.057333961
-0.077561118 -0.31437886 0.057308063
-0.077721879 -0.31447989 0.057312168
-0.07788597 -0.3145788 0.05734279
-0.078051001 -0.314704 0.057211936
-0.078219041 -0.31481183 0.057202172
-0.078381717 -0.31491169 0.057221271
-0.078545272 -0.3150185 0.057199989
-0.078705959 -0.31512702 0.057156809
-0.078860089 -0.31522459 0.057156313
-0.079019159 -0.3153339 0.057101611
-0.079192743 -0.31544578 0.057088368
-0.079352297 -0.31554753 0.057083249
-0.07951501 -0.3156476 0.057101186
-0.079695731 -0.31575227 0.057161748
-0.079842366 -0.31586087 0.057062093
-0.080009021 -0.31596249 0.05708579
-0.080181643 -0.31607839 0.057043716
-0.080348246 -0.31618696 0.057023585
-0.080502234 -0.31628811 0.057000034
-0.080660224 -0.31639069 0.056983378
-0.080822423 -0.31650123 0.056933276
-0.080985241 -0.31660485 0.056929294
-0.081150085 -0.31671086 0.056918398
-0.081308782 -0.31681955 0.056865998
-0.081467196 -0.31691542 0.056893177
-0.081625044 -0.31702122 0.056855764
-0.081809059 -0.31713516 0.056871329
-0.08197125 -0.31723598 0.056882348
-0.082123727 -0.31733763 0.056849573
-0.082291335 -0.31744263 0.056855969
-0.082454726 -0.31754312 0.056873903
-0.082623728 -0.31764773 0.056888364
-0.082784586 -0.31776145 0.056812882
-0.082937911 -0.31786275 0.056785867
-0.083096832 -0.317965 0.056774989
-0.083276421 -0.31808087 0.056760579
-0.083430678 -0.31818473 0.056720879
-0.083584681 -0.31828573 0.056698475
-0.08375407 -0.31839037 0.056714084
-0.083928101 -0.3184965 0.056738906
-0.084098764 -0.31860381 0.056742981
-0.084254533 -0.31870717 0.056712497
-0.084421337 -0.3188214 0.056657761
-0.084578484 -0.31892711 0.05661805
-0.084753841 -0.31903589 0.056631342
-0.084913805 -0.31914356 0.05659046
-0.085069053 -0.31924698 0.056557678
-0.085230559 -0.31934315 0.056595229
-0.085406885 -0.31946009 0.05656122
-0.085561112 -0.31956378 0.056522667
-0.085708663 -0.31966102 0.056497987
-0.085876867 -0.31976384 0.056520518
-0.086064458 -0.31987801 0.056548759
-0.086205252 -0.31997961 0.056469884
-0.086373515 -0.3200852 0.056475118
-0.086543128 -0.32019055 0.056487266
-0.086703658 -0.32030058 0.056433707
-0.086866193 -0.32040238 0.056440115
-0.087034471 -0.32051331 0.0564119
-0.087189704 -0.32061413 0.056395266
-0.087356016 -0.32072291 0.056372814
-0.087511674 -0.3208262 0.056342341
-0.087677397 -0.32093257 0.056332592
-0.087830216 -0.3210339 0.056303274
-0.088004775 -0.32114366 0.056307327
-0.088170379 -0.32125014 0.056296431
-0.088338152 -0.32135871 0.056280907
-0.088500462 -0.3214609 0.056283846
-0.088655189 -0.32157168 0.056202628
-0.088805377 -0.3216686 0.056190617
-0.088989928 -0.32177222 0.056273073
-0.089162312 -0.32187548 0.056309432
-0.089348003 -0.32199356 0.056305382
-0.089494154 -0.32209837 0.05622765
-0.089648202 -0.32220671 0.056159113
-0.089798026 -0.32230851 0.056114815
-0.089965217 -0.3224127 0.056124661
-0.090137012 -0.32251868 0.056141421
-0.090306386 -0.32262737 0.056131653
-0.090464175 -0.32273054 0.056110397
-0.090627715 -0.32283995 0.056072969
-0.090790898 -0.32294708 0.056048229
-0.090950705 -0.32305008 0.056036189
-0.091084629 -0.32315797 0.055890448
-0.09123794 -0.32325482 0.055891115
-0.091437429 -0.32335857 0.056032345
-0.091612235 -0.32346922 0.05603179
-0.091788143 -0.32358423 0.056008171
-0.091952831 -0.3236936 0.055975348
-0.092100069 -0.32379562 0.055919528
-0.092272244 -0.32390442 0.055920132
-0.092439651 -0.3240093 0.055926524
-0.092604384 -0.3241187 0.055893712
-0.092753142 -0.32422057 0.055844799
-0.09292639 -0.32433373 0.055822328
-0.093088552 -0.3244369 0.055818364
-0.093251169 -0.32453802 0.055829383
-0.093407832 -0.32464159 0.055801202
-0.093569145 -0.32475123 0.055753402
-0.09372934 -0.32485464 0.055740207
-0.093920611 -0.32496306 0.055819187
-0.09408012 -0.32507285 0.055763319
-0.094241887 -0.32517636 0.055755895
-0.094401039 -0.32528406 0.05571156
-0.094577201 -0.3253974 0.055699471
-0.094725102 -0.32549524 0.055672467
-0.094899684 -0.32560465 0.055678841
-0.095081121 -0.32571602 0.055700183
-0.095223986 -0.32582003 0.055614382
-0.09539488 -0.32592565 0.055629984
-0.095568351 -0.32603526 0.055630591
-0.095723867 -0.32613519 0.055620864
-0.095899031 -0.32624295 0.055639923
-0.096041948 -0.32634881 0.055542581
-0.096205592 -0.32645661 0.055515543
-0.096392095 -0.32656458 0.055578388
-0.096562386 -0.32667643 0.055552475
-0.096715145 -0.32678229 0.05549432
-0.096875735 -0.32688633 0.055478819
-0.097044423 -0.32699054 0.055494428
-0.097221166 -0.3271026 0.055492718
-0.097344883 -0.32720402 0.055347007
-0.097521201 -0.32730666 0.055402961
-0.097698569 -0.32741508 0.055426627
-0.097867936 -0.32752523 0.055407628
-0.098028362 -0.32763135 0.055378288
-0.098208621 -0.3277438 0.055388104
-0.098379031 -0.3278504 0.055395629
-0.098534703 -0.32795829 0.055336315
-0.098696545 -0.32806459 0.055311579
-0.098870002 -0.32817146 0.055329487
-0.0990417 -0.32828015 0.05532895
-0.099207148 -0.32839039 0.055293825
-0.09936633 -0.32849848 0.05524718
-0.099528857 -0.32860136 0.05524667
-0.099686742 -0.32870221 0.055240404
-0.099863812 -0.32881504 0.055235233
-0.10000028 -0.32891461 0.055151757
-0.10019362 -0.32902858 0.05520419
-0.10036058 -0.32913554 0.055195592
-0.1005092 -0.32923421 0.055166297
-0.10069978 -0.32934827 0.055207208
-0.10086261 -0.32945681 0.055172093
-0.10106143 -0.32956123 0.055306401
-0.10119526 -0.32967454 0.055126056
-0.10134089 -0.32977828 0.055052932
-0.10152393 -0.32989377 0.055054661
-0.10167913 -0.32999662 0.055025335
-0.10187374 -0.33010641 0.055108912
-0.1020297 -0.33021283 0.055059977
-0.10217346 -0.33031303 0.055001859
-0.1023462 -0.33042273 0.054999001
-0.10250328 -0.33053097 0.054943141
-0.10267228 -0.33063701 0.054948382
-0.10286346 -0.33075547 0.054963917
-0.10303803 -0.33086726 0.054955292
-0.10318328 -0.330966 0.054912157
-0.10332721 -0.33107287 0.054812513
-0.10353707 -0.3311936 0.054887976
-0.10368099 -0.33129224 0.054840226
-0.10383019 -0.3313964 0.054778632
-0.10399858 -0.33149952 0.054800011
-0.10420045 -0.33161482 0.054877799
-0.10431975 -0.33171546 0.054719411
-0.10453752 -0.33182967 0.054867506
-0.10469204 -0.33194268 0.054771289
-0.10486862 -0.33205685 0.05475574
-0.10505557 -0.33217722 0.054742459
-0.10518053 -0.33226714 0.054674014
-0.1053678 -0.33237964 0.05471148
-0.10553286 -0.33248925 0.054678664
-0.1056905 -0.33258995 0.054672401
-0.10587081 -0.33270648 0.05465683
-0.10604953 -0.33282125 0.054645885
-0.10620773 -0.3329269 0.054610789
-0.10636991 -0.33303469 0.054577976
-0.10655679 -0.33314767 0.054610834
-0.10672291 -0.33326235 0.054550335
-0.10687665 -0.33336279 0.054530233
-0.10708606 -0.33349022 0.054561876
-0.10721542 -0.3335855 0.054477271
-0.1073743 -0.33368221 0.05450099
-0.10757517 -0.33379781 0.054573011
-0.10774254 -0.33391899 0.054476753
-0.10788994 -0.33402017 0.054426692
-0.10809175 -0.33414078 0.054471035
-0.10823177 -0.3342393 0.054408308
-0.10840151 -0.33434272 0.054433145
-0.10859159 -0.33446616 0.054412935
-0.1087423 -0.33457404 0.05433403
-0.10892549 -0.3346799 0.054396883
-0.10911458 -0.33479887 0.054400902
-0.10926212 -0.33490327 0.054331236
-0.10944936 -0.33501905 0.05434794
-0.10961908 -0.33512884 0.054332413
-0.10977603 -0.33523941 0.054261554
-0.10993207 -0.33533505 0.054280672
-0.11013613 -0.33546293 0.054288097
-0.11028431 -0.33556461 0.054238036
-0.11046842 -0.33567587 0.054270901
-0.1106653 -0.33579829 0.054284118
-0.11082001 -0.33591288 0.05417867
-0.11097386 -0.33601141 0.054171257
-0.11114301 -0.33611718 0.054178797
-0.11133175 -0.33623829 0.054167822
-0.11150537 -0.33634508 0.054186877
-0.11165239 -0.33645391 0.054087222
-0.11185558 -0.3365809 0.054096963
-0.11201784 -0.33669132 0.054048009
-0.11219496 -0.33679903 0.054075122
-0.11233676 -0.33689833 0.054014701
-0.11254244 -0.33701476 0.054100554
-0.11273037 -0.33714327 0.054039985
-0.11288434 -0.33724514 0.054011814
-0.11306684 -0.33736414 0.053989328
-0.11323047 -0.33746809 0.053986505
-0.11342293 -0.33759487 0.05395475
-0.11359304 -0.33770585 0.053933449
-0.11375003 -0.33780578 0.0539295
-0.11392789 -0.33792403 0.053893179
-0.11412755 -0.33804566 0.053922534
-0.11427504 -0.33814508 0.053884003
-0.11446604 -0.33826634 0.053881101
-0.1146192 -0.33836845 0.053848311
-0.030681688 -0.28882882 0.031504948
-0.030806676 -0.28888923 0.031622209
-0.030939616 -0.28895229 0.031754442
-0.031035583 -0.28897437 0.031997487
-0.031147916 -0.28901961 0.032159757
-0.031262018 -0.28906509 0.032327794
-0.03137492 -0.28910482 0.032526974
-0.031478874 -0.28913838 0.032729637
-0.026341952 -0.28121892 0.062109709
-0.026558839 -0.28137454 0.061993752
-0.02673772 -0.28148097 0.062035888
-0.026934355 -0.2816093 0.062011093
-0.027143005 -0.28175697 0.061912447
-0.027320281 -0.28185889 0.061976504
-0.027519576 -0.28199404 0.061919402
-0.027707692 -0.28211385 0.061914235
-0.027890604 -0.2822265 0.061933294
-0.028092124 -0.28236267 0.061878502
-0.028275423 -0.28247613 0.061894104
-0.028465595 -0.28259671 0.06189239
-0.028661042 -0.28272757 0.06184683
-0.028838467 -0.28283033 0.061906271
-0.029027957 -0.28295302 0.061888412
-0.02924161 -0.2831077 0.061765544
-0.029431254 -0.28323105 0.061744224
-0.029621165 -0.28335217 0.061737895
-0.029797539 -0.28345665 0.061782349
-0.029985309 -0.28357771 0.061767954
-0.030169323 -0.28369346 0.061772022
-0.030382544 -0.28384912 0.061641075
-0.030555982 -0.28394976 0.061698228
-0.030752733 -0.28408182 0.061650362
-0.030942325 -0.28420639 0.061620966
-0.031138126 -0.28433749 0.061575409
-0.031318035 -0.28444806 0.061595637
-0.031504445 -0.28456843 0.061580084
-0.031687297 -0.28468364 0.061583005
-0.031879704 -0.28481036 0.061551303
-0.032061603 -0.28492442 0.061557684
-0.032256514 -0.28505531 0.061509825
-0.032442629 -0.28517604 0.061490826
-0.032632552 -0.28529975 0.061468348
-0.032813404 -0.28541276 0.061477032
-0.03300444 -0.28554156 0.061426885
-0.03315752 -0.28563038 0.061477177
-0.033330087 -0.28574017 0.061473206
-0.033561938 -0.28590196 0.06137795
-0.033748537 -0.28602153 0.061368171
-0.033930264 -0.28613675 0.061366484
-0.034122746 -0.28626591 0.06131978
-0.034307774 -0.2863867 0.061296165
-0.034484033 -0.28649369 0.061324485
-0.034645628 -0.286587 0.061380509
-0.03479933 -0.28668392 0.061382357
-0.035030223 -0.28685629 0.06121676
-0.035227709 -0.28697836 0.061234634
-0.035409838 -0.28709549 0.061222561
-0.035608102 -0.28723583 0.061128564
-0.035788361 -0.2873503 0.061125718
-0.035965171 -0.2874558 0.061165564
-0.036133677 -0.28755438 0.061215803
-0.036321405 -0.28767815 0.061184108
-0.036508765 -0.28780502 0.061131664
-0.036697976 -0.28793174 0.061087277
-0.036877006 -0.28805202 0.061042923
-0.037062772 -0.28816631 0.061063133
-0.037237331 -0.28827223 0.061091445
-0.037426349 -0.28840306 0.061020546
-0.037602358 -0.28851172 0.061037321
-0.037790716 -0.28863826 0.060990632
-0.037966482 -0.28874677 0.06100741
-0.038161471 -0.28888541 0.060911112
-0.038336627 -0.28899318 0.060930207
-0.038514674 -0.28910238 0.060951587
-0.038697485 -0.28922397 0.06091414
-0.038879767 -0.28934485 0.060879007
-0.039056383 -0.28945574 0.060884252
-0.039244708 -0.2895841 0.060826022
-0.039423048 -0.28969845 0.060816281
-0.039604217 -0.28981423 0.060808823
-0.03977276 -0.28991082 0.06087175
-0.03995616 -0.29003498 0.06082046
-0.040137995 -0.29015651 0.06077956
-0.040319659 -0.29027387 0.060764033
-0.040515084 -0.29042161 0.060612381
-0.040686913 -0.29052082 0.060671836
-0.040861655 -0.29062977 0.060681701
-0.041010104 -0.29071349 0.060745835
-0.041215964 -0.29085314 0.060686417
-0.041393623 -0.29096815 0.06066975
-0.041545324 -0.29107133 0.060624316
-0.041745096 -0.29118678 0.060692921
-0.041933984 -0.29132468 0.060577042
-0.042111866 -0.29143655 0.060581129
-0.042283233 -0.29153988 0.060612909
-0.042463444 -0.2916567 0.06059508
-0.042646728 -0.29178464 0.060519576
-0.042823631 -0.29189515 0.060528278
-0.043000765 -0.29201093 0.060504694
-0.043176234 -0.29212347 0.060494944
-0.043349355 -0.2922312 0.060505964
-0.043532129 -0.29235479 0.060455836
-0.043709043 -0.29247099 0.060428787
-0.043884926 -0.29258031 0.060440958
-0.044057887 -0.29268831 0.060449667
-0.044240437 -0.2928125 0.06039492
-0.044415835 -0.29292625 0.060377106
-0.044591904 -0.29303661 0.060383506
-0.044769097 -0.29315481 0.060344923
-0.044945061 -0.29326528 0.060350165
-0.045121055 -0.29338127 0.060320817
-0.045297913 -0.29349414 0.060314529
-0.045478895 -0.29362226 0.060228653
-0.045649692 -0.29372138 0.060284652
-0.0458248 -0.29383627 0.060258768
-0.045989364 -0.29392612 0.060348231
-0.046173945 -0.29406422 0.060213909
-0.046347346 -0.29416996 0.060238764
-0.046524428 -0.29429066 0.060184035
-0.046702407 -0.29440808 0.060153536
-0.046874322 -0.29451653 0.060155328
-0.04705327 -0.29463693 0.060109824
-0.047207803 -0.29475659 0.05997213
-0.047403678 -0.29486573 0.060064964
-0.047573976 -0.29497075 0.060081758
-0.047753554 -0.29509416 0.060020104
-0.047927417 -0.29520914 0.059988454
-0.048094176 -0.29529858 0.060089439
-0.048268832 -0.29541609 0.060045101
-0.048448272 -0.29554048 0.059976526
-0.048619591 -0.29564947 0.059972562
-0.048792925 -0.29575735 0.059983589
-0.048964258 -0.29586673 0.059977312
-0.04913865 -0.29597804 0.059971027
-0.049311057 -0.29609102 0.059946299
-0.049483173 -0.29620343 0.059923872
-0.049653646 -0.29631117 0.059924535
-0.049830936 -0.29643238 0.059867494
-0.050001711 -0.29654157 0.059860069
-0.050179075 -0.29666391 0.059796114
-0.05034776 -0.29676703 0.059818681
-0.050519921 -0.29687324 0.059835471
-0.050688356 -0.29697564 0.059861492
-0.050864063 -0.29710263 0.0597618
-0.051032662 -0.29720607 0.059782051
-0.051194631 -0.29731333 0.0597516
-0.051334605 -0.29739791 0.059776552
-0.051547423 -0.29753977 0.059730947
-0.051720202 -0.29765922 0.059667002
-0.051892653 -0.29776838 0.059666492
-0.052061271 -0.29787311 0.059678674
-0.052230418 -0.29797998 0.059679337
-0.052394722 -0.29808876 0.059648864
-0.052574165 -0.29820582 0.059626415
-0.052739352 -0.29830816 0.059639767
-0.05291491 -0.29842076 0.059630029
-0.053082805 -0.29854667 0.059506133
-0.053255729 -0.29864877 0.059551749
-0.053417534 -0.298749 0.059565112
-0.053560708 -0.29883799 0.059575066
-0.053724628 -0.29893568 0.059612639
-0.053912677 -0.2990714 0.059507132
-0.054101661 -0.29919964 0.059452374
-0.054268394 -0.29929858 0.059493396
-0.054411545 -0.29938865 0.059496433
-0.05460595 -0.29951829 0.059454344
-0.054772586 -0.2996324 0.059399646
-0.054940771 -0.29974031 0.059389919
-0.055112299 -0.29985201 0.059369806
-0.055277012 -0.29995662 0.05936702
-0.055438466 -0.30005863 0.059367694
-0.055603612 -0.30016685 0.059344135
-0.055777993 -0.30028108 0.059319403
-0.05594093 -0.30037469 0.059378885
-0.056110837 -0.3004989 0.059273437
-0.056287192 -0.30060852 0.059285603
-0.056454733 -0.30071658 0.05927242
-0.056602675 -0.30080456 0.059307732
-0.056781027 -0.30093339 0.059206873
-0.056935307 -0.30102739 0.059229486
-0.057102297 -0.30113271 0.059231292
-0.057284646 -0.30124721 0.059236526
-0.057437379 -0.30135801 0.059147269
-0.057604115 -0.30146283 0.059151389
-0.057761062 -0.30155501 0.059195898
-0.057928856 -0.30167645 0.059099693
-0.058110733 -0.30178919 0.059114136
-0.058277566 -0.30189973 0.059082504
-0.058438197 -0.302008 0.059040517
-0.05860766 -0.3021149 0.059042327
-0.058755282 -0.30220065 0.059090324
-0.058921821 -0.30231231 0.059050616
-0.059097633 -0.30243936 0.058950916
-0.059276029 -0.3025488 0.058972307
-0.059429765 -0.30263144 0.059064105
-0.059571326 -0.3027181 0.059082143
-0.059743445 -0.30284962 0.058939781
-0.059906382 -0.30294946 0.058960058
-0.060066033 -0.3030571 0.05891807
-0.060250089 -0.30318111 0.058870241
-0.060422227 -0.30328384 0.058908939
-0.060587883 -0.3033911 0.058893461
-0.060750622 -0.30349228 0.058904506
-0.060900964 -0.30358762 0.058902916
-0.061059684 -0.30370054 0.058824025
-0.061229013 -0.30379745 0.0588881
-0.06139328 -0.30391812 0.058782674
-0.061568972 -0.30401668 0.058861725
-0.061734378 -0.30412212 0.058856621
-0.061889559 -0.30423096 0.058789279
-0.06207294 -0.30434999 0.058770277
-0.062246803 -0.30446517 0.058737479
-0.062398922 -0.30456841 0.0586932
-0.062575713 -0.30468473 0.058665004
-0.062743858 -0.30479097 0.058665656
-0.062900864 -0.30488229 0.05871594
-0.063056044 -0.30498528 0.058685496
-0.063214391 -0.305089 0.058663107
-0.063378625 -0.30519736 0.058634944
-0.063536502 -0.30530262 0.058601029
-0.063716449 -0.30541724 0.058595888
-0.063865684 -0.30551335 0.05858507
-0.064017817 -0.30561185 0.058570784
-0.064185552 -0.30571821 0.058569126
-0.064353794 -0.30583715 0.058490217
-0.064537734 -0.30594847 0.058521964
-0.064695865 -0.30605021 0.058511116
-0.064862393 -0.30616039 0.058480639
-0.065032288 -0.30627087 0.058461677
-0.065181687 -0.30636469 0.058465846
-0.065350227 -0.30647945 0.058414616
-0.065516047 -0.30659065 0.058374912
-0.065678298 -0.30668947 0.058398649
-0.065843232 -0.30679151 0.058413148
-0.065991111 -0.3068895 0.058385037
-0.066153564 -0.30699876 0.058344189
-0.066335514 -0.30711558 0.05833327
-0.066490658 -0.3072134 0.058335125
-0.066644296 -0.30731523 0.05830583
-0.066810139 -0.30741453 0.05834109
-0.066982158 -0.30752727 0.058316365
-0.067146227 -0.30763113 0.058315881
-0.067295901 -0.30773264 0.058272772
-0.067449614 -0.30783343 0.058250397
-0.067624085 -0.30794862 0.058219895
-0.067780957 -0.30805066 0.058202136
-0.067947865 -0.30815631 0.058201641
-0.068129763 -0.30828026 0.058145754
-0.068281427 -0.30837625 0.058145307
-0.068432167 -0.30847406 0.058129862
-0.068599582 -0.30859414 0.058040574
-0.068779379 -0.3086977 0.058104619
-0.068936586 -0.30879828 0.058097236
-0.069086738 -0.30889681 0.058074884
-0.069261454 -0.30900997 0.058058217
-0.069426544 -0.309111 0.058079638
-0.069594286 -0.30922177 0.058050305
-0.069736458 -0.30931926 0.05800261
-0.069904037 -0.30942991 0.057973277
-0.070074007 -0.30954337 0.057935871
-0.070243172 -0.30964458 0.057972275
-0.070395127 -0.30974609 0.057938382
-0.070525944 -0.30984044 0.057865344
-0.070725679 -0.30995405 0.057945475
-0.070882648 -0.31005433 0.057939243
-0.071045533 -0.31016475 0.057892635
-0.071210183 -0.31026036 0.057946354
-0.07136482 -0.31036374 0.057911292
-0.071514972 -0.31045511 0.057933915
-0.071690112 -0.31058431 0.05781807
-0.071846709 -0.31068471 0.057809539
-0.072001532 -0.3107816 0.057815999
-0.07217516 -0.31089482 0.057794727
-0.072343305 -0.31100345 0.057780392
-0.072505467 -0.31110811 0.057767227
-0.072671704 -0.31121883 0.057732139
-0.072821915 -0.31131557 0.057721317
-0.072984114 -0.31141475 0.057742745
-0.073143288 -0.31151733 0.057730734
-0.073297806 -0.31162485 0.057669166
-0.073477104 -0.31173158 0.057711303
-0.073623963 -0.31183168 0.057665892
-0.073804632 -0.31195208 0.057627294
-0.073956951 -0.3120465 0.057639532
-0.07411015 -0.31214494 0.057629853
-0.074276306 -0.31226459 0.05753826
-0.074438229 -0.3123689 0.057526242
-0.074625999 -0.31248227 0.057560284
-0.074778751 -0.31256703 0.057634797
-0.074923232 -0.31265941 0.057628602
-0.075079411 -0.31276891 0.057561245
-0.075229406 -0.31287447 0.057493918
-0.075400494 -0.31298882 0.057455357
-0.07555943 -0.31309548 0.05741683
-0.075728029 -0.31319854 0.057439391
-0.075884692 -0.31329826 0.057435468
-0.076050237 -0.31339955 0.057456888
-0.076213948 -0.3135151 0.057381444
-0.076386735 -0.31362355 0.057386704
-0.076543212 -0.31372753 0.057355102
-0.076704264 -0.31383222 0.057337329
-0.076860502 -0.31393626 0.057304569
-0.077042773 -0.31405017 0.05731326
-0.077202298 -0.31414783 0.057333548
-0.077347197 -0.31424764 0.057282377
-0.077508226 -0.31435615 0.057240382
-0.077681869 -0.31446022 0.057276767
-0.077836953 -0.31456479 0.057235941
-0.07800509 -0.31466866 0.057251595
-0.078173146 -0.31477264 0.057266086
-0.078321725 -0.31486979 0.057246041
-0.078508176 -0.31498891 0.057238571
-0.078678951 -0.31510252 0.057203472
-0.078827307 -0.31520706 0.057136148
-0.078977302 -0.31529963 0.057150695
-0.0791393 -0.31539994 0.057164054
-0.079292111 -0.31550181 0.057131305
-0.079456188 -0.31561172 0.057092763
-0.079622395 -0.31571692 0.057092275
-0.0797875 -0.31581923 0.057105627
-0.079953127 -0.31592482 0.05710052
-0.080118842 -0.31603724 0.057052754
-0.080269769 -0.31613642 0.05702924
-0.080429576 -0.31624144 0.057004549
-0.080597125 -0.31634271 0.057034031
-0.080769129 -0.31644535 0.057072729
-0.080920428 -0.31655103 0.05701001
-0.081079185 -0.31665978 0.056957647
-0.081241831 -0.31676346 0.056952555
-0.081402503 -0.31686479 0.05695438
-0.081562251 -0.31697616 0.056889325
-0.081720769 -0.31707522 0.056896936
-0.081877016 -0.31717211 0.056909155
-0.082038522 -0.31727949 0.056876391
-0.082218178 -0.31738585 0.056921985
-0.082370751 -0.31749362 0.056851182
-0.082535729 -0.31759346 0.056879532
-0.082688242 -0.31769806 0.056828335
-0.082859762 -0.31781378 0.056782857
-0.083032697 -0.31792894 0.056746587
-0.083180621 -0.31802899 0.056705784
-0.083349235 -0.31813368 0.056717977
-0.083507136 -0.3182362 0.056701362
-0.083673209 -0.31833896 0.056715861
-0.083826393 -0.31844014 0.05668889
-0.083981343 -0.31853783 0.05669073
-0.084153496 -0.31865031 0.056668315
-0.084321514 -0.31875262 0.056693185
-0.084484972 -0.31886488 0.056637347
-0.084643811 -0.31896999 0.056608044
-0.084799692 -0.31906757 0.056614503
-0.084963366 -0.31917411 0.056595571
-0.085130855 -0.31927684 0.056615833
-0.085286483 -0.31938285 0.05656809
-0.085451812 -0.31948897 0.056558371
-0.085604474 -0.31959569 0.056494489
-0.085777722 -0.31969711 0.056545869
-0.085931525 -0.31979811 0.056522347
-0.08608681 -0.31990942 0.056440018
-0.086238265 -0.32000566 0.056437261
-0.086423881 -0.32010978 0.056520894
-0.086584955 -0.32021704 0.056486972
-0.086753704 -0.32032001 0.056510691
-0.086909182 -0.32042849 0.056446809
-0.087074779 -0.32054248 0.056388654
-0.087235145 -0.32064474 0.056383561
-0.087396622 -0.32074934 0.056368098
-0.087559551 -0.32084861 0.056391835
-0.087729193 -0.32095674 0.056386713
-0.087894991 -0.32106808 0.056345865
-0.088041484 -0.32117054 0.056284308
-0.088209398 -0.32126912 0.056332249
-0.08838506 -0.32138121 0.056325961
-0.088517904 -0.32148346 0.056211401
-0.088680133 -0.3215856 0.056214381
-0.08886373 -0.32168439 0.05632339
-0.089025557 -0.32179159 0.056292925
-0.089180827 -0.32190216 0.056215204
-0.089349419 -0.32200831 0.056218166
-0.089508161 -0.32211357 0.056187708
-0.089670658 -0.32222065 0.056160703
-0.089830831 -0.32232571 0.056137159
-0.089993574 -0.32243276 0.056111313
-0.090143628 -0.32253212 0.056083191
-0.090303928 -0.32263488 0.056074638
-0.090451173 -0.3227323 0.056047678
-0.090636477 -0.32283455 0.056141701
-0.090811819 -0.3229472 0.056130804
-0.090975016 -0.32306114 0.056063429
-0.091126949 -0.32316041 0.056043372
-0.091303952 -0.32327741 0.056011714
-0.09144786 -0.32337967 0.055940945
-0.091606654 -0.32348055 0.055938166
-0.091781862 -0.3235867 0.055967625
-0.091949254 -0.32369357 0.05596137
-0.092119329 -0.32379591 0.055994306
-0.092273571 -0.32390821 0.055901591
-0.092425562 -0.32401192 0.055853855
-0.092600748 -0.32411623 0.055894855
-0.092768729 -0.32421467 0.055943955
-0.092927992 -0.32432866 0.055860441
-0.093079716 -0.3244282 0.055838086
-0.093242273 -0.32453346 0.055822607
-0.093416668 -0.32464239 0.055831321
-0.093574762 -0.32474798 0.055796258
-0.093741253 -0.32485318 0.055796918
-0.093898296 -0.3249588 0.055757247
-0.094062492 -0.32506621 0.055734843
-0.094230533 -0.3251715 0.055741265
-0.094387047 -0.32527715 0.055699289
-0.094547726 -0.32538271 0.055674598
-0.09471231 -0.32548615 0.055678718
-0.094902784 -0.32559517 0.05575081
-0.095056355 -0.325701 0.055696152
-0.095210724 -0.32580677 0.055644952
-0.095377319 -0.32591039 0.055655986
-0.095546633 -0.326024 0.055615131
-0.0956925 -0.32612586 0.055554725
-0.095873065 -0.32623154 0.055608399
-0.096046016 -0.32634321 0.055594049
-0.09619841 -0.32644317 0.055571683
-0.09637218 -0.32655296 0.055572316
-0.096518688 -0.32665873 0.055490002
-0.096670553 -0.32675868 0.055465337
-0.096836209 -0.32686079 0.055482145
-0.097018868 -0.32697091 0.055516206
-0.097189777 -0.32708663 0.055468414
-0.097337544 -0.32718474 0.055439152
-0.097503476 -0.32729086 0.055431738
-0.097672373 -0.32740089 0.055411633
-0.097841851 -0.32750908 0.055405363
-0.097995915 -0.32760936 0.055387609
-0.098161519 -0.32771564 0.055377893
-0.098324418 -0.32782188 0.055357806
-0.098490767 -0.32792827 0.055350393
-0.098651916 -0.32803631 0.055311862
-0.098819017 -0.32814097 0.055318289
-0.098973989 -0.32824513 0.055279773
-0.099152572 -0.3283523 0.055316143
-0.099318787 -0.32846797 0.055249918
-0.099462256 -0.3285661 0.055203367
-0.099634536 -0.32867131 0.055227078
-0.099804021 -0.32878539 0.055183902
-0.099966109 -0.32888651 0.055192649
-0.10014072 -0.3289974 0.055189826
-0.10029273 -0.3291015 0.055139784
-0.10045522 -0.32920986 0.055104706
-0.10060652 -0.32931039 0.055074271
-0.10078579 -0.32941654 0.05511988
-0.10096298 -0.32952613 0.055135492
-0.10111149 -0.32963002 0.055072781
-0.10127856 -0.32973889 0.055052679
-0.10145505 -0.32984859 0.05506485
-0.10161653 -0.32995191 0.055057451
-0.10181777 -0.33007765 0.055067226
-0.10197561 -0.33018416 0.055025242
-0.10213435 -0.33028224 0.055039775
-0.10229126 -0.33038193 0.055036999
-0.10245802 -0.33049446 0.054992683
-0.10262384 -0.33060014 0.054987583
-0.10277212 -0.33070245 0.054934092
-0.10296017 -0.33080718 0.055023488
-0.10311781 -0.33092052 0.054937679
-0.10328124 -0.33102947 0.054902598
-0.10345171 -0.33113921 0.054890558
-0.10361807 -0.3312436 0.054895837
-0.1037933 -0.33135891 0.05486764
-0.10395516 -0.33146945 0.054816417
-0.10409406 -0.33156908 0.054742206
-0.10426236 -0.33166572 0.054803971
-0.10446091 -0.33178076 0.054870278
-0.10463297 -0.33189592 0.054830555
-0.10473049 -0.33198878 0.054634213
-0.10495916 -0.33210146 0.05483536
-0.10512259 -0.33221719 0.054757606
-0.10527129 -0.33232617 0.054663755
-0.10544068 -0.33242989 0.054685164
-0.10562186 -0.33254164 0.054703079
-0.10579629 -0.33265573 0.054679506
-0.10595714 -0.33275536 0.054692857
-0.10614518 -0.33287144 0.054710761
-0.10629471 -0.3329837 0.054599598
-0.10646227 -0.33308753 0.054612942
-0.10660963 -0.33318853 0.054564074
-0.10680267 -0.3333056 0.054595791
-0.10696848 -0.33341402 0.054573394
-0.10712969 -0.33351716 0.054565996
-0.10728176 -0.33362204 0.054511342
-0.10746263 -0.33373597 0.05451427
-0.10763106 -0.33384496 0.054498773
-0.10779817 -0.33395535 0.054469451
-0.10797304 -0.33406088 0.054501224
-0.10813754 -0.33417547 0.054435004
-0.108325 -0.33429229 0.054445978
-0.10849652 -0.33439901 0.054457001
-0.10865402 -0.33450347 0.054426558
-0.10881384 -0.33461437 0.054364964
-0.10899714 -0.3347322 0.054352883
-0.10915979 -0.33483168 0.054374322
-0.10931969 -0.33494115 0.054321945
-0.1094951 -0.33504742 0.054351412
-0.10965032 -0.33515611 0.054285221
-0.10981724 -0.33526838 0.054243211
-0.10999835 -0.33538026 0.054259967
-0.1101634 -0.33548784 0.05423988
-0.11033624 -0.3356013 0.054213993
-0.11050721 -0.33571005 0.05421003
-0.11064225 -0.33580929 0.054123137
-0.11083825 -0.33593151 0.054134086
-0.11099828 -0.33604124 0.054080568
-0.1112024 -0.33615652 0.05416761
-0.11135766 -0.33626541 0.054100256
-0.11152405 -0.33637077 0.054099768
-0.11172124 -0.33648786 0.05414762
-0.11188835 -0.3366006 0.0541033
-0.11203524 -0.336698 0.054075189
-0.11221936 -0.33681986 0.054041199
-0.1124077 -0.33693412 0.05407178
-0.11259281 -0.33705771 0.054030865
-0.11274476 -0.3371605 0.053988904
-0.11287703 -0.33725503 0.053920466
-0.11309537 -0.33737856 0.054012083
-0.11326136 -0.33749557 0.05393663
-0.11344235 -0.33761013 0.053936098
-0.11362456 -0.33772361 0.053947087
-0.11377694 -0.33782393 0.053922422
-0.1139569 -0.3379426 0.053891901
-0.11412834 -0.33804983 0.053899474
-0.11427617 -0.33815202 0.053844832
-0.11447787 -0.33827418 0.053878836
-0.11466293 -0.33839831 0.053834461
-0.031084348 -0.28927559 0.030296553
-0.031217344 -0.28934768 0.030372281
-0.031349957 -0.28941733 0.030461863
-0.031476915 -0.28948137 0.030564137
-0.031603556 -0.289543 0.03068025
-0.031731553 -0.28960827 0.030779064
-0.031861912 -0.28967464 0.030880179
-0.03198513 -0.28973338 0.031000923
-0.032105118 -0.28978771 0.031136665
-0.032228097 -0.28984392 0.031272411
-0.032348186 -0.28989607 0.031421993
-0.032468248 -0.28994805 0.031572744
-0.032574758 -0.28997552 0.031823862
-0.032678716 -0.29000115 0.032076161
-0.032786906 -0.29003626 0.032285761
-0.03289853 -0.29007375 0.032494202
-0.033006534 -0.29011425 0.032669194
-0.033112526 -0.29014137 0.032920331
-0.033209991 -0.29016474 0.033161107
-0.028421354 -0.28257549 0.061849698
-0.028608467 -0.2826921 0.061860673
-0.028799474 -0.28281704 0.06183473
-0.028998844 -0.28295407 0.061766081
-0.029178753 -0.28306353 0.061793223
-0.029362235 -0.28317547 0.061819211
-0.029551309 -0.28329825 0.061799046
-0.029748343 -0.28342995 0.061754629
-0.029934496 -0.28354889 0.061747149
-0.030104909 -0.28364226 0.061837755
-0.030329689 -0.28381774 0.061628323
-0.03052127 -0.28394231 0.061606981
-0.030694552 -0.28404298 0.061662987
-0.030879714 -0.28415838 0.061673962
-0.031049017 -0.28425324 0.061750747
-0.031264964 -0.2844145 0.061595544
-0.03143049 -0.2845127 0.061636575
-0.031646684 -0.28466621 0.061530963
-0.031828042 -0.28477955 0.06153965
-0.032021653 -0.28490853 0.061498702
-0.032202486 -0.28502133 0.061508544
-0.032383487 -0.28513151 0.06153569
-0.032564715 -0.28524512 0.06154206
-0.032763254 -0.28538233 0.061468814
-0.032948181 -0.28550196 0.061452109
-0.03313892 -0.28562763 0.061420396
-0.033323251 -0.28574359 0.061424464
-0.033511203 -0.28586531 0.061406597
-0.033698961 -0.28599003 0.061369129
-0.033887889 -0.28611365 0.061343193
-0.034072496 -0.28623381 0.061321884
-0.03425641 -0.28634986 0.061323639
-0.034433983 -0.28645915 0.061342709
-0.034636069 -0.28660446 0.061232537
-0.034812357 -0.28671202 0.061257385
-0.034975253 -0.28681439 0.061261512
-0.035175867 -0.28694177 0.061258607
-0.035361852 -0.28706205 0.06124191
-0.035557684 -0.28720197 0.061140973
-0.035742685 -0.28732109 0.061127737
-0.035919234 -0.28742641 0.061167583
-0.036102895 -0.28754359 0.061161265
-0.036286816 -0.28766477 0.061130725
-0.036463939 -0.28778514 0.061078295
-0.036639046 -0.28787801 0.061190806
-0.036830503 -0.28800893 0.061129108
-0.03702268 -0.28814486 0.061038569
-0.037200086 -0.28825238 0.061068021
-0.037382759 -0.28837261 0.061038643
-0.03756737 -0.28849277 0.061017331
-0.037749007 -0.28861159 0.060992569
-0.037932117 -0.28872952 0.060979329
-0.038112596 -0.28884667 0.060960338
-0.038303167 -0.28897813 0.060891721
-0.038473997 -0.2890749 0.060962722
-0.038657952 -0.289195 0.060939111
-0.038841762 -0.28931886 0.060891271
-0.039020956 -0.28943083 0.060899962
-0.039200656 -0.28954768 0.060879812
-0.039379925 -0.28966007 0.060886204
-0.03955948 -0.28977701 0.060864903
-0.039744414 -0.28990012 0.060826294
-0.039927945 -0.29002088 0.060796913
-0.040112328 -0.29014346 0.060759451
-0.040284708 -0.29024783 0.060788922
-0.040468767 -0.2903702 0.06075146
-0.040653702 -0.29049861 0.060679398
-0.040836886 -0.29061988 0.060645405
-0.040996369 -0.29070416 0.060749888
-0.041179925 -0.29082218 0.060737811
-0.041361626 -0.29094103 0.060713045
-0.041552853 -0.29108316 0.060579836
-0.04172986 -0.29119337 0.060590833
-0.041898422 -0.29130447 0.060562648
-0.042044654 -0.29141098 0.060474556
-0.042262994 -0.29154238 0.060516585
-0.042432018 -0.29162794 0.060651034
-0.042624198 -0.29176974 0.060523577
-0.042800829 -0.29188007 0.060532276
-0.04297803 -0.29199171 0.060535211
-0.043166213 -0.29213116 0.060406618
-0.043340579 -0.29223731 0.060432632
-0.043509871 -0.29233274 0.060505942
-0.043689921 -0.29245111 0.060477726
-0.04386767 -0.29256967 0.060439125
-0.044046197 -0.29268524 0.06042245
-0.044232912 -0.29281902 0.060323849
-0.04440422 -0.29291922 0.060375243
-0.04458404 -0.29304349 0.060308959
-0.044752646 -0.29313773 0.060386896
-0.044928327 -0.29325315 0.060359843
-0.045111485 -0.29338065 0.060286626
-0.045275591 -0.29348066 0.06031036
-0.045461133 -0.29359812 0.060309812
-0.045641348 -0.29372522 0.060227379
-0.045808688 -0.29383335 0.060213037
-0.04599198 -0.29395175 0.060197495
-0.046169885 -0.29406875 0.060169283
-0.046349756 -0.29419085 0.060116835
-0.046516731 -0.29428738 0.060174011
-0.046692174 -0.29439899 0.060170032
-0.046872672 -0.29452351 0.060104903
-0.047046006 -0.29463634 0.060084775
-0.047220305 -0.29474574 0.06009002
-0.047378846 -0.29484555 0.060093008
-0.047570989 -0.29497048 0.060071677
-0.047744852 -0.29508567 0.060038865
-0.047916472 -0.29520163 0.059992213
-0.048091508 -0.29530749 0.060022831
-0.048265867 -0.2954182 0.060020007
-0.048443478 -0.29553816 0.059972189
-0.048612908 -0.29563549 0.060033962
-0.048780713 -0.29574209 0.060031161
-0.048948202 -0.29585508 0.059986826
-0.049129751 -0.29596612 0.060010508
-0.04930982 -0.29609495 0.059916548
-0.04948033 -0.29620326 0.059913732
-0.049650788 -0.29630402 0.059958205
-0.049827624 -0.29642439 0.059904616
-0.050001182 -0.29653496 0.059899487
-0.050172508 -0.29664671 0.059878215
-0.050331786 -0.2967281 0.060000002
-0.050495341 -0.29683951 0.05994992
-0.050649222 -0.29695305 0.059847958
-0.050866105 -0.29709914 0.059791941
-0.051039182 -0.2972098 0.059784509
-0.05121205 -0.29732895 0.059722856
-0.051383264 -0.29744282 0.059687745
-0.051557645 -0.29755923 0.059649166
-0.051717058 -0.29764968 0.059714437
-0.051893964 -0.29775673 0.059745051
-0.052066296 -0.29786617 0.059742235
-0.052234314 -0.2979795 0.059697904
-0.052407265 -0.2980921 0.059677772
-0.05256217 -0.29819602 0.0596404
-0.052746594 -0.29831311 0.059637547
-0.05290309 -0.29841346 0.059629004
-0.053066403 -0.29852051 0.059605453
-0.053253502 -0.29863855 0.0596072
-0.053429365 -0.29875463 0.059576683
-0.053599332 -0.29886883 0.059534654
-0.053756855 -0.29897588 0.059488047
-0.053950276 -0.29910013 0.059475936
-0.054118831 -0.29920921 0.059460439
-0.054277159 -0.29930815 0.059468042
-0.054443344 -0.29941994 0.059426017
-0.054613825 -0.29952583 0.059438199
-0.054796316 -0.2996375 0.059461877
-0.054950591 -0.29974598 0.059393369
-0.055140048 -0.29986683 0.059387028
-0.055292673 -0.2999669 0.059364662
-0.055468053 -0.30007005 0.059413739
-0.055649597 -0.3001954 0.059347451
-0.055794366 -0.30028173 0.059380472
-0.055949926 -0.30038458 0.059352323
-0.05612874 -0.30051392 0.059250288
-0.056328449 -0.30065316 0.059168953
-0.056491345 -0.3007493 0.059212297
-0.056647956 -0.3008402 0.059263732
-0.056795273 -0.30092445 0.059319809
-0.05698292 -0.30106357 0.05919122
-0.057155736 -0.30117223 0.059195317
-0.057322934 -0.30128375 0.05915907
-0.057473563 -0.30137303 0.059196681
-0.057642914 -0.30147639 0.059220396
-0.057828758 -0.30160484 0.059151784
-0.057995744 -0.30171898 0.059098236
-0.058149986 -0.30182064 0.059072394
-0.058340762 -0.3019394 0.05908452
-0.058522321 -0.30205321 0.059090894
-0.058688775 -0.30216646 0.059040807
-0.058845758 -0.30227005 0.059013806
-0.059002623 -0.30237299 0.058990262
-0.059187006 -0.30249026 0.058986261
-0.059349786 -0.30258909 0.059012298
-0.059524883 -0.30270046 0.059008323
-0.05968149 -0.30280107 0.058998629
-0.059838042 -0.30290198 0.058986627
-0.06000381 -0.3030051 0.058997668
-0.06015683 -0.3031179 0.058896855
-0.060343735 -0.30323952 0.058875535
-0.060491174 -0.3033244 0.058928154
-0.06068965 -0.30346543 0.058830678
-0.060846262 -0.30355686 0.058878653
-0.061008196 -0.30366561 0.058838956
-0.061195273 -0.30377907 0.058869541
-0.06134484 -0.30387944 0.058833331
-0.061497647 -0.30397835 0.058819044
-0.061649233 -0.30408952 0.058722854
-0.061821189 -0.30419013 0.05877424
-0.061990429 -0.30431595 0.058656096
-0.062157527 -0.3044019 0.05878016
-0.06230716 -0.30452359 0.058610164
-0.062498398 -0.30462831 0.058712248
-0.062657095 -0.30472931 0.05870831
-0.062831327 -0.30485979 0.05858092
-0.06301488 -0.30497193 0.058605745
-0.063177735 -0.30506694 0.058656007
-0.063322395 -0.30516931 0.058587529
-0.063486777 -0.30527467 0.058578964
-0.063644111 -0.30538067 0.058538124
-0.063825458 -0.30548647 0.0585941
-0.063981779 -0.30559662 0.058523279
-0.06416434 -0.30571273 0.05851927
-0.064331919 -0.30581805 0.058523383
-0.064473949 -0.3059274 0.058400694
-0.064672634 -0.30604839 0.058430098
-0.064833932 -0.30614993 0.058433071
-0.064986475 -0.30624428 0.058446459
-0.065144137 -0.30634594 0.058434457
-0.065314323 -0.30645382 0.058432791
-0.06548664 -0.30656657 0.058409214
-0.065644309 -0.30666766 0.058400668
-0.065811411 -0.30677342 0.058400169
-0.065976121 -0.30688632 0.058345467
-0.066138163 -0.30698484 0.058370356
-0.066325679 -0.30710611 0.058353655
-0.066478051 -0.30720055 0.058365881
-0.066629007 -0.30729884 0.058348138
-0.066824801 -0.30742756 0.058317564
-0.066975899 -0.3075155 0.058365554
-0.067125589 -0.30762601 0.05826591
-0.067290634 -0.30774498 0.058174301
-0.067472443 -0.30785108 0.058230281
-0.067628287 -0.30794606 0.058252878
-0.067785144 -0.30804753 0.058238573
-0.067945607 -0.3081581 0.058181576
-0.068128258 -0.30827957 0.058144122
-0.068282776 -0.30837721 0.058144815
-0.068414345 -0.30847293 0.058065984
-0.068567283 -0.30858919 0.057943262
-0.068747126 -0.30869937 0.0579658
-0.068942331 -0.30881119 0.058039039
-0.069098122 -0.30890614 0.058061644
-0.069265068 -0.30900317 0.058115356
-0.069421664 -0.30909699 0.058148332
-0.069602944 -0.30921963 0.058098201
-0.06977047 -0.30935097 0.05793852
-0.069925547 -0.30943337 0.058037251
-0.070094258 -0.30954161 0.058027528
-0.07024809 -0.3096399 0.058021303
-0.070396379 -0.30974659 0.057940125
-0.070579022 -0.30986589 0.057916507
-0.070746891 -0.30996865 0.05793792
-0.070891425 -0.31006125 0.057930574
-0.071071893 -0.31018338 0.057880435
-0.071225315 -0.3102757 0.057909966
-0.071385242 -0.31038335 0.057869121
-0.071557611 -0.3104921 0.05787091
-0.071717493 -0.31059954 0.057831213
-0.071874537 -0.31069896 0.057830747
-0.072033413 -0.31080741 0.057780676
-0.072199211 -0.31090721 0.057812482
-0.072353125 -0.3110103 0.057776261
-0.072530337 -0.31112415 0.057765357
-0.072702616 -0.31123284 0.057767149
-0.072867088 -0.31133437 0.057782803
-0.073007457 -0.31143641 0.057699338
-0.073178403 -0.31154644 0.057687294
-0.073339194 -0.31164676 0.057696048
-0.073502593 -0.31174946 0.057700172
-0.073673554 -0.31186447 0.057656981
-0.073830113 -0.31196412 0.057653051
-0.073972926 -0.31205782 0.057631861
-0.074123599 -0.31215832 0.05759912
-0.074278221 -0.31225014 0.057636723
-0.074450195 -0.31236854 0.057576239
-0.074635431 -0.31247917 0.05761721
-0.074794561 -0.31258577 0.057579823
-0.074941181 -0.31268501 0.057539012
-0.075090513 -0.31278631 0.057495885
-0.075270645 -0.31289703 0.057516113
-0.075440556 -0.31300312 0.057524838
-0.075595535 -0.31310835 0.057479385
-0.075737871 -0.31320634 0.05742937
-0.075922698 -0.31332207 0.057436895
-0.076105975 -0.31343478 0.057457101
-0.076248541 -0.31352812 0.05743707
-0.076404706 -0.3136321 0.057404313
-0.076560222 -0.31374064 0.05734041
-0.0767233 -0.31384349 0.057342228
-0.076870799 -0.31394127 0.057314105
-0.077052251 -0.31405136 0.057343557
-0.077203885 -0.31414622 0.057350017
