# .PCD v0.7 - Point Cloud Data file format
VERSION 0.7
FIELDS x y z
SIZE 4 4 4
TYPE F F F
COUNT 1 1 1
WIDTH 1309
HEIGHT 1
VIEWPOINT 0 0 0 1 0 0 0
POINTS 1309
DATA ascii
-0.043013629 -0.29695025 0.058857974
-0.043194432 -0.29706591 0.058846742
-0.043374259 -0.2971839 0.058815897
-0.043551363 -0.29729703 0.058805846
-0.043726098 -0.29740587 0.05881428
-0.043891318 -0.29750499 0.05884701
-0.044093966 -0.29765481 0.058701735
-0.044263385 -0.29775396 0.058751766
-0.044433087 -0.29785362 0.058799475
-0.044619404 -0.29798135 0.058731645
-0.044800229 -0.29810297 0.058681168
-0.044961344 -0.298186 0.058802821
-0.04515437 -0.29833218 0.058641434
-0.045327976 -0.29843575 0.058679894
-0.045511279 -0.2985633 0.058600534
-0.045685388 -0.29867262 0.058603194
-0.045832343 -0.29876763 0.058587506
-0.046017691 -0.29888192 0.058603972
-0.046215989 -0.29901385 0.058558024
-0.046359658 -0.29909307 0.058632419
-0.046520814 -0.29919946 0.058600497
-0.046740178 -0.29936245 0.058437839
-0.046904124 -0.29946095 0.058469415
-0.047088601 -0.29956451 0.058552857
-0.047268413 -0.29968759 0.058488525
-0.047446821 -0.29980296 0.058469221
-0.047627412 -0.29992849 0.058392182
-0.047799177 -0.30003983 0.05837176
-0.047955189 -0.30013666 0.058381435
-0.048129719 -0.30024412 0.058397956
-0.048325457 -0.30037376 0.058356643
-0.048503794 -0.30049574 0.058293469
-0.048673775 -0.30059859 0.05832155
-0.048851289 -0.30071375 0.058299948
-0.049025476 -0.30082679 0.058278363
-0.049203306 -0.3009432 0.058249835
-0.049374197 -0.3010487 0.058264054
-0.049549453 -0.30116507 0.058225147
-0.04971496 -0.30125755 0.058302902
-0.049896561 -0.30138421 0.058222394
-0.05005417 -0.30150506 0.0580808
-0.05022417 -0.3016032 0.058140054
-0.050419196 -0.30172867 0.058122993
-0.050591242 -0.30183211 0.058155689
-0.050766535 -0.3019506 0.058102913
-0.05093899 -0.30205536 0.058128685
-0.051111959 -0.30216816 0.05810364
-0.051235959 -0.30223393 0.058185048
-0.051426187 -0.30238134 0.05800404
-0.051624157 -0.30249637 0.058067799
-0.051807072 -0.30262458 0.057982661
-0.051977389 -0.30272412 0.058033839
-0.052151449 -0.30284184 0.057981081
-0.052324116 -0.30295587 0.057946794
-0.05249428 -0.30306268 0.057949476
-0.052666299 -0.3031677 0.057971783
-0.052838195 -0.30328017 0.057944432
-0.053012207 -0.3033917 0.057932086
-0.053174205 -0.3034974 0.057908237
-0.053354964 -0.30361494 0.057884321
-0.053520583 -0.30371645 0.057903185
-0.053667914 -0.30381659 0.057855166
-0.053845637 -0.30393344 0.057823166
-0.05403398 -0.30406088 0.057765715
-0.054210208 -0.30416432 0.057815716
-0.054386005 -0.30428472 0.05775255
-0.054552078 -0.30438912 0.057754103
-0.054724306 -0.30449724 0.057756774
-0.054895479 -0.30460155 0.057780229
-0.05507192 -0.30472636 0.057690509
-0.055241309 -0.30484501 0.057612367
-0.055407539 -0.30494091 0.057670489
-0.055583637 -0.30505553 0.05764658
-0.055752777 -0.30516362 0.05763657
-0.055922456 -0.30527434 0.057611544
-0.056094494 -0.3053841 0.057602666
-0.056263156 -0.30549103 0.057598419
-0.056433383 -0.30559298 0.057633437
-0.056604519 -0.30571219 0.057558745
-0.056772083 -0.30581474 0.057578765
-0.056937348 -0.30590564 0.057665754
-0.057110831 -0.30602458 0.05760261
-0.057280995 -0.30614141 0.057539474
-0.057454001 -0.30625966 0.057478629
-0.057621989 -0.306366 0.057475552
-0.057794087 -0.30648053 0.05743549
-0.057962038 -0.30658755 0.057427797
-0.058128558 -0.30668575 0.057472058
-0.058297444 -0.3067995 0.057423938
-0.058469757 -0.30691838 0.057356175
-0.058626011 -0.30702487 0.057303492
-0.058808841 -0.30714002 0.057303812
-0.058978025 -0.30726063 0.057211809
-0.059107892 -0.30734149 0.057218146
-0.059267677 -0.30740771 0.057444878
-0.059480868 -0.30756414 0.057299562
-0.059644666 -0.30766556 0.057311509
-0.059804514 -0.30775604 0.057378903
-0.059934769 -0.30784118 0.057358664
-0.060135424 -0.30799955 0.057148755
-0.06028625 -0.30808836 0.057189625
-0.060477704 -0.30820915 0.057188742
-0.060656976 -0.30832595 0.057163671
-0.060823902 -0.30843669 0.057127107
-0.060980998 -0.30853158 0.057154089
-0.061122611 -0.30861494 0.057192698
-0.061286472 -0.30873024 0.057113428
-0.061492704 -0.30885106 0.057173681
-0.061659362 -0.30896902 0.057088621
-0.061825745 -0.3090831 0.057027817
-0.061976526 -0.30917594 0.057042129
-0.062136557 -0.30927023 0.057085268
-0.062324159 -0.30939841 0.057019737
-0.06249328 -0.30950546 0.057016648
-0.062656328 -0.30960444 0.057041302
-0.062822208 -0.30971259 0.057017446
-0.062990978 -0.30982503 0.056977414
-0.063141517 -0.3099193 0.05698134
-0.06330049 -0.31003276 0.056894004
-0.063472174 -0.31014353 0.056877047
-0.063649707 -0.31026098 0.056840442
-0.063821264 -0.31037095 0.056828104
-0.063983731 -0.31047344 0.056827351
-0.064134248 -0.31056455 0.056852065
-0.064317994 -0.3106817 0.056843132
-0.064465433 -0.3107712 0.056865551
-0.064623035 -0.31085867 0.056943335
-0.064772449 -0.31095925 0.056901082
-0.064954229 -0.31108972 0.056796331
-0.065132633 -0.31121826 0.056690432
-0.065305263 -0.3113175 0.056753147
-0.065461136 -0.31141654 0.056747809
-0.065631561 -0.31152931 0.056712382
-0.065799184 -0.31163806 0.056691978
-0.065974824 -0.31174043 0.056746595
-0.066129677 -0.31182688 0.056819782
-0.066284589 -0.3119137 0.056890659
-0.066447444 -0.31196517 0.057227079
-0.066593751 -0.31204623 0.057300307
-0.066768683 -0.3122147 0.056917295
-0.066924505 -0.31234199 0.056726061
-0.067087755 -0.31245235 0.056676812
-0.067247801 -0.31257403 0.056539819
-0.067408524 -0.31269193 0.056430541
-0.067568474 -0.31279901 0.056389391
-0.067745835 -0.3129079 0.056408212
-0.067916572 -0.31301472 0.056413196
-0.068089418 -0.31312642 0.056395076
-0.068252631 -0.31322253 0.056439362
-0.068414211 -0.31331286 0.056514829
-0.068584666 -0.31342074 0.056511726
-0.068740338 -0.31349719 0.056654193
-0.068891123 -0.31361777 0.05648607
-0.06905891 -0.31375188 0.056299396
-0.069253944 -0.31388301 0.056245379
-0.069425434 -0.31397784 0.05633235
-0.069578566 -0.31405285 0.056473665
-0.069759056 -0.3141906 0.056315798
-0.069908477 -0.31428343 0.056324355
-0.070079364 -0.31438932 0.056336269
-0.070251621 -0.31450906 0.056262735
-0.070414938 -0.314614 0.056249276
-0.070580713 -0.31472194 0.056226574
-0.070721209 -0.31480846 0.056239784
-0.07087338 -0.31490356 0.05624485
-0.071051463 -0.31501099 0.056276366
-0.071224637 -0.315135 0.056178581
-0.071387812 -0.31523231 0.05621478
-0.071551204 -0.31533661 0.056205947
-0.071697503 -0.3154133 0.056308039
-0.07186114 -0.31553829 0.056164101
-0.072017826 -0.31565329 0.056057155
-0.072207712 -0.31577554 0.056040108
-0.072363921 -0.31587058 0.056062482
-0.072521873 -0.31596303 0.056109104
-0.072707236 -0.31608558 0.056071293
-0.072870933 -0.31620148 0.055987403
-0.073010564 -0.31628904 0.055990227
-0.073187709 -0.31638569 0.056088708
-0.073347285 -0.31649461 0.056033708
-0.073503718 -0.31660154 0.055978723
-0.073677748 -0.31672049 0.055917878
-0.073834047 -0.31680977 0.05597835
-0.074002214 -0.31691867 0.055959105
-0.07416939 -0.3170287 0.055928316
-0.074320115 -0.31713063 0.055882584
-0.074492417 -0.3172453 0.055842534
-0.074656166 -0.31734809 0.055845246
-0.074809186 -0.31743637 0.055898808
-0.074958071 -0.31755576 0.055730693
-0.075116768 -0.31764305 0.055814259
-0.075303733 -0.31774676 0.055906922
-0.075471744 -0.31786558 0.055821855
-0.07563632 -0.31797254 0.055800315
-0.075804979 -0.31808528 0.055757973
-0.075971581 -0.31819987 0.055694852
-0.076137133 -0.31830078 0.055717189
-0.076300509 -0.31840384 0.055716433
-0.076464772 -0.31851083 0.055693734
-0.076618791 -0.31861308 0.055659544
-0.076789878 -0.31871381 0.055706095
-0.076956891 -0.31882286 0.055681083
-0.077117562 -0.31892824 0.055653788
-0.077261828 -0.31902066 0.055643883
-0.077434972 -0.31912446 0.055678885
-0.077600189 -0.31923482 0.05563771
-0.07774923 -0.31932339 0.055672813
-0.077906236 -0.31942299 0.055668622
-0.078082494 -0.31952047 0.05575788
-0.078268215 -0.31961113 0.055931378
-0.078437813 -0.31970179 0.056037992
-0.07859461 -0.31980211 0.056028027
-0.078744754 -0.31990719 0.05595921
-0.078902029 -0.32001922 0.055874199
-0.079048142 -0.32013071 0.055746507
-0.079206228 -0.32024169 0.055671878
-0.079355136 -0.32035071 0.055571895
-0.079512492 -0.32046175 0.055493806
-0.079679355 -0.32056648 0.055496506
-0.079832762 -0.32067591 0.055412661
-0.079985015 -0.32079339 0.055271089
-0.080147311 -0.32090068 0.055238012
-0.080292471 -0.3210144 0.05509185
-0.080453359 -0.32112589 0.055025294
-0.080637902 -0.32122371 0.055146836
-0.080791816 -0.32133186 0.055073392
-0.080978088 -0.32142916 0.055205312
-0.081148893 -0.32152814 0.055262264
-0.081323482 -0.32162881 0.055323817
-0.081489235 -0.32173425 0.055317275
-0.081651978 -0.32183778 0.055310756
-0.081829801 -0.32195437 0.055281065
-0.081999548 -0.32207146 0.055214468
-0.082183756 -0.3221882 0.055210158
-0.082330368 -0.32227594 0.055240661
-0.082502104 -0.32237867 0.055276822
-0.082655527 -0.32247669 0.055268027
-0.082823642 -0.32259101 0.055212986
-0.082974903 -0.32268992 0.055189196
-0.0831296 -0.322797 0.055126134
-0.083298229 -0.32290128 0.05513921
-0.083454646 -0.32300434 0.055109624
-0.083632253 -0.32311761 0.055100724
-0.083801135 -0.32322502 0.055094175
-0.083949193 -0.3233251 0.055049613
-0.084113583 -0.32342809 0.055053476
-0.0842769 -0.32354677 0.054949962
-0.084448583 -0.32365614 0.054942235
-0.084597461 -0.32374969 0.054943867
-0.084767044 -0.32386282 0.054902673
-0.084933572 -0.32397103 0.054881122
-0.085095666 -0.32407486 0.054869983
-0.085251294 -0.32416919 0.054894671
-0.085416943 -0.32427773 0.05486735
-0.085584864 -0.32438841 0.054835398
-0.085766666 -0.32450047 0.054851886
-0.085919626 -0.32460433 0.054802679
-0.086082563 -0.32470801 0.054796159
-0.086250663 -0.32481298 0.054802313
-0.086412057 -0.32492271 0.054749604
-0.086574763 -0.32502097 0.054777723
-0.086748682 -0.32512999 0.054781549
-0.086904928 -0.32524103 0.05469884
-0.08706218 -0.32534355 0.054676175
-0.087218828 -0.32543817 0.054703172
-0.08739052 -0.32555053 0.054675825
-0.087548807 -0.32565284 0.054658927
-0.08770892 -0.3257547 0.054652423
-0.087862745 -0.32586071 0.054592822
-0.088033892 -0.32596272 0.054631297
-0.088210091 -0.32607669 0.054612003
-0.088372327 -0.32618079 0.05459971
-0.088540614 -0.32629642 0.054536585
-0.088697396 -0.32639146 0.054561265
-0.088856809 -0.32649872 0.054516654
-0.089011945 -0.32659921 0.05449862
-0.089171417 -0.3267014 0.054487497
-0.089356631 -0.32680631 0.054565161
-0.089531064 -0.32691827 0.05455165
-0.089678302 -0.32702029 0.054490935
-0.08983402 -0.32711834 0.054491371
-0.090009481 -0.32723746 0.054435138
-0.090178795 -0.32734305 0.054442447
-0.090338804 -0.32745013 0.054401293
-0.090513214 -0.32756457 0.054371621
-0.090670347 -0.32766491 0.054362815
-0.090812303 -0.32776272 0.054307889
-0.090997763 -0.32787797 0.054318585
-0.09115757 -0.32798034 0.054307457
-0.091298431 -0.32807362 0.054277942
-0.091467977 -0.32818636 0.054239057
-0.091635525 -0.32828557 0.054281011
-0.091816418 -0.32839477 0.054312512
-0.091978535 -0.32850388 0.054266728
-0.092145815 -0.32861468 0.054231323
-0.092301667 -0.32871318 0.054229449
-0.092477068 -0.32882541 0.054218248
-0.092647441 -0.32893816 0.05418282
-0.09278255 -0.329032 0.054125626
-0.092926279 -0.32912722 0.054094937
-0.093134567 -0.32923895 0.054223303
-0.09330418 -0.32935405 0.054169405
-0.093457162 -0.32945952 0.054109812
-0.093627401 -0.32956585 0.054115955
-0.093778506 -0.32966927 0.054062147
-0.093964919 -0.32978317 0.054085538
-0.094135128 -0.32989177 0.054076672
-0.09428519 -0.32999313 0.054032102
-0.094446205 -0.33011067 0.053926285
-0.094592139 -0.33020169 0.053932548
-0.09476468 -0.33029982 0.054002188
-0.094936848 -0.33041263 0.053973675
-0.095060393 -0.33050883 0.053853028
-0.0952041 -0.33060828 0.05379463
-0.095416456 -0.33071151 0.053995721
-0.095638126 -0.330825 0.054167904
-0.095798492 -0.33094656 0.05403322
-0.095935374 -0.33106241 0.053838603
-0.096091747 -0.33116561 0.053807862
-0.096252777 -0.33125877 0.053862549
-0.096434943 -0.33137563 0.053849
-0.096593641 -0.33147889 0.053827491
-0.096762031 -0.33159199 0.053781684
-0.096898355 -0.33169538 0.053666748
-0.097032487 -0.33179474 0.053569138
-0.097202718 -0.33188632 0.053672276
-0.097411402 -0.33198988 0.05385606
-0.097590126 -0.33211282 0.053788267
-0.097757265 -0.33222598 0.053736694
-0.097912915 -0.33232751 0.053714037
-0.098105103 -0.33244488 0.053738549
-0.09827143 -0.33255807 0.053683516
-0.098424025 -0.3326596 0.053648174
-0.09858273 -0.33276692 0.053600103
-0.098749697 -0.33286697 0.053633973
-0.098911151 -0.33297813 0.053572029
-0.09905389 -0.33307379 0.05353443
-0.099225149 -0.33317974 0.053547494
-0.099401422 -0.33328778 0.053567462
-0.099576741 -0.33340138 0.053547028
-0.099754997 -0.33351329 0.053549673
-0.099894501 -0.33361253 0.053475134
-0.10002564 -0.33371493 0.053345203
-0.10016994 -0.33381072 0.05331336
-0.10037957 -0.33392084 0.053457882
-0.10056899 -0.3340354 0.053489342
-0.10074049 -0.33415079 0.053441212
-0.10089457 -0.33425978 0.053363141
-0.10104319 -0.33435774 0.05333475
-0.10122587 -0.3344686 0.053362772
-0.101414 -0.33458516 0.053375758
-0.10155809 -0.33468467 0.053318515
-0.10172854 -0.33479309 0.053311959
-0.10188311 -0.33489165 0.053304322
-0.10206871 -0.33500135 0.053351961
-0.1022217 -0.33510506 0.05330392
-0.10238585 -0.33521828 0.053239658
-0.10255226 -0.33532485 0.053228498
-0.10274632 -0.33543903 0.053281873
-0.10292596 -0.33555707 0.053249866
-0.1030758 -0.33566058 0.053190287
-0.10322794 -0.3357676 0.053116847
-0.10342556 -0.33588246 0.053180594
-0.10359198 -0.33598426 0.053200617
-0.10377643 -0.33610132 0.053195145
-0.10391001 -0.33620316 0.053079061
-0.10406765 -0.33630419 0.053067945
-0.10426128 -0.33641246 0.05315828
-0.10441884 -0.33651853 0.053113677
-0.10458159 -0.33663175 0.053043641
-0.10473735 -0.33673596 0.053003669
-0.1049329 -0.33684653 0.053087059
-0.10510539 -0.33695444 0.053092033
-0.1052472 -0.3370555 0.05301518
-0.10541787 -0.33716652 0.052992452
-0.10559564 -0.33728164 0.052972011
-0.10577488 -0.33739701 0.052956164
-0.10593201 -0.33749685 0.052950822
-0.10611532 -0.33761281 0.052947678
-0.10627192 -0.33771741 0.052908853
-0.10643813 -0.33782175 0.052911542
-0.10659441 -0.33793104 0.052840397
-0.10678662 -0.33805001 0.052854523
-0.10695295 -0.33816075 0.05281565
-0.10710989 -0.33826238 0.052797601
-0.10727544 -0.33836839 0.052786455
-0.10745116 -0.33847749 0.052797183
-0.10761581 -0.33858347 0.052782573
-0.10778805 -0.33869371 0.052771393
-0.10791739 -0.33879286 0.052655332
-0.10815123 -0.33891264 0.052836694
-0.10831915 -0.33903 0.052760866
-0.1084644 -0.33913162 0.052694373
-0.10864134 -0.33924887 0.052656613
-0.10883306 -0.33936402 0.052693829
-0.10899207 -0.33946645 0.052679241
-0.1091623 -0.33957821 0.052649599
-0.10930216 -0.33968049 0.052556574
-0.10947855 -0.33979037 0.052565001
-0.10966457 -0.3399049 0.052582618
-0.10983548 -0.34001693 0.052554123
-0.11001293 -0.34012574 0.052574083
-0.11017363 -0.34023607 0.052514464
-0.11034658 -0.3403427 0.052529834
-0.11051291 -0.34045553 0.052477103
-0.11069002 -0.34056306 0.052503999
-0.11083975 -0.34066859 0.05243057
-0.11103791 -0.34078586 0.052480467
-0.11121033 -0.34089851 0.052454263
-0.11139314 -0.34101313 0.052458037
-0.1115472 -0.34111524 0.052424997
-0.11169902 -0.34121978 0.052366573
-0.11188824 -0.34133863 0.052369162
-0.11207672 -0.34145314 0.052397158
-0.11226499 -0.34156629 0.052433249
-0.11240944 -0.34166953 0.052352913
-0.11258548 -0.34178323 0.052334778
-0.11275919 -0.3418979 0.052300487
-0.11293587 -0.34200761 0.052311223
-0.11308894 -0.342114 0.052245855
-0.11325101 -0.34222361 0.052196618
-0.1134313 -0.34233561 0.052207328
-0.11361417 -0.34245098 0.052206486
-0.11379066 -0.34256232 0.052205674
-0.11397009 -0.34267709 0.052194454
-0.11414136 -0.34278882 0.05216942
-0.11432204 -0.3429012 0.052178986
-0.11446474 -0.34300283 0.052102119
-0.11466078 -0.34312001 0.052143939
-0.11480662 -0.3432264 0.052048583
-0.11500151 -0.34334621 0.052068468
-0.1151825 -0.34345895 0.052076872
-0.11535977 -0.34356692 0.052101459
-0.11551876 -0.34367901 0.052023362
-0.11569972 -0.34379596 0.052004058
-0.11588034 -0.34390622 0.052027475
-0.11606872 -0.34402364 0.052035846
-0.11623388 -0.34413189 0.052008528
-0.11638431 -0.34423944 0.051924698
-0.1165601 -0.34435016 0.051925041
-0.1167506 -0.34446701 0.051946104
-0.11693737 -0.34458306 0.051956791
-0.025668193 -0.28575888 0.060574807
-0.025886942 -0.28591427 0.06045942
-0.026067909 -0.28602177 0.060502432
-0.026273727 -0.28616109 0.060439076
-0.026467379 -0.28628275 0.060441606
-0.026675295 -0.28642517 0.06036669
-0.026857499 -0.28653467 0.0604016
-0.027059518 -0.28666985 0.060349822
-0.027243827 -0.28678226 0.060374334
-0.02743195 -0.28689972 0.060381502
-0.02762891 -0.28702644 0.06036438
-0.027835637 -0.28716844 0.06028717
-0.028026257 -0.28728959 0.060280468
-0.028207712 -0.28739879 0.060314242
-0.02841204 -0.28753823 0.060243957
-0.028614767 -0.2876758 0.060179465
-0.028787352 -0.28777117 0.060267545
-0.028975658 -0.28789961 0.060203128
-0.029113065 -0.28797752 0.060260203
-0.029382717 -0.28816837 0.060122628
-0.029547445 -0.28826824 0.060148392
-0.029779729 -0.28843182 0.060035251
-0.02991277 -0.28850663 0.060094662
-0.030090798 -0.28862229 0.060071863
-0.030281287 -0.28874493 0.060054772
-0.030516129 -0.28890538 0.059972789
-0.030715417 -0.28902003 0.060044587
-0.030891314 -0.28912312 0.060095698
-0.031074248 -0.28923589 0.060112141
-0.031272471 -0.28936991 0.060052283
-0.031479467 -0.2895163 0.059947349
-0.031677507 -0.28965056 0.059885189
-0.031860091 -0.28976083 0.059916634
-0.032041207 -0.28987175 0.059937701
-0.03223832 -0.29000524 0.059876695
-0.032430399 -0.29013187 0.059839971
-0.032642767 -0.29029009 0.059679583
-0.032832824 -0.29040894 0.05968558
-0.033000659 -0.29050165 0.059771389
-0.033168111 -0.29059377 0.059859499
-0.033375043 -0.29073977 0.059756875
-0.033552591 -0.29084653 0.059790656
-0.033751175 -0.29098374 0.059711173
-0.033942156 -0.29111019 0.059670985
-0.034122899 -0.29122195 0.059685126
-0.034290433 -0.29131445 0.059770923
-0.034494996 -0.29145846 0.059671775
-0.034687452 -0.29158777 0.059618879
-0.034872178 -0.29170591 0.059607595
-0.035045639 -0.29180741 0.059658714
-0.0352435 -0.29194245 0.059590783
-0.035423476 -0.29205388 0.059603766
-0.035609789 -0.29217494 0.059579775
-0.035799515 -0.2923013 0.059534967
-0.035991956 -0.29242903 0.059492469
-0.036176458 -0.29254788 0.059475407
-0.036359604 -0.29266486 0.059465278
-0.036541045 -0.29277933 0.059464402
-0.036751114 -0.29293802 0.059291326
-0.036912519 -0.29302192 0.059408337
-0.037097979 -0.29313999 0.059400506
-0.037290517 -0.29327235 0.059327975
-0.037477687 -0.29339656 0.059286654
-0.037646569 -0.29349223 0.059357435
-0.037838049 -0.29362041 0.059308007
-0.038012549 -0.29372504 0.059342962
-0.038195387 -0.29384303 0.059324749
-0.038382571 -0.29396817 0.059277654
-0.038560726 -0.29407898 0.059287183
-0.038738605 -0.29418942 0.059297875
-0.038926058 -0.29431227 0.05926694
-0.039111219 -0.29443488 0.05922794
-0.039288696 -0.29454508 0.059238635
-0.039473664 -0.29466775 0.059198473
-0.039660357 -0.29479009 0.059167542
-0.039837766 -0.29490063 0.059175923
-0.04002535 -0.29502827 0.059113815
-0.040207483 -0.29514706 0.059087519
-0.040387616 -0.29525912 0.059097048
-0.040575676 -0.29538828 0.059026841
-0.040767524 -0.29552424 0.05892776
-0.04092285 -0.29559782 0.059087522
-0.04110726 -0.29572138 0.059039291
-0.041282229 -0.29582879 0.05905807
-0.041465294 -0.29594672 0.059041016
-0.041650541 -0.29607236 0.058982383
-0.041837696 -0.29620171 0.058907568
-0.042014755 -0.29631341 0.058906712
-0.042187452 -0.29641744 0.058938213
-0.042369433 -0.2965382 0.058898069
-0.042553298 -0.29665878 0.058867149
-0.042728089 -0.29676694 0.058880169
-0.042905301 -0.29687962 0.058873534
-0.043072805 -0.29699039 0.058839239
-0.04326437 -0.29711407 0.058819834
-0.043437451 -0.29721957 0.058843244
-0.043619953 -0.29733875 0.0588158
-0.043802377 -0.29746211 0.058760639
-0.043980151 -0.29757687 0.058742456
-0.044148572 -0.297674 0.058801688
-0.044330075 -0.29779625 0.058750011
-0.044521846 -0.29793864 0.058608189
-0.044692867 -0.29803687 0.058670882
-0.044861078 -0.29813388 0.058730118
-0.045041189 -0.29825437 0.058684207
-0.045220718 -0.29837394 0.058641762
-0.045396723 -0.29848674 0.058629364
-0.045568563 -0.29859129 0.058653943
-0.045747984 -0.29871133 0.058608033
-0.045925222 -0.29882717 0.058580615
-0.046103656 -0.29894572 0.058540493
-0.046268936 -0.29903719 0.058623992
-0.046451926 -0.29916564 0.058537655
-0.046623133 -0.29926959 0.058563381
-0.046798162 -0.29938179 0.058550987
-0.046982795 -0.29951477 0.05844155
-0.047158506 -0.29962897 0.058418754
-0.047330119 -0.29973441 0.058436401
-0.047494698 -0.29983455 0.058459856
-0.047676615 -0.29995283 0.05843588
-0.047848649 -0.30006471 0.058413103
-0.048020728 -0.3001717 0.058422662
-0.048200931 -0.30029732 0.058343269
-0.04837478 -0.30040875 0.058330879
-0.048553385 -0.30053145 0.058264188
-0.048723552 -0.30063477 0.058289923
-0.048894197 -0.30073926 0.058309883
-0.049070701 -0.30085781 0.058261685
-0.049220614 -0.30094099 0.05833602
-0.0494169 -0.30107939 0.058239222
-0.049586091 -0.30118087 0.058273055
-0.049764168 -0.30130446 0.058198281
-0.049936187 -0.30142528 0.058116611
-0.050068587 -0.30151266 0.058090571
-0.050283018 -0.3016448 0.058110315
-0.050431989 -0.30173191 0.058154631
-0.050605871 -0.30184004 0.058164179
-0.050797548 -0.30196342 0.058147088
-0.050979186 -0.30209929 0.058006477
-0.051113769 -0.30218735 0.057985038
-0.051270939 -0.30228403 0.058000453
-0.051443949 -0.30237719 0.058104698
-0.051639482 -0.30250585 0.05806911
-0.05182999 -0.30264166 0.057965405
-0.05199372 -0.30275074 0.057926506
-0.052153066 -0.30284002 0.057999644
-0.052312043 -0.30293542 0.058031216
-0.052510537 -0.30306715 0.057987526
-0.052680828 -0.30316669 0.058038667
-0.052858628 -0.30329728 0.057916544
-0.053014014 -0.30339777 0.057899635
-0.053162798 -0.30350167 0.057833083
-0.053360187 -0.30362391 0.05784715
-0.053544015 -0.30374357 0.057822004
-0.053712312 -0.3038457 0.057847753
-0.053878017 -0.30394778 0.057863116
-0.054006502 -0.30403674 0.057810523
-0.054165646 -0.30411607 0.057948343
-0.054370865 -0.30426714 0.057805307
-0.054522742 -0.30435735 0.057841524
-0.054680631 -0.30445045 0.057883482
-0.054852035 -0.30458477 0.057710588
-0.055070244 -0.30471909 0.057731476
-0.055237748 -0.30481949 0.057765312
-0.05539424 -0.30493948 0.057624824
-0.055561215 -0.30503833 0.057666741
-0.055748887 -0.30515707 0.057663526
-0.055920057 -0.30527401 0.057603806
-0.05605584 -0.30535352 0.057643563
-0.056237396 -0.30546984 0.057631139
-0.056391772 -0.30557302 0.057592284
-0.056567974 -0.3056905 0.057549853
-0.056723155 -0.30579877 0.057480972
-0.056916319 -0.30592081 0.057478882
-0.057068195 -0.30601346 0.057498936
-0.057221789 -0.3061153 0.057465859
-0.057376787 -0.30621025 0.057483584
-0.057579327 -0.3063398 0.057471052
-0.057774562 -0.30647597 0.057384659
-0.057932608 -0.30657357 0.057397746
-0.058096103 -0.30668813 0.057321891
-0.058279019 -0.30680248 0.057327934
-0.058445059 -0.30689794 0.057388339
-0.058613781 -0.30701208 0.05733671
-0.058780655 -0.3071135 0.057361312
-0.058944844 -0.30721623 0.057366297
-0.059081107 -0.30730131 0.0573714
-0.059269655 -0.30741641 0.057395905
-0.059413362 -0.30751723 0.057328228
-0.059591383 -0.30764377 0.057233822
-0.059736658 -0.30773437 0.057240054
-0.059914842 -0.30783433 0.057321176
-0.060111787 -0.30798262 0.057162024
-0.060262963 -0.30807573 0.057176299
-0.060413785 -0.30816367 0.057222918
-0.06061805 -0.30829903 0.057179205
-0.060784966 -0.30840838 0.057151832
-0.060948581 -0.30851337 0.057139494
-0.061096471 -0.30860281 0.057164185
-0.061263584 -0.30872422 0.057058282
-0.061414339 -0.30881125 0.057110675
-0.061595976 -0.30891708 0.057167545
-0.061765809 -0.30904949 0.057000428
-0.061950482 -0.3091667 0.056994915
-0.062116634 -0.30927101 0.056997579
-0.062273502 -0.3093712 0.056988738
-0.062445741 -0.309479 0.056993671
-0.062599115 -0.30959103 0.056892462
-0.062771268 -0.30969578 0.056917034
-0.062924825 -0.30979353 0.056910515
-0.063081175 -0.30989814 0.05687049
-0.063274756 -0.31001657 0.056893811
-0.06342525 -0.31010994 0.056903481
-0.063610032 -0.31021702 0.056964949
-0.063774765 -0.31033447 0.056875229
-0.063918233 -0.31043327 0.056820266
-0.064082414 -0.3105177 0.056945339
-0.064249545 -0.31063929 0.056838289
-0.064413793 -0.31075487 0.056758959
-0.064579599 -0.31085542 0.056784719
-0.064739987 -0.31094694 0.056847464
-0.064928874 -0.3110742 0.056793425
-0.065094113 -0.31117895 0.056789167
-0.065238141 -0.3112686 0.056796554
-0.065429263 -0.31140041 0.056721721
-0.065574832 -0.31150016 0.056669049
-0.065704063 -0.31159538 0.056578346
-0.065889739 -0.31169832 0.056670994
-0.066086806 -0.31181422 0.056725465
-0.06623359 -0.31192297 0.056618519
-0.066415042 -0.31203076 0.056661516
-0.066572942 -0.31213495 0.056630731
-0.066744685 -0.31223962 0.056654152
-0.066892736 -0.31232598 0.056699634
-0.067046426 -0.31243226 0.056637682
-0.067219302 -0.31255943 0.056517899
-0.067389846 -0.31266788 0.056511294
-0.06755653 -0.3127771 0.056483932
-0.067714699 -0.3128781 0.056475081
-0.067884237 -0.31297752 0.056523923
-0.06806007 -0.31309196 0.056499977
-0.06823007 -0.31320149 0.05648414
-0.068387672 -0.31331462 0.056393299
-0.068558432 -0.31341076 0.056468695
-0.068724677 -0.31351987 0.056440167
-0.068890184 -0.3136206 0.056463622
-0.069053009 -0.31372839 0.056429341
-0.06920784 -0.31382731 0.056420505
-0.069374725 -0.3139247 0.056471672
-0.069545493 -0.31404981 0.056356519
-0.069700778 -0.31414726 0.056359235
-0.069866516 -0.31424743 0.056387298
-0.070037074 -0.31436294 0.056334507
-0.070199773 -0.31446961 0.056307159
-0.070364214 -0.31458074 0.056257863
-0.07051678 -0.31467524 0.056268677
-0.070686653 -0.31479102 0.056211263
-0.070853323 -0.31489703 0.056204684
-0.071022011 -0.31499925 0.056231581
-0.071159989 -0.31509051 0.056203205
-0.071345493 -0.31519946 0.056255434
-0.071514308 -0.31530896 0.056234971
-0.071679704 -0.31540996 0.056256123
-0.071823582 -0.31547001 0.05645752
-0.071990699 -0.3156102 0.056228053
-0.072170332 -0.31572914 0.05619023
-0.072333902 -0.31583306 0.056184828
-0.072491467 -0.31593299 0.056180593
-0.072663128 -0.31604409 0.056161284
-0.072821677 -0.3161552 0.056087762
-0.072964273 -0.31625128 0.056046665
-0.073132753 -0.31636024 0.056028519
-0.073265672 -0.3164511 0.055981692
-0.073433243 -0.31657299 0.055874631
-0.073611319 -0.31668058 0.055904947
-0.073783778 -0.31678393 0.055939913
-0.07395263 -0.31688625 0.055966809
-0.074118912 -0.31699187 0.055961397
-0.074272484 -0.31709051 0.055949096
-0.074442096 -0.31720313 0.055911332
-0.074609183 -0.31730765 0.055916291
-0.074754134 -0.31739455 0.055945612
-0.074917175 -0.317509 0.055868611
-0.075098574 -0.31762397 0.055864271
-0.075270474 -0.31773365 0.055855356
-0.07540267 -0.31782389 0.055809673
-0.075568557 -0.3179296 0.05580195
-0.075728729 -0.31803611 0.055765368
-0.07587444 -0.31813225 0.055736944
-0.076034695 -0.31823844 0.055702686
-0.076211073 -0.31834832 0.055711076
-0.076362833 -0.31845284 0.055652596
-0.076531209 -0.31854659 0.055733778
-0.076719157 -0.31866938 0.055705152
-0.07686653 -0.31876376 0.055695195
-0.077025495 -0.31887528 0.055620521
-0.077206232 -0.31899494 0.055582695
-0.077370048 -0.31909758 0.055586517
-0.077546842 -0.31920281 0.055627234
-0.077683769 -0.31930113 0.055548042
-0.07784155 -0.31939995 0.055551905
-0.077991158 -0.31949243 0.055563882
-0.07816688 -0.31960714 0.055537626
-0.07832744 -0.31971231 0.055511445
-0.07848648 -0.31981438 0.055499129
-0.078645021 -0.31992093 0.055455633
-0.078807563 -0.3200326 0.055394791
-0.078964636 -0.32013592 0.055366322
-0.079129957 -0.32023352 0.055409402
-0.079305694 -0.32033613 0.055462833
-0.079462655 -0.32043958 0.055433195
-0.07962577 -0.32054281 0.055430096
-0.079780869 -0.32064736 0.055385467
-0.079952687 -0.32075277 0.055404272
-0.080127738 -0.32086003 0.055424206
-0.080291346 -0.32096308 0.055424575
-0.080448635 -0.32106617 0.055398408
-0.080617443 -0.32117355 0.055391811
-0.080764554 -0.32128236 0.055286009
-0.080920734 -0.32137507 0.055323366
-0.081074759 -0.3214798 0.055272967
-0.081254199 -0.32158142 0.055348318
-0.081421353 -0.32169321 0.055305932
-0.081590712 -0.32180724 0.055257767
-0.081754215 -0.32191041 0.055256978
-0.081918582 -0.32201657 0.055240016
-0.082068369 -0.32211965 0.055182699
-0.082235195 -0.32222122 0.055206142
-0.082409114 -0.32233289 0.055192605
-0.082573622 -0.32243896 0.055176791
-0.082718596 -0.32253742 0.055129908
-0.082889281 -0.32264072 0.055157945
-0.083071098 -0.32276508 0.055093553
-0.083214283 -0.32286736 0.055014331
-0.083385713 -0.32297042 0.055046991
-0.083533816 -0.32306737 0.055023178
-0.083711937 -0.32317728 0.055038482
-0.083863519 -0.32327908 0.054997329
-0.084018528 -0.32337949 0.054979257
-0.084183477 -0.32348531 0.054966915
-0.084345236 -0.3235893 0.054953434
-0.084518507 -0.32369211 0.054995321
-0.084676586 -0.3237915 0.05499687
-0.084844306 -0.32390538 0.054942932
-0.085020937 -0.3240191 0.05492707
-0.085166201 -0.3241199 0.054866314
-0.08533442 -0.3242276 0.054855105
-0.085495405 -0.32432899 0.054855477
-0.085647136 -0.32442471 0.054854743
-0.085814871 -0.32453263 0.054840077
-0.085981317 -0.32464379 0.054798853
-0.086161375 -0.32476214 0.054766804
-0.086323589 -0.32486606 0.054755621
-0.086478755 -0.3249692 0.054720227
-0.086649515 -0.3250708 0.054759827
-0.086805165 -0.32517111 0.054745212
-0.086946696 -0.3252697 0.054683324
-0.087132931 -0.32537559 0.054758646
-0.087298766 -0.32548144 0.054749761
-0.087463878 -0.32559019 0.05471893
-0.087609954 -0.32569289 0.054648932
-0.087770522 -0.32578945 0.054679342
-0.087942161 -0.32589141 0.054720085
-0.088115126 -0.32601142 0.054647647
-0.088266462 -0.32611796 0.054574162
-0.088445261 -0.32622883 0.054586001
-0.08861585 -0.32633382 0.054602493
-0.088773452 -0.3264415 0.054547459
-0.088929817 -0.32653171 0.054602128
-0.089083716 -0.3266376 0.054543652
-0.08925093 -0.3267459 0.054524362
-0.089402974 -0.32684955 0.054472812
-0.089585178 -0.32695764 0.054516964
-0.089727171 -0.32705811 0.054444686
-0.08989159 -0.32716447 0.054426569
-0.090043411 -0.32726079 0.054422364
-0.09021426 -0.32736859 0.05442154
-0.090376526 -0.32747534 0.054391887
-0.090536729 -0.32757765 0.054383028
-0.090711668 -0.32768729 0.054386798
-0.0908572 -0.32778701 0.054334126
-0.091049403 -0.32790142 0.054378234
-0.091212906 -0.32800809 0.054354347
-0.091361083 -0.3281028 0.054345548
-0.091542989 -0.32822338 0.054306563
-0.091706507 -0.32832775 0.054297686
-0.091833562 -0.32842496 0.054185059
-0.09203501 -0.32854554 0.054226812
-0.092214741 -0.3286528 0.054266356
-0.092351675 -0.32874656 0.054217197
-0.092489272 -0.3288402 0.054171488
-0.092669904 -0.32894978 0.054199491
-0.092836395 -0.3290585 0.054174431
-0.09299089 -0.3291595 0.054150589
-0.093163438 -0.32926992 0.054139357
-0.093326822 -0.32937458 0.05412817
-0.093492329 -0.32948127 0.05411236
-0.093668327 -0.32959372 0.054102279
-0.093829282 -0.32969651 0.054093413
-0.093994543 -0.32981181 0.054019861
-0.094147846 -0.3299087 0.054017961
-0.094318084 -0.33001313 0.054036766
-0.09448123 -0.33012432 0.05398171
-0.094608888 -0.33022049 0.053878304
-0.094764404 -0.33031526 0.053899501
-0.094969124 -0.33041421 0.054097135
-0.095174611 -0.33054033 0.054119244
-0.095279649 -0.33064136 0.053890083
-0.09544602 -0.33074424 0.053903129
-0.095618308 -0.33085713 0.053874578
-0.095773853 -0.33095229 0.053893462
-0.095959567 -0.33105892 0.053961851
-0.096127406 -0.33118007 0.053860568
-0.09628626 -0.33128732 0.053813607
-0.096430145 -0.33139673 0.053690497
-0.096532524 -0.33148468 0.053536415
-0.096753478 -0.33158734 0.053776704
-0.096967235 -0.33169833 0.053932726
-0.097136006 -0.33181939 0.053836059
-0.097290814 -0.3319267 0.053771794
-0.097442731 -0.33202624 0.053746812
-0.097603947 -0.33213162 0.053721778
-0.097775735 -0.33223334 0.053764831
-0.097940445 -0.33234268 0.053728241
-0.098106004 -0.33245206 0.053695098
-0.09827996 -0.33256918 0.053645752
-0.098437682 -0.33267272 0.053618431
-0.098598704 -0.33277449 0.053616494
-0.098767757 -0.33288589 0.053584505
-0.098925747 -0.33299136 0.053545624
-0.099055231 -0.33308288 0.053480331
-0.099238321 -0.33319664 0.053490996
-0.099377804 -0.33329588 0.053416409
-0.099585474 -0.33340159 0.053581703
-0.099774137 -0.33350676 0.053672016
-0.099914856 -0.33361888 0.053517748
-0.10010628 -0.33374247 0.053498343
-0.10024738 -0.33384359 0.053417981
-0.10041548 -0.33394438 0.053451806
-0.10060017 -0.33406231 0.053441681
-0.10075264 -0.33416587 0.05339244
-0.1009019 -0.33426392 0.053366311
-0.10106613 -0.33436647 0.053372443
-0.10124642 -0.33448073 0.05336811
-0.10138018 -0.33457777 0.05328431
-0.10160814 -0.33468682 0.053511869
-0.10175351 -0.3348161 0.053264029
-0.10190098 -0.33491933 0.053196337
-0.10207163 -0.33501574 0.05326942
-0.10225019 -0.33512154 0.053313594
-0.10245067 -0.33523959 0.053368062
-0.10261744 -0.33534974 0.053334914
-0.10273782 -0.33544043 0.053237326
-0.10293113 -0.33555976 0.053253718
-0.1030947 -0.33566964 0.053209048
-0.10322839 -0.33576486 0.053136796
-0.10343143 -0.33587188 0.053274397
-0.10359124 -0.3359915 0.05315005
-0.103785 -0.33610952 0.053176831
-0.10393718 -0.33621168 0.053135686
-0.10410157 -0.33631679 0.053125646
-0.10428119 -0.33642361 0.053167503
-0.10443996 -0.33653641 0.053083595
-0.10460989 -0.33664554 0.053070065
-0.10475914 -0.33674094 0.053061258
-0.1049429 -0.33685827 0.053051136
-0.10508874 -0.3369582 0.052998461
-0.10528056 -0.33706692 0.053078368
-0.1054291 -0.33717206 0.053002588
-0.10559589 -0.33728904 0.052924413
-0.10577506 -0.33739963 0.052939713
-0.10593854 -0.33750188 0.05294469
-0.10609053 -0.3376011 0.052922018
-0.10624254 -0.33770981 0.052836981
-0.10643493 -0.33782083 0.052904189
-0.10660908 -0.33792949 0.052911423
-0.1067744 -0.33803853 0.052879445
-0.10693547 -0.33814698 0.052833632
-0.10711168 -0.33825764 0.052836236
-0.10729164 -0.33836889 0.052850381
-0.10745564 -0.33848095 0.052793007
-0.1075973 -0.33857894 0.052735731
-0.10778122 -0.33869094 0.052761406
-0.10795286 -0.33880115 0.052747868
-0.10812016 -0.33890617 0.052750524
-0.10831022 -0.33902696 0.052743834
-0.1084521 -0.33913261 0.052636899
-0.10862608 -0.33923429 0.05268918
-0.10879274 -0.33934245 0.052668743
-0.10896457 -0.33945295 0.052654054
-0.10914499 -0.33956343 0.052675121
-0.10930458 -0.339672 0.052622382
-0.10946876 -0.33977839 0.052603118
-0.10963809 -0.33989015 0.052569967
-0.10978898 -0.33999729 0.052490696
-0.10996339 -0.34010258 0.052521043
-0.11015282 -0.34021646 0.052557077
-0.11032404 -0.34032869 0.05252853
-0.11049651 -0.3404412 0.052503452
-0.11064863 -0.34054279 0.052465759
-0.11084276 -0.3406651 0.052465975
-0.11102493 -0.3407737 0.05250667
-0.11119244 -0.34088114 0.052494302
-0.11133841 -0.34098604 0.052409306
-0.11146859 -0.34108222 0.052316286
-0.11167029 -0.34120193 0.052364964
-0.111857 -0.34131601 0.05238831
-0.11204796 -0.34143245 0.052413955
-0.11218099 -0.34152782 0.052338243
-0.11235934 -0.3416433 0.05231775
-0.11253656 -0.34175584 0.052312274
-0.11272085 -0.3418698 0.052326396
-0.11288817 -0.34198186 0.052282855
-0.11304576 -0.34208778 0.052239366
-0.1132092 -0.34219071 0.052239738
-0.11338486 -0.34230873 0.052191533
-0.11355016 -0.34241354 0.052187275
-0.11374026 -0.34252909 0.052215222
-0.11393489 -0.34264293 0.05227318
-0.11407826 -0.34274882 0.052170862
-0.11426088 -0.34286439 0.052167669
-0.11442244 -0.34297141 0.052133396
-0.1145899 -0.34308112 0.05210603
-0.1147457 -0.34318694 0.052055608
-0.11491871 -0.34329927 0.052033991
-0.11510321 -0.3434155 0.052034251
-0.11529014 -0.34352693 0.052076075
-0.11545527 -0.34363496 0.052049868
-0.11564992 -0.34375232 0.052084729
-0.11580506 -0.34386092 0.052013539
-0.11596529 -0.34396797 0.051973496
-0.11614358 -0.3440845 0.051946074
-0.11632092 -0.34420216 0.051907104
-0.11649621 -0.3443101 0.05192358
-0.11669542 -0.34442368 0.052002303
-0.11684056 -0.34453142 0.05189535
-0.11701458 -0.34464189 0.051889889
-0.02560493 -0.28572711 0.060521506
-0.025807925 -0.28586239 0.060473163
-0.025999695 -0.28598127 0.06048606
-0.026205692 -0.28612071 0.060422692
-0.026401121 -0.28624454 0.060418259
-0.026586942 -0.28635615 0.060454294
-0.026776414 -0.28647253 0.060474135
-0.026983749 -0.28661442 0.060400367
-0.027174693 -0.28673294 0.060412124
-0.027374588 -0.28686556 0.060368411
-0.027568035 -0.2869876 0.060367461
-0.027772997 -0.28712481 0.060314484
-0.027978163 -0.2872625 0.060259197
-0.028168719 -0.28738362 0.060252476
-0.028361574 -0.28750545 0.060250368
-0.028558869 -0.28763574 0.060211286
-0.028739706 -0.28774193 0.06026236
-0.028943613 -0.28788128 0.060190912
-0.029132694 -0.28799865 0.060202673
-0.029333048 -0.28813118 0.06016127
-0.029537328 -0.28826919 0.06010022
-0.029722594 -0.28838432 0.060110852
-0.02991119 -0.28850156 0.060121462
-0.030104432 -0.28862768 0.060092792
-0.030304994 -0.28876144 0.060044456
-0.030484326 -0.28886896 0.060080521
-0.030678239 -0.28899392 0.060062237
-0.03087322 -0.28912309 0.060020857
-0.03107046 -0.28925297 0.059984095
-0.031243347 -0.28934941 0.060066372
-0.031410225 -0.28946611 0.059990488
-0.031626463 -0.28959674 0.060027529
-0.031856645 -0.28977323 0.059820849
-0.032045063 -0.28989437 0.059804909
-0.032211546 -0.2899822 0.059917241
-0.032409191 -0.29011655 0.059852764
-0.032605037 -0.29024589 0.059813686
-0.032787725 -0.29035679 0.059841648
-0.032976959 -0.29047704 0.059834942
-0.033151571 -0.2905902 0.059814446
-0.033340573 -0.29073507 0.05964493
-0.03349958 -0.29081237 0.059795402
-0.033698648 -0.29095572 0.059677802
-0.03386334 -0.29104117 0.059798226
-0.034073535 -0.29118714 0.05970943
-0.03430504 -0.29133636 0.059687503
-0.03447938 -0.29145303 0.059642758
-0.034655493 -0.29155535 0.059699617
-0.034825414 -0.29167151 0.059639893
-0.03504999 -0.29182565 0.059556801
-0.035197597 -0.29190615 0.059639201
-0.035382703 -0.29202804 0.059604801
-0.035545755 -0.29210228 0.059792209
-0.035737801 -0.29224661 0.059638839
-0.03594644 -0.29239863 0.059503868
-0.036148675 -0.29254133 0.059403561
-0.03633336 -0.29263043 0.059582777
-0.036549713 -0.29277396 0.059535518
-0.036744177 -0.29290542 0.059476823
-0.036884129 -0.29297125 0.059623927
-0.037095852 -0.2931143 0.05956053
-0.037310921 -0.29328161 0.059351623
-0.037496656 -0.29340038 0.059340306
-0.037668478 -0.29349735 0.059414517
-0.037846245 -0.29360372 0.05945174
-0.038055997 -0.29376414 0.059265953
-0.038222324 -0.29387188 0.059246659
-0.038417745 -0.29399079 0.059274558
-0.038601991 -0.29410809 0.059266716
-0.038791105 -0.29423672 0.059204578
-0.038970228 -0.29434603 0.059227943
-0.0391533 -0.29446188 0.059224732
-0.039330103 -0.29457763 0.059196137
-0.039516941 -0.29469323 0.059210233
-0.039709505 -0.29482526 0.059139993
-0.039873648 -0.29491705 0.059216551
-0.040061392 -0.29503796 0.059199452
-0.040250354 -0.29516807 0.059126928
-0.040432744 -0.29528385 0.059121408
-0.04061202 -0.295398 0.059113592
-0.040802419 -0.29552779 0.059049144
-0.040985074 -0.2956481 0.059014753
-0.041168414 -0.29576623 0.058997676
-0.041343406 -0.29587367 0.059016436
-0.041519411 -0.29597926 0.059051365
-0.041713599 -0.29611689 0.05895111
-0.041881364 -0.29620814 0.059046112
-0.042066891 -0.29633468 0.058982842
-0.042251043 -0.29645523 0.058953062
-0.042432792 -0.29657555 0.058915209
-0.042617165 -0.29669696 0.058880813
-0.042793207 -0.29680732 0.058884561
-0.042974174 -0.29692289 0.058874432
-0.043154776 -0.29704192 0.058840051
-0.043336164 -0.29715866 0.058824144
-0.043514848 -0.29727453 0.058802478
-0.043692276 -0.2973842 0.058816604
-0.043870971 -0.29750046 0.058792625
-0.044050686 -0.29761472 0.058785968
-0.044226073 -0.29772502 0.058787405
-0.044405013 -0.29784229 0.058757659
-0.044583388 -0.2979587 0.05873137
-0.044767611 -0.29808247 0.058680806
-0.044949822 -0.29820693 0.058617555
-0.045126975 -0.29831728 0.058625914
-0.045296572 -0.29841709 0.058672413
-0.045473091 -0.29852635 0.058685392
-0.045650844 -0.29864269 0.058656808
-0.045832276 -0.29876226 0.058622427
-0.046014488 -0.29888827 0.058548775
-0.046192363 -0.29900104 0.058544435
-0.046366528 -0.29911092 0.05854357
-0.046549179 -0.29923406 0.058490708
-0.04671875 -0.29933453 0.058532596
-0.046895176 -0.29944971 0.058506317
-0.047074445 -0.29957125 0.058449998
-0.047253639 -0.29968798 0.058424868
-0.047424186 -0.29979101 0.058454037
-0.04760547 -0.29991275 0.058404651
-0.047779061 -0.30002281 0.058400329
-0.047952075 -0.30012652 0.058435265
-0.048127972 -0.30024207 0.058404371
-0.048304867 -0.30036017 0.058360778
-0.048481792 -0.30047864 0.058314864
-0.048661821 -0.30059925 0.058267795
-0.048832253 -0.30070308 0.058291201
-0.048999701 -0.30081663 0.058238402
-0.049179096 -0.30091962 0.058304489
-0.04932142 -0.30100134 0.058356903
-0.049501866 -0.30112994 0.058259018
-0.049667977 -0.30124122 0.058215477
-0.049878299 -0.30137411 0.058213275
-0.050054412 -0.30148715 0.058199707
-0.050226405 -0.30159599 0.058196545
-0.050399303 -0.30170736 0.058180682
-0.050567314 -0.30180615 0.058227189
-0.050746009 -0.30192679 0.058174334
-0.050918497 -0.30203775 0.058159634
-0.051081445 -0.30214283 0.058143809
-0.051264562 -0.30226326 0.058110572
-0.051431809 -0.30236721 0.058120146
-0.051601835 -0.30247903 0.058089282
-0.051786114 -0.30259672 0.058079131
-0.051961347 -0.30271709 0.058013596
-0.052130643 -0.30282056 0.058034703
-0.052302379 -0.30293137 0.058017686
-0.052479088 -0.30304989 0.057970621
-0.052651655 -0.30316386 0.057936281
-0.052819312 -0.30326298 0.05797933
-0.052988738 -0.30336758 0.057993501
-0.053154297 -0.30347607 0.057966124
-0.053314634 -0.30358443 0.057917997
-0.053506874 -0.30370605 0.057914726
-0.053679042 -0.30382064 0.05787462
-0.053852133 -0.30393881 0.057814881
-0.054021746 -0.30404547 0.057816345
-0.05419638 -0.30417004 0.057720803
-0.054323643 -0.30424613 0.057747878
-0.054475084 -0.30433464 0.057793323
-0.054655164 -0.3044616 0.057704668
-0.054865927 -0.30459684 0.057688616
-0.055008143 -0.30467024 0.057795301
-0.055181272 -0.30479228 0.057710148
-0.055341624 -0.30488503 0.05776478
-0.055512346 -0.30498749 0.057798579
-0.055690289 -0.30510905 0.057736501
-0.055885941 -0.30525023 0.057618909
-0.056067742 -0.30536702 0.057604156
-0.056233548 -0.3054727 0.057596408
-0.056407861 -0.30558056 0.057609402
-0.056579541 -0.30570185 0.057523109
-0.05673337 -0.3058033 0.057493474
-0.056890655 -0.30589515 0.057541192
-0.05707293 -0.3060028 0.057588793
-0.057248309 -0.30611748 0.057561368
-0.057401344 -0.30621594 0.057547912
-0.057583008 -0.30633602 0.057511207
-0.057759024 -0.30643988 0.057557683
-0.057925493 -0.3065533 0.057501432
-0.05807168 -0.30664572 0.057499554
-0.058269374 -0.3067815 0.057425827
-0.058425158 -0.30688277 0.057405431
-0.058588482 -0.30697775 0.057457734
-0.058772787 -0.30710176 0.057406016
-0.058945585 -0.30722639 0.0573024
-0.059100531 -0.30732381 0.057303943
-0.059255332 -0.30742025 0.057311259
-0.059403963 -0.30751333 0.057315137
-0.0595841 -0.30763134 0.057285376
-0.059745472 -0.30773684 0.057260331
-0.059912667 -0.30784321 0.057253733
-0.060073856 -0.30794859 0.057228684
-0.060266256 -0.30807859 0.057171158
-0.060439322 -0.30818811 0.057167992
-0.060589042 -0.30825695 0.057335839
-0.060750227 -0.30836567 0.057288852
-0.060911994 -0.30848914 0.057147179
-0.061068729 -0.30857259 0.057248019
-0.061294522 -0.30872646 0.057171844
-0.061461333 -0.30883995 0.057116751
-0.061630778 -0.30893964 0.05716325
-0.061775818 -0.30904028 0.057102486
-0.061963819 -0.30916539 0.057058841
-0.062130138 -0.30926663 0.057082266
-0.062290289 -0.30936679 0.057087243
-0.062465824 -0.3094756 0.057099082
-0.062631734 -0.30959329 0.057012804
-0.062797755 -0.30970082 0.056993511
-0.062966883 -0.30980736 0.056993827
-0.0631295 -0.30991662 0.05694915
-0.063273221 -0.31002048 0.056861829
-0.063448608 -0.31012499 0.056901388
-0.06361191 -0.31021976 0.056954838
-0.06379877 -0.31034362 0.056914661
-0.063948639 -0.31044465 0.056871198
-0.064102978 -0.31053168 0.056938551
-0.064276248 -0.31065786 0.056826852
-0.064463846 -0.31077078 0.056861717
-0.064618379 -0.31088442 0.056754723
-0.064777501 -0.31098622 0.056744698
-0.064922288 -0.31107089 0.05678786
-0.065114081 -0.31117785 0.056879289
-0.065295085 -0.31131187 0.056747906
-0.065451272 -0.31140989 0.056750596
-0.065621354 -0.31152546 0.056695484
-0.065787375 -0.31162512 0.056728151
-0.065933973 -0.311719 0.056718186
-0.066118442 -0.31184697 0.056641072
-0.066259883 -0.31193164 0.05667039
-0.066448636 -0.31203878 0.056747973
-0.066584468 -0.31214854 0.056589112
-0.066750325 -0.31224862 0.056618311
-0.066911139 -0.31235498 0.056585185
-0.067109898 -0.31247899 0.056593437
-0.067255646 -0.31257427 0.05657078
-0.067409031 -0.3126677 0.056591965
-0.067588791 -0.31278235 0.05658298
-0.067768686 -0.31289637 0.056578636
-0.067943305 -0.31301549 0.056518879
-0.068107672 -0.31312025 0.056511141
-0.068248264 -0.31321877 0.056445781
-0.068400964 -0.3133139 0.056453109
-0.068595462 -0.31343836 0.056440599
-0.068744093 -0.31353426 0.056426007
-0.068907276 -0.31363142 0.056463301
-0.069084235 -0.31374216 0.056468204
-0.069237977 -0.31385374 0.056371599
-0.069388717 -0.31394392 0.056403186
-0.069558665 -0.31405273 0.056391958
-0.069734953 -0.31416464 0.056386467
-0.06988018 -0.31424996 0.056427315
-0.070032746 -0.31437096 0.056263745
-0.070238672 -0.31449473 0.056303147
-0.070390798 -0.31457403 0.056412086
-0.070568196 -0.31469965 0.056321144
-0.070740104 -0.3148118 0.056296047
-0.070903175 -0.31492522 0.056225959
-0.071066685 -0.31502977 0.056215912
-0.071214594 -0.31513295 0.056150522
-0.071381621 -0.31523094 0.056198191
-0.071550466 -0.31533325 0.056225058
-0.071720086 -0.31544852 0.056169949
-0.071880944 -0.31555018 0.056168005
-0.072044604 -0.31565413 0.05616257
-0.072199851 -0.31575119 0.056167576
-0.07237386 -0.31586555 0.056136694
-0.072525807 -0.31596106 0.056138255
-0.072679952 -0.31605971 0.056128252
-0.072834432 -0.31617051 0.056039732
-0.072996102 -0.31627691 0.056010071
-0.073167235 -0.31638226 0.056026537
-0.073349424 -0.31650281 0.055988692
-0.073515035 -0.31660959 0.055972852
-0.073669396 -0.31670749 0.055968627
-0.073824562 -0.31681594 0.055898584
-0.073989652 -0.31692308 0.055878133
-0.07416454 -0.31703499 0.055866882
-0.074317485 -0.31713992 0.055810694
-0.074443318 -0.31723827 0.055685371
-0.074609123 -0.31735483 0.055606034
-0.074810281 -0.31746837 0.055692792
-0.074970789 -0.31755367 0.055797078
-0.075140707 -0.31766033 0.055799689
-0.075306565 -0.31776622 0.055790793
-0.075459361 -0.31786034 0.05580505
-0.075624317 -0.31796211 0.055819243
-0.075801559 -0.3180764 0.055802196
-0.075948127 -0.31818169 0.055717178
-0.076127253 -0.31828907 0.055753242
-0.07627932 -0.31836009 0.055916451
-0.076454133 -0.31849566 0.055749312
-0.07660079 -0.31859556 0.055700101
-0.076776572 -0.31871086 0.055670362
-0.076918177 -0.31880581 0.05563271
-0.077077195 -0.31890824 0.055618063
-0.077248074 -0.31901851 0.055601057
-0.077405989 -0.31912622 0.055547155
-0.077572532 -0.3192355 0.05551862
-0.077711374 -0.31931925 0.055543341
-0.077876605 -0.31941664 0.055587556
-0.078036755 -0.31953084 0.055500161
-0.078211017 -0.31963834 0.055515461
-0.078378119 -0.31974289 0.055520412
-0.078546867 -0.31985039 0.055512641
-0.078687929 -0.31993693 0.055528112
-0.078851297 -0.32004827 0.055473033
-0.079009742 -0.32015085 0.055454925
-0.079167098 -0.32026207 0.055375639
-0.07933373 -0.32036299 0.055402525
-0.079503715 -0.32045794 0.055482507
-0.079658836 -0.32056651 0.055411305
-0.079826459 -0.32067087 0.055419713
-0.07999441 -0.32077506 0.055430427
-0.080157101 -0.32087877 0.055422693
-0.080318153 -0.32099462 0.055328369
-0.080489732 -0.32108933 0.055416428
-0.080670021 -0.32120851 0.055379741
-0.080827042 -0.3213118 0.055351254
-0.080987826 -0.32140937 0.055375859
-0.081143901 -0.3215096 0.055363547
-0.081288025 -0.32161266 0.055283159
-0.081460252 -0.32171834 0.055301934
-0.081620768 -0.32182661 0.055254959
-0.081776373 -0.32193041 0.055217236
-0.081928909 -0.32203227 0.055179533
-0.082112223 -0.32214615 0.055190168
-0.082271248 -0.32225493 0.055133961
-0.082429715 -0.32235718 0.055118166
-0.082583927 -0.32245147 0.055137023
-0.082746804 -0.32255179 0.055152383
