# .PCD v0.7 - Point Cloud Data file format
VERSION 0.7
FIELDS x y z
SIZE 4 4 4
TYPE F F F
COUNT 1 1 1
WIDTH 1299
HEIGHT 1
VIEWPOINT 0 0 0 1 0 0 0
POINTS 1299
DATA ascii
-0.11078505 -0.4807817 0.052121442
-0.11094283 -0.48089561 0.0521551
-0.11108754 -0.4810122 0.052114997
-0.11122676 -0.48112717 0.05205993
-0.11137257 -0.48124084 0.052041743
-0.11151528 -0.48135766 0.051991273
-0.11166023 -0.48147148 0.05196847
-0.11181047 -0.48158693 0.051959485
-0.11196586 -0.48169905 0.051993154
-0.1121023 -0.48181427 0.051924266
-0.11225157 -0.48192742 0.051924516
-0.11238623 -0.4820478 0.051817559
-0.11255992 -0.48216489 0.051903035
-0.11270545 -0.4822762 0.051897541
-0.11283954 -0.48238412 0.05186097
-0.1129862 -0.48250023 0.051832385
-0.11313455 -0.48261365 0.051826883
-0.11327904 -0.48272514 0.051815622
-0.11342639 -0.48284116 0.051790502
-0.11357691 -0.48295686 0.051781517
-0.11371672 -0.48307127 0.051732212
-0.11386865 -0.48318923 0.051716298
-0.11402544 -0.48330197 0.051752273
-0.11415691 -0.48341244 0.05168917
-0.11431471 -0.48353225 0.05168822
-0.11446819 -0.48364779 0.051693063
-0.11461361 -0.4837594 0.051685259
-0.11475686 -0.48387352 0.051653244
-0.11489303 -0.4839927 0.051560119
-0.1150496 -0.48410586 0.051592633
-0.11519606 -0.48421744 0.051589437
-0.11534159 -0.48433366 0.051555101
-0.11549318 -0.48444957 0.051549569
-0.11566059 -0.48456249 0.051631626
-0.11580607 -0.48468104 0.051583439
-0.11594398 -0.48479542 0.051526081
-0.11608505 -0.48490962 0.051483691
-0.11623766 -0.48501685 0.051533528
-0.116366 -0.48513144 0.051432386
-0.11652741 -0.48524949 0.051457945
-0.11667554 -0.48536569 0.051435132
-0.11682753 -0.48547539 0.051467665
-0.11697327 -0.48558527 0.051471405
-0.11711644 -0.4856995 0.051438231
-0.11726269 -0.48581371 0.051418889
-0.1174157 -0.48592791 0.051429495
-0.11755735 -0.48604217 0.051389411
-0.11769 -0.48615217 0.051334385
-0.11783973 -0.48626646 0.051330023
-0.11799532 -0.48638088 0.051351003
-0.11813644 -0.48649511 0.051308613
-0.11827622 -0.48660934 0.051260471
-0.11841542 -0.48672351 0.051210012
-0.11857016 -0.48683804 0.051226389
-0.11873581 -0.48695299 0.051288839
-0.11887625 -0.48706928 0.051231451
-0.11901677 -0.48718151 0.051198307
-0.11916507 -0.48729807 0.051174335
-0.11930147 -0.4874101 0.051123902
-0.11945555 -0.48752493 0.051135652
-0.11961166 -0.48763993 0.051155478
-0.11975563 -0.48775437 0.051124614
-0.1198968 -0.4878667 0.051093765
-0.1200464 -0.48798147 0.05108593
-0.12019013 -0.48809594 0.051053915
-0.12034295 -0.48821098 0.051058762
-0.12048469 -0.48832729 0.05100714
-0.12064162 -0.48844272 0.051028114
-0.12079659 -0.48855999 0.051029481
-0.12094798 -0.48867515 0.051027417
-0.12109364 -0.48878989 0.051002309
-0.12124874 -0.48890921 0.050992135
-0.12140956 -0.4890272 0.051015396
-0.1215468 -0.48913753 0.050978798
-0.12169497 -0.4892526 0.050962906
-0.12183474 -0.48936504 0.050925143
-0.12197094 -0.48947713 0.050873552
-0.12213157 -0.48959535 0.050894503
-0.1222733 -0.48970988 0.05085326
-0.12241955 -0.48982486 0.05082931
-0.12256483 -0.48993793 0.050812274
-0.12271266 -0.49005315 0.050794072
-0.12286748 -0.49017465 0.050770059
-0.12301908 -0.49029037 0.050765686
-0.12317526 -0.49040303 0.050799355
-0.12333333 -0.49052325 0.050797243
-0.12348791 -0.4906359 0.050824001
-0.12361689 -0.49075079 0.050724003
-0.12376352 -0.49086431 0.050710421
-0.12390362 -0.49098054 0.050651886
-0.12406007 -0.49109718 0.050663635
-0.12421539 -0.49121195 0.050681155
-0.12436415 -0.49132767 0.050664101
-0.12450339 -0.49144208 0.050612502
-0.1246599 -0.49155894 0.050623089
-0.12480333 -0.49167398 0.050586455
-0.12494098 -0.49178815 0.050529096
-0.12509771 -0.49190518 0.05053968
-0.12525879 -0.49202296 0.050565239
-0.12538768 -0.49213582 0.050476786
-0.12555385 -0.4922545 0.050519623
-0.12570848 -0.49236974 0.05053138
-0.12583667 -0.49248245 0.050440609
-0.12599878 -0.49260241 0.050458092
-0.12615883 -0.4927204 0.050477885
-0.12630516 -0.49283448 0.050459694
-0.126443 -0.49294877 0.050402336
-0.12659831 -0.49306613 0.050404858
-0.1267233 -0.49317819 0.050303727
-0.12689941 -0.49329931 0.050376493
-0.12704116 -0.49341601 0.05032257
-0.1272057 -0.49353522 0.050355028
-0.12735119 -0.493651 0.050323002
-0.12750635 -0.49376863 0.050323218
-0.12765712 -0.49388549 0.050308459
-0.12780172 -0.49400118 0.050272979
-0.12795748 -0.49411908 0.050274339
-0.12811266 -0.49423692 0.050273404
-0.12826169 -0.4943552 0.050242506
-0.12839267 -0.49446669 0.050171338
-0.12857144 -0.494591 0.050237171
-0.12870216 -0.49470404 0.050155625
-0.12886734 -0.49482417 0.05018577
-0.12901235 -0.49494016 0.050150286
-0.12916274 -0.49505734 0.05013207
-0.12930495 -0.4951728 0.050087363
-0.12945908 -0.49529082 0.050080664
-0.12962563 -0.49541157 0.050113119
-0.12977669 -0.49553218 0.050077591
-0.12991615 -0.49564716 0.050023682
-0.13006879 -0.49576503 0.050011225
-0.13021344 -0.49588117 0.049973421
-0.13037023 -0.4960016 0.049964398
-0.13054498 -0.49612466 0.050019875
-0.1306746 -0.49623746 0.049934875
-0.13084556 -0.4963598 0.049977683
-0.13098174 -0.49647719 0.049894944
-0.13114549 -0.49659798 0.049914718
-0.13129997 -0.49671665 0.04990571
-0.13144751 -0.49683678 0.049857512
-0.13160746 -0.49695686 0.049864627
-0.13177226 -0.49707666 0.049894772
-0.13191235 -0.49719507 0.049823552
-0.13205193 -0.49731031 0.049768481
-0.13222402 -0.49743211 0.049819365
-0.13236956 -0.49755189 0.049764257
-0.13252477 -0.49767113 0.049755245
-0.13269582 -0.49779293 0.049801514
-0.1328439 -0.4979105 0.04977062
-0.1330108 -0.49803585 0.049777687
-0.13314702 -0.4981519 0.049703028
-0.1333037 -0.49827322 0.049688235
-0.13347122 -0.49839452 0.049721833
-0.13360728 -0.49851203 0.049637936
-0.13377804 -0.49863577 0.049671516
-0.13392714 -0.49875531 0.0496337
-0.13407376 -0.49887276 0.049597047
-0.13423946 -0.49899679 0.049606428
-0.13439122 -0.49911714 0.049575515
-0.13454248 -0.49923596 0.049551524
-0.13469914 -0.49935627 0.049542502
-0.13484906 -0.49947622 0.04950583
-0.13502094 -0.49959946 0.049547482
-0.13517106 -0.49971956 0.049510811
-0.13532165 -0.49983981 0.049475282
-0.13548717 -0.49996433 0.049481206
-0.13563205 -0.50008166 0.049437646
-0.13579616 -0.50020587 0.049438957
-0.13596006 -0.50033146 0.049431041
-0.13611431 -0.50045019 0.049420882
-0.13626751 -0.50057143 0.049391109
-0.13643047 -0.50069559 0.04938782
-0.13657492 -0.50081158 0.049350031
-0.13673897 -0.50093752 0.049340963
-0.13689676 -0.50105894 0.049330775
-0.13704059 -0.50117618 0.049282607
-0.13722126 -0.50130451 0.049333431
-0.13739443 -0.50143623 0.049331229
-0.13752562 -0.50154847 0.0492566
-0.13768528 -0.50167066 0.049249865
-0.1378265 -0.50178462 0.049209788
-0.13801715 -0.50192046 0.049260549
-0.13815285 -0.50203419 0.04919742
-0.055485234 -0.43789199 0.057717368
-0.055662461 -0.43802953 0.057699002
-0.05636055 -0.43856117 0.057685576
-0.056521237 -0.43867272 0.057745747
-0.056702882 -0.43881559 0.057715818
-0.056906953 -0.43899518 0.057570409
-0.057073098 -0.43911603 0.057600558
-0.057251472 -0.43925697 0.05756719
-0.057427827 -0.43939483 0.057543062
-0.057608258 -0.43953675 0.057513148
-0.057780895 -0.43966883 0.057506338
-0.057961553 -0.43981153 0.057472955
-0.058145113 -0.43996215 0.057406105
-0.058312975 -0.44008389 0.057438556
-0.058490884 -0.44022548 0.057399418
-0.058667701 -0.44036546 0.057364907
-0.058836028 -0.44049132 0.057375431
-0.05899309 -0.44059518 0.057464454
-0.059164181 -0.44072589 0.057458814
-0.059351567 -0.44088158 0.057379253
-0.05952432 -0.44101551 0.057362065
-0.059700992 -0.44115636 0.057321787
-0.059870712 -0.44128543 0.057319615
-0.060061023 -0.44144729 0.057216965
-0.060224898 -0.44156659 0.057245977
-0.060392227 -0.44168893 0.05727265
-0.060571622 -0.44183558 0.057210445
-0.060745604 -0.44197303 0.057178251
-0.060922906 -0.4421165 0.057125289
-0.061094884 -0.44224769 0.057120793
-0.061272096 -0.44239151 0.057065513
-0.061443534 -0.44252208 0.057062183
-0.06159972 -0.44262865 0.057131596
-0.061781455 -0.44278124 0.057045162
-0.061951589 -0.44291317 0.057027988
-0.062106188 -0.44301382 0.057125099
-0.06228425 -0.44316047 0.057057124
-0.062467322 -0.44331327 0.05697529
-0.062630549 -0.44343328 0.056997374
-0.062805861 -0.44357228 0.056961723
-0.062978938 -0.4437108 0.056919154
-0.063145712 -0.44383785 0.056915849
-0.063320689 -0.44398037 0.056858283
-0.06348899 -0.44410717 0.05686304
-0.063652858 -0.44422925 0.056875892
-0.063820921 -0.44435588 0.056880649
-0.063990265 -0.44448858 0.056855414
-0.064163685 -0.44462579 0.056822073
-0.06434077 -0.44477385 0.056741424
-0.064502954 -0.44489345 0.056761213
-0.064669214 -0.44502109 0.056752134
-0.064836398 -0.44514704 0.056756899
-0.065001085 -0.44527188 0.056757066
-0.065170147 -0.44540185 0.056746818
-0.065339416 -0.44553608 0.056712352
-0.065513127 -0.44567567 0.05666633
-0.065678641 -0.44580293 0.056656107
-0.065849751 -0.44593778 0.056626238
-0.066011354 -0.44605753 0.056642573
-0.066183597 -0.44619897 0.056579251
-0.066343427 -0.44631541 0.056607127
-0.06651324 -0.44644848 0.056581888
-0.066680014 -0.44657946 0.056555506
-0.066845737 -0.44670451 0.056559127
-0.067017972 -0.44684732 0.056487735
-0.067177668 -0.44696009 0.056536369
-0.067326151 -0.44707778 0.056506637
-0.0675219 -0.44724256 0.056410886
-0.067683168 -0.44736326 0.056420296
-0.067843959 -0.44747883 0.056457393
-0.068007901 -0.44760549 0.056443721
-0.068181947 -0.44775006 0.056370005
-0.068342365 -0.44786951 0.056382891
-0.06851282 -0.44800681 0.056335725
-0.068677083 -0.44813508 0.05631398
-0.068838671 -0.44825324 0.056339536
-0.069007449 -0.44839206 0.056276232
-0.069172136 -0.4485175 0.056272943
-0.069335282 -0.44864413 0.05625581
-0.069492355 -0.44875258 0.056318302
-0.069662116 -0.44889015 0.056266531
-0.069835834 -0.44903722 0.056176681
-0.069990113 -0.44914412 0.056235731
-0.070168599 -0.44930309 0.056097403
-0.070325293 -0.44941598 0.05613222
-0.070484683 -0.44953051 0.056169316
-0.070649981 -0.44966412 0.056121033
-0.070791714 -0.44978037 0.05606943
-0.070981756 -0.44993019 0.056036003
-0.071146965 -0.45005959 0.056011938
-0.07130678 -0.45018095 0.056010976
-0.071465455 -0.45029452 0.05605039
-0.071629189 -0.45042083 0.056037873
-0.071791731 -0.45054957 0.056005754
-0.071958259 -0.4506835 0.055960927
-0.072120801 -0.45080751 0.05595649
-0.072266772 -0.45090497 0.056034043
-0.072389424 -0.45100144 0.0560137
-0.072604209 -0.45117518 0.055950128
-0.072771296 -0.45131209 0.055890296
-0.072931319 -0.45143047 0.05590779
-0.073091067 -0.45155394 0.05589414
-0.07325463 -0.45168227 0.055868935
-0.073417164 -0.45180804 0.055854119
-0.073581211 -0.45193833 0.055819683
-0.073743716 -0.45207059 0.055766806
-0.07389845 -0.45218119 0.055806242
-0.074070871 -0.45233023 0.055699091
-0.074226975 -0.45243892 0.055755828
-0.074387193 -0.45256588 0.055723723
-0.074545875 -0.45268226 0.055746987
-0.074692324 -0.45278162 0.055815309
-0.074852414 -0.4529089 0.055780906
-0.075037546 -0.45307964 0.055603314
-0.075197287 -0.45320013 0.055606972
-0.075351462 -0.45331031 0.055646412
-0.075501397 -0.453421 0.055663966
-0.075669765 -0.45356244 0.055583365
-0.075828932 -0.45368192 0.055590488
-0.07598906 -0.4537974 0.055625282
-0.07615909 -0.45394582 0.055511225
-0.076314382 -0.45406058 0.055528745
-0.07647112 -0.4541727 0.055568174
-0.076635011 -0.45430955 0.055494528
-0.0767968 -0.4544397 0.055450875
-0.076957792 -0.45456746 0.055417608
-0.077112183 -0.45467189 0.055491656
-0.077269889 -0.45479658 0.055461876
-0.077386394 -0.45487103 0.055543065
-0.077567324 -0.45501414 0.055508528
-0.077746794 -0.45516106 0.055445164
-0.077903636 -0.45527482 0.055475369
-0.078068979 -0.45542225 0.05534634
-0.078226119 -0.45553783 0.055367313
-0.078387193 -0.45566958 0.055310983
-0.078546673 -0.45579541 0.055282347
-0.078705914 -0.45592067 0.055256009
-0.078865029 -0.45604584 0.055229679
-0.079025798 -0.45617875 0.055165276
-0.079178683 -0.45628774 0.055205882
-0.07933636 -0.45640767 0.055203781
-0.079494223 -0.45652872 0.055195913
-0.079652876 -0.45665389 0.055167276
-0.079810828 -0.4567762 0.055152487
-0.07996887 -0.45689937 0.055133086
-0.080116466 -0.45701933 0.055086058
-0.080279864 -0.45713335 0.0551439
-0.080439828 -0.457268 0.055065662
-0.080597013 -0.45738855 0.055057794
-0.080744952 -0.45749912 0.055067282
-0.08088623 -0.45761427 0.055020303
-0.081067786 -0.457748 0.055043429
-0.081226707 -0.45788088 0.054970965
-0.081379101 -0.45798951 0.055011574
-0.081536651 -0.45811525 0.054974869
-0.081690535 -0.45823407 0.054962412
-0.081850462 -0.45836022 0.054933771
-0.08200632 -0.45847622 0.054946668
-0.08215791 -0.45859861 0.054903086
-0.082308762 -0.4587163 0.054883726
-0.082463697 -0.45882607 0.054928932
-0.082622543 -0.45894688 0.054926824
-0.082766034 -0.45906982 0.054844063
-0.082933411 -0.45919907 0.054830376
-0.08309184 -0.4593184 0.054835193
-0.08324267 -0.45944083 0.054788146
-0.083388716 -0.45954126 0.054848403
-0.083562173 -0.45968303 0.05478853
-0.083718799 -0.45981574 0.054706853
-0.083854444 -0.45992014 0.054697961
-0.083992869 -0.46002662 0.054689057
-0.08417616 -0.46016401 0.054698333
-0.084328882 -0.46028668 0.054658204
-0.084478274 -0.46039972 0.054659616
-0.084636129 -0.46052039 0.054654054
-0.084779851 -0.46063051 0.054647416
-0.08494053 -0.46075723 0.054618768
-0.085092545 -0.46087325 0.054614395
-0.085230447 -0.46097896 0.054607801
-0.085385062 -0.46109143 0.054635707
-0.085551143 -0.46123034 0.054559741
-0.085705705 -0.4613485 0.05455419
-0.085860193 -0.4614723 0.054515202
-0.086009026 -0.46158138 0.054537386
-0.086152188 -0.46169049 0.054534212
-0.086303398 -0.46182263 0.054431804
-0.086460628 -0.46193314 0.054482762
-0.086628631 -0.46206743 0.054442532
-0.086777069 -0.4621821 0.054430109
-0.086919464 -0.46230069 0.054368123
-0.087070957 -0.4624092 0.054405276
-0.087224595 -0.46253139 0.054372054
-0.087381482 -0.46264735 0.054389566
-0.087526314 -0.46276641 0.054335646
-0.087683186 -0.46288139 0.054358918
-0.087830581 -0.46300256 0.054303821
-0.087980628 -0.46312577 0.054248709
-0.088134758 -0.46323669 0.054283541
-0.088290982 -0.46335649 0.054275677
-0.088447236 -0.46347553 0.054272436
-0.088602513 -0.4636021 0.054220755
-0.088744313 -0.46371332 0.054199141
-0.088903725 -0.46383023 0.054222409
-0.089053392 -0.46395037 0.054183438
-0.089214735 -0.46407467 0.054172095
-0.089364313 -0.46419394 0.054137744
-0.089512035 -0.46430495 0.054143775
-0.089658327 -0.46442389 0.054096766
-0.089817248 -0.46454242 0.054108497
-0.089967184 -0.46465784 0.05409836
-0.09011285 -0.4647783 0.054039817
-0.090266027 -0.46489283 0.054049283
-0.09042415 -0.46501428 0.054040261
-0.090573289 -0.46513206 0.054012831
-0.09071929 -0.46524882 0.053977355
-0.090874702 -0.46536705 0.053975265
-0.091031924 -0.46549094 0.053947791
-0.09118025 -0.46559766 0.053981505
-0.091330327 -0.46571043 0.053987518
-0.091481805 -0.46584222 0.053888571
-0.091633074 -0.46596199 0.053858828
-0.091784075 -0.46607095 0.053891368
-0.091937862 -0.46619323 0.053858154
-0.092088737 -0.46631351 0.053823795
-0.09223906 -0.46642449 0.053841345
-0.092392817 -0.46653575 0.053872719
-0.092542276 -0.46665949 0.053811841
-0.092688829 -0.46677116 0.053808656
-0.092839397 -0.46690065 0.053718932
-0.092993766 -0.46700999 0.053764138
-0.093141019 -0.46711943 0.053777099
-0.093291156 -0.46723974 0.053739287
-0.093441457 -0.46735939 0.053706095
-0.093594857 -0.46748 0.053680949
-0.093746513 -0.46759593 0.053675424
-0.093896776 -0.46771497 0.053645682
-0.094048545 -0.46783042 0.053643614
-0.09419889 -0.46794084 0.053664625
-0.094348982 -0.46805185 0.053681031
-0.094496682 -0.46817562 0.053612083
-0.094643384 -0.46829331 0.053574301
-0.094794132 -0.46841034 0.053558402
-0.094945341 -0.46852633 0.053550571
-0.095096678 -0.46864206 0.05354505
-0.095245749 -0.46875465 0.05354761
-0.095394909 -0.46886712 0.053551331
-0.095543914 -0.46899366 0.053472005
-0.095697805 -0.46910462 0.053505674
-0.095844947 -0.46922028 0.053481728
-0.095996432 -0.46933532 0.053480815
-0.09614075 -0.46946183 0.05338075
-0.096291289 -0.46957162 0.05340638
-0.096442923 -0.46968615 0.053408928
-0.096593127 -0.46980909 0.053356122
-0.096744098 -0.46993062 0.053314846
-0.096891984 -0.47004429 0.053305883
-0.097048201 -0.47015205 0.053368378
-0.097200423 -0.47025976 0.0534136
-0.097351812 -0.47038043 0.053379245
-0.097493641 -0.47049642 0.053329945
-0.097636141 -0.4706113 0.053289875
-0.097783506 -0.47073659 0.05321056
-0.097934708 -0.47085121 0.053210799
-0.098088384 -0.47096279 0.053239871
-0.098230399 -0.47107771 0.053197496
-0.098380364 -0.47119376 0.053183902
-0.098529443 -0.47131601 0.053129956
-0.098674841 -0.47143707 0.05306679
-0.098825239 -0.47154713 0.05309011
-0.09898065 -0.47166198 0.053107634
-0.099128351 -0.47177511 0.053100973
-0.099277034 -0.47189215 0.053075857
-0.099422701 -0.4720073 0.053048462
-0.099569619 -0.47212595 0.053006057
-0.099726841 -0.47223902 0.053042017
-0.09987513 -0.47235143 0.053042274
-0.10002673 -0.47247007 0.053020611
-0.1001733 -0.47257942 0.053031255
-0.10032672 -0.4726963 0.053028032
-0.10047312 -0.47281042 0.053009849
-0.10063528 -0.47292408 0.053064238
-0.10077619 -0.47303405 0.053046089
-0.10092031 -0.47314563 0.05303254
-0.10105731 -0.47327194 0.05290138
-0.10119578 -0.4733966 0.052786358
-0.10134283 -0.47351396 0.052752022
-0.10149071 -0.47363061 0.052725762
-0.10165026 -0.47374228 0.052780166
-0.10180385 -0.47385871 0.052780401
-0.1019627 -0.47396296 0.05287518
-0.10211183 -0.47407877 0.052859291
-0.10225886 -0.47419199 0.052849174
-0.10242021 -0.47429106 0.052985467
-0.10256699 -0.47440863 0.052948821
-0.10270442 -0.47453642 0.05281074
-0.10284766 -0.47465602 0.052746449
-0.10299625 -0.47476807 0.052750163
-0.10314479 -0.47488403 0.052730814
-0.10328514 -0.47499749 0.052689601
-0.1034329 -0.47511381 0.052664489
-0.10357356 -0.47523442 0.052582912
-0.10373221 -0.47534779 0.052623477
-0.10387991 -0.47546035 0.052620284
-0.10402565 -0.47557771 0.0525802
-0.1041705 -0.47569183 0.052555107
-0.10431746 -0.47580835 0.052525379
-0.10446937 -0.47591856 0.052554462
-0.10461583 -0.47603884 0.052500524
-0.10476089 -0.47615275 0.05247774
-0.10491305 -0.47626296 0.052507959
-0.10507406 -0.47637576 0.052562356
-0.10522421 -0.47648719 0.052576452
-0.10536186 -0.47660473 0.052499503
-0.10550757 -0.47672167 0.052461714
-0.10564838 -0.47683746 0.052408967
-0.10580739 -0.47695485 0.05242762
-0.10594057 -0.47707391 0.052321859
-0.1060969 -0.47718593 0.052360132
-0.10625575 -0.47730023 0.052396085
-0.10639125 -0.47741476 0.052327219
-0.1065488 -0.47752649 0.052372407
-0.10669696 -0.47764215 0.052353065
-0.10683827 -0.47775733 0.052306086
-0.10698999 -0.47787157 0.05231094
-0.10713185 -0.47799265 0.052231647
-0.10728955 -0.47810158 0.052294143
-0.10742473 -0.47821879 0.052207984
-0.10757241 -0.47833449 0.052186333
-0.107733 -0.47844875 0.052230351
-0.10787595 -0.47856006 0.052213341
-0.10802584 -0.47867504 0.052205518
-0.10818048 -0.47878852 0.052227654
-0.10831174 -0.47890651 0.052119605
-0.10845865 -0.47902241 0.052093342
-0.10861278 -0.47913608 0.052112028
-0.10876586 -0.47925016 0.052123796
-0.1089125 -0.47936329 0.052112531
-0.10906596 -0.47948021 0.052109297
-0.10920797 -0.47959179 0.052086532
-0.10935412 -0.47970787 0.052055672
-0.10949793 -0.47982457 0.052010976
-0.10964673 -0.47993991 0.051996239
-0.10978515 -0.48005506 0.051936582
-0.10993943 -0.48016906 0.051954113
-0.11009655 -0.48028246 0.051987763
-0.11023626 -0.48039997 0.051920034
-0.11039075 -0.48051137 0.051953703
-0.11053499 -0.4806278 0.051912472
-0.11067299 -0.48074281 0.051851664
-0.11083242 -0.480856 0.05189684
-0.11098111 -0.48097146 0.051880956
-0.11112912 -0.48109233 0.051830463
-0.11127046 -0.48120657 0.051789254
-0.11141738 -0.48131713 0.051794134
-0.11155954 -0.48143119 0.051757518
-0.11170991 -0.48154634 0.051750854
-0.11185946 -0.48166168 0.051739573
-0.11201245 -0.48177648 0.051746726
-0.11216168 -0.4818894 0.051748138
-0.11231372 -0.48200443 0.051749531
-0.1124576 -0.48211822 0.051722135
-0.1126086 -0.48223346 0.051717766
-0.11274721 -0.48234797 0.051662728
-0.11290422 -0.48246247 0.051689461
-0.11305154 -0.48257828 0.051665515
-0.11320335 -0.48269355 0.051664598
-0.11334342 -0.48280779 0.051617615
-0.11349165 -0.48292351 0.051598273
-0.11364418 -0.48303637 0.051614661
-0.11378722 -0.48315501 0.05155497
-0.11393432 -0.48327324 0.051516026
-0.11407568 -0.48338252 0.051503643
-0.11423092 -0.48349765 0.051518857
-0.11437502 -0.48361376 0.051478777
-0.11452596 -0.48372701 0.051485948
-0.11467738 -0.48384258 0.051481575
-0.1148249 -0.48395616 0.051471464
-0.11496995 -0.48407221 0.051435981
-0.11511199 -0.48418617 0.051399376
-0.1152622 -0.48429966 0.051401939
-0.11541709 -0.48441291 0.051426373
-0.11556202 -0.48453125 0.051377065
-0.11571183 -0.48464262 0.051390011
-0.11585552 -0.484761 0.051334932
-0.11600621 -0.48487464 0.051338647
-0.11614355 -0.48498878 0.051280148
-0.11629485 -0.48510465 0.051273465
-0.11645144 -0.48521823 0.05130367
-0.11659151 -0.48533446 0.05124516
-0.11674497 -0.48545036 0.051247694
-0.11689979 -0.48556417 0.051268678
-0.11705109 -0.48568025 0.051260848
-0.11719508 -0.48579216 0.051244989
-0.1173415 -0.48591042 0.051202588
-0.11747973 -0.48602444 0.051148705
-0.11763635 -0.48614061 0.051163912
-0.11778452 -0.48625472 0.051153786
-0.1179342 -0.48637092 0.051137894
-0.11807556 -0.48648497 0.051097833
-0.11821373 -0.48659894 0.051043943
-0.11838441 -0.4867177 0.051106352
-0.11853298 -0.48682994 0.051108927
-0.11866541 -0.48694173 0.051042378
-0.11881366 -0.48705801 0.051019575
-0.11897282 -0.48717475 0.051042844
-0.1191193 -0.48729306 0.051000442
-0.11927141 -0.4874056 0.051016826
-0.11941375 -0.48752177 0.050968677
-0.11956656 -0.48763642 0.050975837
-0.11969663 -0.48774996 0.050888546
-0.11985261 -0.48786288 0.050919905
-0.12000167 -0.48797941 0.050899405
-0.12015156 -0.48809993 0.050859284
-0.1202971 -0.48821044 0.050858416
-0.12045714 -0.48832586 0.05089321
-0.12059779 -0.48844194 0.05083815
-0.12075006 -0.48855498 0.050852232
-0.12088907 -0.48866901 0.050801795
-0.12103318 -0.48878533 0.05076056
-0.12119183 -0.48890284 0.050776914
-0.1213238 -0.48901626 0.050698839
-0.12148816 -0.48913437 0.050737064
-0.12164192 -0.48924974 0.050744221
-0.12178318 -0.48936212 0.050713375
-0.12192532 -0.48947832 0.050664082
-0.12206671 -0.48959258 0.050622862
-0.1222225 -0.4897083 0.050636921
-0.12236364 -0.48982257 0.05059455
-0.12252805 -0.48993936 0.050640848
-0.12268151 -0.49005684 0.050634164
-0.12282847 -0.49017003 0.050624046
-0.12296835 -0.49028787 0.050555155
-0.12311881 -0.49040329 0.050547339
-0.12326008 -0.49051765 0.050504968
-0.12341313 -0.49063349 0.050506353
-0.12358253 -0.49075678 0.050536476
-0.12371981 -0.49086535 0.050510276
-0.12386717 -0.49098238 0.050479397
-0.12401015 -0.49109527 0.050453167
-0.12416105 -0.49121282 0.050434958
-0.12431456 -0.49132898 0.05043634
-0.12445513 -0.49144164 0.050400894
-0.12461007 -0.4915581 0.050406881
-0.12475959 -0.49167559 0.05038292
-0.12490955 -0.49179143 0.050370488
-0.12504563 -0.49190518 0.050308537
-0.12518404 -0.4920176 0.050265022
-0.12534447 -0.49213684 0.050279059
-0.1254802 -0.49225053 0.05021596
-0.12564793 -0.49236766 0.050274927
-0.12579945 -0.49248567 0.050256714
-0.125944 -0.49259916 0.050233934
-0.12609111 -0.49271482 0.050209977
-0.12625682 -0.49283531 0.050240129
-0.12638681 -0.49294645 0.050166674
-0.12655865 -0.49306646 0.050226778
-0.12669942 -0.49318284 0.050170571
-0.12684838 -0.49329731 0.050161604
-0.12699892 -0.49341378 0.050148007
-0.12715568 -0.49353144 0.05015514
-0.12732249 -0.49365103 0.050195657
-0.12745209 -0.49376538 0.050101455
-0.12760626 -0.49388108 0.050108604
-0.12774476 -0.49399707 0.050044332
-0.1278991 -0.49411288 0.050051481
-0.12806585 -0.4942328 0.050089687
-0.12820368 -0.49434713 0.050032347
-0.12835486 -0.4944641 0.050018746
-0.12850083 -0.49458003 0.049987886
-0.12865566 -0.49469623 0.049995024
-0.12882239 -0.49481651 0.050030939
-0.12895036 -0.49492887 0.049941357
-0.12910908 -0.4950476 0.049950782
-0.12926109 -0.49516502 0.049938336
-0.12939982 -0.49527961 0.049883291
-0.12954724 -0.49539608 0.049855873
-0.12971327 -0.49551663 0.049887173
-0.1298535 -0.49563318 0.049827509
-0.13001138 -0.49575207 0.049832325
-0.13016678 -0.49587047 0.049829081
-0.13031492 -0.49598727 0.049802817
-0.13045496 -0.49610227 0.049751222
-0.13060765 -0.4962202 0.049738772
-0.13076349 -0.49633735 0.049744755
-0.13092873 -0.49645826 0.049770299
-0.13107497 -0.49657485 0.049737118
-0.13122831 -0.49669462 0.049716596
-0.13136294 -0.4968085 0.049647734
-0.13153207 -0.4969306 0.049683623
-0.13169302 -0.49705085 0.049694184
-0.13183042 -0.49716544 0.049633387
-0.13200271 -0.49728855 0.049677327
-0.13214272 -0.49740532 0.049615368
-0.13229178 -0.49752283 0.04958909
-0.13243932 -0.49763703 0.049575519
-0.13261145 -0.49776343 0.049599852
-0.13276663 -0.49788263 0.049590848
-0.13290313 -0.49799711 0.049526598
-0.13305652 -0.49811298 0.049529132
-0.13321505 -0.49823612 0.049512029
-0.13336025 -0.49835584 0.049455795
-0.13350523 -0.49846965 0.049433012
-0.13365743 -0.4985854 0.049430944
-0.13380536 -0.49870446 0.049390834
-0.1339734 -0.49882889 0.049408279
-0.13412578 -0.49894777 0.049388915
-0.13427521 -0.49906299 0.049377631
-0.13441807 -0.49917936 0.049330633
-0.13459924 -0.49930766 0.049383759
-0.13473503 -0.49942356 0.049307976
-0.13489023 -0.499542 0.04930358
-0.13503087 -0.49965787 0.049249671
-0.13519488 -0.49977887 0.049269453
-0.13534397 -0.49989855 0.049230497
-0.13550496 -0.50001884 0.049241059
-0.13565247 -0.50013673 0.049205568
-0.13579841 -0.50025564 0.0491574
-0.13596228 -0.50037694 0.049174875
-0.13611417 -0.50049484 0.049158968
-0.13628089 -0.50061846 0.049175262
-0.13644361 -0.50074244 0.049171984
-0.13658908 -0.5008586 0.049137659
-0.13674523 -0.5009793 0.049124029
-0.13689637 -0.50109863 0.049096599
-0.13703993 -0.50121433 0.049056515
-0.13719851 -0.50133592 0.04904864
-0.13737571 -0.5014618 0.049098331
-0.13752082 -0.50157946 0.049053628
-0.13767718 -0.50170195 0.049030777
-0.1378289 -0.5018217 0.049003333
-0.13796681 -0.5019359 0.048947144
-0.13814402 -0.50206351 0.048986446
-0.055500641 -0.43792942 0.057566732
-0.055688776 -0.43808448 0.057494145
-0.055844646 -0.43818825 0.057578579
-0.056034572 -0.43834388 0.057510603
-0.056197058 -0.43845838 0.057561561
-0.056383513 -0.43861157 0.057492446
-0.056560464 -0.43874967 0.057469513
-0.056748606 -0.43890336 0.057405006
-0.05693575 -0.43905845 0.057327814
-0.057095502 -0.43916914 0.057389162
-0.05726622 -0.43929777 0.057393942
-0.057435457 -0.4394241 0.057405654
-0.057619408 -0.43957481 0.057340011
-0.057804897 -0.43972549 0.057281278
-0.057966366 -0.43983942 0.057331096
-0.058150742 -0.43998867 0.057275832
-0.05830447 -0.44008982 0.057366047
-0.05848508 -0.44023603 0.057311956
-0.05866199 -0.44037625 0.057276335
-0.058852453 -0.4405396 0.057165686
-0.059015773 -0.44065729 0.05720165
-0.05917903 -0.440772 0.057254903
-0.059354715 -0.44091091 0.057221599
-0.059533104 -0.44105166 0.057189438
-0.05970588 -0.44118601 0.057169989
-0.059871331 -0.4413079 0.057190944
-0.060063012 -0.4414753 0.05706184
-0.060241286 -0.44161677 0.05702506
-0.060391229 -0.44171211 0.057132591
-0.060577802 -0.44187149 0.057027724
-0.060746443 -0.44199973 0.057025596
-0.06092941 -0.44215029 0.056956504
-0.061083883 -0.44225377 0.057036337
-0.061271831 -0.44241363 0.056934923
-0.061451308 -0.44256192 0.05686355
-0.061624203 -0.44269872 0.056830261
-0.06179481 -0.44283161 0.056809675
-0.061961185 -0.4429538 0.056832932
-0.062124375 -0.44307357 0.056856208
-0.062292617 -0.44319934 0.056866765
-0.062460423 -0.44332772 0.056860037
-0.062627167 -0.44345433 0.056859072
-0.0628061 -0.44360361 0.056779619
-0.06298925 -0.44375762 0.056690924
-0.063149959 -0.44388044 0.056685384
-0.063304931 -0.443979 0.056796346
-0.063487217 -0.44413218 0.056708805
-0.063648552 -0.4442462 0.056757461
-0.06381721 -0.4443776 0.056736887
-0.063988075 -0.44450992 0.056720909
-0.06414444 -0.4446182 0.056781124
-0.064323679 -0.44477046 0.05668553
-0.064493686 -0.44490522 0.056651112
-0.064667031 -0.44504315 0.056613211
-0.064834304 -0.44517311 0.056594942
-0.065008402 -0.44531301 0.056548957
-0.065173194 -0.4454385 0.056545705
-0.065343 -0.44557041 0.056527425
-0.065503046 -0.44568679 0.056556489
-0.065670192 -0.44581372 0.056555524
-0.065842852 -0.44595563 0.056491099
-0.066020258 -0.44610751 0.056389745
-0.066174984 -0.44621372 0.056454591
-0.066341385 -0.44633988 0.056454778
-0.066502348 -0.44645894 0.056472309
-0.066683196 -0.44661519 0.056360558
-0.066843711 -0.44673371 0.05637924
-0.067015789 -0.44687244 0.056330957
-0.067178003 -0.44699481 0.056334637
-0.067343131 -0.44711941 0.056338295
-0.067516997 -0.44726679 0.056247342
-0.067677647 -0.44738641 0.056260254
-0.067836076 -0.44750136 0.056290478
-0.06800127 -0.4476268 0.056289524
-0.068176195 -0.44777775 0.056182429
-0.068345472 -0.44791257 0.056144543
-0.068506077 -0.44803295 0.056152843
-0.068665788 -0.44814712 0.056193437
-0.068823963 -0.4482623 0.056221351
-0.068990879 -0.4483971 0.056173112
-0.069156535 -0.44852939 0.056134097
-0.069327071 -0.44866854 0.056076612
-0.069488823 -0.44879255 0.056068759
-0.069648199 -0.44890666 0.056108199
-0.069814071 -0.44904047 0.056061111
-0.069976449 -0.4491618 0.056071714
-0.070137754 -0.44928545 0.056063861
-0.070305094 -0.44942352 0.055998318
-0.07046549 -0.44954553 0.055996239
-0.070632726 -0.4496792 0.055956066
-0.07079263 -0.44980043 0.055956293
-0.070953399 -0.44991893 0.055976123
-0.071118504 -0.45005316 0.055923283
-0.071276657 -0.45016557 0.055967346
-0.071442463 -0.45030209 0.055904113
-0.071605802 -0.45042768 0.05589395
-0.071770743 -0.45056278 0.055835329
-0.071933582 -0.45069292 0.05579634
-0.072089076 -0.45080447 0.0558335
-0.072254479 -0.45093638 0.055795636
-0.072411448 -0.45105201 0.055815488
-0.072573408 -0.45117539 0.055812255
-0.072737634 -0.45131052 0.055750187
-0.072898135 -0.45143613 0.055727351
-0.07305304 -0.45154685 0.055766817
-0.073222034 -0.45169604 0.055643603
-0.073354088 -0.45180261 0.055605937
-0.073510185 -0.45190537 0.055697292
-0.073693156 -0.45205337 0.055643186
-0.07385917 -0.45217803 0.055650305
-0.074021861 -0.45231181 0.0555894
-0.07414645 -0.45238572 0.055709768
-0.074337199 -0.45254514 0.055623326
-0.074503586 -0.45268449 0.055546261
-0.074632317 -0.45277038 0.055614706
-0.074795768 -0.4529213 0.055456929
-0.074977145 -0.45304799 0.055520467
-0.075137988 -0.45317209 0.05550801
-0.075295635 -0.45329335 0.05549787
-0.075460128 -0.45342949 0.055431191
-0.0756163 -0.45354667 0.055438358
-0.075775713 -0.45366731 0.055439748
-0.075937331 -0.45380265 0.055365011
-0.076095611 -0.45392755 0.055336419
-0.076253138 -0.4540503 0.055317059
-0.076411434 -0.45416832 0.055328835
-0.076567359 -0.45428613 0.055331394
-0.07672444 -0.45440027 0.055360466
-0.076879352 -0.45452282 0.055330746
-0.07704398 -0.45465609 0.055281363
-0.077199295 -0.45477265 0.055288538
-0.077355489 -0.45489264 0.055279568
-0.077512912 -0.45501748 0.055247519
-0.077670351 -0.45513406 0.05526391
-0.07782983 -0.45526758 0.055190332
-0.077986531 -0.45538181 0.055217106
-0.078144073 -0.45550871 0.055173531
-0.078300729 -0.4556326 0.055143796
-0.078457609 -0.45575783 0.055107143
-0.078615479 -0.4558779 0.055105083
-0.07877098 -0.45599812 0.055091497
-0.078927808 -0.45611423 0.055107888
-0.07908383 -0.45623744 0.055079319
-0.079237841 -0.456352 0.055092271
-0.079395398 -0.45648307 0.055024475
-0.079554953 -0.45661306 0.054971658
-0.079707913 -0.45672369 0.055003062
-0.079865575 -0.45684558 0.054989472
-0.08002039 -0.45696568 0.05497358
-0.080176458 -0.45709264 0.054923102
-0.08030542 -0.45719334 0.054906212
-0.080485426 -0.45731878 0.054970905
-0.080642253 -0.45745164 0.054889277
-0.080795474 -0.45756522 0.054904543
-0.080949716 -0.4576849 0.054888651
-0.081105389 -0.45779878 0.054913122
-0.081261158 -0.45792866 0.054844186
-0.081415676 -0.45805171 0.054809857
-0.081566185 -0.45816579 0.05481014
-0.081725106 -0.45828587 0.054812681
-0.08187028 -0.45839864 0.054796856
-0.082032599 -0.45852584 0.05477285
-0.082186848 -0.45865065 0.054726992
-0.082340591 -0.45877251 0.054696117
-0.082487658 -0.45888278 0.05470334
-0.082624167 -0.45899117 0.054674875
-0.082792684 -0.45910886 0.054733876
-0.082952313 -0.45924011 0.054674137
-0.083105892 -0.4593648 0.054625973
-0.083262004 -0.45949024 0.054584704
-0.083413929 -0.45959988 0.054617278
-0.083566397 -0.45971584 0.054615248
-0.083716102 -0.45983088 0.054606304
-0.083844133 -0.45994151 0.054527156
-0.084027641 -0.46008477 0.054503031
-0.084165029 -0.46017924 0.054559898
-0.084323198 -0.46030563 0.054522078
-0.084461465 -0.46041593 0.054490142
-0.084599137 -0.46051574 0.054517031
-0.08477138 -0.4606601 0.054436468
-0.084934436 -0.46078372 0.054436676
-0.08509177 -0.4609012 0.054447308
-0.085232444 -0.46101531 0.054403819
-0.085381433 -0.46113712 0.054352224
-0.08553575 -0.46125072 0.054372091
-0.085698538 -0.46138301 0.054320414
-0.085841551 -0.46148744 0.054343797
-0.086009726 -0.46161988 0.054315157
-0.086161092 -0.46173185 0.054331586
-0.086289838 -0.46183729 0.054285869
-0.086446643 -0.46195635 0.05428496
-0.086603343 -0.4620775 0.054271366
-0.086770967 -0.46221185 0.054228891
-0.086902604 -0.46230748 0.054253493
-0.087050483 -0.46242645 0.054213434
-0.087204359 -0.46254054 0.054228693
-0.087357871 -0.46266004 0.05421051
-0.087505542 -0.46277788 0.054176219
-0.087650307 -0.46289352 0.054141939
-0.087808743 -0.46302149 0.054096043
-0.087973423 -0.46314517 0.054103173
-0.08811412 -0.46323839 0.05418193
-0.088249542 -0.46335402 0.054106195
-0.088398829 -0.46347898 0.054037288
-0.088549763 -0.46358886 0.054064095
-0.088702321 -0.46371001 0.054032076
-0.088844068 -0.46381962 0.054019731
-0.088986464 -0.4639242 0.054039668
-0.089144073 -0.46405134 0.053994931
-0.089294739 -0.46416241 0.054013669
-0.089449465 -0.46428677 0.053972423
-0.089594372 -0.46439445 0.053985417
-0.089749359 -0.46451625 0.053960312
-0.08989583 -0.46463218 0.053931791
-0.090042517 -0.46474653 0.053913645
-0.090191767 -0.4648636 0.053890865
-0.090344958 -0.46497697 0.053907283
-0.090492442 -0.46510136 0.053833783
-0.090638921 -0.46521512 0.053817943
-0.09079507 -0.46534294 0.053762846
-0.090945967 -0.46545142 0.053797722
-0.091097437 -0.46557075 0.053771481
-0.091246493 -0.46568629 0.053756781
-0.09139289 -0.46579903 0.053746708
-0.09154585 -0.46591222 0.053763121
-0.091692299 -0.46602458 0.053755362
-0.09183608 -0.46614558 0.053685345
-0.091990478 -0.46626478 0.053672917
-0.092139304 -0.46637976 0.053660527
-0.092285149 -0.46649304 0.053644698
-0.092433333 -0.46660951 0.053620774
-0.092587307 -0.46672916 0.053603746
-0.092734598 -0.46683785 0.053621348
-0.092890546 -0.46695194 0.053645816
-0.093037993 -0.46707904 0.05355617
-0.093180455 -0.46719077 0.05353459
-0.093336865 -0.46730343 0.053569436
-0.093485817 -0.46742558 0.053515531
-0.093632251 -0.46754465 0.053468559
-0.09378358 -0.46765205 0.053511504
-0.09393014 -0.46777043 0.053469144
-0.094080552 -0.46788818 0.053447526
-0.094228007 -0.46800408 0.053423606
-0.094377205 -0.46811619 0.053429667
-0.09452188 -0.46822977 0.053406924
-0.094668254 -0.46834743 0.053368021
-0.094817936 -0.46845832 0.053383298
-0.094970569 -0.46857834 0.053358197
-0.095120758 -0.46869552 0.053338885
-0.095265158 -0.46880892 0.053316142
-0.095412716 -0.46892351 0.053300306
-0.095568724 -0.46903014 0.053368591
-0.095707498 -0.46915975 0.053225949
-0.095860794 -0.46927103 0.053255044
-0.09601409 -0.46938899 0.053244937
-0.096159264 -0.46950692 0.053199124
-0.096307568 -0.46961972 0.053197119
-0.096458256 -0.4697288 0.05322738
-0.096606597 -0.46984774 0.053189624
-0.096754685 -0.46996078 0.053185314
-0.096898593 -0.4700858 0.053092226
-0.097052269 -0.47019067 0.053160526
-0.097200826 -0.47030878 0.053128533
-0.097344376 -0.47042191 0.053103488
-0.097492129 -0.47053507 0.053096876
-0.097638875 -0.47065517 0.053045284
-0.097790033 -0.47076383 0.053080156
-0.097939588 -0.47088015 0.053063158
-0.098080248 -0.47099641 0.053006992
-0.098229215 -0.47111857 0.052953087
-0.098378889 -0.47122908 0.05297067
-0.098530814 -0.47134227 0.052982483
-0.098682813 -0.47146064 0.052964307
-0.098834351 -0.47157943 0.052941523
-0.098978996 -0.47169045 0.052933771
-0.099122979 -0.47180212 0.052919094
-0.099267714 -0.47191793 0.05288367
-0.09942513 -0.47203037 0.052924272
-0.099573188 -0.47213784 0.052952256
-0.099718906 -0.47225735 0.052899517
-0.09986075 -0.47237569 0.052836426
-0.10000417 -0.47249702 0.052762941
-0.10015163 -0.47261429 0.052730955
-0.10029937 -0.4727312 0.052702434
-0.10045596 -0.47283551 0.052786864
-0.10060298 -0.47295758 0.05272489
-0.10075691 -0.47306007 0.052808188
-0.1009061 -0.47317573 0.052793488
-0.10104018 -0.47329524 0.052688934
-0.10119422 -0.47341102 0.052694965
-0.10133475 -0.47352916 0.052627269
-0.10149295 -0.4736416 0.052671324
-0.1016344 -0.47375038 0.05266244
-0.10178109 -0.4738718 0.052602775
-0.10193146 -0.47398618 0.05260076
-0.10208142 -0.47410497 0.052571066
-0.10222777 -0.47421411 0.05258175
-0.10237667 -0.47432953 0.052567054
-0.10252309 -0.47444269 0.052554682
-0.10267388 -0.47455677 0.052556112
-0.10281724 -0.47467193 0.05251839
-0.10296691 -0.47478676 0.052510604
-0.10311257 -0.47490031 0.052492466
-0.10326279 -0.47501475 0.052489292
-0.10341056 -0.47512695 0.052488439
-0.10357133 -0.47523504 0.052569386
-0.10372428 -0.47534803 0.052586962
-0.10386927 -0.47546205 0.05256306
-0.10400241 -0.47558284 0.052446969
-0.10414134 -0.47570369 0.052356213
-0.10428967 -0.47581553 0.05235998
-0.10443684 -0.47593516 0.052313004
-0.10458365 -0.47604781 0.052305229
-0.1047412 -0.47615838 0.052357376
-0.10488622 -0.47627202 0.05233578
-0.1050302 -0.47638962 0.052286513
-0.10517593 -0.47650284 0.052270673
-0.10532232 -0.47661912 0.052239854
-0.10547058 -0.47673109 0.052242458
-0.10562658 -0.47684619 0.052261159
-0.10577425 -0.47695851 0.052259155
-0.10592195 -0.47707084 0.052257154
-0.1060629 -0.47718614 0.052207906
-0.10620652 -0.47730348 0.052158639
-0.10634466 -0.47741979 0.052090958
-0.10649504 -0.4775373 0.052070484
-0.10664149 -0.47765324 0.052041959
-0.10679765 -0.47776532 0.052079119
-0.10694946 -0.47787604 0.052104771
-0.10710221 -0.47798651 0.052136175
-0.10724103 -0.47810531 0.052056961
-0.10738068 -0.47822061 0.052001953
-0.10752562 -0.47833696 0.051964208
-0.10767641 -0.47845125 0.051964499
-0.10782902 -0.47856498 0.051976297
-0.10797265 -0.47868171 0.051930502
-0.10811949 -0.47879437 0.051922735
-0.10825974 -0.47890913 0.05187349
-0.10840339 -0.47902569 0.051828835
-0.1085494 -0.4791415 0.051799163
-0.10870068 -0.47925282 0.051819053
-0.10886285 -0.47936392 0.051888462
-0.10900439 -0.47948104 0.051831141
-0.10915454 -0.47959289 0.051842954
-0.10929419 -0.4797076 0.051791411
-0.10944521 -0.47982204 0.05179169
-0.10959742 -0.47993624 0.051798884
-0.10973601 -0.4800539 0.05172544
-0.10989317 -0.48016414 0.051777579
-0.110036 -0.48028067 0.05172947
-0.11017763 -0.48039472 0.051690597
-0.11032442 -0.48050755 0.051681679
-0.11048055 -0.48062372 0.051694617
-0.11063157 -0.4807384 0.051693745
-0.11077702 -0.48085159 0.051676761
-0.11092003 -0.48096529 0.051645957
-0.11106905 -0.48108041 0.051633559
-0.11121498 -0.48119617 0.051603891
-0.11135563 -0.48131025 0.051560413
-0.11150317 -0.48142305 0.051554941
-0.11165349 -0.48153797 0.051549464
-0.11179555 -0.48165432 0.051499061
-0.11192968 -0.48176935 0.051421024
-0.11208534 -0.48188341 0.051444344
-0.11225069 -0.48199359 0.051533334
-0.11241663 -0.48210639 0.05160965
-0.11256187 -0.48221982 0.051590353
-0.11270253 -0.48233882 0.051518045
-0.11283764 -0.482456 0.051431924
-0.11299399 -0.48257038 0.051456399
-0.11313493 -0.48268428 0.05141522
-0.11328489 -0.48279953 0.051406287
-0.11342598 -0.48291099 0.051380098
-0.11357623 -0.48302862 0.051358469
-0.11371458 -0.48314273 0.051304627
-0.11386 -0.48325846 0.051272653
-0.11402227 -0.4833726 0.05132477
-0.114167 -0.48349077 0.051275499
-0.11430693 -0.48360232 0.051243555
-0.11446316 -0.4837172 0.051264562
-0.11461625 -0.48383009 0.051283289
-0.11475439 -0.48394641 0.051215596
-0.11490534 -0.48406181 0.051210117
-0.11505993 -0.48417702 0.051221915
-0.11520244 -0.48429075 0.051188797
-0.11534721 -0.48440656 0.051153373
-0.11548482 -0.48452052 0.051097222
-0.11565001 -0.48463315 0.051171225
-0.11578837 -0.48474705 0.05111853
-0.11594403 -0.48486251 0.051133782
-0.11609109 -0.48497829 0.051108718
-0.11624892 -0.48509595 0.051120497
-0.11638673 -0.48520985 0.051065493
-0.11653508 -0.48532563 0.051046193
-0.11667433 -0.48544163 0.050985422
-0.11683796 -0.4855572 0.051035214
-0.1169701 -0.48566896 0.050967567
-0.11712443 -0.48578477 0.050974749
-0.11726721 -0.48590064 0.050930105
-0.11740494 -0.48601863 0.050850891
-0.11757434 -0.48613247 0.050936405
-0.1177174 -0.48624837 0.050892912
-0.11786398 -0.48636225 0.050877079
-0.11801998 -0.48647833 0.050890017
-0.11816972 -0.48659024 0.050899535
-0.11830587 -0.48670605 0.050826095
-0.11846288 -0.48682231 0.050842486
-0.11860407 -0.48693818 0.050790928
-0.11875273 -0.48705223 0.05078315
-0.11889204 -0.48717001 0.050712001
-0.11904864 -0.48728243 0.050749157
-0.11921237 -0.48740122 0.050780497
-0.11934606 -0.48751277 0.050720911
-0.1195058 -0.48762953 0.050746519
-0.11965871 -0.487748 0.050731797
-0.11980803 -0.48786435 0.050713636
-0.1199501 -0.48797831 0.050677069
-0.12010229 -0.48809487 0.050670423
-0.12025005 -0.48820922 0.050656892
-0.12040921 -0.48832631 0.050677881
-0.12054487 -0.48843798 0.050626356
-0.12069211 -0.48855433 0.050598986
-0.12083975 -0.48866877 0.050584298
-0.1209914 -0.48878551 0.050574195
-0.12114613 -0.4889006 0.05058714
-0.12129136 -0.48901877 0.050540175
-0.12144259 -0.48913556 0.050527774
-0.12157646 -0.48925081 0.050447427
-0.12174166 -0.48936522 0.050511051
-0.12188234 -0.48948109 0.050457194
-0.12203465 -0.4895981 0.050448243
-0.12217561 -0.489714 0.050395533
-0.12233573 -0.48983008 0.0504269
-0.12248299 -0.48994485 0.050408751
-0.12264861 -0.49006349 0.050449312
-0.12279762 -0.49018037 0.050426543
-0.12292338 -0.49029458 0.050316267
-0.12307663 -0.49041015 0.050319992
-0.1232365 -0.49052837 0.050337519
-0.12338843 -0.49064571 0.050325114
-0.12352512 -0.49075758 0.050277051
-0.12367244 -0.49087435 0.050247364
-0.12381949 -0.49098936 0.050226916
-0.12397885 -0.49110779 0.050240986
-0.12413359 -0.49122569 0.050237782
-0.1242735 -0.4913398 0.050190847
-0.12444018 -0.49145946 0.050230253
-0.12457947 -0.49157527 0.050170634
-0.12472104 -0.49168965 0.050129451
-0.1248858 -0.49180925 0.050160799
-0.12503166 -0.49192432 0.050134588
-0.12515241 -0.4920373 0.050009344
-0.12531917 -0.49215561 0.050056815
-0.12544924 -0.49226996 0.049964964
-0.1256301 -0.49239072 0.050060783
-0.12577175 -0.49250695 0.050009228
-0.12593445 -0.49262497 0.050040577
-0.12607218 -0.49274057 0.049975209
-0.12623076 -0.49285802 0.049991593
-0.12639013 -0.49297905 0.049990673
-0.12654291 -0.49309564 0.049986329
-0.12668426 -0.49321026 0.049942847
-0.12683479 -0.49332651 0.049930442
-0.12699097 -0.49344549 0.049927238
-0.1271379 -0.49356118 0.049902175
-0.12729871 -0.49368113 0.049913935
-0.12744208 -0.49379784 0.049866971
-0.1275934 -0.49391609 0.0498465
-0.12774158 -0.49403214 0.049824886
-0.12790559 -0.49415293 0.049845848
-0.12803607 -0.49426562 0.049765524
-0.1281978 -0.49438605 0.049778428
-0.12835011 -0.49450308 0.04976948
-0.12849016 -0.49461925 0.049711015
-0.12866217 -0.49474198 0.049756147
-0.12881048 -0.4948599 0.049724154
-0.12896027 -0.49497658 0.049705993
-0.12910616 -0.49509406 0.049665943
-0.12926868 -0.49521354 0.049688075
-0.12943241 -0.49533647 0.049695197
-0.129572 -0.49545112 0.049643658
-0.12972359 -0.49556839 0.049630094
-0.12986976 -0.49568608 0.049590044
-0.13002995 -0.49580532 0.049602956
-0.13017958 -0.4959223 0.049582485
-0.13033552 -0.49604228 0.049572363
-0.13047996 -0.49616122 0.049517326
-0.1306178 -0.49627709 0.049450807
-0.13080314 -0.49640247 0.049539678
-0.13096461 -0.49652547 0.049536444
-0.13109066 -0.49663711 0.049442306
-0.13125376 -0.49676055 0.049443673
-0.13140954 -0.49688083 0.049431246
-0.13156037 -0.49699691 0.049421147
-0.13173148 -0.4971225 0.049445536
-0.13187356 -0.49723807 0.049399741
-0.13201359 -0.49735463 0.049338967
-0.13216826 -0.49747482 0.049321923
-0.13233829 -0.49759445 0.049376298
-0.13249671 -0.49772164 0.049335025
-0.13263476 -0.49783337 0.049293865
-0.13281819 -0.49795961 0.049368918
-0.13296127 -0.49807712 0.049316198
-0.13310379 -0.49819303 0.049270399
-0.13327059 -0.49831674 0.049286734
-0.13340953 -0.49843028 0.049238656
-0.13357356 -0.49855483 0.049237709
-0.13372467 -0.49867314 0.049216077
-0.13388056 -0.49879563 0.049190961
-0.13403678 -0.4989168 0.049175069
-0.13420036 -0.49904004 0.049179893
-0.13435288 -0.49916175 0.049144417
-0.13450748 -0.49927834 0.049148135
-0.13465914 -0.49939704 0.04912651
-0.13481425 -0.49951816 0.049106006
-0.13494708 -0.49962887 0.049047574
-0.13513166 -0.49976113 0.049092643
-0.13525847 -0.49987161 0.04900888
-0.135423 -0.49999556 0.049013697
-0.13559148 -0.50012207 0.049020793
-0.1357305 -0.5002389 0.048954267
-0.13588573 -0.50035751 0.04894875
-0.13604276 -0.50047678 0.048947845
-0.13619827 -0.500597 0.04893427
-0.13635476 -0.50072032 0.048906837
-0.13650708 -0.50083977 0.048884049
-0.13667861 -0.50096625 0.048904978
-0.13684267 -0.50108922 0.048913248
-0.13697398 -0.50120252 0.048832927
-0.13713312 -0.50132418 0.048827387
-0.13731343 -0.50145495 0.048862103
-0.13746206 -0.50157487 0.048819728
-0.13761984 -0.50169766 0.048801519
-0.13778082 -0.50182009 0.04879944
-0.13793965 -0.5019446 0.048775464
-0.055540092 -0.43798837 0.057396747
-0.056265298 -0.43856639 0.057232369
-0.05695739 -0.43909401 0.057215802
-0.057144023 -0.43924853 0.057139788
-0.057315756 -0.43937892 0.057138823
-0.058181256 -0.44004434 0.057085529
-0.058356758 -0.44018191 0.057059176
-0.058537632 -0.44032872 0.057002798
-0.05870628 -0.44045517 0.057011083
-0.058871418 -0.44057584 0.057037838
-0.059053298 -0.44072497 0.056972228
-0.059226945 -0.44086033 0.056950495
-0.059407044 -0.44100693 0.056891814
-0.059581906 -0.44114482 0.056860857
-0.059740596 -0.44125211 0.056937233
-0.059914745 -0.44138905 0.056908578
-0.060072877 -0.44149849 0.05696997
-0.060268834 -0.44167367 0.056814324
-0.060444117 -0.44181326 0.056775279
-0.060602874 -0.44192412 0.056830913
-0.060769711 -0.44204924 0.056839198
-0.060944453 -0.44218841 0.056800157
-0.061125785 -0.44233948 0.056720711
-0.061289206 -0.44245902 0.056746326
-0.061462343 -0.44259599 0.056713067
-0.061623633 -0.44271195 0.056750212
-0.061800662 -0.44285306 0.056710009
-0.061972857 -0.44298893 0.056679055
-0.062149141 -0.44313243 0.056621559
-0.062309954 -0.44324803 0.056658715
-0.062481765 -0.44338378 0.056626614
-0.062648803 -0.44351101 0.056623369
-0.062822968 -0.44365153 0.056573953
-0.062988773 -0.44377682 0.056576483
-0.063152134 -0.44389769 0.056594022
-0.063328177 -0.44404241 0.056528445
-0.063503154 -0.44418195 0.056488253
-0.063663982 -0.44429854 0.056519642
-0.063834138 -0.44443285 0.0564887
-0.064002022 -0.44456309 0.056471623
-0.064170778 -0.44469514 0.056447607
-0.064325944 -0.44480133 0.056514777
-0.064506389 -0.44495627 0.056408819
-0.064676449 -0.44509149 0.056372106
-0.064832717 -0.44520009 0.056430049
-0.064996883 -0.44532415 0.05643259
-0.06516958 -0.44546512 0.056373954
-0.065339267 -0.44560045 0.056334946
-0.06551984 -0.44575766 0.0562163
