# .PCD v0.7 - Point Cloud Data file format
VERSION 0.7
FIELDS x y z
SIZE 4 4 4
TYPE F F F
COUNT 1 1 1
WIDTH 907
HEIGHT 1
VIEWPOINT 0 0 0 1 0 0 0
POINTS 907
DATA ascii
-0.33414388 -0.27141577 0.06350565
-0.33435953 -0.27138609 0.063526481
-0.33460552 -0.27136374 0.063465312
-0.33484298 -0.27133948 0.063426092
-0.3350831 -0.27131596 0.063378781
-0.33531174 -0.27128828 0.063373037
-0.33554238 -0.27126268 0.063349992
-0.33573526 -0.27122787 0.063429751
-0.33602083 -0.27121603 0.06325423
-0.33621469 -0.27118158 0.063330531
-0.33643514 -0.27115381 0.0633329
-0.33668816 -0.27113432 0.063244008
-0.33691925 -0.27110946 0.063215196
-0.3371357 -0.27108094 0.063226819
-0.33734626 -0.27105096 0.063254602
-0.33757949 -0.27102691 0.063217707
-0.33784246 -0.2710107 0.063095331
-0.33803019 -0.27097341 0.063198179
-0.33828312 -0.27095488 0.063102379
-0.33851919 -0.27093202 0.063053943
-0.33869904 -0.27089432 0.063167199
-0.33891958 -0.2708675 0.063162647
-0.33916837 -0.27084836 0.063074946
-0.33939549 -0.27082351 0.063049614
-0.33963922 -0.2708033 0.062974617
-0.3398622 -0.27077755 0.062959664
-0.3400414 -0.27073976 0.063074082
-0.34028697 -0.27072042 0.062991016
-0.34051979 -0.27069765 0.062944889
-0.34074193 -0.27067202 0.062929958
-0.34095582 -0.27064413 0.062939271
-0.34117717 -0.27061844 0.062925495
-0.34141386 -0.27059722 0.062864371
-0.34163886 -0.27057278 0.062837884
-0.34184217 -0.27054214 0.062877245
-0.34204841 -0.2705124 0.062907353
-0.34229854 -0.27049562 0.062801182
-0.34252104 -0.27046916 0.062792018
-0.3427375 -0.27044266 0.06278865
-0.342967 -0.27042016 0.062743694
-0.34317788 -0.27039215 0.062756479
-0.3434138 -0.27037182 0.062689602
-0.34362072 -0.27034277 0.062713936
-0.34384665 -0.27031961 0.062677085
-0.34406042 -0.27029285 0.062678322
-0.34428161 -0.27026841 0.06265533
-0.34451392 -0.27024758 0.062595375
-0.34469271 -0.27021003 0.062708646
-0.34492284 -0.27018869 0.062654465
-0.34515548 -0.27016827 0.062591054
-0.34539339 -0.27014974 0.062509164
-0.34559307 -0.27011722 0.062565826
-0.34580818 -0.2700915 0.062557846
-0.34604245 -0.27007216 0.062485203
-0.34626329 -0.27004853 0.062456433
-0.34647331 -0.27002144 0.06246347
-0.34670019 -0.27000004 0.062412769
-0.34689903 -0.26996934 0.062456757
-0.34710795 -0.26994208 0.0624661
-0.34733519 -0.26992109 0.062411934
-0.34754843 -0.26989546 0.062405113
-0.34778899 -0.26987752 0.062316298
-0.34799051 -0.26984802 0.062348738
-0.3482042 -0.26982281 0.062338457
-0.34841603 -0.26979706 0.062333949
-0.34863812 -0.269775 0.062292494
-0.34884638 -0.26974812 0.062299542
-0.3490651 -0.26972508 0.062268481
-0.34928682 -0.26970324 0.062225878
-0.34950098 -0.26967686 0.062223658
-0.34971082 -0.26965088 0.062222622
-0.34991795 -0.26962397 0.062230825
-0.3501479 -0.26960564 0.062154744
-0.35035595 -0.26957923 0.062158324
-0.3505595 -0.26955122 0.062178075
-0.35079083 -0.26953378 0.062093914
-0.35098913 -0.26950395 0.062132139
-0.3511965 -0.26947561 0.062150717
-0.35142365 -0.26945698 0.062079258
-0.35163838 -0.26943368 0.062053975
-0.35185379 -0.26941073 0.062025242
-0.35206443 -0.26938403 0.062028818
-0.3522729 -0.26935852 0.062025476
-0.35249603 -0.26933897 0.061964415
-0.35270563 -0.26931411 0.06195531
-0.35291564 -0.26928747 0.061958879
-0.35310477 -0.26925439 0.062029436
-0.35331893 -0.26923162 0.062000707
-0.35354272 -0.26921293 0.061932724
-0.35377115 -0.2691943 0.061860099
-0.35397258 -0.26916656 0.061879866
-0.35418788 -0.26914471 0.061843053
-0.35439897 -0.26912123 0.061822407
-0.35462129 -0.26910055 0.061770573
-0.35482389 -0.26907361 0.061783411
-0.35502332 -0.26904529 0.061808944
-0.35522798 -0.26901934 0.061812546
-0.35540375 -0.26898494 0.061905082
-0.35564318 -0.26896808 0.061809346
-0.35587841 -0.26895389 0.061697491
-0.35608217 -0.2689279 0.061702237
-0.35629389 -0.26890558 0.061672375
-0.35650671 -0.26888388 0.061636731
-0.35671729 -0.26885906 0.061626464
-0.35691312 -0.26882964 0.061663549
-0.35713789 -0.26881164 0.061589796
-0.35733899 -0.26878485 0.061602637
-0.35756022 -0.26876774 0.061525442
-0.35776007 -0.2687405 0.061542902
-0.35796869 -0.26871529 0.061537258
-0.35816631 -0.26868707 0.061563954
-0.35837549 -0.26866227 0.061554849
-0.35858604 -0.26864055 0.061521519
-0.35880187 -0.26862162 0.061462805
-0.35900456 -0.2685962 0.061464109
-0.35922247 -0.26857623 0.06141115
-0.35942805 -0.26855248 0.061397448
-0.35962436 -0.26852161 0.061444908
-0.35984203 -0.26850432 0.06137234
-0.36002749 -0.26848245 0.061363351
-0.36024296 -0.26845452 0.061371513
-0.3604601 -0.26843244 0.061334692
-0.36067331 -0.26841089 0.061297897
-0.36087295 -0.26838461 0.061308436
-0.36107534 -0.26835984 0.061305135
-0.36128986 -0.26833937 0.06125911
-0.36150044 -0.26831934 0.061213095
-0.36169493 -0.26828793 0.061266329
-0.36189911 -0.26826453 0.061251484
-0.36210394 -0.26823899 0.061251618
-0.36232075 -0.26822305 0.061169837
-0.3625198 -0.268197 0.061179228
-0.36272907 -0.268177 0.061134376
-0.36293161 -0.26815051 0.061143763
-0.36313903 -0.26812968 0.061106987
-0.36334094 -0.26810294 0.06111867
-0.36353993 -0.26807722 0.061125763
-0.36374509 -0.26805258 0.061118983
-0.36395907 -0.26803622 0.061042979
-0.36416411 -0.26801175 0.061035044
-0.36435854 -0.26798627 0.061044458
-0.36456898 -0.26796815 0.060984619
-0.3647671 -0.26793957 0.061013617
-0.36497939 -0.26792294 0.060941074
-0.36516488 -0.26790339 0.060914792
-0.36541596 -0.26788959 0.060785558
-0.36558363 -0.26784405 0.060968071
-0.36577356 -0.26783067 0.060892187
-0.36600044 -0.26780412 0.060879529
-0.36620545 -0.2677806 0.06086468
-0.36640799 -0.26775849 0.060841773
-0.36660433 -0.26773214 0.060855795
-0.36680156 -0.26770645 0.060864046
-0.36700708 -0.26768366 0.060843423
-0.36716899 -0.26766065 0.060864531
-0.36739478 -0.2676495 0.060738891
-0.36761323 -0.26762402 0.060726278
-0.36778635 -0.26759681 0.06076809
-0.36798951 -0.26757601 0.060734794
-0.36818278 -0.26755753 0.06069348
-0.36841676 -0.26752481 0.060719997
-0.3686333 -0.26750812 0.060643978
-0.36883307 -0.26748526 0.060629159
-0.36901885 -0.2674582 0.060658216
-0.36920595 -0.26743549 0.060653836
-0.36941457 -0.26740983 0.060651649
-0.36960983 -0.26739046 0.060614944
-0.3697978 -0.26737902 0.060526378
-0.37002549 -0.26734522 0.060566761
-0.37021405 -0.26732421 0.060548533
-0.37042767 -0.2672962 0.060559012
-0.37062603 -0.26727304 0.060547654
-0.37081668 -0.26725769 0.060485601
-0.37101269 -0.26723635 0.060462728
-0.37123385 -0.26720804 0.060468554
-0.37143451 -0.26718366 0.060464099
-0.37162748 -0.26716366 0.060434323
-0.37183413 -0.26714116 0.060410239
-0.37200415 -0.26712307 0.060387492
-0.37219915 -0.26709768 0.060395751
-0.37242627 -0.26707938 0.060321987
-0.3726176 -0.26705459 0.060329113
-0.37282068 -0.26703724 0.060270458
-0.3730188 -0.26701128 0.060279854
-0.37322164 -0.26698601 0.060279999
-0.37339491 -0.26695973 0.060314897
-0.37360302 -0.26693162 0.060331158
-0.37380692 -0.26692006 0.060228687
-0.37399969 -0.26689309 0.060250793
-0.3741951 -0.26686889 0.060249824
-0.37439206 -0.26685071 0.060202725
-0.37458578 -0.26682487 0.060215611
-0.37478572 -0.26680151 0.060204245
-0.37499851 -0.26678357 0.060140923
-0.37521046 -0.26675591 0.060150262
-0.37541312 -0.26673144 0.060144641
-0.37558758 -0.26671138 0.06013225
-0.37579286 -0.26669016 0.060100101
-0.37598518 -0.2666679 0.060087621
-0.37620369 -0.26663899 0.060100377
-0.37638283 -0.26662022 0.060074128
-0.37657881 -0.26660281 0.060022429
-0.37677574 -0.26657686 0.060032986
-0.37696779 -0.2665548 0.060019344
-0.37716356 -0.26653257 0.060003392
-0.37735945 -0.26651067 0.059985131
-0.37757358 -0.26648694 0.059963316
-0.37775162 -0.26646769 0.059941679
-0.37795752 -0.26644376 0.059929136
-0.3781454 -0.26641658 0.059957024
-0.37835348 -0.26639596 0.059917949
-0.37855065 -0.26637667 0.059878923
-0.3787438 -0.26635167 0.059886046
-0.37893695 -0.26632667 0.059893165
-0.3791374 -0.266307 0.059854116
-0.37933403 -0.26628762 0.059816245
-0.37950736 -0.26628047 0.059709311
-0.37971839 -0.26624766 0.059757851
-0.37992299 -0.2662167 0.059798352
-0.3801356 -0.26619256 0.059781156
-0.3803131 -0.26618084 0.05970417
-0.38050693 -0.26615125 0.059744723
-0.38071716 -0.26613018 0.059706789
-0.38090077 -0.26610965 0.059689745
-0.38111669 -0.26608554 0.059669074
-0.38130769 -0.26606485 0.059646226
-0.3814919 -0.2660386 0.059670683
-0.38169557 -0.26601323 0.059670825
-0.38189396 -0.26599255 0.059641022
-0.38208875 -0.2659725 0.059610076
-0.38227656 -0.2659539 0.059574559
-0.38246846 -0.26592812 0.0595886
-0.38266513 -0.26590452 0.059581861
-0.38285992 -0.26588523 0.059545159
-0.38307008 -0.26585844 0.059549883
-0.38325667 -0.26583797 0.059529357
-0.38343433 -0.26581424 0.059541158
-0.38363594 -0.26579428 0.059503265
-0.38382635 -0.26577458 0.0594735
-0.3840231 -0.26575226 0.059457541
-0.3842234 -0.26572961 0.059440404
-0.38442886 -0.26570076 0.05946476
-0.3846103 -0.26568824 0.059390064
-0.38479605 -0.26566711 0.059375308
-0.38499287 -0.26564601 0.059350125
-0.38518918 -0.26562357 0.059335314
-0.3853898 -0.26560339 0.059299733
-0.38558561 -0.26557976 0.059294153
-0.3857671 -0.26555777 0.059289794
-0.38597649 -0.26553026 0.059300296
-0.38615909 -0.2655125 0.059263654
-0.38634276 -0.2654849 0.059298486
-0.38655323 -0.2654618 0.059275534
-0.38673761 -0.26543695 0.059289616
-0.38693473 -0.26542002 0.0592333
-0.38713831 -0.26539978 0.059195392
-0.38731605 -0.26537856 0.059188742
-0.38752955 -0.26535431 0.05917155
-0.38773543 -0.26532832 0.059173994
-0.38790974 -0.26530862 0.059159294
-0.3880879 -0.26529059 0.05912843
-0.38829044 -0.26526693 0.059117049
-0.38848546 -0.26524153 0.059125319
-0.3886745 -0.26522529 0.05907134
-0.3888734 -0.26520252 0.05905652
-0.38906467 -0.26517633 0.059074026
-0.38925323 -0.2651583 0.059033886
-0.38945535 -0.26513278 0.059036352
-0.38963974 -0.26510963 0.059037745
-0.38984591 -0.26509079 0.058987144
-0.39002004 -0.26507592 0.058936696
-0.39021122 -0.26504853 0.058963429
-0.39040998 -0.26502952 0.058920939
-0.39060491 -0.26500708 0.058907289
-0.3907823 -0.26499322 0.058846459
-0.39097005 -0.26497293 0.058823615
-0.39115766 -0.26493862 0.058904558
-0.39135608 -0.26491532 0.058894359
-0.39156157 -0.26489112 0.058884114
-0.39175269 -0.26487523 0.058825515
-0.39195436 -0.26485616 0.058780704
-0.39214557 -0.26483217 0.058782063
-0.39233324 -0.26480848 0.058784604
-0.3925311 -0.26479083 0.058732882
-0.3927294 -0.26476502 0.058741126
-0.39291674 -0.26474524 0.058714833
-0.39310443 -0.26472107 0.058720831
-0.39329594 -0.26469392 0.058745243
-0.39348316 -0.26467448 0.058716655
-0.39367411 -0.2646527 0.058701873
-0.39385787 -0.26463243 0.058682516
-0.39404505 -0.2646122 0.058659676
-0.39425737 -0.26458624 0.058656327
-0.39446145 -0.26456842 0.058599968
-0.39464954 -0.26454186 0.058623258
-0.39483181 -0.26450932 0.058696147
-0.39503324 -0.26450527 0.058540642
-0.39523113 -0.26448199 0.058530446
-0.39541209 -0.26445693 0.058549151
-0.39561021 -0.26443255 0.05854702
-0.39579019 -0.26441243 0.058529984
-0.39600563 -0.26438749 0.05851623
-0.3961955 -0.26436895 0.058478404
-0.39637095 -0.26435283 0.058436029
-0.39657259 -0.26432785 0.05843503
-0.39677411 -0.26430336 0.058430571
-0.39694431 -0.26428103 0.058438953
-0.39713728 -0.26426277 0.058396492
-0.3973344 -0.26424161 0.058371302
-0.39751622 -0.26422596 0.058319669
-0.39770505 -0.26419836 0.05834987
-0.39789551 -0.26416588 0.058414657
-0.3980749 -0.2641471 0.058388405
-0.3982887 -0.26413667 0.058268577
-0.39847916 -0.26411465 0.058256108
-0.39867055 -0.26409 0.058262076
-0.39885926 -0.26407287 0.058215026
-0.39903998 -0.26404971 0.058219898
-0.39922595 -0.26403058 0.058190156
-0.39941746 -0.26400578 0.058197275
-0.39961189 -0.26399058 0.058130592
-0.3997995 -0.26396719 0.058130812
-0.39999843 -0.26393273 0.058202472
-0.4001953 -0.26391146 0.058178447
-0.40039402 -0.26388592 0.058184378
-0.40058216 -0.26386169 0.058190364
-0.40076989 -0.26383844 0.058189444
-0.4009594 -0.26381871 0.058160834
-0.40116021 -0.26380318 0.058090653
-0.4013491 -0.26378447 0.058055129
-0.40153158 -0.26376513 0.058030009
-0.40172184 -0.26374343 0.058015235
-0.40191796 -0.2637299 0.057934709
-0.40209222 -0.26371986 0.057848524
-0.40229192 -0.26368609 0.05791441
-0.40249088 -0.26365411 0.057967618
-0.40268651 -0.26362866 0.057975873
-0.40287474 -0.26361078 0.057934597
-0.40307406 -0.2635847 0.057943985
-0.40326056 -0.26356396 0.057925768
-0.4034569 -0.26354322 0.057898272
-0.4036434 -0.26352245 0.057880055
-0.40384158 -0.26349854 0.057874463
-0.40403143 -0.26347768 0.05785393
-0.40421423 -0.26346299 0.057794213
-0.40440053 -0.26343709 0.057814054
-0.40458962 -0.26341212 0.057824649
-0.40478751 -0.26338372 0.057852499
-0.40498382 -0.26337329 0.057748903
-0.40516636 -0.26335862 0.057689197
-0.40536019 -0.26333648 0.057674404
-0.40555111 -0.26330894 0.057702288
-0.40574068 -0.26328361 0.057715185
-0.4059363 -0.26325423 0.05775227
-0.40613848 -0.26322499 0.057782397
-0.40632764 -0.26320997 0.057719201
-0.40651357 -0.26318553 0.057728656
-0.40671319 -0.26315567 0.057765722
-0.40691039 -0.26312485 0.05781202
-0.4070887 -0.263138 0.057550557
-0.40726623 -0.26313376 0.057418231
-0.4074496 -0.26311278 0.057404637
-0.40763393 -0.26309478 0.057367984
-0.40784886 -0.26304075 0.057569861
-0.40805021 -0.26300505 0.057648428
-0.40826252 -0.262968 0.057726938
-0.40850094 -0.26292679 0.057812244
-0.40867144 -0.26291472 0.057744518
-0.40887478 -0.26288158 0.05780232
-0.40908593 -0.26284704 0.057863545
-0.40929225 -0.26280683 0.057970908
-0.40949392 -0.26276875 0.058066774
-0.40970048 -0.26272899 0.058170676
-0.40988544 -0.26270002 0.058214732
-0.41009623 -0.26266348 0.058290944
-0.41031086 -0.26262271 0.058394812
-0.41053009 -0.26258075 0.058503274
-0.41073164 -0.26254472 0.058584146
-0.41092807 -0.26250747 0.05867888
-0.41112578 -0.26247269 0.058754005
-0.41134071 -0.2624369 0.058820967
-0.41155672 -0.26239657 0.058920216
-0.41176033 -0.26235968 0.059005685
-0.41196302 -0.26232055 0.059108466
-0.41217348 -0.26228374 0.059186988
-0.41238341 -0.26224434 0.059285115
-0.41259336 -0.26220524 0.059380934
-0.41279334 -0.2621702 0.059456047
-0.41301635 -0.26212138 0.05961176
-0.33415809 -0.27141595 0.063491128
-0.33434302 -0.27139398 0.063483335
-0.33464873 -0.27137092 0.063372359
-0.33487946 -0.27134359 0.06336204
-0.33511645 -0.27131936 0.063322864
-0.33533561 -0.27128941 0.063342571
-0.33561015 -0.27127615 0.063187942
-0.33579868 -0.27125558 0.063166298
-0.33604604 -0.27121761 0.063219309
-0.33628228 -0.27119225 0.063189358
-0.33648419 -0.27115992 0.063242592
-0.33673534 -0.27114004 0.063158393
-0.33693284 -0.27110669 0.063223161
-0.33713651 -0.27107334 0.063282147
-0.33736792 -0.27104872 0.063251078
-0.33759743 -0.27102217 0.063236147
-0.33783928 -0.27100047 0.063173898
-0.33805647 -0.27097249 0.063180938
-0.33827877 -0.27094588 0.063172966
-0.3385101 -0.27092019 0.063149959
-0.33874348 -0.27089673 0.063108511
-0.33897299 -0.27087235 0.063077435
-0.33918244 -0.27084267 0.063104123
-0.339423 -0.27081987 0.06305109
-0.33964586 -0.27079397 0.063037351
-0.33986706 -0.27076611 0.063039757
-0.34009373 -0.27074146 0.06301333
-0.34032327 -0.27071771 0.062977642
-0.34057218 -0.2706995 0.062883079
-0.34077784 -0.27066764 0.062929377
-0.34099814 -0.2706416 0.062919095
-0.34120208 -0.27060932 0.062970012
-0.34143797 -0.27058789 0.062911242
-0.34167278 -0.27056628 0.062854797
-0.34189671 -0.27054167 0.062830679
-0.34211951 -0.27051514 0.062821552
-0.34232512 -0.27048531 0.062852852
-0.34256315 -0.27046347 0.062795237
-0.34279466 -0.2704415 0.062744558
-0.34300491 -0.27041328 0.062759697
-0.3432304 -0.27038971 0.062726349
-0.34345847 -0.27036533 0.062696442
-0.343674 -0.27033895 0.062693119
-0.34389189 -0.27031165 0.062694386
-0.3441067 -0.27028519 0.062692218
-0.34434927 -0.27026576 0.062612668
-0.34456789 -0.27024069 0.062596641
-0.34478888 -0.27021471 0.06258522
-0.34500498 -0.27018905 0.062576123
-0.34521598 -0.27016181 0.062583186
-0.34542054 -0.27013257 0.062611036
-0.34563559 -0.270105 0.062616937
-0.34586731 -0.27008471 0.062553577
-0.34609503 -0.27006149 0.062515602
-0.34630382 -0.27003393 0.062527299
-0.34653077 -0.27001065 0.062490486
-0.34675214 -0.26998743 0.062458299
-0.34697247 -0.26996216 0.062442265
-0.34718698 -0.26993683 0.062432028
-0.34741762 -0.26991528 0.062379047
-0.34762436 -0.26988748 0.062394209
-0.34782806 -0.26985866 0.062419765
-0.34805274 -0.26983723 0.062371425
-0.34827518 -0.26981324 0.062343858
-0.34850097 -0.26979244 0.062289752
-0.34871769 -0.26976669 0.062280655
-0.34894198 -0.26974562 0.06223001
-0.34914187 -0.269714 0.062279791
-0.34935901 -0.26969051 0.062253401
-0.34958106 -0.26966706 0.062222369
-0.34979585 -0.26964295 0.062202901
-0.35001358 -0.26962003 0.062171888
-0.35022295 -0.2695941 0.0621709
-0.3504332 -0.26956666 0.062180277
-0.35064787 -0.26954287 0.062158503
-0.35087115 -0.26952052 0.06211824
-0.35108018 -0.26949477 0.062116098
-0.35131034 -0.26947531 0.062048145
-0.35151806 -0.26944926 0.062049456
-0.35172862 -0.26942238 0.062054221
-0.35193938 -0.26939768 0.062042851
-0.35215718 -0.26937586 0.062003769
-0.35235715 -0.26934704 0.062032796
-0.35257751 -0.26932442 0.06199716
-0.35279438 -0.26930252 0.061959237
-0.35300869 -0.26927769 0.061945543
-0.35321581 -0.26925203 0.061944559
-0.35344604 -0.26923397 0.061866216
-0.3536571 -0.26921016 0.061847933
-0.35386139 -0.26918361 0.061856184
-0.35406131 -0.26915526 0.061881743
-0.35427403 -0.26913029 0.061870355
-0.3544907 -0.26910922 0.061826669
-0.3547056 -0.26908541 0.061804902
-0.35491791 -0.2690627 0.061777383
-0.35512552 -0.26903591 0.061784461
-0.3553336 -0.26901153 0.061773095
-0.35554481 -0.26898864 0.061747879
-0.35574961 -0.26896295 0.061749212
-0.35596156 -0.26893842 0.061735529
-0.35616037 -0.26891455 0.061728828
-0.35638875 -0.26889327 0.061675854
-0.35659906 -0.2688705 0.061650656
-0.35681579 -0.26885083 0.061596587
-0.35701689 -0.26882172 0.061626762
-0.35722488 -0.26880264 0.061576203
-0.35743448 -0.26877543 0.061584435
-0.35766578 -0.26876095 0.061478414
-0.35784835 -0.26872775 0.061555941
-0.35805479 -0.26869923 0.061576873
-0.3582519 -0.26867074 0.061605915
-0.3584711 -0.26865324 0.061533395
-0.35867926 -0.26863045 0.061510496
-0.35889646 -0.26860991 0.061462194
-0.35910594 -0.26858801 0.061431229
-0.35930136 -0.26855665 0.061483331
-0.35944095 -0.26853731 0.061497658
-0.35973284 -0.2685222 0.061340638
-0.35992801 -0.26849085 0.061392739
-0.36014137 -0.2684691 0.061357137
-0.36033893 -0.26844153 0.061379261
-0.36055148 -0.26841956 0.061345972
-0.36075613 -0.2683959 0.061332323
-0.36095995 -0.26836941 0.06134057
-0.36116737 -0.26834747 0.061311923
-0.36136708 -0.26831883 0.061339792
-0.36158335 -0.26830202 0.061264977
-0.3617923 -0.26828128 0.061225951
-0.36199224 -0.26825556 0.061231919
-0.36219963 -0.2682316 0.061218243
-0.36240473 -0.26820898 0.061196521
-0.36261824 -0.26818877 0.061149396
-0.36281663 -0.26816249 0.061161127
-0.36301935 -0.26813614 0.061169393
-0.36322281 -0.26811296 0.061153438
-0.36341405 -0.26809332 0.061122559
-0.3636117 -0.26806682 0.061136603
-0.36384493 -0.26804852 0.061057098
-0.36403471 -0.26802284 0.061072342
-0.36420679 -0.26798889 0.061164904
-0.36441517 -0.26797211 0.061097048
-0.3646414 -0.26795283 0.061031412
-0.36485955 -0.2679314 0.060988877
-0.36506051 -0.26791039 0.060959101
-0.36523199 -0.26788464 0.060991719
-0.36547059 -0.26786554 0.060913339
-0.36567646 -0.26784235 0.060895074
-0.36587751 -0.26781607 0.060904495
-0.36607075 -0.26778746 0.060938165
-0.36625534 -0.2677708 0.060891166
-0.366483 -0.26774806 0.060849741
-0.36668333 -0.26772153 0.060861468
-0.36688274 -0.26769745 0.06085591
-0.36709046 -0.26767936 0.060798433
-0.36728317 -0.26765376 0.060810205
-0.36749107 -0.26762989 0.060795382
-0.36769423 -0.26760894 0.060763285
-0.36788583 -0.26758271 0.060780831
-0.36808389 -0.26756456 0.060732611
-0.36826017 -0.26753977 0.060753681
-0.36847609 -0.26751924 0.060706548
-0.3686763 -0.26749665 0.060689449
-0.3688769 -0.26747444 0.060668904
-0.3690829 -0.26744658 0.060685217
-0.36928949 -0.26742598 0.060647339
-0.36945742 -0.26740158 0.060673065
-0.36965758 -0.26739642 0.060526844
-0.36987624 -0.2673656 0.060553484
-0.37009296 -0.26733315 0.060593955
-0.37026957 -0.26731268 0.060582742
-0.37047586 -0.26728556 0.060593288
-0.37066594 -0.26726249 0.060588926
-0.37085339 -0.26724797 0.06052348
-0.37105817 -0.26722339 0.060516737
-0.37128597 -0.26720095 0.060472995
-0.37146604 -0.26717678 0.060485974
-0.37164733 -0.26715744 0.060462065
-0.37188026 -0.26713637 0.060403313
-0.37207645 -0.26711208 0.060402382
-0.3722598 -0.26709884 0.060331188
-0.37245953 -0.26707038 0.060357906
-0.37267348 -0.26704371 0.06035804
-0.37285465 -0.26701707 0.060388312
-0.37306437 -0.26699436 0.060363099
-0.37326851 -0.26697439 0.060322933
-0.37345859 -0.26695269 0.060308203
-0.37364492 -0.26692727 0.060324602
-0.37384248 -0.26690516 0.060306381
-0.37403062 -0.26687747 0.060337767
-0.37424439 -0.26686409 0.060239915
-0.37444991 -0.26684222 0.060212415
-0.37465736 -0.26681823 0.060198754
-0.37485141 -0.2667973 0.060174771
-0.37504321 -0.26677403 0.060170397
-0.37524641 -0.26675463 0.060126778
-0.37542161 -0.26673087 0.06014093
-0.37561142 -0.26671016 0.060119279
-0.37581953 -0.26668766 0.060094088
-0.37601954 -0.26666039 0.060111582
-0.37622684 -0.26663238 0.060127884
-0.37640446 -0.26661661 0.060080931
-0.37661058 -0.26659217 0.060071882
-0.37682527 -0.26657367 0.06001091
-0.37701622 -0.26655033 0.060007699
-0.37719426 -0.26652563 0.060026456
-0.37740099 -0.26650766 0.059968982
-0.37758887 -0.26648051 0.05999691
-0.37778372 -0.26646274 0.05994872
-0.37797323 -0.26643786 0.059958197
-0.37819663 -0.26641673 0.05990871
-0.3783662 -0.26639697 0.059898689
-0.37857622 -0.26637954 0.059834283
-0.37878418 -0.26635361 0.059834443
-0.37897861 -0.26633078 0.059824303
-0.37917376 -0.26630911 0.059804924
-0.3793571 -0.26628733 0.059797145
-0.37954658 -0.26626307 0.059802003
-0.37974429 -0.26623967 0.059792995
-0.37994254 -0.26621729 0.059775911
-0.38012382 -0.2661989 0.059745081
-0.38032123 -0.26617539 0.059737224
-0.38051507 -0.26615244 0.059728235
-0.38070786 -0.26612779 0.059733078
-0.38090008 -0.26610211 0.059746001
-0.38111845 -0.26608241 0.059690781
-0.38129067 -0.26606947 0.059627704
-0.38148052 -0.26604688 0.059619885
-0.38167194 -0.26602006 0.059642039
-0.38187346 -0.26599821 0.059618019
-0.38206124 -0.26597947 0.059583697
-0.38224655 -0.26596367 0.059529789
-0.38242248 -0.26594439 0.059510514
-0.38260806 -0.26592156 0.059508469
-0.38282582 -0.26589504 0.059503973
-0.38303086 -0.2658653 0.059535287
-0.38324347 -0.2658444 0.059493922
-0.38343978 -0.26582071 0.059488378
-0.3836202 -0.26579478 0.059514046
-0.38382247 -0.26577687 0.059460051
-0.38402274 -0.2657541 0.059444115
-0.38421929 -0.26573163 0.059429348
-0.38439175 -0.26571462 0.059396237
-0.38459775 -0.2656877 0.059405647
-0.38480207 -0.26566675 0.059372395
-0.38498601 -0.26564038 0.059398033
-0.38517383 -0.26561448 0.059416745
-0.385371 -0.26559487 0.059380062
-0.38556224 -0.26558053 0.059309985
-0.38574684 -0.26555642 0.059318326
-0.38592723 -0.2655305 0.059343994
-0.38611019 -0.26551408 0.05929701
-0.38631803 -0.26549503 0.059246451
-0.38651255 -0.26546705 0.059274346
-0.38669208 -0.2654373 0.059328832
-0.3868739 -0.26541728 0.05930952
-0.38706198 -0.26540941 0.059194494
-0.38726163 -0.26538858 0.059164725
-0.38745621 -0.26536089 0.059190311
-0.38765377 -0.26534903 0.059095997
-0.3878558 -0.26532263 0.059105411
-0.38806427 -0.26529133 0.059144776
-0.38824815 -0.26526418 0.059176184
-0.38842264 -0.26524663 0.059145376
-0.38860956 -0.26524124 0.059013065
-0.38882226 -0.26521459 0.059014361
-0.38901326 -0.26518703 0.059042275
-0.38920489 -0.2651647 0.059030987
-0.38941082 -0.26514229 0.059006944
-0.38960266 -0.26512337 0.058970295
-0.38980803 -0.26509529 0.058988921
-0.38999254 -0.26507553 0.058964998
-0.39017332 -0.26505408 0.058957212
-0.39039311 -0.26502872 0.05894234
-0.39056683 -0.26501063 0.058916144
-0.39075121 -0.26499388 0.058870316
-0.39093888 -0.26496968 0.058876343
-0.39113018 -0.26495254 0.058827013
-0.39131781 -0.26493239 0.058803059
-0.39150891 -0.26491404 0.058762953
-0.39169288 -0.26489389 0.058742478
-0.39190909 -0.26485589 0.058824457
-0.39210352 -0.26483959 0.058765896
-0.39229834 -0.26481235 0.058788031
-0.39248237 -0.26479033 0.058781393
-0.39269456 -0.26476669 0.058760788
-0.39287487 -0.26474717 0.058739182
-0.39306211 -0.26472771 0.05871062
-0.39324638 -0.26470223 0.058729339
-0.3934367 -0.26468599 0.058674254
-0.39362711 -0.26466787 0.058632996
-0.39380863 -0.26463664 0.058696702
-0.39398944 -0.2646119 0.058713138
-0.3941896 -0.26459801 0.058631483
-0.39439419 -0.26457641 0.05860284
-0.39457425 -0.26455629 0.058585841
-0.39477596 -0.26453084 0.058588341
-0.39498782 -0.26450679 0.058571201
-0.39516804 -0.26448539 0.058563426
-0.39536124 -0.26446801 0.058514088
-0.3955521 -0.26444498 0.058508571
-0.39573213 -0.26442423 0.058496185
-0.39593646 -0.26440236 0.058469862
-0.39611781 -0.26437584 0.058498967
-0.39630753 -0.26435748 0.05846002
-0.3965098 -0.26432994 0.058477513
-0.39670491 -0.26431668 0.058395885
-0.39689219 -0.26429394 0.058391534
-0.39709687 -0.26427016 0.058379028
-0.39730176 -0.26424554 0.058372293
-0.39747182 -0.26422355 0.058378406
-0.39764592 -0.26421055 0.058314174
-0.39783818 -0.26418284 0.058342081
-0.39802733 -0.26416487 0.058300827
-0.39821309 -0.26414669 0.058264207
-0.39841253 -0.26411808 0.05829208
-0.39860082 -0.26409256 0.058307331
-0.39880615 -0.26407617 0.058239486
-0.39900324 -0.26405442 0.058218956
-0.39918581 -0.26403522 0.058192719
-0.39937663 -0.26400334 0.058252923
-0.39957067 -0.26398927 0.058178216
-0.39974916 -0.26397169 0.058143932
-0.39994872 -0.26394367 0.058167193
-0.40013295 -0.26391244 0.058228578
-0.40032384 -0.26390502 0.058107771
-0.40051594 -0.26387903 0.058122996
-0.40070587 -0.26385799 0.058103651
-0.40089726 -0.26383382 0.058106199
-0.40109482 -0.26381075 0.058094885
-0.40127957 -0.26379362 0.058051355
-0.40147141 -0.26377547 0.058008935
-0.4016633 -0.26375031 0.058018401
-0.40186346 -0.26372209 0.058042821
-0.40205017 -0.26370081 0.058028098
-0.40224802 -0.26367724 0.058020242
-0.40243247 -0.26366031 0.057975553
-0.40262449 -0.26363528 0.057983868
-0.40280706 -0.26362172 0.057916135
-0.40300071 -0.26359975 0.057900228
-0.40319476 -0.2635771 0.057888929
-0.40339491 -0.26354951 0.057908732
-0.40358466 -0.26353443 0.057845574
-0.40376827 -0.26351276 0.057836633
-0.40396178 -0.26348552 0.057859927
-0.40415329 -0.2634618 0.057859018
-0.40434977 -0.26344076 0.057833873
-0.40453464 -0.26342782 0.05775921
-0.4047198 -0.2634038 0.0577664
-0.40491596 -0.26338306 0.057738945
-0.40510288 -0.26336661 0.057688486
-0.405292 -0.2633566 0.057588443
-0.40546328 -0.26335362 0.057452746
-0.40565848 -0.26332411 0.057491016
-0.40583226 -0.26331693 0.05738413
-0.40601808 -0.26329657 0.057363644
-0.40623912 -0.26324409 0.05754821
-0.40643322 -0.26321226 0.057604928
-0.40663683 -0.26317644 0.057682361
-0.4068343 -0.26314047 0.057766732
-0.40703535 -0.26310885 0.057815358
-0.40722221 -0.26309678 0.057732612
-0.40741327 -0.26307452 0.057721328
-0.40760157 -0.26305166 0.057716973
-0.40777448 -0.26305765 0.057513244
-0.40797812 -0.26303554 0.057489224
-0.40816146 -0.26301891 0.057443392
-0.4083584 -0.26298484 0.057513941
-0.40855286 -0.26296636 0.05747151
-0.40876213 -0.26293734 0.057493579
-0.40894246 -0.2629284 0.057393566
-0.40911433 -0.26291785 0.0573132
-0.40931785 -0.26287645 0.057432141
-0.40951928 -0.26283795 0.05753148
-0.40974092 -0.26279476 0.057646871
-0.40993613 -0.26277944 0.057580229
-0.41014594 -0.26274318 0.057655323
-0.41036683 -0.26270181 0.057758033
-0.4105646 -0.2626653 0.057845864
-0.41077471 -0.26262963 0.057916351
-0.41096836 -0.26259112 0.058022652
-0.41116557 -0.26256329 0.058047079
-0.41137221 -0.26252866 0.05811296
-0.41160372 -0.26248097 0.058252517
-0.41179889 -0.26243857 0.058386475
-0.41200942 -0.26240405 0.05844773
-0.4122076 -0.26237282 0.058496363
-0.41242343 -0.26233315 0.058591031
-0.41263193 -0.26229143 0.058707628
-0.4128466 -0.26225361 0.058789618
-0.41304174 -0.26221979 0.058860175
-0.41323823 -0.26219141 0.05888921
-0.41346115 -0.26214916 0.058996532
-0.41368365 -0.26210445 0.059122287
-0.41388828 -0.26206523 0.05922392
-0.4140965 -0.26202276 0.059346296
-0.41430047 -0.26198798 0.059415653
-0.41453695 -0.26194343 0.059527505
-0.33402449 -0.27142861 0.063520655
-0.33427957 -0.27140665 0.063447997
-0.3344931 -0.27137646 0.063474678
-0.33472306 -0.27134877 0.063467845
-0.33498061 -0.27132931 0.063374415
-0.33520031 -0.27130085 0.063382626
-0.33543634 -0.27127644 0.06334579
-0.33564711 -0.27124441 0.063388631
-0.33588976 -0.27122182 0.063332178
-0.33613449 -0.27119836 0.063280307
-0.33635435 -0.27117035 0.063285053
-0.33657396 -0.27114081 0.063301332
-0.33680296 -0.27111524 0.063279532
-0.33711189 -0.2711086 0.063044041
-0.33724418 -0.27105856 0.063292474
-0.33744556 -0.27102455 0.063358419
-0.3376981 -0.27100542 0.063267313
-0.3379676 -0.27098933 0.06313809
-0.33819258 -0.27096334 0.063123211
-0.33841372 -0.2709364 0.063118733
-0.3385455 -0.2708858 0.063371785
-0.33881602 -0.27087051 0.063235641
-0.33911282 -0.27086413 0.063009426
-0.33931652 -0.27083126 0.063064985
-0.33957624 -0.27081528 0.062943868
-0.33978432 -0.27078375 0.062985577
-0.34003973 -0.27076691 0.062874861
-0.34026065 -0.27073908 0.062877297
-0.34046382 -0.27070796 0.062920175
-0.34068868 -0.27068138 0.062909909
-0.34089357 -0.27065083 0.062947005
-0.34112912 -0.27062744 0.062903255
-0.34135577 -0.27060324 0.062873393
-0.34155834 -0.27057222 0.062916264
-0.34181467 -0.27055684 0.062794022
-0.34198308 -0.27051431 0.062953509
-0.34224921 -0.27050206 0.062798925
-0.34247565 -0.27047667 0.062778287
-0.34268862 -0.27044901 0.06278652
-0.34291756 -0.27042454 0.062756635
-0.34315142 -0.27040339 0.06269791
-0.3433871 -0.27038118 0.062644936
-0.34361702 -0.2703591 0.062596597
-0.34379312 -0.2703189 0.062731847
-0.34401226 -0.27029362 0.062716991
-0.3442477 -0.27027178 0.062661707
-0.3444781 -0.27025023 0.062608756
-0.34470081 -0.27022466 0.062592745
-0.34490204 -0.27019411 0.062633321
-0.34513345 -0.27017325 0.062574603
-0.34535369 -0.27014893 0.062551677
-0.34554249 -0.27011275 0.062645361
-0.34579158 -0.27009794 0.062525444
-0.346012 -0.27007219 0.062512897
-0.34622553 -0.27004606 0.062509596
-0.34646437 -0.27002659 0.062433556
-0.34666115 -0.26999506 0.06248568
-0.34688824 -0.26997191 0.062447742
-0.34710476 -0.26994711 0.062431745
-0.34733203 -0.26992425 0.062391493
-0.34754059 -0.26990792 0.062320199
-0.34775469 -0.26987156 0.062391844
-0.34796742 -0.26984584 0.062386252
-0.34819904 -0.26982492 0.062327538
-0.34840649 -0.26979753 0.062339257
-0.3486138 -0.26976827 0.06236482
-0.34883299 -0.26974514 0.06233383
-0.34906521 -0.26972494 0.062269341
-0.34928328 -0.26970169 0.06224066
-0.34948936 -0.26967224 0.062268533
-0.34972036 -0.26965392 0.062191367
-0.34992996 -0.26962593 0.062205397
-0.35013336 -0.26959762 0.06222751
-0.3503643 -0.26957771 0.062161878
-0.35058203 -0.26955494 0.062129736
-0.35078883 -0.26952621 0.062151842
-0.35100311 -0.26950231 0.062131248
-0.35121921 -0.26947725 0.062117573
-0.35142243 -0.26944926 0.062137388
-0.35165134 -0.26943135 0.062059075
-0.35186806 -0.26940686 0.062040776
-0.35206696 -0.26937738 0.0620756
-0.35228193 -0.26935434 0.062048089
-0.35249487 -0.26932856 0.062042493
-0.35272476 -0.26931179 0.06195496
-0.35293409 -0.26928475 0.061962061
-0.35314354 -0.2692599 0.061953027
-0.35336536 -0.26923817 0.061909333
-0.35356694 -0.26921025 0.061930317
-0.35380244 -0.26919448 0.06183007
-0.35399228 -0.26916176 0.061897215
-0.35420987 -0.26913869 0.061867386
-0.35442963 -0.26911879 0.061812177
-0.35464394 -0.26909459 0.061793897
-0.35485119 -0.26906952 0.061788332
-0.35505518 -0.26904097 0.061811592
-0.35526055 -0.26901522 0.061812952
-0.35548139 -0.26899427 0.061764657
-0.35569516 -0.26897246 0.061729081
-0.35591525 -0.26895142 0.061681949
-0.3561132 -0.26892269 0.061712161
-0.35631835 -0.26889727 0.061711214
-0.35654157 -0.26887804 0.061647922
-0.35674694 -0.26885289 0.061644666
-0.3569493 -0.26882643 0.06165411
-0.35717547 -0.26880899 0.06157466
-0.35738534 -0.26878628 0.061549477
-0.35758224 -0.26875517 0.061598144
-0.35779437 -0.26873374 0.061561428
-0.35799655 -0.26870525 0.061585858
-0.35820735 -0.26868334 0.061553754
-0.35842046 -0.26866037 0.061527401
-0.35862485 -0.26863551 0.061522998
-0.35883886 -0.26861322 0.061490878
-0.35905036 -0.26859215 0.061451856
-0.35925955 -0.26856765 0.061440505
-0.35946557 -0.26854399 0.061425719
-0.35967007 -0.26851726 0.061435156
-0.3598792 -0.26849538 0.061404206
-0.36008742 -0.26847318 0.061376724
-0.36029333 -0.26844984 0.061359629
