# .PCD v0.7 - Point Cloud Data file format
VERSION 0.7
FIELDS x y z
SIZE 4 4 4
TYPE F F F
COUNT 1 1 1
WIDTH 1222
HEIGHT 1
VIEWPOINT 0 0 0 1 0 0 0
POINTS 1222
DATA ascii
-0.039915435 -0.37538868 0.036265116
-0.040068723 -0.37548408 0.036273643
-0.040221468 -0.37558177 0.036266021
-0.040377691 -0.37568569 0.036233012
-0.040532269 -0.37578693 0.03621038
-0.040687494 -0.37588948 0.036181986
-0.040839836 -0.37598708 0.036173213
-0.040990267 -0.37608457 0.03615753
-0.041143779 -0.37618458 0.036138374
-0.04129605 -0.37628251 0.036127292
-0.04144774 -0.37637949 0.03611967
-0.041601144 -0.3764798 0.036098205
-0.041752581 -0.37657666 0.036090598
-0.041902624 -0.37667778 0.036050688
-0.042056974 -0.37677702 0.036039598
-0.042205878 -0.37687299 0.036027383
-0.042363439 -0.37697518 0.036010515
-0.042513102 -0.37707293 0.035990216
-0.042664357 -0.37717041 0.035977989
-0.042817179 -0.37727109 0.035951916
-0.042968445 -0.37736893 0.03593738
-0.043118592 -0.37747198 0.03588593
-0.043268777 -0.37757173 0.035855263
-0.043417718 -0.37766922 0.035833817
-0.043570578 -0.37777102 0.035800815
-0.043715797 -0.37785763 0.035832442
-0.043864638 -0.37794784 0.035855982
-0.044016838 -0.37804499 0.035849523
-0.044163395 -0.37813836 0.035844225
-0.044310618 -0.37823328 0.035832018
-0.044459924 -0.37832877 0.035824411
-0.044609748 -0.37842551 0.035811041
-0.044760801 -0.378521 0.035810344
-0.044910163 -0.37861708 0.035799276
-0.045059048 -0.37871233 0.03579168
-0.045203887 -0.37880722 0.035770245
-0.045351371 -0.37889969 0.035774186
-0.04549785 -0.37899432 0.035760831
-0.045645405 -0.37908724 0.035762463
-0.045792878 -0.3791801 0.035764091
-0.045939174 -0.37927479 0.035749581
-0.046084791 -0.37936372 0.035768516
-0.046227492 -0.37945038 0.035789777
-0.046370331 -0.37953293 0.035837565
-0.046514496 -0.37962314 0.035842672
-0.046657808 -0.37970209 0.035914674
-0.046798628 -0.37977964 0.035985537
-0.046936437 -0.37984973 0.036091022
-0.047076151 -0.37992418 0.036176894
-0.047211491 -0.37999254 0.036283541
-0.047351073 -0.38006118 0.036405154
-0.047487106 -0.38012555 0.036539488
-0.047621936 -0.38018638 0.036691122
-0.04775627 -0.38024542 0.03685198
-0.047890715 -0.38030413 0.037015155
-0.048027892 -0.38036403 0.037181765
-0.048160262 -0.38042146 0.037344944
-0.048293754 -0.38047016 0.037566945
-0.04842516 -0.3805179 0.03778664
-0.04882136 -0.38066095 0.038454961
-0.049236156 -0.38081795 0.039109357
-0.049457207 -0.37840819 0.055011727
-0.049752362 -0.37852746 0.055430219
-0.04989361 -0.37859365 0.055573747
-0.050048474 -0.37868047 0.055642243
-0.050211772 -0.37877905 0.055670321
-0.050377861 -0.37887868 0.055703018
-0.050538696 -0.3789776 0.055719581
-0.0518369 -0.38237047 0.039668359
-0.051975667 -0.38245082 0.039713867
-0.052128471 -0.38253224 0.039807741
-0.052265733 -0.38260588 0.039889
-0.053776789 -0.38220277 0.04835511
-0.053913165 -0.38228011 0.048409849
-0.054063644 -0.38236451 0.048476055
-0.054769441 -0.38102707 0.059598722
-0.054915413 -0.38112026 0.059592292
-0.05510626 -0.38127714 0.059365343
-0.05529654 -0.38138378 0.059449825
-0.055453319 -0.38147289 0.059511382
-0.055622667 -0.3815707 0.059568278
-0.055772297 -0.38167453 0.059509926
-0.055932015 -0.38176256 0.05958993
-0.056092937 -0.38186336 0.059594959
-0.056258462 -0.38198575 0.059483476
-0.056457616 -0.38212866 0.059376433
-0.056630012 -0.38222876 0.059431016
-0.056791537 -0.38234565 0.059338003
-0.056960769 -0.38244265 0.059399508
-0.057133608 -0.38255134 0.059402175
-0.057315912 -0.38267252 0.059364427
-0.057482757 -0.38278705 0.059307151
-0.057652332 -0.38289627 0.059293672
-0.057803269 -0.38298872 0.059311446
-0.057981919 -0.38309723 0.059338301
-0.058132906 -0.38319823 0.059303008
-0.058289915 -0.38330877 0.059231929
-0.05844694 -0.38339821 0.059292335
-0.058606949 -0.38350141 0.059278913
-0.058775865 -0.38362113 0.059197403
-0.058972605 -0.38374585 0.059194192
-0.059135616 -0.3838456 0.059214205
-0.059304215 -0.38396141 0.059155755
-0.059494726 -0.38407981 0.059167575
-0.059642188 -0.3841719 0.059173815
-0.059801538 -0.38427708 0.059145398
-0.059967447 -0.38437939 0.059160788
-0.060140971 -0.38450626 0.059052721
-0.060312457 -0.38461688 0.059038099
-0.060459841 -0.38470709 0.059055876
-0.060625419 -0.38481084 0.059060887
-0.060793739 -0.38491911 0.059048578
-0.060956188 -0.38502085 0.059053592
-0.061138935 -0.38514471 0.059000857
-0.061312921 -0.38525841 0.058976993
-0.061472517 -0.38535577 0.058998171
-0.061642505 -0.38547266 0.05893857
-0.061804555 -0.38557529 0.058936663
-0.061967555 -0.38567221 0.058973987
-0.06214001 -0.38579234 0.058903992
-0.062310874 -0.38590181 0.058893979
-0.062472265 -0.3860068 0.058874786
-0.062627234 -0.38610902 0.058847539
-0.062799834 -0.38622552 0.058800615
-0.062954836 -0.38632667 0.05878029
-0.063126974 -0.38644397 0.058726445
-0.063292764 -0.38654342 0.058759131
-0.063466541 -0.38665345 0.058757186
-0.0636288 -0.38675308 0.058774889
-0.063780375 -0.38685259 0.058751132
-0.063947037 -0.386962 0.058724992
-0.064117849 -0.38706926 0.058728818
-0.064284667 -0.38717768 0.058709592
-0.064452484 -0.38727099 0.058788408
-0.064603172 -0.38738382 0.058678143
-0.064775676 -0.38750765 0.058585081
-0.064938068 -0.38760623 0.058609709
-0.065099783 -0.38771734 0.058553603
-0.065281279 -0.38782504 0.058596604
-0.06544777 -0.3879329 0.058579691
-0.065603033 -0.38803047 0.058582433
-0.06576857 -0.38813087 0.058608204
-0.065935187 -0.38824749 0.058537077
-0.066090524 -0.38835382 0.058485612
-0.066271566 -0.3884629 0.058518238
-0.066439152 -0.38857624 0.058471337
-0.066593677 -0.38868353 0.058410645
-0.066754229 -0.38878596 0.058404148
-0.066919997 -0.38889387 0.05838377
-0.06708324 -0.38899875 0.058372639
-0.067244679 -0.38909912 0.05838228
-0.067410834 -0.38920602 0.058369987
-0.067571029 -0.38930875 0.058360022
-0.067736305 -0.38940954 0.058382332
-0.067905515 -0.38952556 0.058325034
-0.068076544 -0.38963073 0.058342706
-0.068240047 -0.38973463 0.058338501
-0.068375319 -0.38985121 0.0581441
-0.068547547 -0.389954 0.058181375
-0.068711907 -0.39004236 0.058277503
-0.068876594 -0.3901374 0.058333274
-0.069035314 -0.39026195 0.058181446
-0.069204584 -0.39037618 0.058135685
-0.069391631 -0.39045078 0.058407031
-0.069545224 -0.39056283 0.0583129
-0.069694005 -0.39069387 0.05808153
-0.069866896 -0.39079005 0.05816263
-0.070034638 -0.39088148 0.058252979
-0.070211828 -0.39100254 0.058195651
-0.070373841 -0.39110792 0.05817645
-0.070537023 -0.39120591 0.058208004
-0.070688881 -0.3913241 0.058068886
-0.070856519 -0.39142212 0.058117725
-0.071013667 -0.39153311 0.058044333
-0.071182482 -0.39164093 0.05803664
-0.071352415 -0.39174742 0.058041621
-0.071541429 -0.39185897 0.058090352
-0.071693175 -0.39195415 0.058094271
-0.071845286 -0.39206472 0.058003612
-0.072024085 -0.39218238 0.057973951
-0.072182588 -0.39229071 0.057922471
-0.072330408 -0.39238471 0.057918333
-0.072502077 -0.39249435 0.057910625
-0.072658166 -0.39259484 0.057898372
-0.072814345 -0.39270505 0.05782615
-0.072977416 -0.39280832 0.057824243
-0.073147371 -0.39290985 0.057860371
-0.073308766 -0.39301002 0.057871163
-0.073495224 -0.39312476 0.05788992
-0.073654778 -0.39322671 0.057882272
-0.073813312 -0.39333415 0.057836551
-0.073989533 -0.39344424 0.057843819
-0.074136108 -0.39354375 0.057800472
-0.074295066 -0.39364165 0.057815894
-0.074460931 -0.39375594 0.057756297
-0.074624941 -0.39387587 0.057654053
-0.074770585 -0.39396703 0.057659149
-0.074936591 -0.39406365 0.057710294
-0.075109005 -0.39417246 0.057710651
-0.075267076 -0.39427534 0.05769147
-0.075409874 -0.39436874 0.057671208
-0.075571805 -0.39448109 0.057608183
-0.075740598 -0.3945924 0.057578571
-0.075913705 -0.3946926 0.057635441
-0.076064937 -0.39479208 0.057610527
-0.07621862 -0.39490569 0.057507169
-0.076374568 -0.39500576 0.057497229
-0.076546334 -0.39511102 0.057517197
-0.076709516 -0.39521417 0.057516448
-0.076873101 -0.39532089 0.057494946
-0.077045307 -0.39542606 0.057517223
-0.077207953 -0.39552963 0.057511859
-0.077367768 -0.39563489 0.05748459
-0.077528745 -0.39574313 0.057443492
-0.077691801 -0.39585009 0.057418518
-0.077846065 -0.39595112 0.057395898
-0.078008518 -0.39605474 0.057389386
-0.078177452 -0.3961584 0.057408217
-0.078342378 -0.39626783 0.057375167
-0.078506142 -0.3963708 0.057377867
-0.078663208 -0.39647731 0.057332166
-0.078826934 -0.39658377 0.057312958
-0.079007395 -0.3966921 0.057347883
-0.079163224 -0.39680928 0.057230674
-0.079325929 -0.39690605 0.057267997
-0.07948406 -0.39700508 0.057273034
-0.079660229 -0.39710572 0.057339128
-0.079817362 -0.39719877 0.057377614
-0.079987399 -0.39731234 0.05733877
-0.080138087 -0.39743441 0.057170834
-0.08030659 -0.39753872 0.05718391
-0.080475986 -0.39762992 0.057282321
-0.080619544 -0.39774486 0.057130568
-0.08075849 -0.39784878 0.057029583
-0.080928817 -0.39795241 0.057054177
-0.081097797 -0.39805663 0.057069551
-0.081287332 -0.39817458 0.057080217
-0.081444845 -0.39828026 0.057041418
-0.081626415 -0.39838302 0.057115566
-0.081775524 -0.39847064 0.057156403
-0.081931621 -0.39858893 0.057033427
-0.082076572 -0.39868701 0.056992389
-0.082230747 -0.39879078 0.056952462
-0.082411878 -0.39889121 0.057039291
-0.082573824 -0.39898658 0.057082377
-0.082726829 -0.39909661 0.056998625
-0.082869865 -0.39920679 0.056874562
-0.083032787 -0.39931053 0.056869198
-0.083202638 -0.39941218 0.056904174
-0.083386526 -0.39952102 0.056949463
-0.083546549 -0.39963144 0.056891058
-0.083716281 -0.39973336 0.056923736
-0.083875008 -0.39983296 0.056927621
-0.084036402 -0.39993739 0.056911886
-0.084200099 -0.40005493 0.056823477
-0.084358558 -0.40016007 0.056791596
-0.084519416 -0.4002592 0.056807008
-0.084679127 -0.40036404 0.056782052
-0.084836327 -0.40046415 0.056776717
-0.08499711 -0.40056872 0.056757525
-0.085181743 -0.40067825 0.056801666
-0.085345581 -0.40079272 0.056732863
-0.085487813 -0.40089372 0.056662999
-0.085649446 -0.40099552 0.056664567
-0.085832655 -0.40110302 0.05671563
-0.085976824 -0.40119582 0.056704588
-0.08613465 -0.40130115 0.056669258
-0.086284801 -0.40141308 0.056562457
-0.086438864 -0.40152156 0.056492545
-0.086594 -0.40162221 0.05647568
-0.086766519 -0.40172461 0.056516413
-0.086941674 -0.40182665 0.056569822
-0.087107658 -0.40193048 0.05657598
-0.087271847 -0.40204203 0.056526784
-0.087452099 -0.4021484 0.056573249
-0.087624095 -0.40225139 0.056608215
-0.087777846 -0.40236467 0.056507155
-0.087926492 -0.4024666 0.056456879
-0.088091366 -0.40256602 0.056486107
-0.088268176 -0.40266854 0.05654297
-0.088422835 -0.40278146 0.056447685
-0.08859013 -0.40289018 0.056428462
-0.088743933 -0.40299368 0.056388535
-0.088897571 -0.40309489 0.056362458
-0.089067936 -0.40320092 0.056372054
-0.089229688 -0.40330574 0.056355167
-0.089391328 -0.40341294 0.056323282
-0.089548662 -0.40351829 0.05628565
-0.089715764 -0.40362486 0.056279115
-0.089883879 -0.40372911 0.056291033
-0.090056859 -0.40383291 0.056324843
-0.090222783 -0.40394869 0.05625603
-0.090347297 -0.40404829 0.056125119
-0.090532944 -0.40415549 0.056187704
-0.090701893 -0.40425768 0.056215767
-0.090889975 -0.40436715 0.056273721
-0.091034621 -0.40448022 0.056138113
-0.091211013 -0.40458634 0.056170758
-0.091356933 -0.40469265 0.056082424
-0.091533996 -0.4048053 0.056077
-0.091694668 -0.4049041 0.056093566
-0.091850251 -0.40500543 0.056074388
-0.092017636 -0.4051103 0.056079388
-0.092174076 -0.40521586 0.05603715
-0.092344292 -0.4053207 0.056053668
-0.09250392 -0.40543029 0.055998724
-0.092671126 -0.40553117 0.056027945
-0.092846222 -0.40563393 0.056076746
-0.093010947 -0.40574545 0.056029849
-0.093196332 -0.40585005 0.056107432
-0.09334667 -0.40596211 0.05600062
-0.093480885 -0.40606841 0.055866212
-0.093654513 -0.40616947 0.055919629
-0.093831383 -0.4062787 0.055934962
-0.093977749 -0.40638655 0.055838559
-0.094149925 -0.40649393 0.055846997
-0.094334826 -0.40660119 0.055906117
-0.094501302 -0.40671477 0.055853453
-0.09464328 -0.40681264 0.055802055
-0.094817936 -0.40691826 0.055831239
-0.094968528 -0.40702397 0.055764802
-0.095140621 -0.40713167 0.05577093
-0.095316947 -0.40724331 0.05576897
-0.095487013 -0.40735304 0.055754352
-0.095638826 -0.40745103 0.055740964
-0.095796481 -0.40756068 0.055677958
-0.095964856 -0.40767044 0.055656418
-0.096145071 -0.40777475 0.055715576
-0.096307814 -0.40788263 0.055683684
-0.09646152 -0.40799218 0.055605702
-0.096613042 -0.40809223 0.055578474
-0.096803434 -0.40820277 0.055638727
-0.096980318 -0.40831867 0.055612549
-0.09713389 -0.40842074 0.055580702
-0.097294942 -0.40852311 0.055576496
-0.097481646 -0.40863577 0.055609092
-0.097636618 -0.40873984 0.055570319
-0.097789988 -0.40884566 0.055514246
-0.097950295 -0.40895179 0.055483527
-0.098124489 -0.4090623 0.055480417
-0.098295465 -0.40916723 0.055499241
-0.09846355 -0.40927571 0.055484634
-0.098641351 -0.40938479 0.055504572
-0.09876956 -0.40949097 0.055347122
-0.09893515 -0.40959397 0.055356745
-0.099125758 -0.40970579 0.05541008
-0.099289276 -0.40981415 0.055378184
-0.099435881 -0.40991956 0.055297926
-0.099631719 -0.41003025 0.055378921
-0.0997959 -0.410137 0.055359714
-0.099967279 -0.41024607 0.055354305
-0.10014009 -0.4103553 0.055353522
-0.10030094 -0.41046363 0.055311255
-0.10048232 -0.41056851 0.055371553
-0.10063462 -0.41067791 0.055288967
-0.10080042 -0.41078845 0.055252451
-0.10095441 -0.41089284 0.055207916
-0.10113852 -0.41099995 0.055264741
-0.10131063 -0.41110951 0.055259332
-0.10142168 -0.41120985 0.055070817
-0.10159446 -0.41131943 0.055067718
-0.10178158 -0.41142884 0.055122219
-0.10192986 -0.4115361 0.055037342
-0.10211064 -0.41164333 0.055080347
-0.10228141 -0.41175297 0.055069171
-0.10245228 -0.41186431 0.055047631
-0.10260764 -0.41197231 0.054985791
-0.10277438 -0.41207993 0.054971177
-0.10295941 -0.41219136 0.055004932
-0.10314146 -0.41230088 0.055038698
-0.10331896 -0.41241163 0.05504711
-0.10345836 -0.41251621 0.054943822
-0.10364227 -0.41262618 0.054982193
-0.10383468 -0.41273892 0.055036675
-0.10399261 -0.41284746 0.054981738
-0.104128 -0.41294986 0.054876152
-0.10431422 -0.41306204 0.0549099
-0.1044898 -0.41317451 0.054899871
-0.10463718 -0.41328007 0.054821912
-0.10482997 -0.41339177 0.054884464
-0.10499407 -0.41350123 0.054847956
-0.10516759 -0.41361204 0.054840241
-0.10533746 -0.41372237 0.054821003
-0.10549875 -0.4138284 0.054794889
-0.10568336 -0.41394252 0.054810189
-0.10584576 -0.41405034 0.054777145
-0.10601087 -0.41415861 0.054752175
-0.10618924 -0.41427043 0.054757126
-0.10635196 -0.41437995 0.054714855
-0.1065382 -0.41449159 0.054752059
-0.1066906 -0.4145996 0.054678693
-0.10685856 -0.41471002 0.054651398
-0.1070258 -0.41482034 0.054621786
-0.10719185 -0.41492903 0.054597959
-0.10737026 -0.41504124 0.054600596
-0.10755035 -0.41515231 0.054617077
-0.10772272 -0.41526368 0.054601286
-0.10789754 -0.41537401 0.054601643
-0.10805018 -0.41548216 0.054528274
-0.10824005 -0.41559663 0.054562006
-0.10840482 -0.4157069 0.054523185
-0.10860397 -0.41582465 0.054573029
-0.10874544 -0.41592944 0.054476637
-0.10891853 -0.41604125 0.054460853
-0.10908034 -0.41614816 0.054431278
-0.10927981 -0.41626632 0.05447996
-0.10944261 -0.41637644 0.054434218
-0.10963147 -0.4164899 0.054470263
-0.10978244 -0.4165979 0.054391146
-0.1099765 -0.41671541 0.054422542
-0.11012934 -0.41682091 0.054366484
-0.11030786 -0.41693562 0.054354124
-0.11048988 -0.41705105 0.054350987
-0.11063717 -0.41715264 0.054297253
-0.11081752 -0.417265 0.054306801
-0.11100683 -0.4173806 0.054331318
-0.11115426 -0.41748804 0.054241825
-0.11133336 -0.4176046 0.054220233
-0.11152342 -0.41772196 0.054236665
-0.11171187 -0.41783202 0.054292321
-0.11187577 -0.41794708 0.054220058
-0.11204372 -0.41805455 0.054211207
-0.1121991 -0.41816369 0.054142445
-0.11239235 -0.41828069 0.05417385
-0.11256945 -0.41839302 0.054170735
-0.11272368 -0.4184992 0.054115817
-0.11290739 -0.41861439 0.054120742
-0.11307387 -0.41872463 0.054088835
-0.11326452 -0.41884422 0.054093722
-0.11343718 -0.41895726 0.054068711
-0.11364225 -0.41907877 0.054118514
-0.028216802 -0.36779934 0.037529211
-0.028385244 -0.36790749 0.037518032
-0.028546762 -0.36801273 0.037497655
-0.028712116 -0.36812115 0.03747265
-0.028874308 -0.36822757 0.037447654
-0.029034968 -0.36833209 0.037428442
-0.029202219 -0.36843726 0.037431113
-0.029363696 -0.36853898 0.037432656
-0.029530406 -0.36864993 0.037397258
-0.029692747 -0.36875513 0.037380338
-0.029858232 -0.36886474 0.037348412
-0.030020691 -0.36897039 0.037329182
-0.03018244 -0.36907524 0.037312277
-0.030350238 -0.36918631 0.037280329
-0.030513104 -0.36929297 0.037256487
-0.030670863 -0.36939493 0.037241898
-0.030834142 -0.36949593 0.037254971
-0.030999187 -0.36960599 0.037218429
-0.031160805 -0.36971149 0.037196904
-0.031318329 -0.36981145 0.037193846
-0.031479102 -0.36991605 0.037174635
-0.031638242 -0.37002072 0.037148498
-0.031803958 -0.37012807 0.037131563
-0.031960569 -0.37022948 0.037115831
-0.032122787 -0.37033442 0.037100069
-0.032284427 -0.37043643 0.03710046
-0.032442246 -0.37053767 0.03709048
-0.032604724 -0.37064797 0.037042417
-0.032763116 -0.37075031 0.037027825
-0.032925479 -0.3708539 0.037021291
-0.033080216 -0.37095356 0.037009019
-0.033235934 -0.37105477 0.036990982
-0.033398353 -0.37116113 0.03696714
-0.033558767 -0.37126479 0.03695254
-0.033718809 -0.37136799 0.036939088
-0.033876929 -0.3714709 0.036919892
-0.03403949 -0.3715781 0.036891431
-0.034196809 -0.37168014 0.036874544
-0.034353968 -0.37178209 0.03685765
-0.034511991 -0.37188789 0.036819983
-0.034666061 -0.37198308 0.0368331
-0.034825079 -0.37208822 0.036803506
-0.034986224 -0.37219676 0.036761217
-0.035141997 -0.37229487 0.036762785
-0.035297856 -0.37239322 0.036763202
-0.035451591 -0.37249094 0.036759015
-0.035612758 -0.37259763 0.036728263
-0.03576988 -0.37270087 0.036703296
-0.035928838 -0.37280449 0.036682934
-0.03608359 -0.37290436 0.036669511
-0.036241408 -0.37300652 0.036653772
-0.036394037 -0.37310597 0.03663459
-0.036552139 -0.37320888 0.036615379
-0.036708497 -0.3733092 0.036605418
-0.036863465 -0.37341014 0.036586225
-0.037017692 -0.37351003 0.036570504
-0.037176996 -0.37361276 0.036557056
-0.037329778 -0.37371066 0.036548264
-0.037484881 -0.37381241 0.03652446
-0.03763812 -0.37391132 0.036511041
-0.037792727 -0.37400979 0.036505699
-0.037945315 -0.37410793 0.036494594
-0.038103152 -0.37421197 0.036467317
-0.038257338 -0.37431017 0.036461975
-0.038409516 -0.37440804 0.036450874
-0.038566504 -0.37451115 0.0364259
-0.038723491 -0.37461448 0.036399778
-0.038874701 -0.37471116 0.036392141
-0.039029963 -0.37481192 0.036375266
-0.039180566 -0.37490785 0.036369931
-0.039336935 -0.37501079 0.03634382
-0.039490528 -0.37511212 0.036316555
-0.039642472 -0.37520781 0.036318142
-0.03979408 -0.37530607 0.036302432
-0.039948389 -0.37540916 0.036267094
-0.040099144 -0.37550318 0.036274459
-0.040254872 -0.3756029 0.036265649
-0.04040546 -0.3757031 0.03623379
-0.040558796 -0.37580207 0.036220372
-0.040716015 -0.37590811 0.036178101
-0.040866986 -0.37600318 0.036179692
-0.041017309 -0.37610045 0.036165141
-0.041170098 -0.37619907 0.036151726
-0.041320629 -0.376297 0.036133714
-0.041473303 -0.37639573 0.036119152
-0.041624017 -0.37649435 0.036097668
-0.041774914 -0.3765901 0.036094651
-0.041924074 -0.37669289 0.03604088
-0.04207699 -0.37678939 0.036041312
-0.042224497 -0.37688264 0.036040615
-0.042380705 -0.37698564 0.036013342
-0.042532876 -0.37708461 0.035995323
-0.042683765 -0.37718129 0.035986528
-0.042832628 -0.37728131 0.035948917
-0.042983823 -0.37737894 0.03593551
-0.043134436 -0.37748283 0.035880573
-0.04328616 -0.37758189 0.035860244
-0.043433394 -0.37767959 0.035830706
-0.043584697 -0.3777782 0.035811532
-0.043730676 -0.37786624 0.035837386
-0.04388012 -0.37795758 0.035856284
-0.044026446 -0.37805027 0.03585444
-0.044175651 -0.37814513 0.035850283
-0.044325396 -0.37824127 0.035840344
-0.044473894 -0.37833497 0.035840798
-0.044621103 -0.37843007 0.035827413
-0.044773102 -0.37852746 0.035818622
-0.044920694 -0.37862372 0.035799462
-0.045067806 -0.37871912 0.035783768
-0.045214675 -0.37881419 0.035769232
-0.045361288 -0.37890464 0.035782386
-0.045507722 -0.37899905 0.035770163
-0.045655586 -0.37909254 0.035769459
-0.04580022 -0.37918323 0.035773393
-0.045948602 -0.37927815 0.035765771
-0.046094202 -0.37936687 0.035785846
-0.046239775 -0.37945557 0.035805926
-0.046381332 -0.37953949 0.035839871
-0.046525571 -0.37962976 0.035844956
-0.046664372 -0.37970254 0.035937749
-0.046804033 -0.37977713 0.036022458
-0.046943411 -0.3798508 0.036111787
-0.047082707 -0.37992409 0.036203429
-0.047221445 -0.3799957 0.03630314
-0.047360636 -0.38006315 0.036430545
-0.047493704 -0.3801249 0.03656951
-0.04763104 -0.38018674 0.036724612
-0.047762997 -0.38024464 0.03688319
-0.047897477 -0.3803032 0.037047535
-0.048034586 -0.38036269 0.037216477
-0.048167806 -0.38042215 0.03737044
-0.048300508 -0.38046849 0.037604008
-0.048435017 -0.38051876 0.037820265
-0.048831098 -0.38066056 0.038495608
-0.049471393 -0.37840581 0.055082448
-0.049620111 -0.37845692 0.055349391
-0.049762346 -0.37852669 0.055474475
-0.04991135 -0.37860203 0.055591442
-0.050066445 -0.37868935 0.055657629
-0.050232634 -0.37878904 0.055690303
-0.050399005 -0.37888941 0.05571951
-0.050560005 -0.37898859 0.055734903
-0.051855106 -0.38237715 0.039698467
-0.051994033 -0.38245776 0.039742801
-0.052147057 -0.38253969 0.039834376
-0.052287463 -0.38261643 0.0399087
-0.053804167 -0.38221738 0.048371829
-0.053942863 -0.38229287 0.048447311
-0.054094192 -0.38238168 0.048489291
-0.054802675 -0.38104278 0.059631608
-0.054952797 -0.38114566 0.059581295
-0.055137001 -0.38129482 0.059376217
-0.055330768 -0.38140586 0.059446834
-0.055487521 -0.38149405 0.059514157
-0.055666298 -0.38159817 0.059568692
-0.055815786 -0.38170007 0.059521839
-0.055975743 -0.38178974 0.059592608
-0.056133494 -0.38188687 0.05960802
-0.056302637 -0.38201746 0.059459548
-0.056495395 -0.382153 0.059373267
-0.056667946 -0.38225433 0.059420913
-0.056835543 -0.38237268 0.05934282
-0.057004824 -0.38246876 0.059410088
-0.057183914 -0.38258123 0.059413861
-0.05735717 -0.38270056 0.059351899
-0.057523962 -0.38281193 0.059314195
-0.057693668 -0.3829231 0.059289172
-0.057844624 -0.3830128 0.05932422
-0.058026519 -0.38313112 0.059302591
-0.058171351 -0.38322693 0.05927537
-0.058325332 -0.38332945 0.059242345
-0.058485556 -0.3834191 0.059314273
-0.058645613 -0.38352451 0.059286986
-0.05882081 -0.38364545 0.059222706
-0.059008256 -0.38376987 0.059184898
-0.059171338 -0.38386962 0.059204899
-0.059343114 -0.38398618 0.059154473
-0.05953069 -0.38410199 0.059170898
-0.059675157 -0.38419202 0.059178293
-0.059840776 -0.38430023 0.059155591
-0.060000412 -0.38440153 0.059152529
-0.060171042 -0.38452509 0.059053656
-0.060345992 -0.38463423 0.059062064
-0.060487341 -0.38472062 0.059079859
-0.060670566 -0.38484386 0.059032843
-0.060827378 -0.38493836 0.059060942
-0.060989723 -0.38504171 0.059055559
-0.061172307 -0.38516733 0.058991246
-0.061343398 -0.38527843 0.058971986
-0.06149406 -0.38536888 0.059001267
-0.061673112 -0.3854928 0.058933511
-0.061838903 -0.38559371 0.058956958
-0.061998662 -0.38569045 0.058982737
-0.062165022 -0.3858071 0.058910422
-0.062338736 -0.38592005 0.058889985
-0.062503345 -0.38602653 0.058874212
-0.062652133 -0.38612556 0.058842361
-0.062818766 -0.38623795 0.058797732
-0.062982589 -0.3863467 0.058764659
-0.063156046 -0.38645875 0.058748841
-0.063314699 -0.38655904 0.0587481
-0.063492447 -0.3866677 0.058770329
-0.063654467 -0.38676864 0.0587788
-0.063806377 -0.38686728 0.058761932
-0.063970067 -0.38697481 0.058735773
-0.064139828 -0.38708603 0.058710746
-0.064314164 -0.38719383 0.058724917
-0.064474292 -0.38728878 0.058763392
-0.064626008 -0.38739854 0.058676146
-0.064796351 -0.38751808 0.058601506
-0.064958163 -0.38761869 0.058611125
-0.065121084 -0.38772669 0.058579214
-0.065298945 -0.38783452 0.058607213
-0.065458372 -0.38794139 0.058568388
-0.065619148 -0.3880347 0.058619551
-0.065784864 -0.38814464 0.058586463
-0.065949336 -0.38825732 0.058531456
-0.066104732 -0.38836369 0.058479965
-0.066289596 -0.38847315 0.058525238
-0.06644506 -0.38858771 0.058422983
-0.066606827 -0.38868776 0.058436058
-0.06676285 -0.38879174 0.058401875
-0.066929244 -0.38889861 0.058390699
-0.067095675 -0.3890053 0.058380693
-0.067258261 -0.38910365 0.058407612
-0.067427054 -0.3892135 0.058387205
-0.067577653 -0.38931167 0.058368027
-0.067751467 -0.3894195 0.058379903
-0.067914464 -0.38953957 0.058272995
-0.068086259 -0.38963613 0.058347169
-0.06823653 -0.38974169 0.058280706
-0.068381988 -0.38985509 0.05814619
-0.068560004 -0.38995543 0.058221493
-0.068718918 -0.39004609 0.058281891
-0.068882778 -0.39014265 0.058324955
-0.06904123 -0.39026776 0.05816846
-0.069214091 -0.39037669 0.058169946
-0.069393367 -0.39045024 0.058417141
-0.069548614 -0.39057282 0.058264121
-0.069697522 -0.39069745 0.058073066
-0.069875002 -0.39078116 0.058249891
-0.070036739 -0.39088729 0.058224905
-0.070216224 -0.3910054 0.058195215
-0.070371412 -0.39110813 0.05816564
-0.070537739 -0.39121383 0.0581614
-0.070690684 -0.39132494 0.058070682
-0.070859946 -0.39142677 0.05810219
-0.071016341 -0.39153323 0.058054157
-0.071183838 -0.39163727 0.058064897
-0.071355373 -0.39174753 0.058052551
-0.071541578 -0.39185712 0.058102436
-0.071683146 -0.39195326 0.058060229
-0.071853451 -0.39207536 0.05796944
-0.072024301 -0.39218614 0.057951327
-0.072181046 -0.39229134 0.057912517
-0.072332166 -0.39238706 0.057910651
-0.072500221 -0.39249551 0.057896022
-0.072653353 -0.39259416 0.057883754
-0.072812848 -0.3927061 0.057813786
-0.072976917 -0.39280853 0.057821084
-0.073149279 -0.39290786 0.057880268
-0.073320799 -0.39301297 0.057900216
-0.073498473 -0.39312658 0.057891309
-0.073654592 -0.39322713 0.057879031
-0.073820822 -0.39334163 0.057819407
-0.073988773 -0.3934454 0.057833616
-0.074141055 -0.39354464 0.057814434
-0.074303009 -0.39364904 0.057800986
-0.074456081 -0.39375636 0.057734504
-0.0746231 -0.39387396 0.057658717
-0.074778423 -0.39397049 0.057668369
-0.074937955 -0.39406377 0.057714924
-0.075116888 -0.39418039 0.057692155
-0.075267993 -0.39427185 0.057716824
-0.075421505 -0.39437407 0.057683799
-0.07557489 -0.39448455 0.057598852
-0.075754069 -0.39459264 0.057630312
-0.075916559 -0.39469239 0.057648007
-0.076069728 -0.39479867 0.057588447
-0.076217003 -0.39490879 0.057481609
-0.07638891 -0.39501005 0.057526946
-0.076556481 -0.39511821 0.057512309
-0.076728418 -0.39521968 0.057556495
-0.076887459 -0.39532948 0.057498056
-0.077064022 -0.39543962 0.057506453
-0.077220403 -0.39553958 0.05749879
-0.07738135 -0.39564797 0.057456501
-0.077544808 -0.39575484 0.057433814
-0.077705815 -0.39585939 0.057415742
-0.077863649 -0.39596212 0.057396546
-0.078033574 -0.39606529 0.057422273
-0.07819584 -0.39616916 0.057413429
-0.078361653 -0.39627823 0.057386115
-0.078525513 -0.39638481 0.057366885
-0.078686953 -0.39649257 0.057330362
-0.078858651 -0.39659855 0.057345696
-0.079023153 -0.39671159 0.057288386
-0.079178646 -0.39681876 0.057232287
-0.079352506 -0.39692035 0.057283379
-0.0795094 -0.3970201 0.057279177
-0.079681806 -0.39711595 0.057360277
-0.079851151 -0.39722005 0.057377934
-0.080014661 -0.39734319 0.057253715
-0.080173053 -0.39745536 0.057177979
-0.080345422 -0.39755487 0.057236001
-0.080505505 -0.39765978 0.057212174
-0.08064273 -0.39776465 0.057098467
-0.080800377 -0.39786729 0.05707927
-0.080967098 -0.39797249 0.057079636
-0.081139751 -0.39808163 0.057078812
-0.081320971 -0.39819676 0.057074498
-0.081489488 -0.39830753 0.05704717
-0.08166071 -0.39840209 0.057131734
-0.081812657 -0.3985039 0.057095259
-0.081966378 -0.39861402 0.057013765
-0.082116298 -0.39871341 0.056984216
-0.082291767 -0.39882174 0.056999549
-0.082459465 -0.39890632 0.057132576
-0.08261615 -0.39902699 0.056996856
-0.082770467 -0.39912787 0.056975368
-0.082912937 -0.39923829 0.056847788
-0.083091006 -0.39933735 0.056931168
-0.083264425 -0.39944661 0.056932651
-0.083437949 -0.39955872 0.056916837
-0.083599143 -0.39966321 0.056899931
-0.083773822 -0.39976385 0.05696024
-0.083933704 -0.39987156 0.056917958
-0.084092721 -0.3999795 0.056871064
-0.084254667 -0.40009204 0.056806844
-0.084421754 -0.40020043 0.05678875
-0.084580168 -0.40029484 0.056823771
-0.08474315 -0.40040436 0.056782622
-0.084897496 -0.40050527 0.056761131
-0.085065842 -0.40061077 0.0567661
-0.085255004 -0.40072462 0.056800973
-0.085396625 -0.40083116 0.056694165
-0.085556403 -0.40093344 0.056685336
-0.085715324 -0.40103337 0.056688048
-0.085888892 -0.40114051 0.056703381
-0.086043589 -0.40123886 0.056699187
-0.086191475 -0.40135139 0.056579657
-0.086350374 -0.40145648 0.056550063
-0.086497739 -0.40156126 0.056476694
-0.086670727 -0.4016636 0.056519713
-0.086851895 -0.40176705 0.056588084
-0.08702305 -0.40187246 0.056604575
-0.08718881 -0.40197891 0.056593407
-0.087353058 -0.40208811 0.056559183
-0.087524928 -0.40219602 0.056562982
-0.087699339 -0.4022963 0.056624465
-0.087835379 -0.40241244 0.056435771
-0.088004984 -0.40250874 0.056503035
-0.088173009 -0.40261978 0.056472249
-0.088348076 -0.40272027 0.056534868
-0.088500164 -0.40283364 0.05642686
-0.088664249 -0.40294051 0.056406479
-0.088815629 -0.40303972 0.056383841
-0.088974014 -0.40314502 0.056350794
-0.089145966 -0.40325558 0.056338444
-0.089310385 -0.40335783 0.056348052
-0.089471132 -0.40346521 0.056311522
-0.089616045 -0.40356976 0.056230083
-0.08980301 -0.40367648 0.056300733
-0.08998061 -0.4037821 0.056341425
-0.090142757 -0.40389162 0.056296818
-0.090278678 -0.40399918 0.056161199
-0.090449318 -0.40410116 0.056197312
-0.090615757 -0.40420359 0.056213826
-0.090810061 -0.40431035 0.05631328
-0.090951517 -0.4044238 0.056162633
-0.091117345 -0.40452865 0.056161858
-0.091278657 -0.4046382 0.056113794
-0.091444403 -0.40474743 0.056085318
-0.091610536 -0.40485448 0.056071848
-0.091777056 -0.40495512 0.056099903
-0.091935031 -0.4050585 0.056077234
-0.092109241 -0.40516734 0.056084491
-0.09226422 -0.40526882 0.056061842
-0.092434511 -0.40537795 0.056051809
-0.09258166 -0.40547985 0.05599574
-0.092784725 -0.40558344 0.056149371
-0.092930906 -0.40569583 0.056024082
-0.093119889 -0.40580031 0.056116641
-0.093276747 -0.40591225 0.056036294
-0.093407497 -0.40602079 0.055874161
-0.093579195 -0.40611991 0.055932187
-0.093764015 -0.40622896 0.05597977
-0.093906596 -0.406335 0.055879887
-0.094071142 -0.40644458 0.055844497
-0.094258055 -0.40655184 0.055911675
-0.094430655 -0.40666538 0.055883177
-0.094570346 -0.40676534 0.055809833
-0.094744273 -0.40686899 0.055848241
-0.094913788 -0.40697673 0.055843987
-0.095064484 -0.40708253 0.055777505
-0.095244989 -0.40719423 0.055791654
-0.095415145 -0.40730402 0.055777006
-0.095567152 -0.40740788 0.055727839
-0.095731512 -0.40750995 0.055738594
-0.09589906 -0.40762362 0.055689353
-0.096068501 -0.40772778 0.055707015
-0.09624701 -0.40783602 0.055735011
-0.096395709 -0.40794554 0.055637397
-0.096542194 -0.40804741 0.055579029
-0.096735582 -0.40815431 0.055673864
-0.096914411 -0.4082703 0.055654563
-0.097068816 -0.40837994 0.05557885
-0.097235188 -0.40848252 0.055594213
-0.097407937 -0.408591 0.055598013
-0.097574823 -0.40870112 0.055568382
-0.097737752 -0.40880376 0.055569924
-0.097879902 -0.40890729 0.055483881
-0.098056413 -0.4090161 0.055500347
-0.098226443 -0.40912285 0.055504166
-0.098384678 -0.40923083 0.055453811
-0.098579749 -0.40934271 0.055524413
-0.098716348 -0.40944588 0.055418786
-0.098867051 -0.40954983 0.055363849
-0.099047415 -0.40965924 0.055391844
-0.099227354 -0.40977225 0.055395607
-0.099374868 -0.40987605 0.055329151
-0.099565506 -0.40998989 0.055369787
-0.099734701 -0.41009706 0.055367831
-0.099901006 -0.41020402 0.055355512
-0.10008102 -0.4103156 0.055368502
-0.1002301 -0.41042131 0.055296272
-0.10041711 -0.41053012 0.055354223
-0.10057275 -0.41063812 0.0552935
-0.1007331 -0.41074651 0.055248905
-0.10089269 -0.41085315 0.05521239
-0.1010635 -0.41095909 0.055224273
-0.10125653 -0.41107059 0.055289127
-0.10136712 -0.41117266 0.055087857
-0.1015465 -0.41128126 0.055117011
-0.10172054 -0.41139108 0.055117339
-0.10187377 -0.41149721 0.055058941
-0.10205531 -0.41160625 0.05509384
-0.10222898 -0.41171786 0.055081483
-0.10240416 -0.41182807 0.055084117
-0.10256001 -0.41193455 0.055033773
-0.10272187 -0.41204333 0.054992639
-0.10289808 -0.41215214 0.055007957
-0.10308369 -0.41226375 0.055042837
-0.10326844 -0.41237536 0.055074271
-0.10340755 -0.41248161 0.054959405
-0.10358398 -0.41258907 0.054983951
-0.10378616 -0.41270468 0.055059135
-0.10394246 -0.41281146 0.055008791
-0.10408068 -0.41291749 0.054891616
-0.10427152 -0.41302872 0.054949552
-0.10443772 -0.41313839 0.054919932
-0.10458373 -0.41324383 0.054837331
-0.10477416 -0.41335684 0.054882575
-0.10494299 -0.41346541 0.054870244
-0.10512054 -0.41357839 0.054864787
-0.10528316 -0.41368619 0.054832876
-0.10545167 -0.41379642 0.054809008
-0.10563923 -0.41390944 0.054842729
-0.10580455 -0.41401932 0.054808494
-0.10596365 -0.41412672 0.054765053
-0.10614018 -0.41423833 0.054764222
-0.10629862 -0.41434571 0.054718487
-0.1064885 -0.41445944 0.054756813
-0.10664487 -0.4145681 0.054694928
-0.10680941 -0.41467804 0.054657239
-0.10697702 -0.41478696 0.054637983
-0.10715186 -0.4148986 0.054630242
-0.1073295 -0.41500923 0.054639783
-0.10750184 -0.41512057 0.054623973
-0.1076667 -0.41522923 0.0545955
-0.10786231 -0.41534457 0.054646492
-0.10801463 -0.41545123 0.054581176
-0.10820262 -0.41556543 0.054609124
-0.10836027 -0.41567454 0.054549541
-0.10855183 -0.415791 0.054577485
-0.10870959 -0.41590017 0.054517902
-0.10886897 -0.41600963 0.054462932
-0.10904632 -0.41612229 0.054458626
-0.10922748 -0.41623572 0.05446469
-0.10939156 -0.4163461 0.054422386
-0.10957886 -0.41645783 0.054463036
-0.1097406 -0.41656935 0.054404594
-0.10991895 -0.41668394 0.054392215
-0.11008641 -0.41679221 0.05437642
-0.11026634 -0.41690576 0.054376729
-0.11044802 -0.41702116 0.054372404
-0.11061224 -0.41712609 0.054364715
-0.11077996 -0.41723749 0.054330461
-0.1109757 -0.41735438 0.054372229
-0.11111828 -0.41745949 0.054278105
-0.11129236 -0.41757509 0.054242671
-0.11147039 -0.41769153 0.054217603
-0.11167116 -0.41780549 0.054297414
-0.11180591 -0.41791049 0.054173339
-0.11200343 -0.41802961 0.054208163
-0.11217146 -0.41814139 0.054172765
-0.11234909 -0.41825238 0.05418
-0.11253697 -0.41836837 0.054196417
-0.11267705 -0.41847026 0.054112695
-0.11287974 -0.41859227 0.054149814
-0.11305338 -0.41870409 0.054136299
-0.11321851 -0.41881549 0.054091677
-0.11339281 -0.41892755 0.054079317
-0.11359718 -0.41905305 0.05410143
-0.11375102 -0.4191525 0.054086857
-0.028346833 -0.3678821 0.03752498
-0.028512206 -0.3679924 0.037488386
-0.028677087 -0.36809811 0.037478343
-0.028841242 -0.36820504 0.037457917
-0.029005989 -0.3683129 0.037434027
-0.029172421 -0.36842108 0.037414737
-0.029330201 -0.3685199 0.037419725
-0.029492799 -0.36862528 0.037402764
-0.029658929 -0.36873347 0.037382327
-0.02982001 -0.36883917 0.037357304
-0.029989839 -0.36895266 0.037318379
-0.030151397 -0.36905718 0.037302583
-0.03031721 -0.36916554 0.037279837
-0.030477885 -0.36926916 0.037266355
-0.030635048 -0.3693724 0.03724134
-0.030802123 -0.36947858 0.037237056
-0.030961279 -0.36958051 0.037228189
-0.031123471 -0.36968672 0.03720431
-0.031284463 -0.36978924 0.037198897
-0.03144531 -0.36989391 0.037179634
-0.031606458 -0.37000132 0.037144221
-0.031766687 -0.37010318 0.037139971
-0.031923365 -0.37020463 0.03712419
-0.03208492 -0.37031084 0.037098013
-0.032248259 -0.37041521 0.037090279
-0.032409023 -0.37051833 0.037080247
-0.032570247 -0.37062451 0.037052915
-0.032725729 -0.37072724 0.037024457
-0.03288633 -0.37082824 0.037027124
-0.033043422 -0.37093124 0.03700326
-0.033201151 -0.37103301 0.036989793
-0.033361673 -0.37113893 0.036961302
-0.033521879 -0.37123984 0.036962822
-0.033679791 -0.37134227 0.036945883
-0.03384373 -0.37145126 0.036911607
-0.034001954 -0.37155443 0.036891207
-0.034160662 -0.37165606 0.036882352
-0.034313921 -0.37175703 0.036856208
-0.034477726 -0.37186652 0.036818475
-0.034632433 -0.37196505 0.036813091
-0.034792062 -0.37206617 0.036811143
-0.034947388 -0.37217084 0.03676999
-0.035107967 -0.37227365 0.036761116
-0.035263557 -0.37237406 0.03674766
-0.035416286 -0.37247023 0.036749214
-0.035571799 -0.37257078 0.036734596
-0.035731416 -0.37267521 0.036711879
-0.035888642 -0.37277865 0.036685716
-0.036048312 -0.3728835 0.036660701
-0.036201548 -0.3729811 0.036655325
-0.036358483 -0.37308198 0.036644161
-0.036513206 -0.3731848 0.036612239
-0.036670469 -0.37328386 0.03661377
-0.036824066 -0.37338522 0.036586475
-0.03697855 -0.37348548 0.036569554
-0.037134923 -0.37358618 0.036557242
-0.037289996 -0.37368497 0.036551856
-0.037443887 -0.37378743 0.03651879
-0.037599239 -0.37388694 0.036509942
-0.037751473 -0.37398431 0.036502261
-0.037905633 -0.37408212 0.036499191
-0.03806166 -0.37418595 0.036466114
-0.038217004 -0.374286 0.036453806
-0.038367171 -0.37438336 0.036438067
-0.0385243 -0.37448379 0.036430359
-0.038675621 -0.37458333 0.036405385
-0.038832992 -0.37468451 0.036394216
-0.038985193 -0.37478295 0.036379617
-0.03913743 -0.3748816 0.036363866
-0.039288841 -0.37497899 0.036352728
-0.039444603 -0.37508097 0.036330041
-0.039596409 -0.37517935 0.036314283
-0.039748423 -0.37527823 0.036296222
-0.039898697 -0.3753773 0.036270093
-0.040052939 -0.37547427 0.03627279
-0.040201724 -0.37556794 0.036274366
-0.040358901 -0.37567341 0.036235511
-0.040511005 -0.37577328 0.036211684
-0.0406662 -0.37587565 0.036184378
-0.040815599 -0.37597102 0.036177862
-0.040967956 -0.37606865 0.03616903
-0.041119795 -0.37616873 0.036142901
-0.041271731 -0.37626588 0.036135223
-0.041421577 -0.37636265 0.036121793
-0.041575111 -0.37646306 0.036100253
-0.041720897 -0.37655595 0.036094926
-0.041873656 -0.37665862 0.036056094
-0.04202253 -0.37675422 0.036046118
-0.042174302 -0.37685204 0.036033832
-0.04232683 -0.37695143 0.036014616
-0.042479511 -0.37705126 0.035993084
-0.042628027 -0.37714684 0.035981972
-0.042780139 -0.37724596 0.035962753
-0.042927515 -0.37734321 0.035936639
-0.043078296 -0.3774437 0.035903584
-0.043227024 -0.37754402 0.035863623
-0.043378137 -0.37764195 0.03584788
-0.043527346 -0.37774369 0.035800986
-0.043675803 -0.37783292 0.03582909
-0.043821536 -0.37792042 0.035857216
-0.04397181 -0.37801728 0.035844933
-0.044117458 -0.37810862 0.035848822
-0.0442665 -0.37820321 0.035845786
-0.044413887 -0.37829843 0.03583236
-0.044561028 -0.37839329 0.035820093
-0.044710018 -0.37848824 0.035814736
-0.044859398 -0.37858415 0.035804767
-0.045005374 -0.37867701 0.035800587
-0.045150235 -0.37877172 0.035780251
-0.045296483 -0.37886548 0.035771452
-0.045446835 -0.37895998 0.035774168
-0.045587167 -0.37904945 0.035768863
-0.045734555 -0.37914187 0.035772745
-0.045878988 -0.37923652 0.035751261
-0.046024866 -0.37932578 0.035768997
-0.046167567 -0.37941229 0.035791367
-0.046312489 -0.3794995 0.035818338
-0.046452474 -0.37958428 0.035840724
-0.046594046 -0.37966362 0.035903487
-0.046732806 -0.3797408 0.035968561
-0.046873666 -0.37981337 0.036070552
-0.047010668 -0.37988594 0.036157563
-0.047145963 -0.3799541 0.036265351
-0.047284212 -0.38002428 0.036371976
-0.047420174 -0.38008842 0.036507446
-0.047550909 -0.38014907 0.036644105
-0.047687061 -0.38020757 0.036815349
-0.047821805 -0.38026705 0.036975063
-0.047954988 -0.38032719 0.037124399
-0.048089296 -0.38038439 0.037296806
-0.048221398 -0.38043496 0.037501536
-0.048352648 -0.38048244 0.03772242
-0.048483483 -0.38053352 0.037919071
-0.048743896 -0.38062379 0.038381618
-0.049155928 -0.38077331 0.039071858
-0.049663592 -0.3784788 0.055384301
-0.049790472 -0.37852997 0.055564821
-0.049949087 -0.3786208 0.055622883
-0.050111718 -0.37871677 0.055664774
-0.050271638 -0.37881196 0.055700898
-0.05043824 -0.37891304 0.055726614
-0.051745925 -0.3823151 0.039655559
-0.051889241 -0.38239515 0.039720614
-0.052030105 -0.38247421 0.039782219
-0.052172262 -0.38254893 0.039876133
-0.052307621 -0.38262358 0.039943535
-0.052455641 -0.38270256 0.040033955
-0.053660929 -0.38212833 0.048363149
-0.053807732 -0.38222077 0.048364732
-0.054793652 -0.38103342 0.059654552
-0.054965764 -0.38117442 0.059452936
-0.0551496 -0.38129747 0.059409332
-0.055333931 -0.3814007 0.059491493
-0.055490982 -0.38149092 0.059547253
-0.055649236 -0.38159245 0.059537243
-0.055809908 -0.3816894 0.059565295
-0.055970736 -0.38178793 0.059584107
-0.056125835 -0.38188821 0.059569493
-0.056311078 -0.38203695 0.059371274
-0.056480937 -0.38214156 0.059387743
-0.056657121 -0.38225275 0.059388019
-0.056839511 -0.38236919 0.059380192
-0.056993902 -0.3824653 0.05938866
-0.057182215 -0.38258213 0.059401568
-0.057349447 -0.3827008 0.05931998
-0.057516128 -0.38280842 0.05930531
-0.057682708 -0.38291466 0.059298709
-0.057836719 -0.38300222 0.059359103
-0.058009502 -0.38312033 0.059302866
-0.058160555 -0.38322619 0.059237506
-0.058314569 -0.38331801 0.059271351
-0.05846864 -0.38340876 0.059312124
-0.058628626 -0.38352081 0.059243262
-0.058819506 -0.38363945 0.059255011
-0.05899778 -0.38375881 0.059212588
-0.059157535 -0.38386443 0.059182949
-0.059341792 -0.38398555 0.059153192
-0.059514102 -0.38409042 0.059177719
-0.059655286 -0.38418245 0.059159711
-0.059833698 -0.38429174 0.059180751
-0.059983689 -0.38439357 0.059136167
-0.060154349 -0.38451719 0.059037242
-0.060326613 -0.38462055 0.059071008
-0.060468219 -0.38470471 0.059103765
-0.060654461 -0.38483116 0.059048612
-0.060808212 -0.38492411 0.059074387
-0.060972914 -0.38503563 0.059027418
-0.061162092 -0.3851617 0.058986105
-0.061327286 -0.38526762 0.058976058
-0.06148608 -0.38537115 0.058955655
-0.061653454 -0.3854838 0.058912136
-0.061826207 -0.38558358 0.058970124
-0.061984755 -0.38568753 0.058946256
-0.062152032 -0.3857992 0.058908515
-0.062322736 -0.38591027 0.058888052
-0.062487543 -0.38601592 0.058878001
-0.062638737 -0.38612023 0.058823019
-0.062799573 -0.38622746 0.058787607
-0.06296549 -0.38634253 0.058723327
-0.063147336 -0.38644877 0.058776662
-0.06330815 -0.3865549 0.058748171
-0.063480414 -0.38665751 0.058786549
-0.063638508 -0.38676006 0.058769606
-0.063790098 -0.38685995 0.058743473
-0.063957669 -0.38696665 0.058738034
-0.064127192 -0.38707879 0.058706041
-0.064306453 -0.3871825 0.058765151
-0.064454705 -0.38728067 0.058736719
-0.064617723 -0.38740095 0.058628608
-0.06477797 -0.38750651 0.058601275
-0.064950787 -0.38761836 0.058584269
-0.065115698 -0.38772076 0.058594994
-0.065286994 -0.38782626 0.058611445
-0.065439083 -0.38793278 0.058546081
-0.06560687 -0.38802758 0.058615632
-0.065777406 -0.38814464 0.058557101
-0.065939687 -0.38825333 0.058518223
-0.066098951 -0.38835976 0.058481656
-0.066280365 -0.38846835 0.058518838
-0.066440605 -0.38858983 0.058392279
-0.06659852 -0.38868114 0.058444574
-0.066760331 -0.38878974 0.058404543
-0.066925816 -0.38889861 0.058377188
-0.067089438 -0.38900298 0.058370609
-0.067251973 -0.38910148 0.058396332
-0.067418478 -0.38920805 0.058387432
-0.067574747 -0.3893109 0.058361277
-0.06774836 -0.3894192 0.058369644
-0.067911699 -0.38953874 0.058267299
-0.068085589 -0.38963166 0.058372591
-0.068227977 -0.38974386 0.058233432
-0.06838306 -0.38985503 0.058150746
-0.068557546 -0.38994741 0.058261801
-0.068716466 -0.39004511 0.058278315
-0.068880156 -0.39014876 0.058276355
-0.06903673 -0.39027014 0.058135968
-0.069217227 -0.39036742 0.058240063
-0.069389053 -0.39044592 0.058427285
-0.069543056 -0.39057675 0.058217689
-0.069699459 -0.39069688 0.05808422
-0.06987302 -0.39077389 0.058287591
-0.070038311 -0.39089355 0.058192156
-0.070218518 -0.39100471 0.058208577
-0.070375264 -0.39110547 0.058197413
-0.070534013 -0.39121526 0.058137782
-0.07069283 -0.39132473 0.058080457
-0.07085859 -0.391431 0.05807041
-0.071016677 -0.3915354 0.05804193
-0.07118845 -0.39163992 0.058066458
-0.071369417 -0.39175561 0.058057487
-0.071544603 -0.39185637 0.058118924
-0.071683384 -0.39195576 0.058045547
-0.071858123 -0.39207828 0.057969686
-0.072028577 -0.39218953 0.057946924
-0.072183199 -0.39229193 0.057917316
-0.072335735 -0.39239132 0.057898093
-0.072508179 -0.39250034 0.05789724
-0.072660096 -0.39260027 0.057872254
-0.072821334 -0.39271054 0.05781953
-0.072988465 -0.3928149 0.057826787
-0.073156565 -0.39291358 0.05787326
-0.073337913 -0.39302379 0.057900053
-0.073510885 -0.39313242 0.057903811
-0.073660038 -0.39323002 0.057882302
-0.073829703 -0.39334616 0.057826083
-0.073996589 -0.39345095 0.057829868
-0.074149527 -0.39354968 0.057816412
-0.074317828 -0.39365774 0.057805203
-0.074468389 -0.39376715 0.05771561
-0.074635617 -0.39388028 0.05766863
-0.074793093 -0.39397946 0.057670161
-0.07495188 -0.3940734 0.057709754
-0.075128354 -0.39418772 0.057691574
-0.075275145 -0.39427832 0.057704695
-0.075434327 -0.39438468 0.057668135
-0.075588703 -0.39449856 0.057565831
-0.075769961 -0.39460111 0.057639942
-0.075929061 -0.39469931 0.057654142
-0.076082915 -0.39480916 0.057574928
-0.076232173 -0.39491794 0.057484195
-0.076402389 -0.39501649 0.057539888
-0.076571606 -0.39512753 0.057513662
-0.076738395 -0.39522853 0.057540528
-0.076902375 -0.39533904 0.057497025
-0.077074118 -0.39544466 0.05751463
-0.077230886 -0.39554822 0.057486162
