# .PCD v0.7 - Point Cloud Data file format
VERSION 0.7
FIELDS x y z
SIZE 4 4 4
TYPE F F F
COUNT 1 1 1
WIDTH 1312
HEIGHT 1
VIEWPOINT 0 0 0 1 0 0 0
POINTS 1312
DATA ascii
-0.074065283 -0.45211112 0.056562956
-0.07423453 -0.45224926 0.056505434
-0.074391872 -0.45236576 0.056521807
-0.074552827 -0.45248657 0.05652893
-0.074717633 -0.45262569 0.056446068
-0.074879996 -0.45275134 0.056431264
-0.075043067 -0.45288616 0.056365699
-0.075205132 -0.45301157 0.056350905
-0.075364679 -0.45312935 0.056369565
-0.075524166 -0.4532471 0.056388237
-0.075683206 -0.4533706 0.056371145
-0.075843915 -0.45349261 0.056370199
-0.075985685 -0.45360419 0.056346286
-0.076122403 -0.45369932 0.056396231
-0.076323979 -0.45386812 0.05630276
-0.076487556 -0.45400098 0.056251042
-0.076643668 -0.45411634 0.056268573
-0.076808237 -0.45425352 0.056196086
-0.076964654 -0.4543705 0.056205548
-0.077121787 -0.4544819 0.056250751
-0.077281125 -0.45460978 0.056209449
-0.077431254 -0.45472968 0.056173947
-0.07759095 -0.45485112 0.056171849
-0.077762812 -0.45499262 0.05610624
-0.077921517 -0.45511097 0.056117989
-0.078073896 -0.45523214 0.056084793
-0.078226447 -0.45535448 0.05604583
-0.078386262 -0.45546854 0.056087557
-0.078538254 -0.45558923 0.056055516
-0.078688577 -0.45571342 0.055995803
-0.078866258 -0.45585364 0.055963613
-0.079027615 -0.45597515 0.055968422
-0.079166427 -0.45607108 0.056022972
-0.079322003 -0.45618841 0.056026667
-0.079505078 -0.45633292 0.055993285
-0.079629354 -0.45641723 0.056051381
-0.079821266 -0.45658186 0.055939507
-0.079972565 -0.4567036 0.055898242
-0.080136538 -0.4568283 0.055896118
-0.080295265 -0.45695156 0.055879034
-0.080444247 -0.45706272 0.055889688
-0.080608435 -0.45720312 0.055796437
-0.080765516 -0.45731884 0.05581627
-0.080923982 -0.4574427 0.055794574
-0.081075773 -0.45755714 0.055798288
-0.081234388 -0.45768291 0.05576621
-0.081379265 -0.45780215 0.055711139
-0.081535742 -0.45791563 0.055741359
-0.081702985 -0.45805028 0.055695388
-0.081843667 -0.45816064 0.055673793
-0.081985362 -0.45826054 0.055717938
-0.082138099 -0.45838496 0.055667441
-0.082302138 -0.45851839 0.055614561
-0.082450718 -0.45863256 0.055605605
-0.082604229 -0.45874518 0.055627771
-0.082776561 -0.45888585 0.055569071
-0.082916066 -0.45899078 0.055574022
-0.083082199 -0.45912498 0.055525746
-0.083230227 -0.4592374 0.055524867
-0.083378889 -0.45935714 0.055483617
-0.083535172 -0.45947441 0.055490766
-0.083697356 -0.45959914 0.055480585
-0.083848342 -0.45971829 0.055453159
-0.084007487 -0.4598403 0.055445302
-0.084160969 -0.45995918 0.05543055
-0.084325776 -0.46008766 0.05540996
-0.084472798 -0.46019083 0.055458695
-0.084629633 -0.46032625 0.055362027
-0.08477997 -0.46044353 0.055342685
-0.084938571 -0.46056336 0.055345215
-0.085082956 -0.4606722 0.055348974
-0.085244335 -0.46079531 0.055344556
-0.085405901 -0.46093234 0.055259399
-0.085550152 -0.46104541 0.055237781
-0.085705586 -0.46116263 0.05524148
-0.085863806 -0.46127939 0.055260148
-0.086013496 -0.4613966 0.055238508
-0.086168721 -0.46152076 0.055200677
-0.086323932 -0.4616386 0.055199757
-0.086479053 -0.46175852 0.055186152
-0.086623363 -0.46185234 0.055277582
-0.086780101 -0.46200523 0.055078249
-0.086935475 -0.46211234 0.055140775
-0.087090306 -0.46223205 0.055127174
-0.087247662 -0.46235746 0.055091642
-0.087399811 -0.46247041 0.055105735
-0.087554574 -0.4625881 0.055103667
-0.08770556 -0.46271515 0.0550301
-0.087860003 -0.46283457 0.055016503
-0.088015325 -0.46294361 0.055067487
-0.088166006 -0.46306965 0.054998547
-0.088320926 -0.46318272 0.055024162
-0.088469349 -0.46329936 0.055000212
-0.088619702 -0.46342453 0.054934733
-0.088772267 -0.46353111 0.054988042
-0.088924699 -0.463662 0.054898322
-0.08907605 -0.46377712 0.054896273
-0.089233018 -0.4638961 0.054896496
-0.08938393 -0.46401343 0.05487946
-0.089538857 -0.46412516 0.054913148
-0.089690104 -0.4642581 0.054806136
-0.089844652 -0.4643715 0.054828286
-0.089995094 -0.46448964 0.054804333
-0.090144739 -0.46461135 0.054756157
-0.090298787 -0.46472672 0.054764472
-0.090452529 -0.46484345 0.054763567
-0.09060102 -0.46495423 0.054774221
-0.090754971 -0.4650839 0.054698329
-0.090912551 -0.46519762 0.054732002
-0.091062024 -0.46531743 0.054694217
-0.091208234 -0.46542349 0.054722186
-0.091356792 -0.46553352 0.05473746
-0.091508768 -0.46566781 0.054625824
-0.091660976 -0.4657883 0.054596089
-0.091812223 -0.46590018 0.054612499
-0.091965176 -0.46601769 0.054603521
-0.09211611 -0.46613052 0.054613002
-0.092261389 -0.46625006 0.054557931
-0.092417561 -0.46636784 0.054561622
-0.092569865 -0.46648663 0.05454227
-0.092716418 -0.46660143 0.054520637
-0.09287294 -0.46671793 0.054533556
-0.093020983 -0.466838 0.054487698
-0.093175173 -0.46696037 0.054455645
-0.093323864 -0.46706894 0.054480139
-0.093474127 -0.4671917 0.054428499
-0.093622491 -0.46730098 0.054447226
-0.093768843 -0.46742371 0.054378308
-0.093921557 -0.46753985 0.054376252
-0.09407749 -0.46765706 0.054382253
-0.094224244 -0.46777794 0.054326013
-0.094379306 -0.46788877 0.054365471
-0.094527349 -0.46800649 0.054333452
-0.094678015 -0.46812639 0.054300267
-0.094827764 -0.46824029 0.054298226
-0.094974868 -0.46835178 0.054298513
-0.095124833 -0.46847251 0.054257251
-0.095278077 -0.46859419 0.054225203
-0.095426463 -0.46871018 0.05420471
-0.095584743 -0.46882957 0.05420839
-0.09572497 -0.46894568 0.054151051
-0.095873863 -0.46905363 0.054180153
-0.096025743 -0.46917009 0.054172341
-0.096183546 -0.46929011 0.054170251
-0.096327908 -0.46941194 0.054097876
-0.096474104 -0.46952412 0.054090098
-0.096623309 -0.46963799 0.05408575
-0.096776895 -0.46975774 0.05406639
-0.096928187 -0.46986845 0.054089718
-0.097075194 -0.4699854 0.054057706
-0.097221673 -0.47010291 0.054019928
-0.097376846 -0.47021422 0.054057084
-0.097524829 -0.47032952 0.054038905
-0.097672403 -0.47045103 0.05398266
-0.097818919 -0.47056797 0.05394835
-0.097970992 -0.4706777 0.053980894
-0.098113783 -0.47079912 0.05390393
-0.098264657 -0.47091585 0.05389034
-0.098408967 -0.47102955 0.053865265
-0.098569266 -0.47114041 0.053927757
-0.098716266 -0.47126681 0.05384038
-0.098860294 -0.47137535 0.053844143
-0.099004552 -0.4714888 0.053820226
-0.099157937 -0.4715974 0.053865451
-0.099309221 -0.47172347 0.053798817
-0.099458225 -0.47184172 0.053767942
-0.099597678 -0.47194996 0.053753272
-0.099752456 -0.47206709 0.053754661
-0.099901572 -0.47217536 0.053782623
-0.10005834 -0.47229066 0.053803612
-0.10020328 -0.47241724 0.053705864
-0.10034303 -0.47252965 0.053668126
-0.10049208 -0.47263807 0.053694926
-0.1006349 -0.47275674 0.0536341
-0.10078815 -0.47287509 0.053621661
-0.10093945 -0.47299507 0.053590782
-0.10108818 -0.47310385 0.053614125
-0.10123853 -0.47322017 0.053600542
-0.10138233 -0.47333309 0.053577781
-0.10153 -0.47344282 0.053590752
-0.1016826 -0.47355732 0.053597923
-0.10183489 -0.47367629 0.053577408
-0.10197835 -0.47378933 0.053552337
-0.10212675 -0.47390279 0.053546846
-0.1022693 -0.47402874 0.053442191
-0.10242117 -0.47413144 0.053515114
-0.10256833 -0.4742538 0.053451963
-0.10271866 -0.47436184 0.053486828
-0.10286897 -0.47448188 0.053451333
-0.10301083 -0.47459567 0.053414743
-0.10317136 -0.47470888 0.053464547
-0.10331877 -0.47483066 0.053406004
-0.10346552 -0.47494504 0.053387832
-0.10360564 -0.47505969 0.053338561
-0.10375479 -0.47517627 0.053318065
-0.10389942 -0.47528803 0.053305674
-0.1040487 -0.47540081 0.053308256
-0.10419254 -0.47551671 0.053268183
-0.10434593 -0.47563079 0.053281121
-0.10449084 -0.47574237 0.05327104
-0.10463323 -0.4758625 0.053199835
-0.10478602 -0.4759734 0.053228915
-0.10493153 -0.47608465 0.053223439
-0.10508018 -0.47620478 0.05317989
-0.10522456 -0.47631657 0.053166341
-0.10538352 -0.47643155 0.053198855
-0.10552625 -0.4765476 0.053153031
-0.10567402 -0.47666118 0.053144079
-0.10582376 -0.47677723 0.053129353
-0.10596552 -0.47689018 0.053097367
-0.10611949 -0.47700432 0.053112611
-0.10626596 -0.47711846 0.053094443
-0.10641053 -0.47723669 0.053043984
-0.10654899 -0.47735089 0.052990116
-0.10670042 -0.47746289 0.053006511
-0.10684957 -0.47757909 0.052988335
-0.10699389 -0.47769397 0.052956339
-0.10714007 -0.47781128 0.052918561
-0.10729229 -0.4779231 0.052939579
-0.1074433 -0.47804168 0.052915618
-0.10758559 -0.47815719 0.052870944
-0.10772658 -0.47827309 0.052818201
-0.10788541 -0.47838581 0.052863404
-0.10804553 -0.47851032 0.05284515
-0.10819876 -0.47862509 0.052853473
-0.10834774 -0.47872934 0.052904502
-0.10849065 -0.47884157 0.052881744
-0.10862541 -0.47895926 0.052790977
-0.1087799 -0.47907084 0.052823506
-0.10892626 -0.47918493 0.052805349
-0.10907876 -0.47930011 0.052807901
-0.10923176 -0.47941232 0.05283007
-0.10937388 -0.47952476 0.052802697
-0.10952707 -0.47963989 0.052808717
-0.10967426 -0.47976226 0.052745551
-0.10981543 -0.47988048 0.052680127
-0.10996452 -0.47999662 0.05266194
-0.11012071 -0.48011383 0.052669093
-0.11025796 -0.48022729 0.052614067
-0.1103902 -0.48033637 0.052562531
-0.11054738 -0.48045608 0.052559298
-0.11070479 -0.4805758 0.052557215
-0.11085233 -0.48068959 0.052545957
-0.11098262 -0.48080426 0.052452914
-0.11114221 -0.48092091 0.052478496
-0.11129224 -0.48103422 0.052481074
-0.11144195 -0.48114237 0.052512482
-0.11159723 -0.48126006 0.05251272
-0.1117436 -0.48137158 0.052509546
-0.11189042 -0.48148304 0.052508686
-0.11202986 -0.48159838 0.05245249
-0.11219163 -0.48172277 0.052442309
-0.11234134 -0.48183131 0.052471414
-0.11249711 -0.48194662 0.052487791
-0.11264354 -0.48206586 0.05243963
-0.11279509 -0.48217934 0.052447971
-0.11292703 -0.48229805 0.05233876
-0.11308803 -0.4824177 0.052352801
-0.11323095 -0.48253724 0.052287366
-0.11338154 -0.48265335 0.05227609
-0.11352114 -0.48276347 0.052251041
-0.113687 -0.48288035 0.052303124
-0.11382449 -0.48299557 0.052238867
-0.11398248 -0.48310861 0.05227831
-0.1141277 -0.48322064 0.052267063
-0.11426371 -0.48334065 0.05216822
-0.11442675 -0.48346522 0.05216264
-0.1145665 -0.48356366 0.052206799
-0.11471214 -0.48368505 0.052142493
-0.1148705 -0.48380312 0.052154254
-0.1150171 -0.48391283 0.05216261
-0.115164 -0.4840295 0.05213175
-0.11531489 -0.48414817 0.052106641
-0.11545525 -0.48426521 0.052044671
-0.11560369 -0.48437947 0.052034568
-0.11574453 -0.48448738 0.052027971
-0.1158848 -0.48460433 0.051966012
-0.11603656 -0.48472074 0.051958188
-0.1161992 -0.48483455 0.052013747
-0.11633795 -0.4849515 0.051944867
-0.11649539 -0.48507005 0.05194971
-0.11663957 -0.48518682 0.051906176
-0.11678851 -0.48530343 0.051884532
-0.11694533 -0.48541778 0.051911287
-0.11710201 -0.48553437 0.051924206
-0.1172334 -0.4856534 0.051810391
-0.11736132 -0.48576808 0.051706973
-0.11751424 -0.48588043 0.051727984
-0.11767994 -0.48599499 0.051792756
-0.11784837 -0.48611185 0.05185635
-0.11799656 -0.48622867 0.051830102
-0.11815081 -0.48634559 0.051830344
-0.11830062 -0.4864625 0.051811006
-0.11844687 -0.48657727 0.051788226
-0.11858846 -0.48669404 0.051733166
-0.11874139 -0.4868131 0.051714968
-0.11889884 -0.48693028 0.051727872
-0.11904662 -0.4870472 0.051699314
-0.11919297 -0.48716205 0.051676534
-0.11932272 -0.48727828 0.051571958
-0.11948999 -0.48739603 0.051625185
-0.11964722 -0.48751342 0.051635787
-0.11978013 -0.48762971 0.051545031
-0.11994805 -0.48774773 0.051599398
-0.12010887 -0.48786354 0.051635362
-0.12023918 -0.48797959 0.051534243
-0.12039025 -0.48809686 0.051518355
-0.12054423 -0.48821238 0.051525518
-0.1207008 -0.48833203 0.051519979
-0.12084149 -0.48844674 0.051473003
-0.12099303 -0.48856416 0.051458273
-0.1211478 -0.48868185 0.051456206
-0.12130708 -0.48879805 0.051482946
-0.12145203 -0.48891696 0.051430188
-0.12161021 -0.4890351 0.051440787
-0.12174688 -0.48914951 0.051377684
-0.12191186 -0.48927021 0.051403243
-0.12205371 -0.48938698 0.051349342
-0.12219312 -0.48949972 0.051308148
-0.12234148 -0.48961708 0.051279586
-0.12248939 -0.48973629 0.051238336
-0.12265047 -0.48985502 0.05125815
-0.12281743 -0.4899745 0.051299848
-0.12295444 -0.49009073 0.051227514
-0.12310932 -0.49020714 0.051233523
-0.12327021 -0.49032614 0.051251028
-0.12341489 -0.49044329 0.051207498
-0.12357195 -0.49056193 0.051210023
-0.12373065 -0.49068084 0.051218312
-0.12385826 -0.49079585 0.051111437
-0.12401453 -0.49091274 0.051120896
-0.12417816 -0.49103242 0.051146466
-0.12433024 -0.49114886 0.051139802
-0.12448113 -0.49126697 0.051118143
-0.12461615 -0.49138287 0.051038906
-0.12477569 -0.49150223 0.051048346
-0.12493251 -0.49161953 0.051057793
-0.12507138 -0.49173421 0.051002771
-0.12522635 -0.49185306 0.050994929
-0.12537418 -0.49197257 0.050951373
-0.12553123 -0.4920918 0.050950449
-0.12570377 -0.49221355 0.051003642
-0.12583792 -0.49232584 0.050941717
-0.12600471 -0.49244854 0.050963797
-0.12616184 -0.49256802 0.050961711
-0.12631907 -0.49268758 0.050959639
-0.12645027 -0.49279943 0.050887339
-0.12660459 -0.49291855 0.050874893
-0.12676841 -0.49303937 0.050894689
-0.12692325 -0.4931587 0.05088339
-0.12707783 -0.49327806 0.05087094
-0.12720817 -0.49339136 0.050785966
-0.12737492 -0.49351463 0.050804585
-0.12751275 -0.49362931 0.050744951
-0.12767635 -0.49374881 0.050771669
-0.12783092 -0.49386832 0.050758068
-0.12798522 -0.49398783 0.050743312
-0.12813438 -0.49410641 0.050711289
-0.12828802 -0.49422422 0.050703455
-0.12844323 -0.49434403 0.050691001
-0.12859008 -0.49446222 0.050650921
-0.12875426 -0.4945839 0.050667256
-0.12889299 -0.49469891 0.050609913
-0.12904243 -0.49481767 0.050577886
-0.12919657 -0.49493745 0.050560821
-0.12936945 -0.4950628 0.050594404
-0.12950721 -0.49517763 0.050533608
-0.12967639 -0.49530077 0.050563749
-0.1298153 -0.49541429 0.050515644
-0.12998037 -0.49553826 0.050522733
-0.13013318 -0.49565801 0.050499916
-0.13027214 -0.49577475 0.050433353
-0.13045409 -0.49590108 0.050501481
-0.13058949 -0.49601549 0.05043263
-0.13075036 -0.49613723 0.050433982
-0.13090762 -0.4962582 0.050423827
-0.13106431 -0.49637756 0.050420597
-0.13122132 -0.49650013 0.050400056
-0.13136102 -0.49661404 0.050353095
-0.13151713 -0.49673495 0.050338328
-0.13167435 -0.49685767 0.050317787
-0.13182911 -0.49697831 0.050298415
-0.13200024 -0.4971045 0.050319321
-0.13213851 -0.49721971 0.050258521
-0.13229302 -0.4973374 0.050255302
-0.13246277 -0.49746194 0.050279673
-0.13259929 -0.49757978 0.050195824
-0.13277954 -0.49770561 0.050259352
-0.13292052 -0.49782014 0.050214685
-0.133093 -0.49794713 0.050236739
-0.13323119 -0.49806544 0.05015748
-0.13339233 -0.49818522 0.050171524
-0.1335475 -0.49830794 0.050141774
-0.13369523 -0.49842584 0.050107446
-0.13386504 -0.49855101 0.050128356
-0.13401932 -0.4986707 0.050112449
-0.13415802 -0.49878922 0.050034348
-0.13433249 -0.49891439 0.050075989
-0.13449124 -0.49903688 0.050063517
-0.13464348 -0.49915621 0.050040703
-0.1347862 -0.49927443 0.049982186
-0.13494793 -0.49939641 0.049985848
-0.13510051 -0.49951738 0.049954951
-0.13526371 -0.4996399 0.049962062
-0.13541937 -0.49976182 0.049939226
-0.13558811 -0.49988464 0.049969375
-0.13573655 -0.50000459 0.049925815
-0.13589589 -0.50012916 0.049904119
-0.13604888 -0.50024766 0.049889371
-0.13622214 -0.50037485 0.049913719
-0.13635623 -0.50049084 0.049829874
-0.13652015 -0.50061685 0.049819682
-0.13670143 -0.50074661 0.049864743
-0.13683133 -0.50085866 0.049785543
-0.1370109 -0.50099087 0.049808707
-0.13714421 -0.50110251 0.049746789
-0.13732238 -0.50123304 0.049773417
-0.13746777 -0.50134838 0.049743716
-0.13761409 -0.50146532 0.049708247
-0.13777553 -0.50158972 0.049696907
-0.13792199 -0.50170815 0.04965337
-0.13809581 -0.50183499 0.049682327
-0.13825148 -0.50196052 0.049638733
-0.13841864 -0.50208682 0.049641199
-0.055457633 -0.43770975 0.058277402
-0.055653732 -0.43787676 0.058170088
-0.055824049 -0.43800014 0.058203682
-0.055988245 -0.43811655 0.058251157
-0.056172535 -0.43826258 0.058214284
-0.056348741 -0.43839851 0.058200538
-0.056526829 -0.43853766 0.058176406
-0.056712888 -0.43868995 0.058110684
-0.056894153 -0.43883193 0.05808422
-0.05706029 -0.43895215 0.05811784
-0.057255484 -0.43911728 0.058017448
-0.057423085 -0.43924022 0.058041833
-0.057600182 -0.43937606 0.058032691
-0.057764258 -0.43949333 0.058074407
-0.057949785 -0.43964344 0.058019068
-0.058131423 -0.43979022 0.057966061
-0.058305815 -0.43992221 0.057967328
-0.058489315 -0.44007257 0.057901621
-0.058650784 -0.44018316 0.057971038
-0.058843344 -0.44034925 0.057853363
-0.059011962 -0.44047216 0.05788235
-0.059181094 -0.44059899 0.057890564
-0.059360884 -0.44074416 0.057838731
-0.05955277 -0.44091034 0.057717599
-0.059711359 -0.44101655 0.057799716
-0.059891034 -0.44116223 0.057744421
-0.060060453 -0.44128731 0.057764173
-0.060231447 -0.44141832 0.05775623
-0.060405418 -0.4415516 0.057748266
-0.060566772 -0.44166601 0.057794604
-0.060753852 -0.44182262 0.057708111
-0.060914408 -0.44193587 0.057757914
-0.06109184 -0.44207588 0.057725701
-0.061264198 -0.44221029 0.057703909
-0.061446194 -0.44235891 0.057641674
-0.061622106 -0.44250017 0.057595622
-0.061788928 -0.44262525 0.057603862
-0.061964426 -0.44276616 0.05755781
-0.062142059 -0.44290793 0.05751637
-0.062303416 -0.44302353 0.057555787
-0.062490392 -0.44318283 0.057453144
-0.062678084 -0.44334722 0.057323959
-0.06283664 -0.4434548 0.057398003
-0.062996976 -0.44356903 0.057440888
-0.063161433 -0.44368759 0.057476819
-0.063339368 -0.4438349 0.057404228
-0.063508004 -0.44396156 0.057411294
-0.063680217 -0.44409862 0.057373345
-0.063854776 -0.44423684 0.057338841
-0.064015076 -0.44435167 0.057378266
-0.064197123 -0.44450819 0.057269882
-0.064356685 -0.44462186 0.057312772
-0.064531349 -0.44476116 0.057272498
-0.064695403 -0.44488376 0.057283051
-0.064861774 -0.44500732 0.057298213
-0.06502679 -0.44513202 0.057300694
-0.065205619 -0.4452804 0.057225786
-0.065373689 -0.44541153 0.057204008
-0.065539226 -0.44553408 0.057221487
-0.065687217 -0.44563678 0.057277132
-0.065893367 -0.44582975 0.057062462
-0.066019379 -0.4459191 0.05709862
-0.066217311 -0.44606939 0.057097446
-0.06638208 -0.44619507 0.057092998
-0.06655629 -0.44633642 0.057038885
-0.066719398 -0.44645905 0.057044826
-0.066881999 -0.4465768 0.057077318
-0.06705974 -0.44673026 0.056967799
-0.067220479 -0.44684443 0.05701299
-0.067385592 -0.44697195 0.056999311
-0.067549706 -0.4470934 0.057016797
-0.067719847 -0.44723204 0.0569604
-0.067892775 -0.44737279 0.056903988
-0.068054318 -0.44749346 0.056914557
-0.068220496 -0.44762436 0.056885868
-0.0683854 -0.44775271 0.056866433
-0.068549216 -0.44787452 0.056880448
-0.068711691 -0.4479979 0.056879476
-0.068883754 -0.44813839 0.056820765
-0.06904687 -0.44826359 0.056811705
-0.069217198 -0.4484008 0.056764547
-0.069379382 -0.44852433 0.056761265
-0.069542222 -0.44864953 0.056751065
-0.069704302 -0.44877318 0.056746636
-0.069876947 -0.44891688 0.056671765
-0.070038095 -0.44903883 0.056673106
-0.070198417 -0.44915426 0.056709073
-0.070363566 -0.44928592 0.056671165
-0.070499375 -0.44937703 0.056740731
-0.07065665 -0.44952935 0.056547116
-0.070856616 -0.4496721 0.056598991
-0.071014628 -0.44978753 0.056624576
-0.07118427 -0.44992658 0.056563575
-0.071348868 -0.45005864 0.056521058
-0.071506932 -0.45017472 0.05654319
-0.071670204 -0.450304 0.056511059
-0.071833849 -0.45042923 0.056504317
-0.071994312 -0.45055184 0.056498736
-0.072152928 -0.45066991 0.056511633
-0.07231918 -0.45080796 0.056441419
-0.072479062 -0.45092422 0.056470457
-0.072640024 -0.45104897 0.056454502
-0.07280881 -0.45119485 0.056349657
-0.072965443 -0.45130867 0.056378715
-0.073129103 -0.45144159 0.056326974
-0.073284209 -0.45155147 0.056372199
-0.07344678 -0.45167607 0.056364305
-0.073608346 -0.45180407 0.056332186
-0.073774815 -0.45194623 0.056238893
-0.073931172 -0.45206019 0.056265652
-0.074092999 -0.45218995 0.056224301
-0.074248321 -0.4523012 0.056262597
-0.074405439 -0.45241773 0.056277815
-0.074560903 -0.45252946 0.056313809
-0.074727491 -0.45266795 0.056242432
-0.074892208 -0.45280796 0.056153759
-0.075042181 -0.45290351 0.056260161
-0.075206481 -0.45304304 0.05617265
-0.075353988 -0.45315838 0.056152154
-0.075509861 -0.45328638 0.056094691
-0.075683706 -0.45341542 0.05611096
-0.075827926 -0.45352098 0.05613317
-0.075986139 -0.45364305 0.05612069
-0.076141551 -0.45375612 0.056148604
-0.076317139 -0.45390677 0.056046028
-0.076475941 -0.45403188 0.056018546
-0.076637074 -0.45415756 0.05599796
-0.076794751 -0.45427945 0.055984333
-0.076956339 -0.45441553 0.05590491
-0.077113174 -0.45453519 0.055900518
-0.077268228 -0.45464858 0.055924974
-0.077425793 -0.45477137 0.055905569
-0.077582985 -0.45489308 0.055890784
-0.077744201 -0.45503044 0.055802133
-0.077899143 -0.45514435 0.055823132
-0.078056224 -0.45526674 0.055803739
-0.078209616 -0.45537475 0.055852424
-0.078361906 -0.45547816 0.055923045
-0.078518413 -0.45559874 0.055911727
-0.078645438 -0.45570505 0.055853281
-0.078812174 -0.45583972 0.055804983
-0.078984573 -0.45596865 0.055815492
-0.079141825 -0.45610479 0.055716481
-0.079307392 -0.45623618 0.055682041
-0.07946144 -0.45634821 0.055709962
-0.079612851 -0.45647067 0.055665214
-0.079773761 -0.45659283 0.055664249
-0.079930037 -0.45671642 0.055634473
-0.08008641 -0.45684105 0.055598922
-0.080230638 -0.45695409 0.055577297
-0.080365956 -0.45705941 0.055561494
-0.080543324 -0.45719269 0.055568509
-0.080688104 -0.45731008 0.055523802
-0.080835171 -0.45742708 0.055491768
-0.081005186 -0.45754787 0.055539217
-0.081163213 -0.45767158 0.055516347
-0.081317335 -0.45778725 0.055523504
-0.081472591 -0.45791042 0.055491421
-0.081617534 -0.45803288 0.055417873
-0.081772268 -0.45815432 0.055393875
-0.081922643 -0.45826355 0.055421822
-0.082079776 -0.45838481 0.055409335
-0.082245886 -0.45851645 0.055376042
-0.082397737 -0.45863804 0.055338211
-0.082549036 -0.45875606 0.055318855
-0.082694359 -0.45886818 0.055307601
-0.082835279 -0.45896474 0.055367906
-0.082993388 -0.45909914 0.055282742
-0.083164044 -0.4592303 0.05527249
-0.08330863 -0.4593375 0.05528662
-0.08345443 -0.45945826 0.055226915
-0.083601959 -0.45957008 0.055227187
-0.083766669 -0.45969731 0.055213511
-0.083919965 -0.45981625 0.055197589
-0.084058836 -0.45992169 0.055196762
-0.084214427 -0.46003646 0.055215448
-0.084370658 -0.46016237 0.055171821
-0.084515132 -0.46027401 0.055159424
-0.084673867 -0.46040025 0.05512502
-0.084821388 -0.46052331 0.05505953
-0.084973946 -0.46063793 0.055065542
-0.08512938 -0.46075773 0.055054229
-0.085279159 -0.46087596 0.055026799
-0.085425988 -0.46099001 0.055010919
-0.08558394 -0.46110618 0.055031896
-0.085739121 -0.46122894 0.055002127
-0.08589419 -0.4613502 0.054980427
-0.08604078 -0.46145716 0.055004932
-0.086195707 -0.46157914 0.054978635
-0.08634758 -0.46170667 0.054906193
-0.08649683 -0.46181643 0.054926068
-0.086645953 -0.46193042 0.054920562
-0.086805969 -0.46206099 0.05486653
-0.08694917 -0.46217364 0.054842602
-0.087104104 -0.46228379 0.054885518
-0.087249793 -0.46240228 0.054838493
-0.087403819 -0.46252653 0.054794893
-0.087555401 -0.4626416 0.05479398
-0.08770638 -0.46276373 0.054749236
-0.08785753 -0.46288222 0.054726418
-0.08801467 -0.46299997 0.054734703
-0.088163525 -0.46310982 0.054752279
-0.088309035 -0.46322265 0.054737564
-0.088462658 -0.46334383 0.054710101
-0.088616595 -0.46346149 0.054704566
-0.088769704 -0.46358523 0.054659821
-0.088917382 -0.46370247 0.054628931
-0.089066014 -0.46381235 0.054645348
-0.089217409 -0.46392456 0.054660596
-0.089366071 -0.46403426 0.054678172
-0.089511909 -0.46416095 0.054583848
-0.089664862 -0.46428162 0.0545564
-0.089823283 -0.46440661 0.054527763
-0.089968115 -0.46451855 0.054515362
-0.090122834 -0.46462893 0.054555971
-0.090266272 -0.46474728 0.05449973
-0.090421706 -0.46486944 0.054474577
-0.090571597 -0.46498677 0.054452907
-0.090722971 -0.46509737 0.054477386
-0.090870261 -0.46521136 0.054463822
-0.091021374 -0.46533635 0.054402925
-0.091177277 -0.46545491 0.054400839
-0.09132427 -0.46556908 0.054384954
-0.091470137 -0.46567491 0.054412927
-0.091625005 -0.4657968 0.054386619
-0.091771111 -0.46591344 0.054352291
-0.091922201 -0.46603584 0.054306395
-0.09207461 -0.46615353 0.054293942
-0.092225671 -0.46626449 0.054314964
-0.092374191 -0.4663727 0.054340608
-0.092519261 -0.46649113 0.054291286
-0.092670202 -0.46662247 0.054192316
-0.092821933 -0.46673116 0.054229483
-0.09297356 -0.46684039 0.054263189
-0.093114726 -0.46696785 0.054143514
-0.093268767 -0.46707988 0.054171436
-0.093420736 -0.46719724 0.054158993
-0.093570068 -0.46731198 0.054150015
-0.093722381 -0.46743688 0.054094885
-0.093867399 -0.46754423 0.054110169
-0.094016559 -0.46766734 0.054051597
-0.094168797 -0.46777505 0.054096829
-0.094317392 -0.4678908 0.054078639
-0.094466761 -0.46800482 0.05407428
-0.09461417 -0.46813053 0.053992648
-0.094764844 -0.46824157 0.054011352
-0.09491583 -0.46835205 0.05403468
-0.09506242 -0.46847105 0.053988814
-0.095208392 -0.46858364 0.053977557
-0.095359527 -0.46869385 0.054003187
-0.095505133 -0.46881405 0.053945784
-0.095658019 -0.46893507 0.053916026
-0.095804356 -0.46905345 0.053872466
-0.095956177 -0.46916243 0.053908475
-0.096107297 -0.46927932 0.053894885
-0.096254937 -0.46939516 0.053872079
-0.096403882 -0.46950883 0.053867724
-0.096548773 -0.46962869 0.053809173
-0.096700653 -0.469744 0.053808272
-0.096848145 -0.46985343 0.053822383
-0.096997939 -0.4699778 0.053759187
-0.097144008 -0.47008318 0.053790618
-0.097291149 -0.47019902 0.053765513
-0.097443096 -0.4703199 0.053732302
-0.09758471 -0.47043708 0.053674921
-0.097746313 -0.47055072 0.053727031
-0.097887404 -0.47066829 0.053665034
-0.098034345 -0.47077826 0.05367339
-0.098177902 -0.47089791 0.053610228
-0.098327659 -0.47100982 0.05361972
-0.098484263 -0.47112438 0.053644165
-0.09862484 -0.47124177 0.053581022
-0.098780826 -0.47135705 0.053598545
-0.098926812 -0.47147319 0.05356653
-0.099072553 -0.47157931 0.05359219
-0.099222146 -0.47170156 0.053540535
-0.099376187 -0.47181398 0.053566147
-0.099511109 -0.4719314 0.05347766
-0.099670663 -0.47204307 0.053532079
-0.099820547 -0.47216457 0.053486191
-0.099960148 -0.47228158 0.053420752
-0.1001064 -0.47238731 0.05345102
-0.10025091 -0.47250411 0.053408623
-0.10040859 -0.47261792 0.053442292
-0.10055494 -0.47273749 0.053391814
-0.10070562 -0.47284856 0.053410519
-0.10084921 -0.47296584 0.053361207
-0.10099838 -0.47307378 0.053391472
-0.10115323 -0.47319904 0.053345554
-0.10129249 -0.47331089 0.053308945
-0.10143881 -0.47342551 0.053287305
-0.10158426 -0.47353652 0.053282984
-0.10174936 -0.47365341 0.053331599
-0.10189156 -0.47377536 0.053248838
-0.10202206 -0.47388095 0.053209983
-0.1021798 -0.47399107 0.053265572
-0.10232871 -0.4741118 0.053219687
-0.10248056 -0.4742263 0.053223394
-0.10261948 -0.47434181 0.053163722
-0.10276977 -0.47444943 0.053200897
-0.10291159 -0.47456676 0.053143516
-0.10306243 -0.47468582 0.053116079
-0.103213 -0.47480112 0.053109415
-0.10336535 -0.47491145 0.053139657
-0.1035057 -0.47502175 0.053116895
-0.10366756 -0.47513774 0.053156313
-0.10380906 -0.47525859 0.053077012
-0.10395676 -0.47536817 0.053091124
-0.10410668 -0.4754802 0.053100612
-0.1042448 -0.47559533 0.053039797
-0.10438331 -0.4757137 0.052961662
-0.1045349 -0.47583193 0.052942306
-0.10467897 -0.47594348 0.052928746
-0.10483175 -0.47606105 0.052918598
-0.10498286 -0.47617599 0.052916553
-0.10513404 -0.47628742 0.052935261
-0.10527389 -0.47640106 0.052890584
-0.1054218 -0.47651416 0.052885082
-0.10556956 -0.47662735 0.052878425
-0.10571268 -0.47674605 0.052818738
-0.10585847 -0.47686008 0.052798249
-0.10600649 -0.47697639 0.052774291
-0.10615905 -0.47709399 0.052762996
-0.10630584 -0.47720426 0.052769043
-0.10645959 -0.47732139 0.052765809
-0.10660943 -0.47743693 0.052754536
-0.10674822 -0.47755373 0.052686788
-0.10688822 -0.47766358 0.052665185
-0.10704023 -0.4777782 0.052668892
-0.10718955 -0.47788763 0.052691072
-0.10733733 -0.47800082 0.052684423
-0.10747999 -0.47811899 0.05262588
-0.10763288 -0.47823033 0.052652657
-0.10778494 -0.47834814 0.052637905
-0.10792739 -0.4784632 0.05259667
-0.10807812 -0.47857842 0.052591152
-0.1082205 -0.47869343 0.052549928
-0.10836959 -0.47880918 0.052534033
-0.10853028 -0.47892427 0.052573457
-0.10867466 -0.47903568 0.052562207
-0.10882583 -0.47915378 0.052541692
-0.10896572 -0.47926649 0.052502781
-0.10911779 -0.47938433 0.052488029
-0.10925495 -0.47949773 0.052432984
-0.10941009 -0.47960901 0.052470129
-0.10956194 -0.47972411 0.052470379
-0.10970178 -0.47983953 0.052415319
-0.10984778 -0.47995609 0.052380983
-0.10999534 -0.48006949 0.052372023
-0.11014625 -0.48018485 0.05236651
-0.11029263 -0.48029858 0.05235064
-0.11044879 -0.48041278 0.052375089
-0.11059464 -0.48052669 0.052355751
-0.11073689 -0.4806467 0.052284531
-0.11088911 -0.48076189 0.052285925
-0.11103861 -0.48087499 0.052287336
-0.11119223 -0.48099262 0.052280653
-0.11134423 -0.48110271 0.052310899
-0.11148904 -0.48122466 0.052239649
-0.11162965 -0.48133948 0.052191507
-0.11178689 -0.48145396 0.052219413
-0.11194297 -0.48157126 0.052225403
-0.11208141 -0.48168641 0.052165732
-0.11221724 -0.48179683 0.052122235
-0.11237752 -0.48191103 0.052165121
-0.11252849 -0.48202172 0.052187294
-0.1126878 -0.48214129 0.052194417
-0.1128179 -0.48225996 0.052077107
-0.11296314 -0.48237398 0.052054323
-0.11311825 -0.48249412 0.052039556
-0.1132653 -0.48260793 0.052025981
-0.11342464 -0.48271787 0.052089639
-0.11356797 -0.48283222 0.05205648
-0.11372841 -0.48296151 0.05201168
-0.11386252 -0.48307437 0.051946264
-0.11401378 -0.48318547 0.051967282
-0.11415218 -0.48329312 0.051951461
-0.11430238 -0.48341149 0.051925179
-0.11444432 -0.48351884 0.051926635
-0.11458381 -0.48363578 0.051861189
-0.11473998 -0.48374903 0.051891409
-0.11489214 -0.48386732 0.051874347
-0.11505035 -0.48397601 0.051940322
-0.11519165 -0.48409966 0.051843718
-0.1153211 -0.48421252 0.051757567
-0.11547592 -0.48432612 0.051779717
-0.115633 -0.4844442 0.051785696
-0.11578046 -0.48455831 0.051772129
-0.11593219 -0.48466781 0.051804677
-0.1160818 -0.48478413 0.051787637
-0.11622149 -0.48490083 0.051724497
-0.11638052 -0.48501468 0.051763922
-0.11652165 -0.48512912 0.051720396
-0.11665747 -0.48524368 0.05165267
-0.11680281 -0.48536015 0.051616028
-0.11696012 -0.48547208 0.051658928
-0.11711907 -0.48558843 0.051683366
-0.11725506 -0.4857029 0.051616788
-0.11740713 -0.48582152 0.051597424
-0.1175423 -0.48593378 0.051540084
-0.11770498 -0.48605454 0.051555268
-0.11786026 -0.48616692 0.051586632
-0.11800769 -0.48628142 0.051570758
-0.11817037 -0.48639822 0.05160901
-0.11829682 -0.48651454 0.05148942
-0.11845389 -0.48662925 0.051515017
-0.11860412 -0.4867439 0.051510662
-0.11875533 -0.48686066 0.051498216
-0.11888538 -0.48697478 0.051407456
-0.11904684 -0.48708987 0.051450323
-0.11919794 -0.48720875 0.051425196
-0.11933744 -0.48732314 0.051374748
-0.11949154 -0.48744014 0.051373832
-0.11965119 -0.48755345 0.051419023
-0.1197855 -0.48767158 0.051323619
-0.11994534 -0.48778704 0.051357277
-0.12008709 -0.48790354 0.051304508
-0.12023813 -0.48801857 0.051301301
-0.12038299 -0.48813331 0.05127275
-0.12053659 -0.48825446 0.051245287
-0.12070067 -0.48836857 0.051305458
-0.12083713 -0.48848087 0.051253881
-0.12099475 -0.48859856 0.051264472
-0.12113806 -0.48871326 0.051229004
-0.12129632 -0.48883304 0.051230371
-0.12143432 -0.48894924 0.051162623
-0.12158839 -0.48906681 0.051158249
-0.12173854 -0.48918217 0.051149268
-0.12188476 -0.48929912 0.051113788
-0.12202996 -0.48941407 0.051085226
-0.12218574 -0.48953196 0.051086601
-0.12235437 -0.48964936 0.051147897
-0.12250348 -0.48976669 0.051122785
-0.12264215 -0.48988479 0.05104696
-0.12280037 -0.49000314 0.051056389
-0.12294551 -0.49011827 0.051026687
-0.12308294 -0.49023068 0.050978564
-0.12323831 -0.49034885 0.050976478
-0.12340554 -0.49047029 0.051007785
-0.12354114 -0.49058074 0.05096313
-0.12368648 -0.49069777 0.050923038
-0.12384432 -0.49081641 0.050929017
-0.12398376 -0.49093273 0.050867032
-0.12412786 -0.49104607 0.050843097
-0.12427705 -0.4911637 0.050816819
-0.12443611 -0.4912827 0.050826255
-0.1245972 -0.49140203 0.050842598
-0.12473322 -0.49151435 0.050788712
-0.12488711 -0.49163279 0.050778568
-0.12503079 -0.49174798 0.050741944
-0.12517864 -0.49186555 0.050709907
-0.12535261 -0.49198541 0.050780401
-0.1254967 -0.4921025 0.050734546
-0.12565333 -0.49221984 0.050742835
-0.1257863 -0.49233517 0.050657816
-0.12594153 -0.49245068 0.050670736
-0.12609617 -0.49257123 0.050651357
-0.12625381 -0.49268895 0.050661951
-0.12640139 -0.49280673 0.050627604
-0.1265512 -0.4929232 0.050610565
-0.12671618 -0.49304235 0.050645344
-0.12685601 -0.49315721 0.050593741
-0.12701313 -0.49327511 0.050600879
-0.1271598 -0.49339119 0.05057231
-0.12731725 -0.49351093 0.050570212
-0.12745993 -0.49362636 0.050527826
-0.12762958 -0.49374846 0.050566047
-0.1277599 -0.49386159 0.050482195
-0.12792669 -0.4939833 0.050510045
-0.12807369 -0.49409965 0.050481472
-0.12822355 -0.49421656 0.050462119
-0.12836924 -0.4943327 0.050428946
-0.12851399 -0.49445027 0.050383076
-0.12867676 -0.49457148 0.050395951
-0.1288258 -0.49468839 0.050373144
-0.12898524 -0.49480906 0.050374497
-0.12915337 -0.49493 0.050412718
-0.12928079 -0.4950425 0.050319664
-0.12943836 -0.49516293 0.050314106
-0.12960723 -0.49528426 0.050353471
-0.12972808 -0.4953953 0.05023969
-0.12988119 -0.49551174 0.050237618
-0.13004787 -0.49563435 0.050259698
-0.13019973 -0.49575222 0.050243787
-0.13033171 -0.49586877 0.050147243
-0.13049173 -0.49598849 0.050156672
-0.13067557 -0.49611527 0.050230559
-0.13081731 -0.49623254 0.050173178
-0.13097776 -0.49635258 0.050182603
-0.13111252 -0.49646673 0.050112575
-0.13128737 -0.49659178 0.050156526
-0.13143083 -0.49670801 0.050112985
-0.1315871 -0.49682879 0.050099358
-0.13173939 -0.4969472 0.050082292
-0.13190129 -0.49706793 0.05009402
-0.13203007 -0.4971807 0.05000557
-0.13220736 -0.49730682 0.050054114
-0.1323601 -0.49742851 0.050019749
-0.13251877 -0.49754721 0.050029185
-0.13266309 -0.49766386 0.049986787
-0.13281325 -0.49778199 0.049961656
-0.13296661 -0.49790099 0.049945746
-0.13312691 -0.4980233 0.049941324
-0.13327613 -0.49814427 0.049895439
-0.13343409 -0.49826458 0.049892191
-0.13358679 -0.49838507 0.049864735
-0.13374218 -0.49850482 0.049853422
-0.13390261 -0.49862742 0.049847849
-0.13406822 -0.49874997 0.049865324
-0.13421583 -0.49887073 0.04981368
-0.13436265 -0.49898693 0.049785107
-0.13452944 -0.49911001 0.049804877
-0.13469277 -0.49923226 0.049814288
-0.13482305 -0.49934694 0.049721204
-0.13499035 -0.49947178 0.049732901
-0.13513829 -0.49959278 0.049681254
-0.13529755 -0.49971408 0.049677998
-0.13546321 -0.49983865 0.049683925
-0.13562143 -0.4999584 0.049685284
-0.13576832 -0.50007778 0.049638264
-0.13591975 -0.50019711 0.049611975
-0.13608968 -0.50032318 0.049628265
-0.13624044 -0.50044096 0.04960775
-0.13639262 -0.50056207 0.049574535
-0.13655454 -0.50068462 0.049575873
-0.1367162 -0.50080854 0.049567983
-0.13687927 -0.50093293 0.049563557
-0.1370344 -0.501055 0.049537245
-0.13718918 -0.50117707 0.049509775
-0.13734405 -0.5012992 0.049482316
-0.13748355 -0.50141394 0.049429569
-0.13765799 -0.50153929 0.049470063
-0.13781188 -0.50165987 0.04944722
-0.1379628 -0.50178099 0.049408242
-0.13811901 -0.50190371 0.049383089
-0.13828805 -0.50202769 0.049407452
-0.055445895 -0.43773815 0.058058877
-0.055616539 -0.43786475 0.058075156
-0.055797808 -0.43800575 0.058054451
-0.055976279 -0.43814242 0.058046453
-0.056167796 -0.43830025 0.05797261
-0.056347206 -0.43843883 0.057957686
-0.056529626 -0.43858245 0.057926595
-0.05670473 -0.43871719 0.057915155
-0.056883987 -0.43885604 0.057897925
-0.057069112 -0.43900466 0.057849497
-0.057226203 -0.43910757 0.057944309
-0.057415556 -0.43926632 0.057855491
-0.057602853 -0.43941915 0.057792064
-0.057776783 -0.43955299 0.057780631
-0.057971612 -0.43971884 0.05767446
-0.058134641 -0.43983495 0.057718482
-0.058299072 -0.43995053 0.057771713
-0.058473155 -0.44008526 0.05775566
-0.058664534 -0.44024926 0.057644911
-0.058837071 -0.4403789 0.057651944
-0.059008624 -0.44050992 0.057646297
-0.059180044 -0.44063792 0.05765795
-0.059376422 -0.44081163 0.057512552
-0.059532963 -0.44091454 0.057605058
-0.05970528 -0.44104752 0.057591338
-0.059885465 -0.44119123 0.057549868
-0.060060222 -0.44132882 0.057519972
-0.060243543 -0.44147846 0.057457719
-0.060411658 -0.44160491 0.057463631
-0.060587138 -0.44174132 0.057444111
-0.060751222 -0.44186097 0.057471965
-0.06092697 -0.44199812 0.057448983
-0.06109862 -0.44213143 0.057430644
-0.061272625 -0.4422659 0.057415754
-0.061441805 -0.44239512 0.057410117
-0.061623085 -0.44254303 0.057349026
-0.061797004 -0.44268116 0.057312213
-0.061958991 -0.44279471 0.057366621
-0.06214077 -0.44294751 0.057278998
-0.062310748 -0.44307911 0.057262968
-0.062476702 -0.44320354 0.057271205
-0.062646732 -0.44333223 0.057272483
-0.062821865 -0.44347388 0.057220668
-0.062998571 -0.44361532 0.05717691
-0.063158408 -0.44372898 0.057220951
-0.063331388 -0.44386387 0.057199132
-0.063506901 -0.44400719 0.057139233
-0.063675463 -0.44413418 0.057143994
-0.063847236 -0.44427091 0.057106033
-0.064009175 -0.4443891 0.057132751
-0.064174622 -0.44451416 0.057135209
-0.064345896 -0.44464695 0.057118025
-0.0645262 -0.44480097 0.057016566
-0.064698383 -0.44493604 0.056990147
-0.064861536 -0.44505736 0.057004157
-0.065036498 -0.44519827 0.056955803
-0.065198094 -0.44531682 0.05697906
-0.065365262 -0.44544277 0.056983817
-0.065542221 -0.44559208 0.056895074
-0.065704286 -0.44570825 0.056934476
-0.065865636 -0.4458268 0.056956578
-0.066039257 -0.44597024 0.056887463
-0.066205636 -0.44609931 0.056870304
-0.066370293 -0.44622117 0.056887776
-0.066543095 -0.44636381 0.056819815
-0.066710666 -0.44649202 0.056813039
-0.066872373 -0.44661224 0.056827057
-0.067045636 -0.44675267 0.056774102
-0.067212239 -0.44688347 0.056747712
-0.067369759 -0.44699126 0.056815986
-0.067543797 -0.44713816 0.056728408
-0.067704774 -0.44725764 0.056743588
-0.067843139 -0.44737884 0.05664815
-0.068040095 -0.44752997 0.056637734
-0.06819737 -0.44766316 0.056556024
-0.068370119 -0.4477748 0.056669202
-0.068536043 -0.4479059 0.056638207
-0.06869258 -0.44804269 0.056532275
-0.068871781 -0.44817758 0.05653812
-0.069035083 -0.4482992 0.05655098
-0.069203734 -0.44843748 0.056489971
-0.069369137 -0.44856423 0.056482047
-0.069530658 -0.44868687 0.056481071
-0.069694802 -0.44881111 0.056482397
-0.069856994 -0.44893563 0.056473345
-0.070016682 -0.44905451 0.056486223
-0.070181504 -0.44918555 0.056450617
-0.070347652 -0.44931525 0.05642885
-0.070504002 -0.44942668 0.056470599
-0.070678569 -0.44957694 0.05636571
-0.070835806 -0.44969082 0.056397066
-0.071001828 -0.44982612 0.056341838
-0.07116206 -0.44994757 0.056342028
-0.071329519 -0.450082 0.056298327
-0.071490981 -0.45020697 0.056283507
-0.07165347 -0.45032954 0.056287143
-0.071811587 -0.45044643 0.056304652
-0.071975023 -0.45057702 0.056265593
-0.072135024 -0.45069909 0.056261174
-0.072302386 -0.45083502 0.056208242
-0.072465099 -0.45096469 0.056171499
-0.072618097 -0.45106903 0.056239806
-0.072783686 -0.45120677 0.056168426
-0.072943993 -0.45132512 0.056187071
-0.073109798 -0.45146421 0.056108773
-0.073272392 -0.45158923 0.056098565
-0.073431626 -0.45171112 0.05609183
-0.073593885 -0.45184159 0.05604817
-0.073753841 -0.45196602 0.056029901
-0.0739168 -0.45209306 0.0560093
-0.074071929 -0.45220417 0.0560476
-0.074237548 -0.45234567 0.0559543
-0.074397251 -0.45247048 0.055932574
-0.074549794 -0.45256796 0.056038953
-0.074711226 -0.4526982 0.055992976
-0.074845925 -0.45280758 0.055950634
-0.075035781 -0.45295843 0.055910259
-0.075191341 -0.4530718 0.055937015
-0.075355053 -0.45321068 0.055850659
-0.075513937 -0.45332795 0.055869311
-0.075671315 -0.45344764 0.05586721
-0.07583268 -0.45358041 0.055806242
-0.075988807 -0.45369658 0.055819143
-0.076149724 -0.4538213 0.05580318
-0.076311558 -0.45395699 0.05572721
-0.076467849 -0.45406678 0.055778179
-0.076624431 -0.45418528 0.05577955
-0.0767847 -0.45430893 0.055767048
-0.076946363 -0.45444587 0.055683002
-0.077101283 -0.45455936 0.0557063
-0.077259332 -0.45468426 0.055676505
-0.077420063 -0.45481104 0.055647839
-0.07754539 -0.45490915 0.055629782
-0.077686176 -0.45500481 0.055694692
-0.077878155 -0.45515451 0.055670466
-0.078043371 -0.45528191 0.055657934
-0.078209981 -0.45542455 0.055562321
-0.078369722 -0.45554978 0.055538282
-0.078527801 -0.45567828 0.055487715
-0.07868515 -0.45579439 0.05550639
-0.078839198 -0.45590663 0.055533145
-0.078999013 -0.45603368 0.055498727
-0.07915058 -0.45614579 0.055515125
-0.079312302 -0.45628238 0.055433389
-0.079468973 -0.45640764 0.055395521
-0.07962583 -0.45652297 0.055416495
-0.079782128 -0.45664737 0.055382099
-0.079940192 -0.45676914 0.055370759
-0.080064461 -0.45686802 0.055343471
-0.080233708 -0.4569979 0.055334378
-0.080390111 -0.45711213 0.055359975
-0.08056587 -0.45725128 0.055325456
-0.080717407 -0.45736635 0.055324547
-0.0808575 -0.45747289 0.055322543
-0.08103504 -0.45762444 0.055223402
-0.081178829 -0.45772436 0.055276766
-0.081325203 -0.45784003 0.055249345
-0.081499286 -0.45797279 0.055244844
-0.081657156 -0.45809895 0.055206969
-0.081812419 -0.45822549 0.055155266
-0.081945419 -0.45832136 0.055184465
-0.082098842 -0.45845458 0.055085465
-0.082249261 -0.45856681 0.055096101
-0.082411669 -0.45869288 0.055078968
-0.082573228 -0.45881259 0.055095308
-0.08272738 -0.45893574 0.055058606
-0.082889184 -0.45905858 0.055057634
-0.083026312 -0.45917058 0.055010658
-0.083193421 -0.45929569 0.055020034
-0.083346814 -0.45941511 0.055001806
-0.08350534 -0.4595339 0.055010084
-0.083649933 -0.45964506 0.055001132
-0.083792701 -0.45976764 0.054917198
-0.083939046 -0.45986891 0.054974005
-0.084104598 -0.46001488 0.054854177
-0.084256917 -0.46012619 0.054878645
-0.084409714 -0.46024594 0.054855794
-0.084564917 -0.46036142 0.054868702
-0.084734477 -0.46049371 0.054846916
-0.084892683 -0.46061796 0.054821737
-0.08503633 -0.46072111 0.054855481
-0.085183166 -0.46083891 0.054817684
-0.08532697 -0.46094987 0.054806426
-0.085490331 -0.46106875 0.054835446
-0.085642651 -0.46120352 0.054722615
-0.085791804 -0.46131223 0.054748248
-0.085940942 -0.46142802 0.054732352
-0.086098433 -0.46155155 0.054708328
-0.086247444 -0.46166545 0.054702811
-0.086399063 -0.46178827 0.0546569
-0.086553611 -0.46190402 0.054665204
-0.086708076 -0.46202132 0.054664277
-0.08685942 -0.46214312 0.054622978
-0.087011114 -0.46225473 0.054642834
-0.087159641 -0.46237084 0.054622322
-0.087313697 -0.46249118 0.054601781
-0.087467246 -0.46261778 0.05454202
-0.087621421 -0.46273369 0.054548014
-0.08776997 -0.46284509 0.054555193
-0.087928958 -0.46297348 0.054509237
-0.088074006 -0.46308911 0.054476056
-0.088231064 -0.46320423 0.054499343
-0.088390037 -0.46332946 0.05447185
-0.088541009 -0.46344429 0.054469783
-0.088685647 -0.4635604 0.054431994
-0.088836923 -0.46367189 0.054450694
-0.088986464 -0.46379587 0.054388646
-0.089140408 -0.4639098 0.054405022
-0.089287244 -0.46402937 0.054356843
-0.089444146 -0.46414396 0.054382429
-0.089595035 -0.46425694 0.054390751
-0.089747153 -0.46438071 0.05434138
-0.089899465 -0.46450266 0.054303534
-0.090049505 -0.46461916 0.054287635
-0.090199798 -0.46473405 0.05428211
-0.090351753 -0.46485612 0.05424197
-0.09050557 -0.46496916 0.054262966
-0.09065675 -0.46509379 0.054204367
-0.090804197 -0.46520573 0.054203484
-0.090956442 -0.46532488 0.054181799
-0.09110634 -0.46543986 0.054173969
-0.091258071 -0.46556038 0.054141909
-0.091410629 -0.46567741 0.054134063
-0.091560565 -0.46579164 0.054130852
-0.091709338 -0.46590972 0.054099958
-0.091856927 -0.46601999 0.05410945
-0.092012696 -0.46613708 0.054115433
-0.092156246 -0.46626005 0.054032654
-0.092309587 -0.4663735 0.054049041
-0.092458472 -0.46648991 0.054028526
-0.092611156 -0.46660525 0.05403107
-0.092755288 -0.46672472 0.053971358
-0.092909619 -0.46684486 0.053953119
-0.093062803 -0.4669584 0.053968348
-0.093208924 -0.46707171 0.053953629
-0.093365654 -0.46718538 0.053983837
-0.093517385 -0.46731141 0.053919461
-0.09366034 -0.46742311 0.053900141
-0.093812749 -0.46753824 0.053902686
-0.093966164 -0.46765944 0.053874075
-0.094118379 -0.46777481 0.05387431
-0.094268695 -0.46789426 0.053842247
-0.094413392 -0.46800944 0.053810228
-0.094560504 -0.46812725 0.053773575
-0.094711274 -0.46824506 0.053753048
-0.09486381 -0.46836677 0.053717524
-0.095013574 -0.46847144 0.053769693
-0.095160656 -0.46858862 0.0537365
-0.095310487 -0.46870768 0.053704452
-0.095460422 -0.46881935 0.053716239
-0.095610224 -0.46893823 0.053685341
-0.095765412 -0.46905446 0.053693626
-0.095911048 -0.46916661 0.053683523
-0.096057191 -0.46928447 0.053642265
-0.096209422 -0.46940538 0.053610191
-0.096360192 -0.4695155 0.053634666
-0.096511647 -0.46963739 0.053593375
-0.096659712 -0.46975788 0.053545177
-0.096807308 -0.46987271 0.053528141
-0.096957631 -0.46998349 0.053546846
-0.097104229 -0.47009361 0.053552885
-0.097260199 -0.47022033 0.053503491
-0.097408682 -0.47033364 0.053499129
-0.097554475 -0.47044474 0.053495951
-0.097700559 -0.47055542 0.053496223
-0.09785156 -0.47068229 0.053423777
-0.097996578 -0.47079417 0.053412516
-0.098150022 -0.47091207 0.053403515
-0.098295197 -0.47102368 0.053394571
-0.09843903 -0.47113681 0.053370629
-0.09857858 -0.4712601 0.053268254
-0.098746426 -0.47136647 0.0533907
-0.098891988 -0.47148269 0.053356357
-0.099041633 -0.47158921 0.053396996
-0.099181205 -0.47171172 0.053299241
-0.099329747 -0.47182944 0.053269498
-0.099474385 -0.47195107 0.053199403
-0.099634521 -0.4720616 0.053263046
-0.099779621 -0.47217768 0.053227566
-0.099933654 -0.47228971 0.05325548
-0.10008086 -0.47240365 0.053241905
-0.10022905 -0.47252128 0.053211004
-0.10037485 -0.47264105 0.053157061
-0.10051513 -0.47275189 0.053130828
-0.10066815 -0.47286493 0.053148367
-0.10082748 -0.47297701 0.053199328
-0.10097403 -0.47309577 0.053154599
-0.10111319 -0.47321621 0.053067237
-0.10125863 -0.47332248 0.053090591
-0.10141008 -0.47344121 0.053067751
-0.10155363 -0.47355336 0.053048428
-0.10170566 -0.47367156 0.053031355
-0.10185009 -0.47378713 0.052995879
-0.10200218 -0.473901 0.053004194
-0.10215536 -0.47401002 0.053045962
-0.10230408 -0.47412649 0.053024288
-0.10244732 -0.47424275 0.052979589
-0.10258219 -0.4743607 0.05288763
-0.10273466 -0.47447035 0.05292248
-0.10287853 -0.47458589 0.05288469
-0.10303672 -0.47469968 0.052920654
-0.10318428 -0.47481665 0.052890919
-0.10332897 -0.47492766 0.052883133
-0.10347512 -0.4750416 0.052864943
-0.10362919 -0.47515818 0.052866329
-0.10377268 -0.47528112 0.052783549
-0.1039163 -0.47538897 0.052789606
-0.10406176 -0.47550318 0.0527668
-0.10421269 -0.47561422 0.052786663
-0.10435838 -0.47573546 0.052723479
-0.10450901 -0.47584313 0.052761801
-0.10465167 -0.47595873 0.052718252
-0.104803 -0.47607324 0.052719645
-0.10494944 -0.47618678 0.052704915
-0.10509814 -0.47630262 0.052686721
-0.10525132 -0.47641283 0.05272156
-0.105387 -0.47653159 0.052628446
-0.10553721 -0.47664329 0.052641384
-0.10567943 -0.47676545 0.052557461
-0.10583127 -0.47687304 0.052601539
-0.10597661 -0.47699031 0.052560285
-0.10612492 -0.47710291 0.052559391
-0.10627424 -0.47721508 0.052565418
-0.10641842 -0.47732949 0.052535698
-0.10657194 -0.47744644 0.052532468
-0.10671315 -0.47755876 0.052501619
-0.10687026 -0.47767431 0.052522592
-0.10701403 -0.47778565 0.05250904
-0.10715794 -0.47790316 0.052459717
-0.10729837 -0.47801569 0.052424252
-0.10745759 -0.47812754 0.052476365
-0.10760459 -0.47824997 0.052412022
-0.10773341 -0.47836038 0.052337412
-0.10788836 -0.47846779 0.052396465
-0.10803585 -0.47858685 0.052354053
-0.10819744 -0.47870126 0.052401528
-0.10833301 -0.47881821 0.052318797
-0.10847896 -0.47892585 0.052336376
-0.10862466 -0.47904533 0.052283585
-0.10877631 -0.4791601 0.052284971
-0.10891449 -0.47927013 0.05225414
-0.10905512 -0.47938517 0.05220484
-0.10921267 -0.4794983 0.05224197
-0.10936584 -0.47961557 0.052235268
-0.10950763 -0.47972459 0.052226346
-0.10965495 -0.47983783 0.052217379
-0.10979664 -0.47995526 0.05215884
-0.10994747 -0.48006761 0.052170623
-0.11009936 -0.48017702 0.052204318
-0.1102374 -0.48029521 0.052125033
-0.11037915 -0.48040974 0.052083801
-0.11052141 -0.4805268 0.052029867
