# .PCD v0.7 - Point Cloud Data file format
VERSION 0.7
FIELDS x y z
SIZE 4 4 4
TYPE F F F
COUNT 1 1 1
WIDTH 1223
HEIGHT 1
VIEWPOINT 0 0 0 1 0 0 0
POINTS 1223
DATA ascii
-0.12508489 -0.40014276 0.057325322
-0.12526006 -0.4002381 0.057317607
-0.12545569 -0.40033448 0.057374388
-0.1256178 -0.40043238 0.057304434
-0.12578952 -0.40052798 0.057282887
-0.12596253 -0.40062356 0.057265945
-0.12613513 -0.40072107 0.05723517
-0.12631948 -0.40081638 0.057259709
-0.12648469 -0.40091416 0.057201277
-0.12666896 -0.40100959 0.057224665
-0.12684083 -0.40110722 0.057190422
-0.12700647 -0.40120134 0.057157367
-0.12719128 -0.40130061 0.057157677
-0.12736447 -0.40139648 0.057139583
-0.12755877 -0.40149394 0.057184841
-0.12772666 -0.40158996 0.057147164
-0.1279079 -0.40168589 0.057156719
-0.12807065 -0.40178201 0.057100601
-0.1282485 -0.40187985 0.057085946
-0.12841618 -0.40197596 0.057047114
-0.12861402 -0.40207389 0.057101592
-0.12877887 -0.40217006 0.057052385
-0.12897207 -0.40226817 0.057089578
-0.12912627 -0.40236428 0.057003506
-0.12930895 -0.40246242 0.057003826
-0.12945427 -0.40255839 0.056887802
-0.12961844 -0.40265453 0.056836296
-0.12980783 -0.40275115 0.05687004
-0.12998192 -0.40284926 0.056840405
-0.13016739 -0.40294763 0.056848787
-0.13034508 -0.40304592 0.056830674
-0.13052435 -0.40314257 0.056828707
-0.13067888 -0.40324029 0.056733407
-0.13091019 -0.40333688 0.056913469
-0.13105236 -0.40343595 0.056766313
-0.13125338 -0.40353188 0.056844994
-0.13141006 -0.40362969 0.056756608
-0.13157895 -0.40372625 0.056718919
-0.13176014 -0.40382501 0.05671002
-0.13194345 -0.40392223 0.056718413
-0.13213782 -0.40402168 0.056750983
-0.13230953 -0.40411854 0.056721359
-0.13248286 -0.40421712 0.056685969
-0.13266304 -0.40431446 0.05668284
-0.13283795 -0.40441319 0.056652039
-0.13301909 -0.40451068 0.056651216
-0.13319266 -0.40460941 0.056615815
-0.13336772 -0.40470663 0.056595415
-0.13356775 -0.40480539 0.056652181
-0.13374086 -0.40490422 0.056614473
-0.13390575 -0.40500095 0.056561816
-0.13407478 -0.40509957 0.056511439
-0.134251 -0.40519705 0.056493331
-0.13444813 -0.40529764 0.056528196
-0.13461244 -0.40539441 0.056473222
-0.13480689 -0.40549335 0.056509249
-0.13499039 -0.40559316 0.056501497
-0.13514864 -0.40569112 0.056417715
-0.13534513 -0.40579045 0.056458354
-0.13552083 -0.40588981 0.056426398
-0.13569009 -0.40598711 0.056385249
-0.13587762 -0.40608749 0.056387857
-0.13605905 -0.40618744 0.056372032
-0.13623795 -0.40628567 0.056358531
-0.13641864 -0.40638715 0.056330018
-0.136591 -0.4064849 0.05629693
-0.13677339 -0.40658358 0.056292642
-0.13693975 -0.40668234 0.056231897
-0.13710731 -0.4067812 0.056174606
-0.13730766 -0.40688175 0.056220986
-0.13751976 -0.40698504 0.056290396
-0.1376826 -0.40708208 0.056228511
-0.13783704 -0.40717977 0.056133207
-0.1380239 -0.40727925 0.056139275
-0.13821816 -0.40738255 0.056146469
-0.13841029 -0.40748718 0.056137517
-0.13858514 -0.40758413 0.056118265
-0.13878268 -0.40768653 0.05614274
-0.13894086 -0.40778318 0.056067038
-0.13912819 -0.40788311 0.056071956
-0.13931066 -0.40798253 0.056063049
-0.13950175 -0.40808448 0.056067944
-0.13969092 -0.40818629 0.056067087
-0.1398641 -0.40828481 0.056031685
-0.14004755 -0.40838459 0.056023922
-0.14025337 -0.40849003 0.056057595
-0.14040935 -0.40858656 0.055974975
-0.14059407 -0.4086881 0.055960298
-0.14078361 -0.40878746 0.055976734
-0.14095739 -0.40888771 0.055932101
-0.14112037 -0.4089866 0.055858687
-0.14132163 -0.40908906 0.055895843
-0.14150086 -0.40919012 0.055865034
-0.14170563 -0.4092932 0.055910241
-0.14188735 -0.40939474 0.055885188
-0.1420528 -0.4094955 0.055808291
-0.14221261 -0.40959269 0.05573488
-0.1424177 -0.4096961 0.055778939
-0.14258963 -0.40979505 0.055736624
-0.14279732 -0.4099004 0.055777211
-0.14295739 -0.40999773 0.055703808
-0.14314704 -0.41010067 0.055697177
-0.14333065 -0.41020143 0.055683643
-0.051015068 -0.3593196 0.063920237
-0.051181424 -0.35938567 0.06407173
-0.05140581 -0.35952437 0.06395413
-0.051608838 -0.35964981 0.063848168
-0.051786114 -0.35972673 0.06396731
-0.052014422 -0.35985848 0.063908532
-0.052230086 -0.3599875 0.063823283
-0.052414384 -0.36007568 0.063893929
-0.052609339 -0.36017954 0.063899919
-0.052817825 -0.36030027 0.063843541
-0.053022627 -0.36041918 0.06378603
-0.05318509 -0.36050609 0.063788712
-0.05341465 -0.36063051 0.06378185
-0.053618297 -0.36073816 0.063793555
-0.053817671 -0.36085096 0.063756846
-0.054021269 -0.36096144 0.063750103
-0.054222565 -0.36107439 0.063719146
-0.054447062 -0.36121705 0.063576154
-0.054609805 -0.36129716 0.063623838
-0.054774247 -0.36137411 0.063698038
-0.054974724 -0.36148661 0.063667089
-0.055179227 -0.36160451 0.063615352
-0.055415705 -0.36173141 0.063616522
-0.055612624 -0.36183438 0.063635193
-0.055795785 -0.36192495 0.063686237
-0.056012243 -0.36205921 0.063569829
-0.056215242 -0.36217609 0.063519247
-0.056409463 -0.36228719 0.063475624
-0.056604136 -0.36238503 0.063519694
-0.056803498 -0.3624948 0.063502587
-0.057017576 -0.36262724 0.063389651
-0.057211116 -0.36272961 0.063400269
-0.057407793 -0.36283919 0.063375093
-0.057598647 -0.36293817 0.063398413
-0.057797782 -0.36305138 0.063358232
-0.057992686 -0.36315611 0.063358456
-0.058164869 -0.36323279 0.063461468
-0.058377657 -0.36336222 0.063363537
-0.05857344 -0.36347148 0.063337222
-0.058750141 -0.3635515 0.063434444
-0.058967087 -0.36369044 0.063289188
-0.059158143 -0.3637906 0.063305572
-0.05936034 -0.36390954 0.063238844
-0.059557203 -0.36401814 0.063220598
-0.059748743 -0.36412248 0.063211605
-0.059932996 -0.36421347 0.063263804
-0.060135849 -0.3643342 0.063187838
-0.060328431 -0.36443731 0.063190371
-0.060531326 -0.36455858 0.063110948
-0.060709514 -0.36464113 0.063196629
-0.060891632 -0.36473259 0.063238449
-0.061102763 -0.36486325 0.063126676
-0.061280254 -0.36494812 0.063195057
-0.061488338 -0.36507484 0.063098304
-0.061680343 -0.36518139 0.063076615
-0.061881628 -0.36529857 0.063017964
-0.06206305 -0.36538965 0.063059784
-0.062259492 -0.36549997 0.063028842
-0.062453531 -0.36561027 0.062989846
-0.062652811 -0.36572534 0.062938131
-0.062835813 -0.36581922 0.062967256
-0.063030593 -0.36592776 0.062942088
-0.06321995 -0.36603162 0.06292849
-0.063413143 -0.36613807 0.062911421
-0.063615024 -0.36626184 0.062812388
-0.063801423 -0.36635804 0.062838033
-0.063993514 -0.36646694 0.062801346
-0.064176835 -0.36655849 0.062846616
-0.064375311 -0.36667791 0.062763758
-0.064574599 -0.3667953 0.062697038
-0.064756624 -0.36688882 0.062725008
-0.06495136 -0.3669993 0.062687159
-0.065136835 -0.36709484 0.062713973
-0.065331705 -0.36720595 0.062672652
-0.065508284 -0.36729085 0.062737569
-0.065701753 -0.36739993 0.06270434
-0.0658869 -0.36749923 0.062705763
-0.066062547 -0.36760229 0.062649541
-0.066226453 -0.36766988 0.062782601
-0.066444226 -0.36782101 0.062561192
-0.066651672 -0.36793107 0.062570587
-0.066847757 -0.36804599 0.062508486
-0.067024469 -0.3681317 0.062568799
-0.06721212 -0.36823231 0.062570214
-0.067376629 -0.36832157 0.062564805
-0.067548484 -0.36841974 0.062527068
-0.067749448 -0.36853606 0.062473029
-0.067972153 -0.36866179 0.062433898
-0.068155423 -0.36875969 0.062437631
-0.068342321 -0.36886436 0.062410198
-0.068525642 -0.36896268 0.062411636
-0.06870807 -0.36905497 0.062448837
-0.068896994 -0.36916393 0.062400628
-0.06909319 -0.36928231 0.062316619
-0.069267213 -0.36936373 0.062395394
-0.069463275 -0.36948237 0.062309079
-0.069651134 -0.3695904 0.062263191
-0.069836095 -0.36968833 0.062272687
-0.070012942 -0.36977535 0.062324915
-0.070176482 -0.36986515 0.062312596
-0.070370093 -0.36998051 0.062238976
-0.070575558 -0.37009537 0.062210314
-0.070736654 -0.37017584 0.062249921
-0.070917532 -0.37029147 0.06213022
-0.071127005 -0.37039497 0.062189214
-0.07130155 -0.37049317 0.062160686
-0.071453497 -0.37057051 0.062188804
-0.071632966 -0.37068468 0.06207373
-0.071826883 -0.37081409 0.061910123
-0.072030678 -0.37090617 0.062023364
-0.072162546 -0.37094057 0.062260412
-0.072379693 -0.37111622 0.061877485
-0.072541445 -0.37115461 0.062192842
-0.072709203 -0.37125057 0.062155116
-0.072905332 -0.37137619 0.062023796
-0.073110677 -0.37150607 0.061897062
-0.07325983 -0.3715311 0.062255166
-0.073440641 -0.37164617 0.062138926
-0.073647961 -0.37179983 0.061864495
-0.073825411 -0.37187791 0.061976712
-0.074050359 -0.37201372 0.061879881
-0.074223705 -0.37209421 0.061962117
-0.074413076 -0.3722139 0.061845839
-0.074609667 -0.37232628 0.061802208
-0.074784487 -0.37241715 0.061822142
-0.074950658 -0.37251282 0.061780967
-0.075139821 -0.37260696 0.061829675
-0.075328574 -0.37270004 0.06188415
-0.075527385 -0.37281963 0.061801285
-0.075709313 -0.37292305 0.061764646
-0.075886212 -0.37301311 0.061797258
-0.07607314 -0.37312347 0.061732907
-0.076230086 -0.37321788 0.06166755
-0.076400079 -0.37331167 0.061651744
-0.076617807 -0.37342688 0.061663385
-0.076800622 -0.37354288 0.061548293
-0.076980382 -0.37362647 0.061632812
-0.077162057 -0.37372372 0.061635405
-0.077342398 -0.37382537 0.061604545
-0.077522323 -0.3739261 0.0615783
-0.077702448 -0.37402785 0.061546288
-0.077877939 -0.37411502 0.061592754
-0.078056589 -0.37422144 0.061524983
-0.0782222 -0.37431273 0.061510347
-0.078422412 -0.37442756 0.061463244
-0.078605987 -0.37452388 0.061478514
-0.078786202 -0.37462816 0.061430354
-0.078962296 -0.37471813 0.061460659
-0.079138577 -0.37480873 0.061487503
-0.079318747 -0.37490338 0.061501645
-0.079475291 -0.37499419 0.061458204
-0.079667255 -0.37510213 0.061427295
-0.079859465 -0.3752116 0.061387148
-0.080037199 -0.37530905 0.061374754
-0.08021757 -0.37541783 0.061297745
-0.080398411 -0.37551728 0.061283037
-0.08056321 -0.3756097 0.061258014
-0.080727629 -0.37570086 0.061239924
-0.080934331 -0.37581405 0.061226241
-0.081112213 -0.37590089 0.061283085
-0.081282869 -0.37599486 0.061268426
-0.081466772 -0.37609723 0.06124562
-0.081644334 -0.37619758 0.06121362
-0.081826046 -0.37630513 0.061149299
-0.081993461 -0.37639967 0.061119653
-0.082181394 -0.37651095 0.061052989
-0.082340397 -0.37659207 0.061081074
-0.082535245 -0.37669232 0.061110146
-0.082700267 -0.37677348 0.06115897
-0.082880169 -0.37687385 0.061135024
-0.083028235 -0.37694129 0.061213925
-0.083184376 -0.37700045 0.061374713
-0.083356962 -0.37711447 0.061236594
-0.083537064 -0.37724301 0.061030358
-0.083717801 -0.37735486 0.060934886
-0.083949916 -0.37746271 0.061044544
-0.084129646 -0.3775678 0.060989454
-0.084308326 -0.37766343 0.060992055
-0.084483877 -0.37775895 0.060984299
-0.084662117 -0.37784991 0.061015755
-0.084813848 -0.37791932 0.061094634
-0.084984295 -0.37803325 0.060949598
-0.085189715 -0.37816048 0.060840171
-0.085367553 -0.37824732 0.060897
-0.085539222 -0.37833598 0.06092041
-0.085688025 -0.37840736 0.06097623
-0.085896105 -0.37853906 0.060847171
-0.08607123 -0.37864414 0.060775958
-0.086249284 -0.37874317 0.060754336
-0.086427219 -0.37883732 0.060763873
-0.086601913 -0.37892336 0.060814954
-0.086776599 -0.37901914 0.060802586
-0.086951099 -0.37912247 0.060740601
-0.087128848 -0.37921917 0.060732827
-0.087303095 -0.37932095 0.060680076
-0.087480508 -0.37942192 0.060643464
-0.087654643 -0.37951973 0.060616091
-0.087832123 -0.37961543 0.060614087
-0.088006087 -0.37971315 0.060586721
-0.088181026 -0.37979609 0.060658574
-0.088329203 -0.37987885 0.060638249
-0.088503368 -0.37997258 0.060637422
-0.088692389 -0.38008764 0.060549986
-0.088885911 -0.38018984 0.060561754
-0.0890605 -0.38027811 0.060597837
-0.089237556 -0.38037464 0.060588911
-0.089397185 -0.38047227 0.060512003
-0.089561857 -0.38058186 0.060375072
-0.089760162 -0.38067311 0.0604745
-0.089930773 -0.38076422 0.060478296
-0.090097323 -0.38085866 0.060446344
-0.090271793 -0.38096747 0.0603486
-0.090428934 -0.38105381 0.060336314
-0.090612642 -0.38114929 0.060357355
-0.090781897 -0.38124591 0.060320776
-0.090964034 -0.38133183 0.060398363
-0.091131791 -0.38141856 0.06042064
-0.091312863 -0.38152596 0.06035516
-0.091471359 -0.38160574 0.060390167
-0.091641329 -0.38172743 0.060193218
-0.091846593 -0.38182369 0.060284536
-0.092016913 -0.38191411 0.060291804
-0.092191957 -0.38201398 0.060254045
-0.09238454 -0.38211691 0.06025774
-0.0925534 -0.38219965 0.060310006
-0.092700839 -0.38229141 0.060228534
-0.092874795 -0.38239357 0.060172323
-0.093050845 -0.38247746 0.060241863
-0.09323179 -0.3825919 0.060130239
-0.093414202 -0.38270125 0.060056672
-0.093582079 -0.38278681 0.060087025
-0.093764476 -0.38288516 0.060084999
-0.093942031 -0.38297591 0.0601153
-0.094115175 -0.3830682 0.06012024
-0.094259329 -0.38314542 0.060121864
-0.094431259 -0.38324061 0.060103737
-0.094619721 -0.38335216 0.060037069
-0.094784774 -0.38344455 0.060013205
-0.094958343 -0.38355306 0.059914306
-0.095130645 -0.38362926 0.060020775
-0.095304288 -0.38372856 0.059981875
-0.095487133 -0.38383356 0.059938312
-0.095670335 -0.38392949 0.059954748
-0.095832676 -0.38401845 0.059943583
-0.09598735 -0.38411412 0.059862077
-0.096179634 -0.38422364 0.059821941
-0.096355967 -0.38430929 0.059881091
-0.096525162 -0.38440055 0.059879124
-0.096705317 -0.38450176 0.059850574
-0.096888751 -0.38460439 0.05982431
-0.097062007 -0.38470969 0.059745029
-0.097250775 -0.3848033 0.05979605
-0.097421028 -0.38489938 0.059766386
-0.097591348 -0.38498855 0.05978173
-0.097754613 -0.38508847 0.059702493
-0.097946823 -0.38517734 0.059796184
-0.098118834 -0.38526425 0.059832275
-0.098275118 -0.3853361 0.059911139
-0.098423034 -0.38542619 0.059842363
-0.098602973 -0.38552693 0.059816122
-0.098786056 -0.38565335 0.059634097
-0.098982096 -0.38575602 0.059651624
-0.099149719 -0.38585457 0.059596602
-0.099321172 -0.38594809 0.05958771
-0.099476159 -0.38603932 0.059536196
-0.099660031 -0.38613436 0.059560709
-0.099811263 -0.38620776 0.059611894
-0.099996895 -0.38631192 0.059583314
-0.10019382 -0.38641915 0.059574299
-0.10035154 -0.38649622 0.059624311
-0.10051556 -0.3865875 0.059603907
-0.10069351 -0.38668948 0.059562679
-0.1008597 -0.38678852 0.059499584
-0.10101934 -0.38687903 0.059468821
-0.10117531 -0.38697329 0.059401158
-0.1013467 -0.38707635 0.059329964
-0.10152017 -0.38715762 0.059407592
-0.10169372 -0.38724393 0.059452906
-0.10186496 -0.38735172 0.059350558
-0.10203794 -0.38744339 0.059358962
-0.10221262 -0.38754752 0.059292361
-0.10239977 -0.38765392 0.059254546
-0.10258442 -0.38774425 0.059312508
-0.10274547 -0.38782841 0.059327886
-0.10290863 -0.38791978 0.059304029
-0.10307312 -0.38802323 0.059206337
-0.1032499 -0.3881205 0.059191644
-0.10342997 -0.38820639 0.059262313
-0.10359278 -0.38830644 0.05918077
-0.10377941 -0.38840014 0.059223726
-0.10395559 -0.38850632 0.059149038
-0.10411248 -0.38858968 0.059155218
-0.10428379 -0.38867867 0.059175171
-0.1044589 -0.3887772 0.059146635
-0.10462878 -0.38887945 0.059075452
-0.10481947 -0.38897461 0.059122995
-0.10498218 -0.38906592 0.059097983
-0.10514848 -0.38915861 0.059076421
-0.10532299 -0.38925731 0.059044436
-0.10549659 -0.38935661 0.059005536
-0.10566427 -0.38944063 0.05904511
-0.10584959 -0.38953984 0.059047684
-0.10601979 -0.38963747 0.059007641
-0.10617654 -0.38973603 0.058914602
-0.10635609 -0.3898277 0.058946047
-0.1065384 -0.38992509 0.058949791
-0.10670977 -0.39001822 0.058943205
-0.10686084 -0.39010891 0.058881335
-0.10703887 -0.39020172 0.058900092
-0.10721485 -0.39030281 0.05885772
-0.10738606 -0.39040652 0.058781907
-0.10756006 -0.39049464 0.058816843
-0.10773643 -0.39058849 0.058822922
-0.10791409 -0.39068854 0.058793232
-0.10809654 -0.39077252 0.05888465
-0.10827059 -0.3908678 0.058873437
-0.10843977 -0.39096221 0.058850706
-0.10859703 -0.39106584 0.058726504
-0.10876319 -0.39116487 0.058663398
-0.108943 -0.3912572 0.05869139
-0.10911644 -0.39135265 0.058676716
-0.10927624 -0.39144808 0.058614802
-0.10946493 -0.39153969 0.058678515
-0.10965461 -0.39164051 0.058685679
-0.1098095 -0.3917349 0.058613405
-0.10997337 -0.3918252 0.058598787
-0.11015419 -0.39191756 0.058630217
-0.11032736 -0.39201322 0.058613233
-0.11049715 -0.39210728 0.058595117
-0.11066562 -0.39220184 0.058568928
-0.11083839 -0.3923007 0.058530033
-0.11102574 -0.39239672 0.058560286
-0.11118641 -0.39249137 0.058506444
-0.11134829 -0.39258841 0.058441065
-0.11153834 -0.39267775 0.058524378
-0.11169755 -0.39278153 0.058405936
-0.1118699 -0.39287749 0.058384337
-0.11203944 -0.39296874 0.058383532
-0.11221803 -0.3930597 0.058416136
-0.11238939 -0.39316452 0.058333401
-0.11256364 -0.39325705 0.05834065
-0.11273898 -0.39334929 0.058353651
-0.11292236 -0.39344728 0.058357388
-0.11309206 -0.39354146 0.058338121
-0.11325835 -0.39363396 0.058317713
-0.11343811 -0.39373317 0.0583007
-0.11361025 -0.39381853 0.05834718
-0.11377394 -0.39391994 0.058259867
-0.11395374 -0.39401653 0.058260158
-0.11412096 -0.39410883 0.058244362
-0.1142941 -0.39421001 0.058191616
-0.11446097 -0.39430764 0.058140047
-0.11464454 -0.39439809 0.058193397
-0.1148294 -0.39448833 0.058252513
-0.11501233 -0.39458695 0.058250487
-0.11517704 -0.39468518 0.058187392
-0.11534262 -0.39478567 0.058112763
-0.11550774 -0.39487863 0.058085442
-0.11566991 -0.39497477 0.058026977
-0.11585859 -0.39506957 0.058069911
-0.11602119 -0.39516559 0.058013752
-0.11620598 -0.39525652 0.058068253
-0.11638089 -0.39535224 0.058057033
-0.11654898 -0.39545196 0.057996232
-0.11671833 -0.39554647 0.057973508
-0.11688793 -0.39564094 0.057951923
-0.11706985 -0.39574009 0.057942979
-0.11723868 -0.39583236 0.057932943
-0.11740667 -0.39592722 0.057903297
-0.11758074 -0.39602089 0.057902459
-0.11776908 -0.39611426 0.057953484
-0.11794776 -0.39620721 0.0579734
-0.11810907 -0.39630806 0.057881474
-0.11828215 -0.39640442 0.057859883
-0.11845999 -0.39649993 0.057860184
-0.11861983 -0.39659858 0.057777509
-0.11879475 -0.39669237 0.057778973
-0.11898339 -0.39678624 0.057827685
-0.1191587 -0.39688236 0.057815313
-0.11931891 -0.39698085 0.057734933
-0.11949268 -0.3970772 0.057715647
-0.11967842 -0.39717183 0.057749368
-0.11985075 -0.39726847 0.057723161
-0.12002021 -0.39736554 0.05768428
-0.12019092 -0.39746025 0.057665009
-0.12036489 -0.39755672 0.057645712
-0.12054511 -0.39765674 0.057625238
-0.12071779 -0.39775127 0.057614025
-0.12089779 -0.39784494 0.057633936
-0.1210717 -0.39794156 0.057613488
-0.12124565 -0.39803606 0.057606891
-0.12142758 -0.39813185 0.057619862
-0.1215978 -0.39822894 0.057583287
-0.12177707 -0.3983272 0.057570882
-0.1219499 -0.398422 0.057558522
-0.12212111 -0.39851698 0.057539251
-0.12229113 -0.39861417 0.057501517
-0.12247637 -0.39870995 0.057526007
-0.12265326 -0.39880657 0.057515938
-0.12280772 -0.39890513 0.057414819
-0.12300449 -0.39900216 0.057471562
-0.12320063 -0.39909333 0.057564083
-0.12337153 -0.39919063 0.057528652
-0.12350613 -0.39929059 0.057349179
-0.12368295 -0.39938539 0.057350636
-0.12386785 -0.39948368 0.057357833
-0.12403543 -0.3995792 0.05732242
-0.12421398 -0.39967403 0.05732964
-0.1243974 -0.39977255 0.057329915
-0.12456986 -0.39987177 0.057287563
-0.1247448 -0.39996505 0.057292487
-0.12491525 -0.40006244 0.057254761
-0.12509559 -0.40016323 0.057229668
-0.12525944 -0.40025905 0.057179272
-0.12544355 -0.40035209 0.05721762
-0.12561381 -0.40044957 0.057178736
-0.12579086 -0.40054682 0.057165191
-0.12595746 -0.40064448 0.057112478
-0.1261494 -0.40073943 0.057165783
-0.12631997 -0.40083513 0.057139587
-0.12648037 -0.400933 0.057063825
-0.12666133 -0.40103215 0.057051424
-0.12684044 -0.40112588 0.057067879
-0.12701511 -0.40122345 0.05704397
-0.12721075 -0.40132251 0.057083409
-0.12737684 -0.40141848 0.057039924
-0.12754166 -0.40151444 0.056991838
-0.12771882 -0.4016121 0.056975987
-0.12790944 -0.40170971 0.057007384
-0.12809826 -0.40180743 0.057031859
-0.12825276 -0.40190533 0.05693537
-0.12841934 -0.40200138 0.056893032
-0.12860881 -0.40209925 0.056918666
-0.12879677 -0.40219721 0.056938536
-0.12896885 -0.40229514 0.056903094
-0.12913732 -0.40239131 0.056866527
-0.12934156 -0.4024879 0.056952078
-0.12951624 -0.40258601 0.056924708
-0.12967059 -0.40268379 0.056828208
-0.12982513 -0.40278155 0.056732859
-0.13001373 -0.40287647 0.056774653
-0.13017914 -0.40297616 0.056704637
-0.13035879 -0.40307444 0.056693394
-0.13054061 -0.40317282 0.056689057
-0.13071835 -0.40326774 0.056692831
-0.13089165 -0.403366 0.056659687
-0.13108313 -0.40346318 0.056696851
-0.13126896 -0.40356195 0.056704033
-0.13145126 -0.40365899 0.056710087
-0.13162813 -0.40375754 0.056687325
-0.13178398 -0.40385529 0.056596585
-0.13197598 -0.40395454 0.0566222
-0.13215473 -0.40405163 0.05661558
-0.13233551 -0.40415052 0.056604329
-0.13251376 -0.40424767 0.0565954
-0.13268307 -0.40434608 0.056547292
-0.13288569 -0.40444624 0.056604005
-0.13304083 -0.40454394 0.056510963
-0.13319838 -0.4046385 0.056446761
-0.13339186 -0.40473837 0.056473527
-0.13356027 -0.4048368 0.05642195
-0.13374323 -0.40493459 0.056425691
-0.13393271 -0.40503281 0.056449015
-0.13411221 -0.40513209 0.05643085
-0.13428843 -0.40522957 0.056412704
-0.13446394 -0.40532866 0.056381866
-0.13464598 -0.40542823 0.056370609
-0.13481246 -0.4055267 0.056312125
-0.13499367 -0.40562314 0.056318179
-0.13518149 -0.40572175 0.056333445
-0.13536823 -0.40582189 0.056334853
-0.13553853 -0.40591922 0.056297116
-0.13571163 -0.40601683 0.056267448
-0.13589311 -0.40611821 0.056242347
-0.13606241 -0.40621555 0.05620116
-0.13626821 -0.40631759 0.056256708
-0.13645297 -0.40641794 0.056250058
-0.13661504 -0.40651473 0.056186989
-0.13679139 -0.40661284 0.056165371
-0.13698566 -0.4067142 0.056185212
-0.13715705 -0.40681192 0.056148622
-0.13734922 -0.40691322 0.056161553
-0.13751268 -0.40701026 0.056101926
-0.13769598 -0.40711227 0.056079134
-0.13787059 -0.40720749 0.056070216
-0.13805205 -0.40730941 0.056041665
-0.13821514 -0.40740943 0.055961274
-0.13839261 -0.40750656 0.055950038
-0.13858631 -0.40760547 0.05598373
-0.13878649 -0.40771106 0.055996615
-0.13896045 -0.4078109 0.055955403
-0.13914219 -0.40791455 0.055916466
-0.13934529 -0.40801197 0.055992793
-0.13952993 -0.40811026 0.055998832
-0.13968456 -0.40820947 0.055894252
-0.13987064 -0.4083066 0.055912971
-0.14004135 -0.40840772 0.055852167
-0.14023122 -0.4085083 0.055861644
-0.14040583 -0.40860564 0.055838887
-0.14059046 -0.40870714 0.055824161
-0.14078297 -0.40880966 0.055830162
-0.14093155 -0.40890527 0.055727918
-0.14114381 -0.40901044 0.055785749
-0.14132199 -0.40911129 0.055752587
-0.14150026 -0.4092122 0.055719431
-0.14165498 -0.40930861 0.055633318
-0.14186722 -0.40941414 0.055688839
-0.14206214 -0.40951744 0.05569829
-0.14222705 -0.40961808 0.055620197
-0.14239323 -0.40971196 0.055590559
-0.14260587 -0.4098193 0.055635691
-0.14279421 -0.40992332 0.055617485
-0.14298424 -0.41002488 0.055621192
-0.14316104 -0.41012323 0.055599581
-0.14334676 -0.41022566 0.055582542
-0.05245135 -0.36010534 0.063830286
-0.052675657 -0.36024293 0.0637196
-0.05288247 -0.3603617 0.063670136
-0.053089589 -0.36047849 0.063634515
-0.053280436 -0.36057517 0.063672803
-0.053496324 -0.36070326 0.06359446
-0.053693898 -0.36081117 0.063583106
-0.05388825 -0.36091259 0.063602924
-0.054086212 -0.36102128 0.063588113
-0.054275554 -0.3611244 0.063579112
-0.05448949 -0.36124575 0.063537695
-0.05467556 -0.36134502 0.063542545
-0.054879952 -0.36145449 0.063545011
-0.055039704 -0.36153352 0.063589223
-0.055272873 -0.36166683 0.063537322
-0.055484097 -0.36179098 0.063468233
-0.055687774 -0.36190557 0.063434929
-0.055875968 -0.36200011 0.063477844
-0.056074303 -0.36211076 0.063451499
-0.056277137 -0.36222473 0.063419357
-0.056471407 -0.36233035 0.063411489
-0.056658711 -0.36242405 0.063456722
-0.056860987 -0.36254054 0.063406117
-0.057050984 -0.362638 0.063436337
-0.05725107 -0.36274907 0.063413449
-0.057460364 -0.36287272 0.063340895
-0.057656847 -0.36298218 0.063315719
-0.057854291 -0.36309022 0.06330321
-0.058044352 -0.36319128 0.063310355
-0.05824488 -0.36330381 0.063279383
-0.058440164 -0.36341229 0.06325651
-0.058658142 -0.36354932 0.063127391
-0.058844943 -0.36364648 0.063148402
-0.059036225 -0.36374694 0.063163623
-0.059218518 -0.36383796 0.063208863
-0.05942335 -0.36395758 0.063146725
-0.059616834 -0.36406457 0.063127324
-0.059813052 -0.36417249 0.063111365
-0.060011193 -0.36428639 0.0630631
-0.060209986 -0.36439836 0.063029826
-0.060388867 -0.36448503 0.063091248
-0.060589507 -0.36459994 0.063045278
-0.060781524 -0.36470577 0.063028187
-0.060993284 -0.36483732 0.062912948
-0.061155878 -0.3649005 0.063070193
-0.061361626 -0.36502367 0.062988438
-0.06154824 -0.36512214 0.06300021
-0.061748363 -0.36523747 0.062949628
-0.061952937 -0.36536303 0.06284827
-0.062143441 -0.36546451 0.06285426
-0.062333643 -0.365569 0.062839493
-0.062523529 -0.36566976 0.062847786
-0.062699564 -0.36575297 0.062921911
-0.062898085 -0.36586708 0.062873647
-0.063090228 -0.36597511 0.062842704
-0.063279405 -0.36608225 0.062807173
-0.063473195 -0.3661862 0.062808536
-0.063671872 -0.36630502 0.062730268
-0.063863024 -0.36641234 0.062700503
-0.064043477 -0.36649933 0.062765375
-0.06424281 -0.36661991 0.062677875
-0.064436726 -0.36672854 0.062649235
-0.064624988 -0.36683202 0.062634476
-0.064800434 -0.36691114 0.062732831
-0.064991966 -0.3670201 0.062693827
-0.065187171 -0.36713529 0.062627107
-0.065379858 -0.36724663 0.06257657
-0.06557034 -0.36735073 0.062565252
-0.065756924 -0.36745238 0.062556267
-0.065939322 -0.36754328 0.062602669
-0.066134833 -0.36766022 0.06252557
-0.066318095 -0.36775672 0.062538527
-0.066501878 -0.36785421 0.062546864
-0.066691108 -0.36795712 0.062539011
-0.066870257 -0.36806312 0.062475841
-0.067074284 -0.36818394 0.062403321
-0.067257673 -0.36829382 0.062329739
-0.067444138 -0.36839277 0.062338062
-0.067623466 -0.36847913 0.062402938
-0.067803308 -0.36857912 0.062381294
-0.067959502 -0.36865395 0.062440518
-0.068153575 -0.36877564 0.062327676
-0.06837666 -0.36888948 0.062366955
-0.068566009 -0.36899441 0.062346421
-0.068745986 -0.36908665 0.062375534
-0.068941131 -0.36921173 0.062244222
-0.069127165 -0.36931115 0.062247932
-0.06931401 -0.36941224 0.062243555
-0.069498107 -0.36952215 0.062172286
-0.06966231 -0.36960822 0.062186487
-0.069870219 -0.36972225 0.062171616
-0.070061199 -0.36983213 0.062124535
-0.070242889 -0.36992884 0.062130578
-0.070422411 -0.37002137 0.06215623
-0.07061208 -0.37013429 0.062084928
-0.070790589 -0.37022504 0.062118672
-0.070970625 -0.37031892 0.062137403
-0.07112588 -0.37040281 0.062134333
-0.071317159 -0.3705253 0.062006503
-0.071490996 -0.37059632 0.062152158
-0.071656197 -0.37069622 0.062079832
-0.071879536 -0.37082407 0.062029131
-0.072047934 -0.37091541 0.062023699
-0.072219662 -0.37101954 0.061946712
-0.072443023 -0.37113196 0.061996385
-0.072617471 -0.37122032 0.062031299
-0.072789297 -0.37133127 0.06191048
-0.072995827 -0.37144631 0.06188409
-0.073177427 -0.37154567 0.061872818
-0.073361874 -0.37164581 0.061866149
-0.073550597 -0.37176213 0.061769478
-0.073733933 -0.37186632 0.061732821
-0.073910445 -0.37195456 0.061775792
-0.074108452 -0.37208828 0.061598323
-0.074280262 -0.37216547 0.061696693
-0.074457452 -0.37226847 0.061646223
-0.074637264 -0.37240434 0.061391547
-0.074782521 -0.37246758 0.061487749
-0.074970253 -0.37255192 0.061595265
-0.075120449 -0.37262049 0.061674133
-0.075307518 -0.37274373 0.061526708
-0.075475469 -0.37280339 0.061725464
-0.075689986 -0.37295845 0.061467156
-0.075873896 -0.37302476 0.061678521
-0.076026529 -0.3731069 0.061677776
-0.076236971 -0.37324592 0.061509475
-0.076391399 -0.37330344 0.061674841
-0.076572992 -0.37339959 0.061684333
-0.076802015 -0.37353972 0.061573625
-0.076984882 -0.37364027 0.061558887
-0.077166624 -0.37374589 0.06150724
-0.077349931 -0.37385678 0.061426751
-0.077526301 -0.37394676 0.061458185
-0.077691905 -0.3740373 0.061448142
-0.077881627 -0.37413496 0.061476056
-0.078060359 -0.37423274 0.061464798
-0.078238048 -0.3743273 0.061470851
-0.078421585 -0.37443247 0.061428424
-0.078602821 -0.37453979 0.061364092
-0.078782 -0.37464049 0.061335534
-0.078957848 -0.37472963 0.061370425
-0.07913468 -0.37482232 0.061385721
-0.07931526 -0.37492907 0.061322544
-0.079494968 -0.37503326 0.061273213
-0.07967335 -0.3751328 0.061249271
-0.079850428 -0.37522757 0.061251864
-0.08002428 -0.37532097 0.061252169
-0.080207184 -0.37541655 0.061269734
-0.080386624 -0.37552202 0.061211169
-0.080565043 -0.37562373 0.061173383
-0.080732428 -0.37571523 0.061163336
-0.080906875 -0.37579954 0.061224777
-0.081096753 -0.37591556 0.061133869
-0.081267931 -0.37601247 0.061101887
-0.081454396 -0.37611338 0.06109751
-0.081610285 -0.37619266 0.061126743
-0.081777021 -0.37628275 0.061123624
-0.081964985 -0.37639278 0.061065022
-0.082144126 -0.37648708 0.061077997
-0.082337625 -0.37659636 0.06104359
-0.082493298 -0.37667498 0.061076283
-0.082657441 -0.37676954 0.061035104
-0.082836434 -0.37686393 0.061046921
-0.083043464 -0.37698653 0.060973227
-0.083220147 -0.3770873 0.060935453
-0.083402522 -0.37718618 0.060929947
-0.083573721 -0.37726852 0.060992561
-0.083730698 -0.37735924 0.060951415
-0.083929963 -0.37747395 0.060901988
-0.08410535 -0.3775669 0.060910359
-0.084281214 -0.37766528 0.06088528
-0.084459081 -0.37775195 0.060943238
-0.084596038 -0.37783152 0.060904503
-0.084751442 -0.37790895 0.060944125
-0.084923647 -0.3780027 0.060936354
-0.085102208 -0.37815011 0.060602091
-0.08528021 -0.37824342 0.060617369
-0.085467845 -0.37834051 0.060641833
-0.085681207 -0.37844646 0.060698465
-0.085869193 -0.37855312 0.060661789
-0.086044014 -0.37864864 0.060651705
-0.086218648 -0.37873605 0.06069354
-0.086373925 -0.37881324 0.060734309
-0.086526014 -0.37888443 0.06080278
-0.086745888 -0.37903312 0.060604438
-0.086923659 -0.37912774 0.060610492
-0.087098189 -0.37922025 0.06061887
-0.087272495 -0.37931955 0.060582258
-0.08744365 -0.37941203 0.06057911
-0.087617785 -0.37951037 0.060548265
-0.087798916 -0.37960055 0.06059467
-0.087972827 -0.37970072 0.060551144
-0.088121548 -0.37977615 0.06058041
-0.088323876 -0.3798973 0.060499817
-0.088487662 -0.37999308 0.060449418
-0.088675246 -0.38008657 0.060496956
-0.088848807 -0.3801848 0.060464956
-0.089022279 -0.38028276 0.06043411
-0.089196905 -0.38037035 0.060474791
-0.089372277 -0.38047931 0.060379334
-0.089537106 -0.38056251 0.060414292
-0.089690037 -0.38065636 0.060338564
-0.089888498 -0.38076973 0.060294908
-0.090057664 -0.38084763 0.060379446
-0.090200663 -0.38091519 0.060439892
-0.090379179 -0.3810212 0.060374416
-0.090565749 -0.38112107 0.060376965
-0.090735011 -0.38123617 0.060220398
-0.090902224 -0.38132489 0.060227655
-0.091114096 -0.38143912 0.060225472
-0.091285259 -0.38154188 0.060155414
-0.091459945 -0.38162914 0.060198396
-0.091634668 -0.38171661 0.060240224
-0.091783755 -0.38179046 0.060281027
-0.091959022 -0.38190395 0.060155582
-0.092124887 -0.38198364 0.060217071
-0.092311673 -0.38209412 0.060151551
-0.092490166 -0.38219425 0.060124148
-0.092636064 -0.38227865 0.060085364
-0.092815682 -0.38237458 0.0600891
-0.092988491 -0.38246831 0.060083635
-0.093168944 -0.38257289 0.060034305
-0.09335231 -0.38266873 0.06005187
-0.093530498 -0.38276836 0.060026765
-0.093692109 -0.38285038 0.060058281
-0.093874618 -0.38294858 0.060057387
-0.09403377 -0.38303709 0.060038157
-0.094214454 -0.38313967 0.060002662
-0.094383925 -0.38323122 0.059999522
-0.094568379 -0.38335216 0.05985789
-0.094741084 -0.38342682 0.059975863
-0.094923355 -0.38354266 0.059859604
-0.095092431 -0.38363454 0.059853021
-0.095254779 -0.38373205 0.059786469
-0.09542796 -0.38382348 0.05979716
-0.095584214 -0.38390011 0.059844848
-0.095759735 -0.3840031 0.059788611
-0.095955357 -0.38410643 0.059800349
-0.096104987 -0.38419583 0.059741933
-0.096266434 -0.38429356 0.059670776
-0.096472368 -0.38439304 0.059743602
-0.096623123 -0.38447255 0.059753239
-0.096817084 -0.38457873 0.059740759
-0.096993871 -0.38467121 0.059757203
-0.097169548 -0.38476557 0.059757497
-0.097312562 -0.38484398 0.059747566
-0.097505733 -0.38496462 0.059638184
-0.097665064 -0.38505071 0.059635095
-0.097810999 -0.38513744 0.059581317
-0.097992569 -0.38522911 0.059619658
-0.098152563 -0.38532054 0.05958426
-0.098334238 -0.3854185 0.059582226
-0.098506212 -0.38551763 0.0595387
-0.098706514 -0.38560838 0.059648469
-0.09887889 -0.38570097 0.059648778
-0.099015355 -0.38579342 0.059524678
-0.099169649 -0.38589156 0.059425861
-0.099382579 -0.38598999 0.059529796
-0.099562101 -0.38609052 0.059503548
-0.099721797 -0.38617593 0.059506223
-0.099880375 -0.3862682 0.059460454
-0.10009459 -0.38638777 0.059431721
-0.10026668 -0.38648036 0.059430882
-0.10044153 -0.38657519 0.059425406
-0.10058809 -0.38664892 0.059458155
-0.10077034 -0.38676155 0.059362661
-0.10093127 -0.38685066 0.05934573
-0.10112954 -0.38693109 0.059515495
-0.10129277 -0.38704291 0.059358962
-0.1014616 -0.38713875 0.059325833
-0.10162051 -0.38723457 0.059258148
-0.10178837 -0.38732153 0.059279241
-0.10196254 -0.38742629 0.059206866
-0.10213225 -0.38752562 0.059154123
-0.1023143 -0.38761348 0.059218988
-0.10247566 -0.38769728 0.059237815
-0.10262449 -0.38779229 0.05914019
-0.10280503 -0.38788182 0.059188914
-0.10297512 -0.38798049 0.05914193
-0.10314887 -0.38807595 0.059128392
-0.10331039 -0.3881641 0.059119523
-0.10347949 -0.38825902 0.059093323
-0.10363276 -0.38835377 0.059012972
-0.10381401 -0.38844314 0.059065152
-0.10399364 -0.38853395 0.059102342
-0.10415863 -0.38862365 0.059095778
-0.10432748 -0.38870636 0.05914801
-0.10450152 -0.38880977 0.059083711
-0.10467774 -0.38890746 0.059064396
-0.10484798 -0.38900939 0.058996655
-0.10501393 -0.38909835 0.058998145
-0.10520294 -0.389191 0.059056055
-0.10536052 -0.38928968 0.05896531
-0.10552523 -0.38938719 0.058906823
-0.10569778 -0.38948324 0.058885217
-0.10587245 -0.38958171 0.058855519
-0.10603583 -0.38966855 0.058861636
-0.10621402 -0.38975736 0.05890692
-0.10640441 -0.38985717 0.058923289
-0.10656146 -0.38994807 0.058880989
-0.10673562 -0.39004678 0.058847845
-0.10689858 -0.39013767 0.058826283
-0.10706039 -0.39023277 0.058773577
-0.10724211 -0.39033055 0.058772683
-0.10740494 -0.39042494 0.058728054
-0.107561 -0.39051604 0.058681145
-0.10774413 -0.39060962 0.05871255
-0.10790651 -0.39070413 0.058665611
-0.10808355 -0.39079088 0.058720119
-0.10825855 -0.39088222 0.058737725
-0.10841881 -0.39098108 0.058655031
-0.10857806 -0.39108029 0.058566589
-0.10877533 -0.39116725 0.058690205
-0.10895639 -0.39126241 0.058704324
-0.10910052 -0.39136216 0.05855941
-0.10926592 -0.39145172 0.058555141
-0.1094502 -0.39154539 0.05859001
-0.10962382 -0.39164397 0.058555696
-0.10979247 -0.39172906 0.058591798
-0.10997549 -0.39182046 0.058637045
-0.11012284 -0.3919273 0.058457512
-0.11030126 -0.39202064 0.058473937
-0.11047825 -0.39211166 0.058500759
-0.11064804 -0.3922087 0.058463018
-0.11080836 -0.3923035 0.058406863
-0.11097941 -0.39239699 0.058396801
-0.11116045 -0.3924866 0.058446668
-0.11133249 -0.39258274 0.058422763
-0.11149199 -0.39268067 0.058343537
-0.11166455 -0.39276785 0.058379605
-0.11184604 -0.39286056 0.058411017
-0.11201297 -0.39295858 0.058357142
-0.11218021 -0.39305356 0.05832402
-0.11234602 -0.39314902 0.058282837
-0.11251378 -0.39324656 0.058234714
-0.11269438 -0.39333701 0.058277667
-0.11286379 -0.3934257 0.058292996
-0.11302927 -0.39352399 0.058232196
-0.11321276 -0.39361653 0.058271676
-0.11338684 -0.39371485 0.058240831
-0.11355355 -0.39380455 0.058240019
-0.11372588 -0.39389801 0.058234558
-0.1139038 -0.3939952 0.058224462
-0.11406609 -0.39409691 0.058130223
-0.11421761 -0.39418575 0.058082186
-0.11438984 -0.394274 0.058110181
-0.1145735 -0.39436966 0.058130052
-0.11474701 -0.39446554 0.05811305
-0.11490703 -0.39456496 0.058025751
-0.11509642 -0.39465925 0.05807443
-0.11525287 -0.39474931 0.05803559
-0.11543755 -0.39484498 0.058058918
-0.11560026 -0.39494106 0.058002751
-0.1157736 -0.39503205 0.058016904
-0.11594452 -0.39512369 0.058018368
-0.11610323 -0.39522064 0.057942614
-0.11625742 -0.39531854 0.057844955
-0.11644395 -0.39540917 0.057907496
-0.11663868 -0.39549816 0.058009211
-0.11679875 -0.39559957 0.057909213
-0.11696127 -0.39569557 0.057853051
-0.11713736 -0.39578876 0.057862569
-0.11732076 -0.39588052 0.057906665
-0.1174794 -0.39597726 0.057832062
-0.11762686 -0.39607137 0.057735585
-0.11782427 -0.39616537 0.057814222
-0.11800592 -0.39626011 0.057832945
-0.11817355 -0.39635742 0.05778598
-0.11834267 -0.39645216 0.057760932
-0.11852709 -0.39654201 0.057821169
-0.11869809 -0.39663655 0.057804178
-0.11884984 -0.3967365 0.057684615
-0.11902282 -0.39683065 0.057676852
-0.11921096 -0.3969225 0.057737075
-0.1193665 -0.39701721 0.057664786
-0.11954198 -0.39711112 0.05766739
-0.11971377 -0.39720786 0.057638865
-0.11987992 -0.39730757 0.057571147
-0.12004984 -0.39739797 0.057577234
-0.12022609 -0.3974919 0.057582144
-0.12039609 -0.39758891 0.05754555
-0.12055298 -0.39768544 0.057466336
-0.1207516 -0.39777669 0.057566881
-0.12092927 -0.39787498 0.057548709
-0.12108667 -0.39796928 0.057485647
-0.12127258 -0.39806241 0.057529733
-0.12144198 -0.39815748 0.057503521
-0.12161823 -0.39825395 0.057492275
-0.12177994 -0.39834985 0.057433814
-0.12196515 -0.39844543 0.057459436
-0.12214147 -0.39854407 0.05743435
-0.12229934 -0.39863828 0.057373587
-0.12246804 -0.3987335 0.05734393
-0.12265546 -0.39883116 0.057363771
-0.12282656 -0.3989222 0.057369858
-0.12299781 -0.39901933 0.057336714
-0.1231776 -0.39911377 0.057350837
-0.1233579 -0.39921027 0.057353415
-0.12353328 -0.39930519 0.057349101
-0.12369007 -0.39940149 0.057271037
-0.12387818 -0.39949757 0.057303574
-0.12405291 -0.39959463 0.057283107
-0.12422027 -0.39969021 0.057246536
-0.12438942 -0.39978763 0.057204176
-0.12456576 -0.3998827 0.057202157
-0.1247428 -0.39997783 0.057202443
-0.12492324 -0.40007281 0.057215411
-0.12509127 -0.40017229 0.057155751
-0.12527561 -0.40026528 0.057195224
-0.12543581 -0.40036324 0.057118304
-0.12560381 -0.40045702 0.057095565
-0.12579601 -0.4005537 0.057138465
-0.12596422 -0.40065134 0.057091501
-0.12614956 -0.40074843 0.057107896
-0.12631752 -0.40084237 0.057083998
-0.12648329 -0.40094012 0.057027817
-0.12665947 -0.40103757 0.057009652
-0.12682752 -0.40113157 0.056985766
-0.12700018 -0.40122736 0.056966465
-0.12716989 -0.40132686 0.056912564
-0.12734619 -0.40142262 0.056905936
-0.12752159 -0.40151843 0.056895852
-0.12770654 -0.40161604 0.056907639
-0.12788475 -0.40171194 0.05690676
-0.12805782 -0.40180793 0.056887459
-0.12823032 -0.40190575 0.056854311
-0.1284045 -0.4020018 0.056838464
-0.12859465 -0.4020997 0.056866374
-0.12876801 -0.4021976 0.056835532
-0.12890968 -0.40229356 0.05670679
-0.12911931 -0.40239003 0.056811903
-0.12927395 -0.40248784 0.05671655
-0.12945801 -0.40258422 0.056732953
-0.1296377 -0.40268236 0.056722846
-0.12980327 -0.40277857 0.056675885
-0.13000311 -0.40287545 0.056744136
-0.13017672 -0.40297192 0.056723669
-0.13035443 -0.40307021 0.056705497
-0.13053672 -0.40316868 0.056702301
-0.13068844 -0.40326634 0.056597732
-0.13086438 -0.40336296 0.056584187
-0.13104758 -0.40346155 0.056583285
-0.1312267 -0.40355673 0.05659049
-0.13139847 -0.40365502 0.056551576
-0.13156585 -0.40375149 0.056509234
-0.13177341 -0.4038513 0.056585506
-0.13194779 -0.40394819 0.056565046
-0.13209859 -0.40404567 0.056458175
-0.13226832 -0.40414235 0.056422733
-0.13247921 -0.40424269 0.056507077
-0.13264005 -0.40433905 0.056442842
-0.132828 -0.40443841 0.056453452
-0.13299954 -0.40453535 0.056422621
-0.13319182 -0.4046351 0.056445912
-0.1333465 -0.40473112 0.056362096
-0.1335431 -0.40483126 0.056398045
-0.13372278 -0.40492886 0.056391399
-0.13388984 -0.4050273 0.056335215
-0.13406667 -0.40512478 0.056319356
-0.13425227 -0.40522447 0.056319602
-0.13443956 -0.40532279 0.056334835
-0.1346007 -0.40542087 0.05626021
-0.13478899 -0.40551937 0.056277752
-0.13494933 -0.40561897 0.05619045
-0.13516718 -0.4057183 0.056305893
-0.13533574 -0.40581861 0.056242783
-0.13551418 -0.4059166 0.056229215
-0.1356965 -0.4060165 0.056216788
-0.135865 -0.40611374 0.05617328
-0.13604322 -0.40621337 0.056148186
-0.13626574 -0.40631539 0.05626246
-0.13644232 -0.40641505 0.056231603
-0.13660905 -0.40651381 0.05617195
-0.13677832 -0.40661132 0.056129597
-0.13696563 -0.40671054 0.056139067
-0.1371479 -0.40681237 0.056113943
-0.13730936 -0.4069092 0.056048553
-0.13748389 -0.4070088 0.056010786
-0.13767129 -0.40710825 0.056019094
-0.13785699 -0.40720907 0.056012422
-0.13802756 -0.40730691 0.055972364
-0.1382124 -0.40740922 0.055953007
-0.13839847 -0.40751025 0.055946331
-0.13857186 -0.40760997 0.055903953
-0.13876915 -0.40771526 0.055908754
-0.13894719 -0.40781412 0.055888269
-0.13912189 -0.40791115 0.05586781
-0.13931672 -0.40800908 0.055911846
-0.13947959 -0.40810633 0.055848759
-0.13964723 -0.40820703 0.055779871
-0.13982442 -0.40830451 0.055765159
-0.14004606 -0.40841174 0.055842523
-0.1402352 -0.4085137 0.055840444
-0.14041382 -0.40861446 0.055809576
-0.14058521 -0.40871575 0.055749908
-0.14076006 -0.40881324 0.055727132
-0.14093977 -0.40891561 0.055689342
-0.14111958 -0.40901524 0.055670008
-0.14127815 -0.40911213 0.055594243
-0.1414708 -0.40921348 0.055608295
-0.14167285 -0.40931618 0.055646539
-0.14185493 -0.40941632 0.055631801
-0.14198017 -0.40950876 0.055468529
-0.14220086 -0.40961421 0.055553976
-0.14240526 -0.40972173 0.05556912
-0.14258294 -0.40982145 0.05554172
-0.14278336 -0.40992719 0.055554584
-0.14297028 -0.41002831 0.055550214
-0.14315027 -0.41012713 0.055536639
-0.14333759 -0.41023257 0.055505734
-0.050003134 -0.35992682 0.056442998
-0.056175347 -0.36217666 0.063376181
-0.056378767 -0.3622945 0.063320979
-0.05656264 -0.36238387 0.063382357
-0.056732453 -0.36248273 0.063333087
-0.056965426 -0.36261219 0.063305408
-0.057153922 -0.36271077 0.063322939
-0.057346519 -0.36281213 0.063336983
-0.057544649 -0.36292392 0.063302562
-0.057748266 -0.36304042 0.063256584
-0.057933837 -0.36313552 0.063286811
-0.058135089 -0.36324915 0.063251227
-0.058326393 -0.36335227 0.063249134
-0.058558293 -0.36350852 0.063043863
-0.058727223 -0.36358115 0.06316182
-0.058926724 -0.36369312 0.063130856
-0.059113376 -0.36379039 0.063150696
-0.05931168 -0.36390102 0.063124344
-0.059507623 -0.36402991 0.06297116
-0.059701923 -0.36411691 0.063084379
-0.059899338 -0.36422989 0.063039586
-0.060091224 -0.36433211 0.063045561
-0.060286615 -0.36444259 0.063010007
-0.06048765 -0.36455825 0.06296058
-0.060678866 -0.36466312 0.062946945
-0.060871087 -0.36476639 0.062947154
-0.061061613 -0.36487052 0.062935844
-0.06126444 -0.36498964 0.062870264
-0.061433319 -0.36506224 0.062988222
-0.061639559 -0.36518672 0.062899552
-0.061827946 -0.36528829 0.062897474
-0.062015284 -0.36538839 0.062901177
-0.062219772 -0.36551106 0.062818289
-0.062402371 -0.36560437 0.062849686
-0.062603079 -0.36572179 0.062787578
-0.062795714 -0.3658306 0.062753178
-0.062996253 -0.36594832 0.06268876
-0.063170567 -0.36602932 0.062770948
-0.06336879 -0.36614382 0.062719226
-0.06356068 -0.36625224 0.062684834
-0.063754782 -0.36636081 0.062657356
-0.063938096 -0.36645254 0.062701434
-0.064127102 -0.36655691 0.06268321
-0.064321578 -0.36666656 0.062649958
-0.064503901 -0.36676061 0.062675588
-0.064688623 -0.36685488 0.062708132
-0.064853124 -0.36693504 0.06276153
-0.065074824 -0.36707461 0.06262897
-0.065266937 -0.36718512 0.062581882
-0.065468334 -0.36730736 0.062490936
-0.065649159 -0.36739969 0.062522337
-0.065836996 -0.36749989 0.062527187
-0.066030316 -0.36761335 0.062465116
-0.066214323 -0.36770743 0.062496506
-0.066394404 -0.36779884 0.062531367
-0.066576988 -0.36789054 0.062573142
-0.066750653 -0.36799926 0.062473103
-0.066980571 -0.36814466 0.062331282
-0.067153312 -0.3682403 0.062313132
-0.067336559 -0.36833376 0.062345676
-0.06751433 -0.36842182 0.062394388
-0.067707688 -0.36853334 0.062345009
-0.067902818 -0.36863551 0.0623625
-0.068091162 -0.36873847 0.06235119
-0.068281665 -0.36884987 0.062292594
-0.068471201 -0.36895543 0.062268596
-0.068656504 -0.36905783 0.062250391
-0.06884183 -0.36915597 0.062259853
-0.069032729 -0.36926919 0.062190875
-0.069218315 -0.36936817 0.062195733
-0.069398344 -0.36946133 0.062219072
-0.069556497 -0.3695406 0.062256351
-0.069738984 -0.36966208 0.062104374
-0.069956847 -0.36977223 0.062149432
-0.070130788 -0.36986831 0.062132426
-0.070325091 -0.36999029 0.062018454
-0.070513844 -0.37008211 0.062080964
-0.070674837 -0.37015775 0.06215167
-0.070835836 -0.37024832 0.062125508
-0.071021989 -0.37034991 0.062115364
-0.071200028 -0.37045035 0.062084511
-0.071414053 -0.37057406 0.062028103
-0.071617007 -0.37068543 0.062013261
-0.071771473 -0.37076855 0.062012501
-0.071997598 -0.37090302 0.061928354
-0.072163075 -0.37099403 0.061914854
-0.072360218 -0.37109926 0.061919656
-0.072552413 -0.371216 0.061832216
-0.072730243 -0.37131259 0.061825581
-0.072903916 -0.37140572 0.061827034
-0.073077194 -0.37149808 0.061831944
-0.073254466 -0.37159383 0.061828762
-0.073410049 -0.37166923 0.061882209
-0.073604032 -0.37178624 0.06179937
-0.073782988 -0.37188041 0.061812326
