# .PCD v0.7 - Point Cloud Data file format
VERSION 0.7
FIELDS x y z
SIZE 4 4 4
TYPE F F F
COUNT 1 1 1
WIDTH 766
HEIGHT 1
VIEWPOINT 0 0 0 1 0 0 0
POINTS 766
DATA ascii
-0.11623228 -0.34129 0.063942365
-0.11646213 -0.34136614 0.063900977
-0.11669517 -0.34144491 0.063848034
-0.11692612 -0.34152222 0.063800879
-0.11715811 -0.34160048 0.063749105
-0.11734974 -0.34164742 0.06383127
-0.11758398 -0.3417277 0.063770249
-0.11781591 -0.34180826 0.06370233
-0.11804737 -0.3418867 0.063648246
-0.11825715 -0.34194818 0.06366691
-0.11845735 -0.34200215 0.063717902
-0.11868232 -0.34207582 0.063683458
-0.11889498 -0.34213984 0.063690573
-0.11909553 -0.34219623 0.063725419
-0.11933269 -0.34228003 0.063645944
-0.11955463 -0.34235179 0.063618422
-0.12063943 -0.34269431 0.063542061
-0.12087873 -0.34278104 0.06344644
-0.12108135 -0.34283787 0.063482426
-0.12129355 -0.34290469 0.063468792
-0.12148777 -0.34295473 0.063534811
-0.12170107 -0.34302056 0.063530393
-0.12194534 -0.34311226 0.063410521
-0.12216586 -0.34318441 0.063377246
-0.12238641 -0.34325671 0.063342817
-0.12259112 -0.34331799 0.063352272
-0.12277947 -0.3433634 0.063437909
-0.12303284 -0.34346378 0.0632765
-0.12319317 -0.34348559 0.063468345
-0.12342747 -0.34357014 0.063377351
-0.12366344 -0.34365633 0.063278273
-0.123871 -0.34372059 0.063272737
-0.12408935 -0.34379208 0.06323947
-0.12430628 -0.34386247 0.063210823
-0.12455749 -0.34396267 0.063045949
-0.12477722 -0.34403586 0.063003451
-0.12496831 -0.34408429 0.063074082
-0.1251668 -0.34414133 0.063099727
-0.12536447 -0.34419551 0.063143805
-0.12559825 -0.34428155 0.063041285
-0.12580499 -0.3443439 0.063047275
-0.12600067 -0.3443988 0.063082151
-0.12621137 -0.34446481 0.063070826
-0.12642075 -0.34452981 0.063064113
-0.12665239 -0.34461483 0.06296391
-0.12685494 -0.34467396 0.062983751
-0.12707686 -0.34475061 0.062921651
-0.12727363 -0.34480697 0.062948436
-0.12748852 -0.34487757 0.062914029
-0.12770693 -0.34495151 0.062863469
-0.12792423 -0.34502465 0.062816367
-0.12812982 -0.34508714 0.062818915
-0.12833421 -0.34514862 0.062826067
-0.12852782 -0.34520254 0.062863246
-0.12874061 -0.345272 0.062832311
-0.12893732 -0.34532654 0.062871791
-0.1291562 -0.34540194 0.062811993
-0.12936917 -0.34547439 0.062760308
-0.12957597 -0.34553874 0.062752463
-0.12977067 -0.34559169 0.062798858
-0.129962 -0.34565619 0.062756494
-0.13019729 -0.34573826 0.062685102
-0.13039052 -0.34578505 0.062771864
-0.13059846 -0.34585351 0.062737495
-0.1308161 -0.34592903 0.062674254
-0.13104224 -0.34601304 0.062569454
-0.13123515 -0.34606478 0.062620483
-0.13143122 -0.34611961 0.062656499
-0.13165122 -0.34619814 0.062577106
-0.131854 -0.3462624 0.062561199
-0.1320613 -0.34632871 0.062540673
-0.13226326 -0.34638977 0.062545523
-0.13247302 -0.34645876 0.062511146
-0.13267908 -0.34652421 0.062494084
-0.13288791 -0.34659523 0.062443562
-0.13309205 -0.34665629 0.062453024
-0.13325664 -0.34669575 0.062529549
-0.13346627 -0.34677881 0.062395997
-0.13369483 -0.34683821 0.062469922
-0.13387464 -0.34688526 0.062525623
-0.13400923 -0.34690443 0.062680684
-0.13431022 -0.3470369 0.06239567
-0.13451061 -0.34709749 0.062400535
-0.13472582 -0.34717387 0.062325776
-0.13492243 -0.3472307 0.062349103
-0.13512924 -0.34729847 0.062317044
-0.13533647 -0.34736687 0.062281527
-0.13548157 -0.34739417 0.06240195
-0.13569525 -0.34748709 0.062207263
-0.13595313 -0.34756759 0.062195733
-0.13611296 -0.34760806 0.062254973
-0.1363616 -0.34770519 0.062106263
-0.13656722 -0.34776688 0.062114567
-0.1367601 -0.3478204 0.062152911
-0.13695818 -0.3478798 0.062161237
-0.13716748 -0.34795192 0.062103793
-0.13736705 -0.34801325 0.062101752
-0.13756767 -0.34807587 0.062092781
-0.13776292 -0.3481324 0.062114965
-0.13797313 -0.34820631 0.062047143
-0.13817082 -0.34826589 0.062053174
-0.13836861 -0.34832567 0.062058054
-0.13857156 -0.34839162 0.062030621
-0.13877489 -0.34845817 0.061999731
-0.13898042 -0.34852752 0.061953835
-0.1391795 -0.34858933 0.061947182
-0.13937572 -0.34864783 0.061957829
-0.13956715 -0.34870058 0.061998483
-0.1397652 -0.34876144 0.061996445
-0.13996814 -0.34882838 0.061962094
-0.14016418 -0.34888697 0.06197159
-0.14037061 -0.34895855 0.061911851
-0.14055754 -0.34900945 0.061955985
-0.14076313 -0.34907687 0.061923929
-0.14096624 -0.34914482 0.06188266
-0.14117402 -0.34921893 0.06180793
-0.14138351 -0.34929556 0.061719358
-0.14158009 -0.34935579 0.061718479
-0.14176705 -0.34940359 0.061784513
-0.14196351 -0.34946379 0.061783634
-0.14216712 -0.34953353 0.061730832
-0.14236747 -0.34959915 0.061699949
-0.14256448 -0.34966052 0.061692148
-0.14275932 -0.34971908 0.061699338
-0.14295983 -0.34978542 0.061663851
-0.14316094 -0.34985274 0.06162259
-0.14335316 -0.34990805 0.061647099
-0.143544 -0.34996146 0.06168199
-0.14374557 -0.35002992 0.06163381
-0.14394413 -0.35009435 0.061607551
-0.1441434 -0.35016 0.061574366
-0.1443451 -0.35022932 0.06152042
-0.14454442 -0.35029545 0.061483786
-0.14474201 -0.35035926 0.061459832
-0.14493579 -0.35041767 0.061465882
-0.14513658 -0.35048655 0.061413094
-0.14533165 -0.35054713 0.061406448
-0.14552256 -0.35060152 0.061434418
-0.14571437 -0.35065734 0.061454311
-0.14591135 -0.35072115 0.061429217
-0.14610805 -0.35078469 0.061405268
-0.14629395 -0.35084507 0.061380226
-0.14648984 -0.35090771 0.061360896
-0.14668354 -0.35097164 0.061327741
-0.14686753 -0.35102949 0.061316535
-0.14705163 -0.35107821 0.061369903
-0.14728068 -0.35115281 0.061337747
-0.14746708 -0.35120535 0.061369196
-0.14765909 -0.35126236 0.06138102
-0.14786264 -0.35133895 0.061279789
-0.14805965 -0.35140491 0.061239697
-0.14826064 -0.35147792 0.061158076
-0.14842772 -0.35152814 0.061164249
-0.14864171 -0.35159355 0.061164439
-0.14880548 -0.35163799 0.061204057
-0.14902833 -0.35170889 0.061184615
-0.14921942 -0.3517653 0.061198749
-0.14941207 -0.35182467 0.061195575
-0.14960264 -0.35188028 0.06121432
-0.14980394 -0.35195619 0.061113097
-0.14999674 -0.35201639 0.061104164
-0.1501842 -0.35207221 0.061114855
-0.15038279 -0.352144 0.061036706
-0.15056884 -0.35219136 0.061103903
-0.15076382 -0.35226256 0.061022311
-0.15095589 -0.35231602 0.061059505
-0.15114966 -0.35237914 0.061032109
-0.1513366 -0.35242823 0.061088935
-0.15150973 -0.35248652 0.06105125
-0.15170082 -0.35255751 0.060962763
-0.15191199 -0.352633 0.060885705
-0.1520772 -0.35267478 0.060947232
-0.15227792 -0.35274118 0.060911741
-0.15249449 -0.35280919 0.060899235
-0.15269101 -0.35288069 0.060818791
-0.15288302 -0.35294214 0.060799476
-0.15307118 -0.35299453 0.06083554
-0.15325965 -0.35304773 0.060866982
-0.15345202 -0.3531104 0.060839593
-0.15364945 -0.35318613 0.060731471
-0.15383382 -0.35322919 0.060825203
-0.15401335 -0.35328355 0.060828999
-0.1541843 -0.35334003 0.060799409
-0.15441193 -0.35342333 0.060702682
-0.15460153 -0.35348028 0.060709901
-0.15475258 -0.35352591 0.060713839
-0.15496317 -0.35358912 0.06072212
-0.15516953 -0.35366774 0.060612798
-0.15534006 -0.35371557 0.06064317
-0.15551706 -0.35377339 0.060617011
-0.1557001 -0.3538208 0.060677297
-0.15590258 -0.35387924 0.060701758
-0.15611574 -0.35395175 0.060650069
-0.1562838 -0.35400194 0.060658537
-0.15647995 -0.35407186 0.060588468
-0.15667167 -0.35413814 0.06053457
-0.15686031 -0.35418233 0.060629435
-0.15704113 -0.35424462 0.060580187
-0.15721415 -0.3543022 0.060547125
-0.15741487 -0.35436764 0.060518552
-0.15760756 -0.35442716 0.060514227
-0.15777598 -0.35448042 0.060501941
-0.15797916 -0.35454366 0.06049411
-0.15817043 -0.35461205 0.06042406
-0.15835097 -0.35466215 0.060460158
-0.15853764 -0.35472554 0.060415499
-0.15872246 -0.35478055 0.060426205
-0.15891139 -0.35485676 0.060296204
-0.159104 -0.3549192 0.060271125
-0.15931083 -0.3549695 0.060362451
-0.15950963 -0.35502973 0.060366165
-0.15969405 -0.35510391 0.060240805
-0.15989855 -0.35515955 0.060289472
-0.16005854 -0.35520628 0.060304902
-0.16026165 -0.35527503 0.060257867
-0.16046351 -0.35533541 0.060267337
-0.1606409 -0.35538781 0.060280383
-0.16081205 -0.35544434 0.060250778
-0.16099001 -0.35550264 0.060223464
-0.16119559 -0.3555679 0.060206398
-0.16138427 -0.35563439 0.060144436
-0.16157219 -0.35569361 0.060132064
-0.16174206 -0.35573912 0.060177423
-0.16194783 -0.35581198 0.060107313
-0.16211566 -0.35588154 0.059978567
-0.16231602 -0.35592234 0.060122959
-0.16250405 -0.35599089 0.060044855
-0.16268809 -0.35604876 0.060033649
-0.16286549 -0.35612077 0.059908319
-0.16306289 -0.35615933 0.060061958
-0.16325727 -0.35622659 0.06000689
-0.16345148 -0.35629395 0.059950665
-0.16363528 -0.3563478 0.05996713
-0.16382582 -0.35641223 0.059923619
-0.1640062 -0.3564626 0.059957404
-0.16418594 -0.35652962 0.059872419
-0.16440104 -0.35658881 0.059918731
-0.16457774 -0.35664263 0.059920244
-0.16475053 -0.35670146 0.059877958
-0.16492756 -0.35674998 0.059917517
-0.16512509 -0.35680902 0.059927016
-0.16531117 -0.35687584 0.059856988
-0.16549166 -0.35692608 0.059891924
-0.16567068 -0.35698977 0.059828863
-0.16586049 -0.357052 0.059799176
-0.16605029 -0.35711345 0.059775271
-0.16623421 -0.35716504 0.059807882
-0.16642347 -0.35722959 0.059760906
-0.16660652 -0.35728681 0.05975201
-0.16680603 -0.35735384 0.059709609
-0.16698967 -0.35740715 0.059729546
-0.16717677 -0.35746169 0.059748307
-0.16735712 -0.35751352 0.059771709
-0.16753371 -0.35758331 0.059660219
-0.16772486 -0.357636 0.059700876
-0.16791894 -0.35769251 0.059720766
-0.16809745 -0.35775211 0.059685361
-0.16828924 -0.35781759 0.059637226
-0.16847022 -0.35788122 0.059578754
-0.16865519 -0.3579433 0.059539877
-0.16884211 -0.3579981 0.059556339
-0.16902702 -0.35805985 0.05951976
-0.16921099 -0.35811195 0.059548922
-0.1693929 -0.35817081 0.05952619
-0.16960114 -0.3582302 0.059556395
-0.16977482 -0.35829076 0.059503727
-0.16995354 -0.35833636 0.059567496
-0.17013104 -0.35838583 0.059601292
-0.17031491 -0.35846001 0.059474774
-0.17049783 -0.35852554 0.059407081
-0.1706906 -0.35857528 0.059471946
-0.17087597 -0.35864386 0.059388086
-0.17106612 -0.35870031 0.059399918
-0.17126016 -0.35875684 0.059419796
-0.1714502 -0.35881376 0.05942817
-0.17162457 -0.35886192 0.059464294
-0.17180142 -0.35893068 0.059360869
-0.17199203 -0.35899466 0.059320815
-0.17217132 -0.35904908 0.059323464
-0.17236236 -0.35910386 0.059349127
-0.17254034 -0.35916102 0.059329882
-0.17274547 -0.3592273 0.059304744
-0.17291529 -0.35929209 0.059214041
-0.17311698 -0.35934946 0.059244275
-0.17327857 -0.35941404 0.059137456
-0.17348032 -0.35947126 0.059168842
-0.1736604 -0.35952416 0.059184175
-0.17383961 -0.35957858 0.059186839
-0.17403527 -0.35963279 0.059226312
-0.17420882 -0.3596966 0.059150584
-0.17439777 -0.35975516 0.059145126
-0.17459062 -0.35980114 0.059236512
-0.17476742 -0.35987854 0.059071973
-0.17495465 -0.35993329 0.059089586
-0.17513111 -0.35999179 0.05905766
-0.17532082 -0.3600491 0.059062578
-0.17550404 -0.36010376 0.059072129
-0.17568541 -0.36015522 0.059100144
-0.17587344 -0.3602266 0.059002437
-0.17605489 -0.36028364 0.058991242
-0.1762334 -0.36035585 0.058867067
-0.17643109 -0.36041364 0.058885783
-0.17661718 -0.3604646 0.058927611
-0.17680471 -0.36052468 0.058908321
-0.1770155 -0.36057192 0.059029602
-0.17718412 -0.36062375 0.05902769
-0.17734982 -0.3606894 0.058922015
-0.17753147 -0.36075127 0.058877394
-0.17772542 -0.36080384 0.058924943
-0.17792076 -0.36086991 0.058880247
-0.17811064 -0.36092728 0.058885165
-0.17828083 -0.36097729 0.058899391
-0.17845955 -0.36103728 0.058861688
-0.17865379 -0.36109009 0.058908101
-0.17883617 -0.36115086 0.058872689
-0.17902221 -0.36119854 0.058937583
-0.17921185 -0.36126107 0.058905587
-0.17937711 -0.36133444 0.058744572
-0.17956246 -0.36138749 0.058770262
-0.17974919 -0.3614437 0.058776338
-0.17993881 -0.36149722 0.058807775
-0.1801161 -0.36154959 0.058820821
-0.18030423 -0.36161754 0.058747329
-0.18048571 -0.36168295 0.058677331
-0.1806667 -0.36174446 0.058633849
-0.18085524 -0.36179504 0.058683746
-0.18104184 -0.36187199 0.058543377
-0.18120289 -0.36193034 0.058479235
-0.18139742 -0.3619839 0.058521025
-0.18154843 -0.36205453 0.058348533
-0.18174398 -0.36210331 0.058426071
-0.18193628 -0.36215505 0.058475949
-0.18212384 -0.36220694 0.058514316
-0.18231679 -0.36226231 0.058539972
-0.18250628 -0.3623243 0.058511443
-0.18267877 -0.3623845 0.058458775
-0.18286583 -0.36244082 0.058464859
-0.1830488 -0.36250034 0.058439821
-0.18326205 -0.36255535 0.058511514
-0.18350175 -0.36260918 0.05864881
-0.18372738 -0.3626523 0.058831144
-0.18394209 -0.36268964 0.059030823
-0.18415202 -0.36273089 0.059192471
-0.18436402 -0.36277115 0.059365645
-0.18457881 -0.36280653 0.059579156
-0.18479365 -0.36284587 0.059764996
-0.18500701 -0.3628867 0.059937023
-0.18522339 -0.36292601 0.060126312
-0.1854374 -0.36296737 0.06029601
-0.18565841 -0.36300465 0.060509495
-0.11609171 -0.34124509 0.063955873
-0.11632451 -0.34132344 0.063905306
-0.11655119 -0.34139535 0.063887037
-0.11674108 -0.34144077 0.063976154
-0.11693341 -0.34149185 0.064030677
-0.11715077 -0.34155482 0.0640551
-0.11736363 -0.34161627 0.064080708
-0.11760321 -0.34170064 0.064002439
-0.11787162 -0.34180593 0.063838728
-0.11807764 -0.34186432 0.063871279
-0.11829498 -0.34192976 0.063878417
-0.11856365 -0.34203792 0.063695095
-0.11878304 -0.34210527 0.063693002
-0.1189916 -0.34216607 0.06371402
-0.11920398 -0.34222803 0.063735016
-0.11941753 -0.34229296 0.063737564
-0.11964998 -0.3423712 0.063686989
-0.11985624 -0.34243047 0.063713774
-0.12008421 -0.3425054 0.063677058
-0.12031958 -0.34258845 0.063598797
-0.12051947 -0.34264281 0.063646369
-0.12073308 -0.34270844 0.063644297
-0.12096095 -0.34278381 0.063604131
-0.12118934 -0.3428618 0.063546658
-0.12140019 -0.34292343 0.063566513
-0.12161765 -0.34299269 0.063547134
-0.1218257 -0.34305218 0.063576207
-0.12206572 -0.34314042 0.063471414
-0.12228356 -0.34320831 0.063462406
-0.12249883 -0.34327623 0.063447654
-0.12271197 -0.34334037 0.063454822
-0.12290249 -0.34338763 0.063532397
-0.12314778 -0.34347913 0.063416056
-0.12335135 -0.34353757 0.063442856
-0.12354796 -0.34358799 0.063511193
-0.12378651 -0.34367645 0.063401788
-0.1240279 -0.34376544 0.063294686
-0.12420338 -0.34380007 0.063428819
-0.12442806 -0.34387496 0.063385203
-0.12464797 -0.34394807 0.063343912
-0.12487032 -0.34402126 0.063307218
-0.12506951 -0.34407654 0.063346721
-0.12529343 -0.34415138 0.063301951
-0.12550777 -0.34422013 0.063279122
-0.12573171 -0.34429529 0.063232042
-0.12596604 -0.34437984 0.063141108
-0.12614843 -0.34441838 0.063262545
-0.12636779 -0.34449214 0.063215487
-0.12660623 -0.34458089 0.063103788
-0.12681308 -0.34464377 0.063106358
-0.1270332 -0.34471643 0.063068524
-0.12723204 -0.34477457 0.063087262
-0.1274502 -0.34484109 0.063088641
-0.12765643 -0.34490377 0.063091218
-0.12786792 -0.34496906 0.063086852
-0.12808791 -0.34504464 0.063028261
-0.12830456 -0.34511492 0.062999666
-0.12852582 -0.34519204 0.062932998
-0.12873849 -0.34526372 0.06288597
-0.12894043 -0.34531596 0.062953129
-0.12914896 -0.34537917 0.062956847
-0.12937151 -0.34545815 0.062879801
-0.12957813 -0.34551984 0.06289044
-0.12977473 -0.3455745 0.062928796
-0.12998492 -0.34563971 0.062922135
-0.13021895 -0.34572792 0.062804691
-0.13042991 -0.3457942 0.062792256
-0.13062724 -0.3458499 0.062824838
-0.13083813 -0.34591633 0.062811255
-0.13104701 -0.34598342 0.062788457
-0.13127716 -0.34606898 0.062681399
-0.13148382 -0.34613425 0.062666684
-0.13168739 -0.346194 0.062684253
-0.13188776 -0.34625065 0.062716834
-0.1321032 -0.34632239 0.062675558
-0.13229868 -0.34637949 0.062694311
-0.13248764 -0.34644064 0.062670454
-0.13271527 -0.34650925 0.062677547
-0.13293034 -0.34658119 0.062633969
-0.13313487 -0.34664252 0.062642314
-0.13334656 -0.34671131 0.062613733
-0.13355203 -0.34677655 0.062596716
-0.13377069 -0.34685287 0.062530063
-0.13397041 -0.34691241 0.062540732
-0.13417751 -0.34697703 0.062531777
-0.1343998 -0.34706047 0.062422454
-0.13458078 -0.34709778 0.062549651
-0.13479023 -0.347168 0.062506102
-0.13501516 -0.34725213 0.062397912
-0.13521096 -0.34731668 0.062364794
-0.13539159 -0.34737366 0.062352482
-0.13560764 -0.34744313 0.062328503
-0.13580753 -0.34751549 0.062249251
-0.13599148 -0.34755892 0.062339541
-0.1362215 -0.3476235 0.062380061
-0.13644388 -0.34769753 0.062337603
-0.1366547 -0.34776783 0.06229635
-0.13684238 -0.34782746 0.062280558
-0.13698319 -0.34785262 0.062406771
-0.13724671 -0.34798288 0.06205631
-0.1374791 -0.3480356 0.062185593
-0.13767989 -0.34809533 0.062197413
-0.13788678 -0.34816214 0.062172312
-0.13808559 -0.34822288 0.062172614
-0.1382872 -0.34828383 0.06217752
-0.13849163 -0.34835139 0.062142052
-0.13866661 -0.34840041 0.062173583
-0.13888946 -0.34847063 0.062158801
-0.1390989 -0.34854135 0.062111784
-0.13929147 -0.34859854 0.062123641
-0.13949567 -0.34865996 0.062130831
-0.13970359 -0.34873265 0.062066536
-0.1399035 -0.34879243 0.062076055
-0.14010477 -0.34885737 0.062052131
-0.14031287 -0.3489275 0.06200628
-0.14051309 -0.34899145 0.061986975
-0.14071922 -0.34905952 0.061951503
-0.140918 -0.34911844 0.06196449
-0.14113054 -0.349195 0.061882872
-0.14132857 -0.34925684 0.061873958
-0.14150266 -0.34931654 0.061828241
-0.14171788 -0.34937203 0.061901107
-0.14191523 -0.34942594 0.061946377
-0.14211476 -0.34949377 0.061898254
-0.14233886 -0.34958336 0.061749723
-0.1425256 -0.34963092 0.061816942
-0.14272735 -0.34969485 0.061801087
-0.14291634 -0.34974539 0.061852165
-0.1431185 -0.34981012 0.061831698
-0.14332649 -0.34988692 0.061738573
-0.14352691 -0.34994963 0.061728485
-0.14372194 -0.35000888 0.061731108
-0.14391887 -0.35006693 0.061746411
-0.14411888 -0.35013345 0.061708659
-0.14431855 -0.35019559 0.061700888
-0.14451161 -0.35025245 0.061716203
-0.14471787 -0.35032448 0.061653055
-0.14491804 -0.35039201 0.061608389
-0.14511606 -0.35045236 0.061609849
-0.14531285 -0.35051525 0.06159056
-0.14551081 -0.35057575 0.061590858
-0.14571109 -0.35064432 0.061539274
-0.14591226 -0.35071003 0.061509591
-0.14607598 -0.35076705 0.061460465
-0.14628951 -0.35082543 0.061509121
-0.1464936 -0.35088715 0.06151402
-0.14669538 -0.35095453 0.061473958
-0.14687686 -0.35100818 0.061487004
-0.14707771 -0.35106969 0.061486155
-0.14727284 -0.35112196 0.061538354
-0.14747387 -0.35118878 0.061500598
-0.14767806 -0.35126606 0.061395954
-0.14788371 -0.35134134 0.061308607
-0.14807419 -0.35139608 0.06133315
-0.14826882 -0.35145798 0.061316177
-0.14845276 -0.35151175 0.061333835
-0.14865598 -0.35157874 0.061299533
-0.14884438 -0.35163531 0.061306793
-0.14904432 -0.35170212 0.061266735
-0.14923424 -0.35176718 0.061217509
-0.14944111 -0.3518309 0.061214309
-0.14963615 -0.35189489 0.061183501
-0.14982413 -0.35195705 0.061150417
-0.15000413 -0.35200992 0.06116578
-0.15020384 -0.35206619 0.061199509
-0.15037522 -0.35211986 0.061190709
-0.1505938 -0.35218975 0.061169028
-0.15078737 -0.35225201 0.061147444
-0.15096614 -0.3523089 0.06113169
-0.1511367 -0.35236147 0.061128654
-0.15135515 -0.35243201 0.061102349
-0.15154433 -0.35247934 0.061176479
-0.15175544 -0.35254744 0.061151363
-0.1519552 -0.35262436 0.06103982
-0.15215552 -0.35269636 0.060964026
-0.15234463 -0.35275051 0.060989738
-0.15253285 -0.35280263 0.061028127
-0.15272695 -0.35286832 0.060983486
-0.15290284 -0.3529132 0.061046146
-0.15310097 -0.3529816 0.060991108
-0.15330082 -0.35303953 0.061013304
-0.15349631 -0.35310975 0.060939841
-0.15369131 -0.35317144 0.060925167
-0.15387988 -0.35322481 0.060955487
-0.15403767 -0.35327902 0.060913309
-0.15424177 -0.35334891 0.060860544
-0.15443057 -0.35341167 0.060825154
-0.15464373 -0.35347289 0.06085306
-0.15481015 -0.35351732 0.060898468
-0.15498 -0.3535715 0.060882755
-0.15520096 -0.35365555 0.060766511
-0.15541491 -0.35371962 0.060775977
-0.15560809 -0.3537783 0.060778607
-0.15580036 -0.35384426 0.060728207
-0.15598957 -0.35390091 0.060736611
-0.15617619 -0.35395956 0.060725443
-0.15637593 -0.3540304 0.06065657
-0.15654097 -0.35408145 0.06065239
-0.15672386 -0.35413912 0.060640082
-0.15691048 -0.35418728 0.060702696
-0.15709545 -0.35425296 0.060638495
-0.15728933 -0.35430402 0.06069646
-0.15748873 -0.35437655 0.060614899
-0.15769574 -0.35444143 0.060603634
-0.15786961 -0.35449013 0.060635179
-0.15806051 -0.35455614 0.060581326
-0.15823515 -0.35460833 0.060589798
-0.15843883 -0.35467419 0.060564708
-0.15862499 -0.35473496 0.060537398
-0.15883502 -0.35480079 0.060526118
-0.15900685 -0.35485637 0.06050463
-0.15917717 -0.35492212 0.060408212
-0.15937681 -0.35498706 0.060380839
-0.15955897 -0.35504696 0.06035123
-0.15974845 -0.35509109 0.06044843
-0.1599419 -0.35516018 0.060378417
-0.16013105 -0.35522386 0.06033726
-0.16033438 -0.35529464 0.060276434
-0.16052216 -0.3553499 0.060291775
-0.16071309 -0.3554033 0.060326695
-0.16089833 -0.35546562 0.060286704
-0.16109625 -0.3555212 0.060321592
-0.16127764 -0.35558054 0.060294293
-0.16146512 -0.35563257 0.060331538
-0.16165031 -0.35569847 0.060266186
-0.16184236 -0.35576776 0.060191572
-0.16205058 -0.35582551 0.060233347
-0.16224888 -0.35588905 0.060212892
-0.16242577 -0.35593456 0.060273238
-0.16262428 -0.35600603 0.060197443
-0.16278756 -0.35605571 0.060199056
-0.16299261 -0.35612541 0.060149752
-0.16314536 -0.35616761 0.060181379
-0.16335717 -0.35624084 0.060121678
-0.16352376 -0.35629058 0.060130179
-0.16371451 -0.35635558 0.060083248
-0.16388443 -0.35640991 0.060066387
-0.16407505 -0.35647175 0.060041357
-0.16427577 -0.35654125 0.059983999
-0.16447026 -0.35659283 0.060039658
-0.16464335 -0.35664928 0.060014702
-0.16482732 -0.35670123 0.060045049
-0.16502394 -0.35677293 0.059963498
-0.1652254 -0.35682794 0.060009908
-0.16540286 -0.35687414 0.060066793
-0.16558112 -0.35694674 0.059939206
-0.1657632 -0.35701463 0.059853114
-0.16597158 -0.35707191 0.059898332
-0.1661575 -0.35713574 0.059849121
-0.16633816 -0.35718536 0.059888694
-0.16653806 -0.35725152 0.059853248
-0.16670762 -0.35730281 0.05985713
-0.1668894 -0.35736734 0.059794098
-0.16709575 -0.35741699 0.059888907
-0.16727573 -0.35747129 0.059893902
-0.16745028 -0.35753411 0.059827436
-0.1676361 -0.35759512 0.05979782
-0.16781557 -0.35765108 0.059790134
-0.16799562 -0.35772014 0.059691362
-0.16818495 -0.35778061 0.059673253
-0.16838051 -0.35784557 0.059636675
-0.16857435 -0.35790268 0.059651986
-0.16877052 -0.3579649 0.059636161
-0.16894682 -0.35801777 0.059643473
-0.16913114 -0.358069 0.059679575
-0.1693259 -0.3581357 0.059629172
-0.16950609 -0.3581883 0.059646845
-0.1696903 -0.35824031 0.059677187
-0.16989489 -0.358311 0.059619814
-0.17006011 -0.35836276 0.05961103
-0.17024797 -0.35842606 0.05956988
-0.17042907 -0.35849676 0.059461884
-0.17061827 -0.3585557 0.059454158
-0.17081231 -0.35860237 0.059543245
-0.17099571 -0.35866627 0.059488274
-0.17117177 -0.35872871 0.059427574
-0.17136107 -0.35878718 0.059423301
-0.17154667 -0.35883635 0.059476689
-0.17173532 -0.35889643 0.059459746
-0.17191376 -0.35896143 0.059386343
-0.17210333 -0.3590275 0.059329033
-0.17228606 -0.35909101 0.059275217
-0.17248031 -0.3591471 0.059298597
-0.17267953 -0.35920143 0.059345018
-0.17285834 -0.35924917 0.059393831
-0.17304131 -0.3593044 0.059398815
-0.17322735 -0.35936877 0.059346132
-0.17341453 -0.35942367 0.059362624
-0.17360154 -0.35949305 0.059276506
-0.17377946 -0.35954985 0.059259601
-0.1739741 -0.35961947 0.059188437
-0.17416337 -0.35968414 0.059140358
-0.17434618 -0.3597261 0.059238724
-0.17453267 -0.35978863 0.059199877
-0.17471714 -0.35985413 0.059135675
-0.1749073 -0.35991076 0.059146397
-0.17508563 -0.35996032 0.059181374
-0.17526659 -0.36001232 0.059204809
-0.17545666 -0.36008134 0.059127897
-0.17564099 -0.36013457 0.059150171
-0.17582263 -0.3601974 0.059098661
-0.1760073 -0.36026168 0.059043683
-0.17619564 -0.36032084 0.0590325
-0.17638002 -0.36038518 0.058976367
-0.17657806 -0.36044276 0.05899743
-0.17675437 -0.36050084 0.058967844
-0.17695175 -0.36055934 0.05898083
-0.17712478 -0.36061612 0.058953576
-0.17732356 -0.36068341 0.058907762
-0.17750703 -0.3607226 0.059026875
-0.17768461 -0.36078927 0.058939651
-0.17787981 -0.36085546 0.058893848
-0.17806664 -0.36089161 0.059041776
-0.17824116 -0.36096618 0.058892302
-0.1784209 -0.36102498 0.058865018
-0.17861186 -0.36108121 0.058880337
-0.17880102 -0.36113474 0.058910653
-0.17897469 -0.36120448 0.058793467
-0.17916854 -0.36125779 0.05883529
-0.17936179 -0.36131194 0.058870211
-0.17953636 -0.36137131 0.058827959
-0.17971621 -0.36143869 0.058740713
-0.17990281 -0.36150369 0.058684573
-0.18008469 -0.36156008 0.058679186
-0.18026064 -0.36161348 0.05868189
-0.18045363 -0.36166394 0.058742173
-0.18063839 -0.36173463 0.058642223
-0.18081585 -0.36179504 0.058598801
-0.18100809 -0.3618505 0.058622189
-0.1811935 -0.36190796 0.058616787
-0.18137001 -0.36195302 0.058679447
-0.18156059 -0.3620142 0.058659025
-0.18173867 -0.36207792 0.058593698
-0.18191737 -0.36214101 0.05853413
-0.18210752 -0.36220238 0.058511414
-0.18228485 -0.36226633 0.058442634
-0.18247652 -0.36231884 0.05848562
-0.18266037 -0.36237386 0.058494061
-0.18286122 -0.36243442 0.058500115
-0.18303882 -0.36249062 0.05848667
-0.18322119 -0.36255419 0.058431704
-0.18340941 -0.36260614 0.058471255
-0.18355422 -0.36270055 0.058117833
-0.18372363 -0.36276227 0.058047928
-0.18391731 -0.36280313 0.058177382
-0.1841176 -0.36284664 0.058302194
-0.18429795 -0.3629078 0.058259912
-0.18448037 -0.36296743 0.05823262
-0.18467727 -0.36301729 0.058305562
-0.18487249 -0.36307186 0.058341622
-0.18505269 -0.36313313 0.058298185
-0.18523368 -0.36319381 0.058260519
-0.1854272 -0.36324641 0.058306966
-0.18562315 -0.36330086 0.058345325
-0.18633097 -0.36344281 0.058870334
-0.18699391 -0.36355957 0.059476238
-0.18721616 -0.36359772 0.059686266
-0.18743621 -0.36363769 0.059879012
-0.18765378 -0.36367947 0.060053334
-0.18787055 -0.36372218 0.060219582
-0.1880895 -0.36376408 0.060396187
-0.11600548 -0.3412005 0.064084373
-0.11622784 -0.34127057 0.064069614
-0.1164443 -0.34133625 0.064073324
-0.11666463 -0.34140307 0.064077027
-0.11688909 -0.34147513 0.064053029
-0.1171263 -0.3415553 0.063999005
-0.11732879 -0.34161046 0.064046599
-0.1175597 -0.34168792 0.063998356
-0.1177831 -0.34175962 0.063974373
-0.1180031 -0.34182686 0.063974619
-0.11824022 -0.34190965 0.06390214
-0.1184348 -0.34195697 0.063987814
-0.11863347 -0.34200951 0.064045794
-0.11887546 -0.3420946 0.063967533
-0.11910407 -0.34217116 0.063920461
-0.11936275 -0.34227005 0.063781023
-0.11956266 -0.34232393 0.063832082
-0.11979102 -0.34239879 0.063796535
-0.12003201 -0.34248602 0.063700989
-0.12024085 -0.34254739 0.063718572
-0.12042377 -0.34258774 0.063828506
-0.12067007 -0.34267774 0.063724868
-0.12089981 -0.34275645 0.063665107
-0.12113506 -0.34283784 0.063598394
-0.12129781 -0.34286171 0.06378106
-0.12155399 -0.34296063 0.063635863
-0.12177881 -0.34303588 0.06358996
-0.12198702 -0.34309542 0.063619077
-0.12220854 -0.3431682 0.063583568
-0.122426 -0.34323561 0.063576899
-0.12264822 -0.34330925 0.063536778
-0.12286797 -0.34337887 0.063519716
-0.12309419 -0.34345618 0.06346228
-0.12329447 -0.34350953 0.06351795
-0.12352287 -0.34358898 0.063450128
-0.1237414 -0.34365806 0.063434228
-0.12393566 -0.34370857 0.063496836
-0.12419455 -0.34381258 0.06332165
-0.12438467 -0.3438597 0.06339927
-0.12459788 -0.34392682 0.063385703
-0.12481564 -0.34399581 0.063368656
-0.12503333 -0.3440671 0.063335471
-0.12526296 -0.34414676 0.063268796
-0.12545243 -0.34419352 0.063347563
-0.1256634 -0.344257 0.06335476
-0.12589151 -0.344338 0.063275404
-0.12610376 -0.34440285 0.063275672
-0.12633902 -0.34449065 0.063164011
-0.12653305 -0.34453943 0.063238144
-0.12673482 -0.34459749 0.063263834
-0.12696147 -0.34467575 0.063200623
-0.12717277 -0.34474263 0.063184761
-0.12738742 -0.34481034 0.063170031
-0.12757596 -0.34485665 0.063249968
-0.12780535 -0.34493804 0.063170604
